# .PCD v0.7 - Point Cloud Data file format
VERSION 0.7
FIELDS x y z intensity ring
SIZE 4 4 4 4 2
TYPE F F F F U
COUNT 1 1 1 1 1
WIDTH 1334
HEIGHT 1
VIEWPOINT 0 0 0 1 0 0 0
POINTS 1334
DATA ascii
6.3021917 2.3902059 -1.8060393 9 0
7.3754787 2.7928505 -1.8207539 14 1
9.037487 3.4149864 -1.8779422 10 2
11.488534 4.3342824 -1.9447935 11 3
13.858268 5.2200251 -1.8182908 9 4
14.429468 5.4236817 -1.348648 26 5
24.037836 9.0208702 -1.3455576 11 6
6.3042378 2.3407671 -1.8018982 9 0
7.3984523 2.7426429 -1.8216537 12 1
9.0279646 3.3395493 -1.8710731 10 2
11.470331 4.2361836 -1.9366589 18 3
13.795657 5.0867581 -1.8053726 11 4
14.71006 5.4122486 -1.3713084 27 5
19.570772 7.1890111 -1.0926702 9 6
6.3163929 2.2964842 -1.8008629 9 0
7.4169483 2.6922231 -1.8216537 13 1
9.0394135 3.2740049 -1.8687835 10 2
11.290845 4.0827703 -1.9016175 17 3
14.981071 5.4053335 -1.9555157 15 4
14.990242 5.3997741 -1.3939689 28 5
19.514006 7.0177798 -1.0868086 19 6
6.3290243 2.2499323 -1.7998277 7 0
7.4250045 2.635169 -1.8189542 14 1
9.0583477 3.209511 -1.8680203 10 2
11.293697 3.9926524 -1.8972374 17 3
15.097062 5.3283625 -1.9657527 15 4
15.298172 5.3903365 -1.4190699 28 5
20.07246 7.0568166 -1.11507 19 6
6.3482265 2.2069612 -1.8008629 7 0
7.4321742 2.5794349 -1.8162549 14 1
9.0699511 3.1407545 -1.8657305 10 2
11.358634 3.9266238 -1.9034947 17 3
15.14515 5.226728 -1.9672151 13 4
20.404552 7.0139003 -1.1307708 20 6
6.3451872 2.1563752 -1.7956866 7 0
7.453692 2.5287378 -1.8171545 14 1
9.0874004 3.0776846 -1.8649671 9 2
11.437498 3.8669267 -1.9122552 14 3
14.496598 4.8899174 -1.8784941 3 4
15.904416 5.3555222 -1.4682256 30 5
15.836294 5.3233533 -0.87558067 44 6
6.3615527 2.1137412 -1.7962043 6 0
7.4596338 2.4742622 -1.8144552 14 1
9.0937538 3.0092335 -1.8619143 10 2
11.45671 3.7845104 -1.9110037 14 3
15.279874 5.0385494 -1.9755023 15 4
16.009552 5.2667732 -1.4745009 30 5
20.869343 6.8534141 -1.1511818 20 6
6.3596168 2.0639107 -1.7915455 7 0
7.4767256 2.4221239 -1.8144552 14 1
9.1257496 2.9492962 -1.8642039 7 2
11.535491 3.721417 -1.9197639 16 3
15.333573 4.9378381 -1.9779397 16 4
27.997311 8.9781799 -1.5408753 11 6
6.3886027 2.0241327 -1.7956866 7 0
7.4823041 2.3663456 -1.8117559 14 1
9.1199055 2.8772449 -1.8588613 10 2
11.489593 3.6182463 -1.9078751 15 3
15.598707 4.9032927 -2.0076756 15 4
16.973585 5.3126955 -0.93210351 18 6
6.4173446 1.9840446 -1.7998277 7 0
7.4949183 2.3128984 -1.810856 14 1
9.1435213 2.8146656 -1.8596245 10 2
11.605207 3.5658 -1.9228927 10 3
14.486257 4.4427276 -1.8604575 2 4
17.329262 5.2914748 -0.94958371 18 6
6.4106936 1.9330596 -1.7941337 6 0
7.4996862 2.257148 -1.8081565 14 1
9.166708 2.7518919 -1.8603877 9 2
11.639282 3.4875228 -1.9244571 9 3
15.69988 4.6952586 -2.012063 17 4
17.68737 5.2661214 -0.96716857 18 6
6.4499798 1.8958877 -1.8013806 6 0
7.5190005 2.2058363 -1.8090565 13 1
9.1588507 2.6817091 -1.8550451 9 2
11.655165 3.4060047 -1.9232055 9 3
15.827567 4.6133132 -2.02425 20 4
18.041203 5.2380385 -0.9845441 18 6
6.455307 1.8498113 -1.79931 6 0
7.5375886 2.1556764 -1.8099562 13 1
9.1660204 2.6144717 -1.8527553 9 2
11.67106 3.3223901 -1.921954 9 3
15.801314 4.4892035 -2.0169377 20 4
18.227125 5.1680722 -1.6575279 36 5
18.196486 5.1456642 -0.99103373 37 6
6.4848104 1.8093723 -1.8039688 7 0
7.537436 2.0988197 -1.806357 13 1
9.1609058 2.545712 -1.8481761 9 2
11.701017 3.2449818 -1.9232055 9 3
15.897319 4.3967714 -2.0252249 18 4
18.820311 5.1839733 -1.0230633 19 6
6.4913836 1.7636701 -1.8024158 6 0
7.5477858 2.0464454 -1.8054571 13 1
9.1632929 2.4775953 -1.8451231 9 2
11.692873 3.1549809 -1.9181997 9 3
16.038809 4.3155961 -2.0393617 18 4
19.257317 5.1599779 -1.0448351 19 6
6.5262523 1.7230917 -1.8086276 6 0
7.5660052 1.9933753 -1.806357 14 1
9.1917591 2.416558 -1.8474127 10 2
11.711328 3.070226 -1.9175739 9 3
16.210661 4.240696 -2.0573983 13 4
19.680319 5.1226654 -1.0657694 19 6
6.5287657 1.6750904 -1.8060393 7 0
7.5646334 1.9366431 -1.8027576 12 1
9.2050123 2.3497503 -1.8466495 10 2
11.719077 2.9849777 -1.9153838 8 3
16.18985 4.1147075 -2.0510612 20 4
20.137718 5.0918899 -1.088588 19 6
6.5440502 1.6304044 -1.8070747 5 0
7.5930991 1.8875458 -1.806357 12 1
9.1868896 2.2769332 -1.8397803 9 2
11.728124 2.9002507 -1.9135066 8 3
16.117962 3.976861 -2.0383868 21 4
20.486664 5.0395918 -1.8457843 36 5
20.419115 5.0116391 -1.1018813 49 6
6.5590296 1.5855832 -1.80811 5 0
7.6174588 1.8372278 -1.8090565 12 1
9.2101984 2.2145772 -1.8413069 9 2
11.71351 2.8100078 -1.9078751 8 3
15.975442 3.8235779 -2.0169377 17 4
27.763044 6.6089711 -1.4956571 11 6
6.539844 1.5327041 -1.7998277 4 0
7.622508 1.782232 -1.8072568 14 1
9.2365313 2.1545098 -1.8435967 9 2
11.757377 2.7360315 -1.9119422 9 3
16.052025 3.7236104 -2.0232751 20 4
28.535217 6.587873 -1.5348045 11 6
6.4936099 1.4753132 -1.7842987 4 0
7.6458664 1.7328904 -1.8099562 14 1
9.2551756 2.0908391 -1.8443599 7 2
11.754994 2.649106 -1.9085008 8 3
16.049883 3.6081731 -2.0198627 17 4
29.406958 6.5732312 -1.5791854 11 6
21.992321 4.9078159 5.2022181 6 14
6.488657 1.4266247 -1.7801574 3 0
7.6730061 1.6828059 -1.8135554 14 1
9.2388601 2.0194674 -1.838254 9 2
11.761622 2.564451 -1.9066235 8 3
15.950539 3.4690366 -2.0042634 17 4
22.6723 4.9019327 -1.2156597 41 6
6.4833412 1.3780773 -1.7760164 3 0
7.6960049 1.631626 -1.8162549 14 1
9.2527351 1.9549143 -1.838254 7 2
11.775373 2.4814568 -1.9059978 8 3
15.993795 3.3616714 -2.0067008 21 4
30.664986 6.4062581 -1.6417791 10 6
6.4890199 1.3320045 -1.774981 4 0
7.7263002 1.5817666 -1.8207539 14 1
9.2507668 1.8871351 -1.8352009 7 2
11.763373 2.3932867 -1.9013047 9 3
16.036325 3.2538867 -2.0091381 18 4
31.582167 6.3680739 -1.6884627 9 6
6.4981599 1.2866732 -1.774981 3 0
7.737154 1.527792 -1.8207539 12 1
9.2926111 1.8281915 -1.8409253 6 2
11.793364 2.3137667 -1.9034947 8 3
16.183334 3.1662467 -2.0247374 7 4
32.810032 6.3776302 -1.7516847 7 6
6.4993939 1.2398282 -1.7729106 4 0
7.7438025 1.4730109 -1.819854 10 1
9.3070774 1.7636378 -1.8413069 7 2
11.793701 2.2284429 -1.9009918 8 3
16.154325 3.0436323 -2.0184002 8 4
25.07958 4.6935191 -1.3371838 22 6
6.5038824 1.1948581 -1.7718753 3 0
7.7172298 1.4135913 -1.8113058 6 1
9.2841005 1.6939026 -1.8344377 9 2
11.793049 2.1452858 -1.8984889 8 3
16.167364 2.9293718 -2.0174253 8 4
34.455559 6.205761 -1.8347942 6 6
6.5122662 1.1482868 -1.7718753 3 0
7.6599717 1.3465232 -1.7955593 7 1
9.3343763 1.635824 -1.8420701 9 2
11.823666 2.0635588 -1.9009918 8 3
16.17569 2.8143818 -2.0159631 8 4
35.168247 6.0746284 -1.8703827 5 6
6.5239339 1.1034422 -1.7729106 3 0
7.6230664 1.2852418 -1.7847617 7 1
9.3458433 1.5689868 -1.8420701 9 2
11.833888 1.9803118 -1.9003662 8 3
16.191027 2.7007322 -2.0154753 8 4
6.5162215 1.0553987 -1.7687694 3 0
7.6395483 1.2332337 -1.7865613 7 1
9.3873196 1.5103294 -1.8481761 10 2
11.841241 1.8987824 -1.8994274 9 3
16.185963 2.5838842 -2.0125504 8 4
6.5118008 1.0092443 -1.7656636 4 0
7.632359 1.1788245 -1.7829621 7 1
9.4480858 1.4525131 -1.8580981 7 2
11.834682 1.8130772 -1.8962989 9 3
16.187479 2.4712455 -2.0106006 8 4
29.629156 4.4862871 -1.5704975 48 6
6.5301542 0.96545404 -1.7687694 4 0
7.6326904 1.1243759 -1.7811624 6 1
9.465766 1.3876566 -1.8596245 7 2
11.85878 1.7321244 -1.8981761 9 3
16.172905 2.3536091 -2.0067008 8 4
30.871525 4.4541626 -1.6346614 21 6
6.5405612 0.92037988 -1.7698047 3 0
7.6480737 1.0721444 -1.7829621 7 1
9.4032793 1.3115052 -1.8455048 6 2
11.87254 1.649564 -1.8984889 8 3
16.185009 2.2400992 -2.0062132 8 4
31.940701 4.3810177 -1.6896142 18 6
6.5544858 0.87572211 -1.7718753 3 0
7.647645 1.0177002 -1.7811624 7 1
9.3888512 1.2427344 -1.8409253 4 2
11.868099 1.5645727 -1.895986 8 3
16.253395 2.1340294 -2.0127943 10 4
33.160839 4.3127308 -1.7525219 7 6
6.5412745 0.82751733 -1.7666988 7 0
7.6545639 0.96428102 -1.7811624 7 1
9.3485975 1.1710616 -1.8313849 4 2
11.892453 1.4833966 -1.8981761 9 3
16.254107 2.0188024 -2.0110881 8 4
34.248703 4.2112823 -1.8084167 19 6
6.5584016 0.78320175 -1.7698047 9 0
7.6572394 0.91035849 -1.7802627 7 1
9.3154097 1.1025501 -1.8233709 4 2
11.947396 1.4077235 -1.905372 8 3
16.206686 1.8981119 -2.0035322 10 4
6.56742 0.73897707 -1.77084 4 0
7.6671309 0.85865355 -1.7811624 6 1
9.3014154 1.0351053 -1.8191731 4 2
12.017797 1.3310275 -1.9150709 9 3
16.223175 1.788195 -2.0040195 10 4
6.5378375 0.6894629 -1.7615224 4 0
7.676815 0.80551267 -1.7820623 6 1
9.3141041 0.97238016 -1.820318 4 2
12.093383 1.256127 -1.9257084 9 3
16.23329 1.6746887 -2.0037761 8 4
38.780872 3.959748 -2.0429866 2 6
6.5923648 0.64987278 -1.774981 3 0
7.6627259 0.75133783 -1.7775632 6 1
9.3187103 0.90714133 -1.8199363 4 2
11.952427 1.1572069 -1.9019306 6 3
16.26012 1.5656754 -2.0057259 8 4
6.5813508 0.6024248 -1.77084 3 0
7.6755476 0.69853008 -1.7793628 7 1
9.3188038 0.84315908 -1.8187915 4 2
11.863623 1.0671506 -1.8865999 4 3
16.288448 1.4537083 -2.0079193 10 4
42.677555 3.7638371 -2.2453172 0 6
6.592999 0.55826491 -1.7729106 3 0
7.6801243 0.64626801 -1.7793628 6 1
9.3244629 0.77808547 -1.8187915 4 2
11.874721 0.98463309 -1.8872255 4 3
16.300179 1.3401207 -2.0081632 8 4
6.5698595 0.50898629 -1.7656636 3 0
7.7000961 0.59248984 -1.7829621 7 1
9.310092 0.71146905 -1.8149751 4 2
11.846007 0.89694977 -1.8815941 4 3
16.358625 1.23002 -2.0142565 10 4
6.5925241 0.46446216 -1.77084 3 0
7.7001572 0.53844672 -1.7820623 6 1
9.3208208 0.64524066 -1.8161201 22 2
11.836215 0.81314409 -1.8790911 4 3
16.481684 1.1236086 -2.0283935 10 4
49.495136 3.3134985 -2.5997367 0 6
6.6033177 0.41891879 -1.7729106 3 0
7.7153978 0.48541421 -1.7847617 6 1
9.334795 0.58239198 -1.8180283 4 2
11.811901 0.73072326 -1.874398 3 3
16.415815 1.0040336 -2.0193753 8 4
50.062805 3.0093551 -2.6284168 0 6
6.5905852 0.37308812 -1.7687694 3 0
7.6951742 0.43157634 -1.7793628 6 1
9.3249111 0.51644868 -1.815357 4 2
11.826577 0.64878953 -1.8759624 3 3
16.18639 0.87946284 -1.9903703 6 4
6.5814528 0.32649374 -1.7656636 3 0
7.7018929 0.37803078 -1.7802627 6 1
9.359664 0.45285395 -1.8214628 4 2
11.817006 0.56554765 -1.8737723 21 3
16.128683 0.76343566 -1.9825708 5 4
6.6009426 0.28127879 -1.7703223 2 0
7.7023973 0.32417396 -1.7798127 5 1
9.3233662 0.38587201 -1.8138304 4 2
11.810798 0.48262671 -1.8722079 24 3
16.117754 0.65016985 -1.9806207 5 4
6.6027455 0.23518868 -1.7703223 2 0
7.7005777 0.27025649 -1.7789129 4 1
9.319891 0.32220176 -1.8126855 3 2
11.861191 0.4038406 -1.8797168 5 3
16.117931 0.53750628 -1.9801333 5 4
6.637022 0.19118533 -1.7791222 3 0
7.6983428 0.21772376 -1.7780131 4 1
65.909813 1.841031 3.455534 14 9
9.3297625 0.25734532 -1.814212 3 2
66.014954 1.8093779 5.7777281 15 10
11.849899 0.32065004 -1.8775268 3 3
16.127169 0.42794031 -1.9808645 3 4
6.6304684 0.14467694 -1.7770516 3 0
7.6879854 0.16372493 -1.7753137 4 1
9.3195219 0.1935889 -1.8119223 3 2
11.871557 0.24038266 -1.8806553 3 3
16.080145 0.31437093 -1.974771 18 4
6.6042743 0.097982801 -1.7698047 3 0
7.7103753 0.11035547 -1.7802627 3 1
9.3167419 0.12684156 -1.8111591 3 2
11.84532 0.1550636 -1.8762752 2 3
16.111723 0.20247687 -1.9784272 3 4
6.6202517 0.051998425 -1.7739457 3 0
7.6856251 0.056342173 -1.7744139 4 1
9.3095474 0.061743252 -1.8096325 3 2
11.873769 0.07253284 -1.8806553 3 3
16.132595 0.090101786 -1.9808645 3 4
6.5934076 0.005755479 -1.7666988 3 0
7.6975236 0.0026891052 -1.7771133 3 1
9.301899 -0.0032469756 -1.8081062 3 2
11.850282 -0.010341323 -1.8769009 2 3
16.150692 -0.025369467 -1.9830582 2 4
6.6125975 -0.041548721 -1.7718753 3 0
7.6992941 -0.052408241 -1.7775632 3 1
9.3055763 -0.068214655 -1.8088694 3 2
11.845952 -0.095107436 -1.8762752 2 3
16.134239 -0.1379852 -1.9811082 2 4
25.067213 -0.22750904 -2.193187 28 5
6.6198735 -0.087814473 -1.7739457 3 0
7.685101 -0.10596966 -1.7744139 4 1
9.3284063 -0.13514291 -1.8134488 3 2
11.84105 -0.17774551 -1.8756495 2 3
16.144794 -0.25080422 -1.9825708 2 4
6.6152368 -0.13394918 -1.7729106 3 0
7.6978121 -0.15990205 -1.7775632 3 1
9.3036814 -0.19975795 -1.8088694 3 2
11.867168 -0.26101473 -1.8800297 3 3
16.112879 -0.36283875 -1.9789146 2 4
6.6180019 -0.18023378 -1.7739457 3 0
7.6926117 -0.21353044 -1.7766634 3 1
9.3295345 -0.2654863 -1.814212 3 2
11.841363 -0.34316951 -1.8762752 2 3
16.105986 -0.47520101 -1.9784272 2 4
6.6011367 -0.22590278 -1.7698047 3 0
7.694829 -0.26736471 -1.7775632 3 1
9.3235874 -0.32884541 -1.8134488 3 2
11.850597 -0.4241865 -1.8781524 2 3
16.108229 -0.58784676 -1.9791584 2 4
6.6110277 -0.27130502 -1.7729106 3 0
7.6869898 -0.3194924 -1.7762135 4 1
9.3446026 -0.39492252 -1.8180283 3 2
11.819717 -0.5057261 -1.8737723 2 3
16.107821 -0.6976493 -1.9796458 2 4
6.6282682 -0.31837857 -1.7780869 3 0
7.7079291 -0.37428367 -1.7816124 5 1
9.3102436 -0.45860457 -1.8119223 3 2
11.827737 -0.58881956 -1.8756495 2 3
16.094625 -0.80968606 -1.9786707 2 4
6.6104527 -0.36379522 -1.7739457 4 0
7.7148566 -0.42862609 -1.7838619 6 1
9.3185759 -0.5242523 -1.814212 3 2
11.803616 -0.67025781 -1.8725207 3 3
16.106419 -0.92304951 -1.9808645 3 4
6.5923271 -0.4089787 -1.7698047 4 0
7.6941724 -0.48137993 -1.7798127 4 1
9.3343859 -0.58890539 -1.8180283 3 2
11.822436 -0.75209123 -1.8762752 3 3
16.103544 -1.0357248 -1.981352 3 4
6.5816817 -0.45331049 -1.7677342 4 0
7.7198782 -0.53576475 -1.7865613 6 1
9.3182964 -0.65323299 -1.8157386 3 2
11.832662 -0.83572191 -1.8787781 3 3
16.10008 -1.1455951 -1.9818394 3 4
6.5976195 -0.50070977 -1.7729106 3 0
7.7120633 -0.58934915 -1.7856615 3 1
9.3252535 -0.71917641 -1.8180283 3 2
11.818662 -0.91769665 -1.8775268 3 3
16.09169 -1.257966 -1.9818394 3 4
6.6112905 -0.54819399 -1.7775693 2 0
7.6980519 -0.64236456 -1.783412 3 1
9.345438 -0.78640097 -1.8229893 4 2
11.835587 -1.0021836 -1.8812811 2 3
16.090425 -1.3709496 -1.9828143 3 4
6.6207709 -0.59554732 -1.7811928 3 0
7.6972613 -0.69644219 -1.7843118 4 1
9.3358088 -0.85126811 -1.8222259 4 2
11.840103 -1.0858688 -1.8831582 3 3
16.068604 -1.4821538 -1.981352 3 4
6.6087604 -0.6410082 -1.7791222 3 0
7.7038488 -0.75129664 -1.7870111 5 1
9.3569927 -0.91910994 -1.8275685 4 2
11.851893 -1.1704426 -1.886287 3 3
16.08157 -1.5966504 -1.9842769 3 4
6.6002812 -0.68673015 -1.7780869 4 0
7.7119832 -0.80647963 -1.7901604 6 1
9.3386326 -0.98317778 -1.8252789 4 2
11.804145 -1.2489982 -1.8800297 3 3
16.050293 -1.706782 -1.9818394 3 4
6.5953259 -0.7327916 -1.7780869 4 0
7.6964817 -0.85921842 -1.7879109 5 1
9.3354445 -1.0487877 -1.8260422 4 2
11.822618 -1.3344774 -1.8844098 2 3
16.04982 -1.8201338 -1.9833018 3 4
6.6053972 -0.7806313 -1.782228 4 0
7.6941657 -0.91338801 -1.7888107 5 1
9.3339367 -1.1130046 -1.8271869 3 2
11.817183 -1.4153895 -1.8850355 3 3
16.062344 -1.9352243 -1.9864705 2 4
6.5730944 -0.8222174 -1.774981 4 0
7.7013054 -0.96743917 -1.7919601 6 1
9.3337307 -1.1791242 -1.8287135 3 2
11.795256 -1.4963623 -1.8831582 3 3
16.064552 -2.0465186 -1.9884202 2 4
6.6054978 -0.87314916 -1.7853339 3 0
7.686636 -1.020155 -1.7901604 6 1
9.3408394 -1.2463341 -1.8317665 3 2
11.804102 -1.5812944 -1.886287 3 3
16.069546 -2.1612651 -1.9908577 2 4
6.572454 -0.91551119 -1.7780869 4 0
7.6947665 -1.0759513 -1.7937597 6 1
9.328023 -1.3109682 -1.8310033 3 2
11.82407 -1.6680784 -1.8912928 3 3
16.054066 -2.2733982 -1.9908577 2 4
6.5964861 -0.96585089 -1.7863692 3 0
7.6832118 -1.1290776 -1.7928599 3 1
9.361371 -1.382367 -1.8393987 3 2
11.804321 -1.7494264 -1.8900415 3 3
16.061367 -2.3889251 -1.9937826 2 4
6.5783014 -1.0089717 -1.7832633 3 0
7.684979 -1.1828314 -1.7951094 1 1
9.3090611 -1.4394553 -1.8310033 3 2
11.788237 -1.8291292 -1.8894157 3 3
16.054543 -2.499722 -1.9950013 2 4
6.5787272 -1.0560968 -1.7853339 2 0
7.7073169 -1.2414114 -1.8023077 2 1
9.318429 -1.5059181 -1.8348193 3 2
11.771612 -1.9086936 -1.8887899 3 3
16.062168 -2.6158903 -1.9981698 2 4
6.5942502 -1.1046822 -1.7915455 2 0
7.671783 -1.2893227 -1.7960092 2 1
9.3193035 -1.5728964 -1.8371091 3 2
11.793058 -1.9967637 -1.8944216 3 3
16.053301 -2.7296245 -1.9993886 3 4
6.5557284 -1.1465161 -1.7832633 2 0
7.6508441 -1.3421671 -1.7933098 3 1
9.2810259 -1.633155 -1.8317665 3 2
11.774577 -2.0804136 -1.893796 3 3
16.076855 -2.8492513 -2.004751 3 4
6.5323606 -1.1894867 -1.7791222 2 0
7.637454 -1.3948467 -1.79241 3 1
9.3077221 -1.7066075 -1.8393987 3 2
11.763653 -2.1632793 -1.8944216 3 3
16.033146 -2.957098 -2.001826 3 4
6.5656552 -1.2429671 -1.7905102 3 0
7.6447606 -1.4514031 -1.7964592 3 1
9.2804623 -1.7669857 -1.8363459 3 2
11.760297 -2.2455239 -1.8962989 3 3
16.004313 -3.0674629 -2.0008512 3 4
6.5418777 -1.2846512 -1.7863692 3 0
7.632792 -1.5030288 -1.7960092 3 1
9.2486401 -1.8279252 -1.8325297 3 2
11.736583 -2.3260348 -1.8950473 3 3
15.97917 -3.1755552 -2.0003636 3 4
6.5346427 -1.3306758 -1.7868867 2 0
7.6278405 -1.5574481 -1.7973589 3 1
9.2590647 -1.8955611 -1.8371091 3 2
11.735958 -2.4090462 -1.8975502 3 3
15.968275 -3.2894351 -2.001826 3 4
6.5537891 -1.3810999 -1.7946514 3 0
7.6246896 -1.610944 -1.7991585 3 1
9.2340822 -1.9577118 -1.8348193 3 2
11.722719 -2.4917409 -1.8981761 4 3
15.995993 -3.4088078 -2.0081632 3 4
6.5326629 -1.4243507 -1.7915455 3 0
7.6094499 -1.6633027 -1.7982588 3 1
9.2163544 -2.0212886 -1.8340561 3 2
11.69732 -2.5718224 -1.8969245 4 3
16.0319 -3.5336428 -2.0157192 5 4
56.366222 -12.496091 -3.0257514 0 6
6.5150213 -1.4682235 -1.789475 3 0
7.5881481 -1.7142385 -1.7960092 4 1
9.2096777 -2.0873168 -1.8355827 3 2
11.675228 -2.6525466 -1.8962989 4 3
16.051357 -3.6556184 -2.0213251 3 4
6.4989676 -1.5123571 -1.787922 2 0
7.5722008 -1.7662864 -1.7951094 4 1
9.191432 -2.1490622 -1.8348193 3 2
11.664595 -2.733758 -1.8975502 4 3
16.048635 -3.7730401 -2.02425 3 4
6.4904013 -1.5570095 -1.7884396 3 0
7.5618968 -1.8182427 -1.7955593 3 1
9.1723881 -2.2122569 -1.8340561 3 2
11.643306 -2.8146613 -1.8972374 4 3
16.024513 -3.882659 -2.0244937 2 4
48.825371 -11.893313 -2.6336503 0 6
6.5021582 -1.6067131 -1.7946514 3 0
7.5588036 -1.8720149 -1.7978089 4 1
9.1761713 -2.2793727 -1.8378724 3 2
11.650714 -2.9005299 -1.9016175 5 3
16.028528 -3.9993327 -2.0283935 2 4
6.4723487 -1.6461723 -1.789475 3 0
7.5477743 -1.9239035 -1.7982588 3 1
9.1832676 -2.3476148 -1.8424517 3 2
11.642181 -2.9827073 -1.9034947 4 3
16.034824 -4.1200261 -2.0327806 2 4
6.4716158 -1.6953822 -1.7925807 3 0
7.548893 -1.9818234 -1.8018579 3 1
9.1453505 -2.4077699 -1.838254 4 2
11.632001 -3.0689638 -1.905372 5 3
16.003014 -4.2341552 -2.0325372 3 4
6.4667797 -1.7436601 -1.7946514 3 0
7.5213494 -2.0322328 -1.7987086 4 1
9.1506252 -2.4793115 -1.8428333 4 2
11.575428 -3.1428049 -1.8997405 4 3
15.992218 -4.3509841 -2.0349743 3 4
6.4600339 -1.7903117 -1.7962043 2 0
7.5276332 -2.0904274 -1.8036577 3 1
9.0933762 -2.5320745 -1.8348193 3 2
11.596967 -3.2357495 -1.9069364 4 3
15.946159 -4.4582486 -2.0330245 3 4
6.4399457 -1.8332515 -1.7941337 2 0
7.510982 -2.1423945 -1.8032078 5 1
9.126442 -2.6100712 -1.8451231 4 2
11.608275 -3.3264272 -1.912568 4 3
15.948991 -4.5793252 -2.0374119 3 4
25.569906 -7.3610396 -2.3279297 24 5
6.4232817 -1.8770822 -1.7930984 2 0
7.5108042 -2.1991589 -1.8068069 5 1
9.1061144 -2.6731687 -1.8447415 4 2
11.618882 -3.4174192 -1.9181997 4 3
15.958524 -4.7029028 -2.0427742 3 4
6.4211235 -1.925208 -1.7962043 2 0
7.4896688 -2.2498584 -1.8054571 6 1
9.1323471 -2.750263 -1.8539003 4 2
11.57583 -3.4927442 -1.9150709 4 3
15.925303 -4.8141985 -2.0427742 3 4
6.4056802 -1.9694208 -1.7956866 3 0
7.4737797 -2.3020909 -1.8054571 6 1
9.1059113 -2.8100448 -1.8523737 4 2
11.581982 -3.5807924 -1.9200768 4 3
15.879929 -4.9217339 -2.0413115 3 4
6.399497 -2.0152979 -1.7977571 3 0
7.4616537 -2.3540823 -1.806357 6 1
9.0579939 -2.8646669 -1.8466495 4 2
11.560469 -3.6627557 -1.9207026 3 3
15.861196 -5.034514 -2.0432615 3 4
39.038479 -12.443755 -2.1473446 0 6
6.4073343 -2.0670428 -1.8039688 3 0
7.4598718 -2.4109108 -1.8099562 7 1
9.0382853 -2.9262564 -1.8466495 4 2
11.554059 -3.7474542 -1.9238312 3 3
15.844542 -5.1512609 -2.0456991 3 4
38.645275 -12.60883 -2.1303875 0 6
6.3780727 -2.1068764 -1.7998277 3 0
7.4428592 -2.4629312 -1.8099562 7 1
9.0245676 -2.9933298 -1.8481761 4 2
11.519449 -3.8275452 -1.9225799 3 3
15.811958 -5.2630038 -2.0461864 3 4
38.580582 -12.893909 -2.1318531 0 6
6.3632088 -2.1513522 -1.7998277 4 0
7.4144082 -2.511081 -1.8072568 7 1
9.0523224 -3.0710876 -1.8580981 4 2
11.504352 -3.9096801 -1.9244571 3 3
15.831203 -5.3924646 -2.0534985 3 4
39.055119 -13.348712 -2.1630452 0 6
6.3374624 -2.1908276 -1.7967219 4 0
7.3971443 -2.561491 -1.8072568 7 1
9.04179 -3.1380713 -1.8603877 4 2
11.495435 -3.9963861 -1.9275857 4 3
15.799755 -5.5020566 -2.0542297 2 4
38.037148 -13.298066 -2.1117561 0 6
6.3147278 -2.2324419 -1.7946514 3 0
7.4011254 -2.6208761 -1.8126557 7 1
9.0276222 -3.2021689 -1.8619143 4 2
11.482857 -4.0798302 -1.9300886 4 3
15.852592 -5.6448541 -2.0661731 2 4
6.3030195 -2.2766855 -1.7956866 4 0
7.3867793 -2.6725185 -1.8135554 8 1
8.9995108 -3.263108 -1.8607695 3 2
11.442954 -4.1558495 -1.9282113 4 3
15.874354 -5.777792 -2.0742164 2 4
6.2901917 -2.3230689 -1.7967219 4 0
7.3857431 -2.7320693 -1.8180546 7 1
9.0041246 -3.3360875 -1.8664937 4 2
11.427738 -4.2431278 -1.9307145 4 3
15.908055 -5.916153 -2.0839658 2 4
6.2738204 -2.3669257 -1.7967219 4 0
7.3555527 -2.7794316 -1.8153551 7 1
8.9873667 -3.4032147 -1.8680203 4 2
11.405225 -4.3256063 -1.9319658 3 3
15.946162 -6.0573788 -2.0944467 3 4
6.2607484 -2.4120564 -1.7977571 4 0
7.3359694 -2.8307149 -1.8153551 7 1
8.9291992 -3.4508638 -1.8607695 3 2
11.379203 -4.4045649 -1.9325917 3 3
15.955306 -6.1886549 -2.1012714 3 4
6.2369938 -2.4517884 -1.7956866 4 0
7.3129044 -2.8791554 -1.8144552 7 1
8.9414158 -3.5275264 -1.8684019 3 2
11.355523 -4.4868016 -1.933843 4 3
15.97188 -6.3204899 -2.1090713 3 4
6.2412405 -2.5039024 -1.8018982 4 0
7.3070927 -2.935951 -1.8180546 7 1
8.9311399 -3.5957286 -1.8714547 3 2
11.33858 -4.571878 -1.9363459 4 3
15.993628 -6.4585977 -2.1178455 3 4
6.2128806 -2.5430224 -1.7987925 4 0
7.3044491 -2.9942837 -1.8225534 7 1
8.8912916 -3.6520245 -1.8684019 3 2
11.324656 -4.6584392 -1.9394747 4 3
16.010555 -6.5958056 -2.1261327 3 4
6.2074547 -2.5915442 -1.8024158 6 0
7.286963 -3.0467083 -1.8234532 7 1
8.8789034 -3.7177677 -1.8710731 4 2
11.287218 -4.7331233 -1.938536 4 3
16.053793 -6.7450962 -2.1380758 20 4
6.1807833 -2.6299548 -1.7998277 4 0
7.2696414 -3.0977662 -1.8243531 7 1
8.8816214 -3.7919972 -1.8771789 4 2
11.272064 -4.8195734 -1.9416648 5 3
15.996559 -6.8495259 -2.1366136 8 4
6.1799951 -2.680728 -1.8050041 9 0
7.2621369 -3.1546531 -1.8279523 6 1
8.8423319 -3.8484256 -1.8745077 3 2
11.245386 -4.9013062 -1.9429164 4 3
16.093899 -7.0245628 -2.1561127 5 4
6.1310925 -2.7105277 -1.7962043 12 0
7.2399364 -3.2052751 -1.8279523 7 1
8.8313999 -3.9172268 -1.8779422 4 2
11.230753 -4.9885139 -1.9463578 3 3
16.120646 -7.1706319 -2.1663496 5 4
6.1173043 -2.7556446 -1.7977571 13 0
7.2280416 -3.2605488 -1.8306518 6 1
8.7669601 -3.9602761 -1.8699282 3 2
11.218135 -5.0746136 -1.9501122 3 3
16.142513 -7.3157759 -2.1760993 5 4
6.1300125 -2.811717 -1.8070747 4 0
7.2074513 -3.3104861 -1.8311015 5 1
8.7676344 -4.0345149 -1.8760341 3 2
11.17167 -5.1478462 -1.948235 3 3
16.202793 -7.4798784 -2.191211 6 4
6.1167359 -2.8587818 -1.8091452 4 0
7.1888728 -3.3644545 -1.8324513 6 1
8.7463646 -4.098958 -1.8775605 3 2
11.18819 -5.2528419 -1.9576212 3 3
16.398088 -7.7093639 -2.2248468 11 4
6.1036072 -2.9047356 -1.8112158 4 0
7.1423402 -3.4036617 -1.8266027 5 1
8.7168093 -4.1614404 -1.8775605 4 2
11.197584 -5.352973 -1.9657558 2 3
16.386843 -7.8442268 -2.2306967 11 4
6.0797024 -2.945591 -1.8101805 4 0
7.1394429 -3.4636481 -1.8320013 4 1
8.6918144 -4.222393 -1.8783239 3 2
11.182203 -5.4394364 -1.9695101 2 3
16.351309 -7.9680014 -2.2333777 9 4
6.066443 -2.9903224 -1.812251 5 0
7.1122074 -3.5104392 -1.8311015 4 1
8.6762037 -4.2899313 -1.8813769 3 2
11.175821 -5.5331464 -1.9751418 3 3
16.266459 -8.064127 -2.2292342 11 4
6.0454187 -3.0326006 -1.812251 4 0
7.0962334 -3.5643795 -1.8333511 6 1
8.6109686 -4.3327494 -1.8737445 3 2
11.17926 -5.6323643 -1.9826506 3 3
16.119375 -8.1318903 -2.2168036 15 4
15.390913 -7.7947497 3.9829834 3 14
6.0206585 -3.0729749 -1.8112158 3 0
7.0815883 -3.619154 -1.8360505 6 1
8.625947 -4.4160199 -1.8836665 3 2
11.160762 -5.721086 -1.9864051 3 3
16.214092 -8.3221827 -2.2377651 13 4
5.9990587 -3.1149318 -1.8112158 4 0
7.0492334 -3.6649086 -1.8342509 6 1
8.6192846 -4.4888277 -1.8890091 4 2
11.173096 -5.826263 -1.9957911 3 3
16.268219 -8.4939756 -2.2533646 9 4
5.9737496 -3.1549325 -1.8101805 4 0
7.0269208 -3.7158537 -1.8351506 7 1
8.5790625 -4.5442972 -1.8871011 4 2
11.163561 -5.920783 -2.0014229 3 3
16.455727 -8.738615 -2.2877316 11 4
15.616474 -8.334918 4.7431178 2 15
5.9651937 -3.2038727 -1.8143215 4 0
7.024837 -3.7777417 -1.8414494 7 1
8.5713272 -4.6171141 -1.8924437 4 2
11.163681 -6.02108 -2.0089316 4 3
16.458944 -8.8881836 -2.2967498 9 4
5.9698091 -3.2602541 -1.8226038 3 0
6.981194 -3.8173425 -1.8369503 7 1
8.5371628 -4.6758966 -1.8920621 4 2
11.119643 -6.0979195 -2.0086186 4 3
16.351252 -8.9780312 -2.2904127 9 4
5.9536591 -3.3056028 -1.8246742 3 0
6.9714069 -3.8754554 -1.8414494 6 1
8.4682903 -4.7153258 -1.8840481 4 2
11.125112 -6.2023335 -2.017379 5 3
16.028175 -8.9468336 -2.2538519 8 4
15.843248 -8.8762779 4.1926374 9 14
5.9405308 -3.3527832 -1.8277801 3 0
6.9221258 -3.911567 -1.8356007 4 1
8.4710445 -4.7946386 -1.8920621 4 2
15.862032 -8.981617 1.5947757 5 10
11.126223 -6.3051715 -2.0255136 4 3
15.827041 -8.9764013 2.2341089 19 11
16.574793 -9.4043169 -2.3398917 11 4
15.746618 -8.9416895 2.8680699 22 12
15.865227 -9.0163651 -1.5965189 34 5
15.768212 -8.9648733 3.5257688 21 13
15.743642 -8.9654541 4.1827402 26 14
5.8968706 -3.3826389 -1.8215685 3 0
15.824802 -9.0849705 0.31850642 29 8
6.923377 -3.9762957 -1.843249 6 1
15.778257 -9.0692368 0.95377058 17 9
8.4441729 -4.8575759 -1.8935887 3 2
15.755773 -9.0672903 1.590418 16 10
11.141846 -6.4171991 -2.0364642 7 3
15.739912 -9.0727968 2.2306967 18 11
15.815713 -9.1201677 -2.2416649 17 4
15.764222 -9.0978107 2.8827748 11 12
15.843303 -9.1508226 -1.6007024 34 5
15.941525 -9.2112646 3.5788136 5 13
15.756192 -9.1115131 -0.9538753 27 6
15.826011 -9.1629505 -0.31920451 35 7
5.8697743 -3.4217784 -1.8205333 3 0
15.805902 -9.221426 0.31941393 30 8
6.887033 -4.0196209 -1.8409994 4 1
8.4032755 -4.9124455 -1.8920621 3 2
15.772209 -9.242403 -2.2445898 15 4
16.022373 -9.3965111 2.9419069 3 12
15.779032 -9.2612057 -1.6007024 34 5
5.8590398 -3.4705498 -1.8246742 3 0
6.8638315 -4.0705862 -1.8423492 6 1
8.3620243 -4.9669805 -1.8905357 3 2
11.066441 -6.5812254 -2.0392799 5 3
16.108097 -9.5871172 2.3016248 3 11
16.747744 -9.9717779 -2.3932703 12 4
5.8445997 -3.5173457 -1.8277801 3 0
6.8385849 -4.1204162 -1.843249 7 1
8.3842945 -5.0597258 -1.9035107 3 2
16.19352 -9.7762661 1.6549132 2 10
11.099691 -6.7063351 -2.0539849 6 3
16.577509 -10.027836 -2.3788898 11 4
5.8199015 -3.5580623 -1.8277801 3 0
6.8129768 -4.1700921 -1.8441486 7 1
8.3295736 -5.1043692 -1.8989313 3 2
11.099248 -6.8096232 -2.0624323 5 3
16.41577 -10.087203 -2.3657279 11 4
5.8152442 -3.6098211 -1.8339919 3 0
6.8009863 -4.2266564 -1.8486477 7 1
8.3270702 -5.1831446 -1.9065636 3 2
11.093349 -6.9130621 -2.0702538 6 3
16.262516 -10.146169 -2.3535409 11 4
5.7539496 -3.6276639 -1.8226038 4 0
6.7647209 -4.2698717 -1.8468481 7 1
8.2973204 -5.2453475 -1.90809 3 2
11.099899 -7.0252013 -2.0805786 5 3
16.14769 -10.231831 -2.3472037 11 4
5.7512608 -3.6823294 -1.8298507 3 0
6.7347469 -4.3169942 -1.8468481 7 1
8.3100615 -5.3349652 -1.9195386 3 2
11.083818 -7.1238837 -2.0868361 5 3
15.987391 -10.28738 -2.3342857 12 4
5.7027383 -3.7076483 -1.8226038 4 0
6.7011786 -4.3617797 -1.8459483 7 1
8.260397 -5.3828306 -1.9164857 3 2
11.162463 -7.2822714 -2.1109269 7 3
15.842061 -10.350967 -2.323561 13 4
18.942465 -12.405046 -1.1866657 20 6
5.6805944 -3.7485077 -1.8236392 4 0
6.684341 -4.415885 -1.8495475 7 1
8.2488136 -5.4577007 -1.9225914 3 2
11.30568 -7.4887433 -2.1478455 9 3
15.74146 -10.438811 -2.3191738 12 4
5.6607065 -3.7923746 -1.8257096 5 0
6.6630607 -4.4689555 -1.852247 7 1
8.2007332 -5.5085859 -1.9203018 3 2
11.299022 -7.5983534 -2.1566057 9 3
15.620446 -10.516303 -2.3121052 11 4
18.100529 -12.204364 -1.9099309 34 5
17.744371 -11.977744 -1.1219784 19 6
5.6277037 -3.8274555 -1.8236392 4 0
6.6349206 -4.5175567 -1.8531467 8 1
8.178297 -5.5767651 -1.924118 3 2
11.30117 -7.7149181 -2.1672435 9 3
15.507317 -10.598215 -2.3062558 11 4
17.581236 -12.047138 -1.1169541 9 6
5.6040254 -3.8688457 -1.8246742 4 0
6.6096334 -4.5681982 -1.8549464 7 1
8.1982679 -5.6725168 -1.9378562 3 2
11.301982 -7.8287826 -2.177568 8 3
15.317145 -10.625882 -2.2889502 12 4
19.289543 -13.411573 -1.2312558 10 6
5.5902195 -3.9157679 -1.8288155 4 0
6.5720029 -4.6086073 -1.8531467 7 1
8.1761398 -5.7420249 -1.942054 4 2
11.282603 -7.9324884 -2.1844511 8 3
15.125725 -10.650269 -2.2714009 12 4
17.598894 -12.405456 -1.8837842 35 5
18.607977 -13.131346 -1.193574 10 6
5.5683532 -3.9601486 -1.830886 4 0
6.5547323 -4.66682 -1.8576458 7 1
8.1774206 -5.8285918 -1.9519762 4 2
11.289862 -8.0589275 -2.1969659 8 3
15.021934 -10.734833 -2.2670138 12 4
17.268797 -12.354128 -1.8576375 36 5
17.188704 -12.314981 -1.1081617 9 6
5.5280395 -3.9898815 -1.8267449 4 0
6.5251508 -4.7147489 -1.8585455 6 1
8.1434555 -5.8927135 -1.9538842 4 2
11.258921 -8.1560907 -2.2019718 8 3
14.89038 -10.798655 -2.2584829 11 4
17.738783 -12.897442 -1.1494024 20 6
5.5125184 -4.037509 -1.830886 4 0
6.4795046 -4.7509694 -1.8549464 6 1
8.1205654 -5.9607849 -1.958082 4 2
11.231797 -8.2535925 -2.2076035 8 3
14.750677 -10.855279 -2.2487333 11 4
18.098772 -13.333818 -1.9667566 33 5
18.219591 -13.437551 -1.1864563 20 6
5.4725027 -4.0657215 -1.8267449 4 0
6.4501438 -4.7972894 -1.8558462 6 1
8.1039467 -6.0360966 -1.964188 4 2
11.208742 -8.3577824 -2.2144866 8 3
14.58418 -10.886559 -2.2345965 11 4
17.984619 -13.459108 -1.1772451 10 6
5.4470701 -4.1061525 -1.8277801 4 0
6.4087176 -4.8363333 -1.8535968 4 1
8.0783377 -6.1029525 -1.968004 4 2
11.260304 -8.5161018 -2.2360744 9 3
14.469843 -10.959345 -2.2287467 11 4
17.956224 -13.629517 -1.181432 20 6
5.4366856 -4.1581635 -1.8339919 4 0
6.3933654 -4.8951731 -1.8589954 5 1
8.0391331 -6.1641865 -1.969149 4 2
11.280559 -8.6590052 -2.2523437 9 3
14.39613 -11.062515 -2.2292342 11 4
17.618977 -13.553748 -1.9447932 34 5
17.381994 -13.39077 -1.1499257 20 6
5.3983665 -4.188911 -1.830886 4 0
6.362113 -4.9420786 -1.8598953 4 1
8.0295353 -6.2440729 -1.977163 21 2
11.399054 -8.8739204 -2.2880106 10 3
14.399959 -11.226215 -2.2419088 5 4
17.391171 -13.587472 -1.1566247 20 6
5.3666921 -4.2231703 -1.8298507 4 0
6.3390422 -4.9937105 -1.8630446 3 1
7.9795818 -6.2951131 -1.9756364 28 2
11.463944 -9.0536766 -2.3136661 9 3
16.648125 -13.162054 -2.6058106 12 4
18.274164 -14.483923 -1.2220447 10 6
5.355196 -4.2749963 -1.8360624 4 0
6.3101144 -5.0427094 -1.8648442 3 1
7.970696 -6.378881 -1.9844136 4 2
11.47754 -9.1952448 -2.3293095 9 3
16.490789 -13.225796 -2.5955734 12 4
5.3282228 -4.3147101 -1.8370978 4 0
6.2883806 -5.0976839 -1.8688934 5 1
7.9869375 -6.4838672 -1.9996784 4 2
11.452924 -9.307538 -2.3374441 10 3
16.213272 -13.190269 -2.5663247 3 4
5.2800579 -4.3370876 -1.830886 4 0
6.2541442 -5.1426978 -1.8693433 3 1
7.9517121 -6.5455675 -2.0019681 4 2
11.453333 -9.4380417 -2.3505845 12 3
16.152945 -13.329671 -2.5714433 8 4
5.2533827 -4.3754001 -1.8319213 4 0
6.2354584 -5.1988769 -1.8742923 4 1
7.9269209 -6.6185374 -2.0073106 4 2
11.411415 -9.5380392 -2.3555903 9 3
18.8601 -15.780679 -3.0194352 9 4
5.2404175 -4.4269285 -1.8381329 5 0
6.2019887 -5.2447982 -1.875192 3 1
7.8835182 -6.6762528 -2.0080738 6 2
11.314413 -9.5919256 -2.349333 10 3
18.788822 -15.945359 -3.0257723 11 4
5.1903129 -4.4470654 -1.8314036 6 0
6.182972 -5.3031926 -1.8805909 4 1
7.8784184 -6.7669449 -2.0187593 6 2
11.31907 -9.7324982 -2.3643508 9 3
18.773336 -16.159019 -3.0413716 9 4
5.1780972 -4.4996643 -1.8381329 4 0
6.1575603 -5.3564601 -1.8841901 4 1
7.8457885 -6.8346767 -2.0225754 6 2
11.29849 -9.852829 -2.3743625 9 3
15.999683 -13.967252 -2.6077604 5 4
5.1494565 -4.5382595 -1.8391682 4 0
6.1200156 -5.3993173 -1.8841901 4 1
7.8302503 -6.917881 -2.0309711 6 2
11.229429 -9.9314661 -2.3743625 10 3
18.611286 -16.477461 -3.0520961 10 4
5.1176481 -4.5740986 -1.8391682 4 0
6.1097655 -5.4665995 -1.8927382 6 1
7.8168564 -7.0038195 -2.0401299 4 2
11.162764 -10.012259 -2.3749883 9 3
18.597717 -16.6985 -3.0689142 7 4
5.0884528 -4.6123095 -1.8402034 4 0
6.0772252 -5.5143576 -1.8945377 6 1
7.8302503 -7.1149926 -2.0565395 9 2
11.107205 -10.103237 -2.3781171 9 3
18.520317 -16.864012 -3.075495 10 4
5.0618191 -4.6529508 -1.8422741 4 0
6.0371461 -5.5553308 -1.8940878 5 1
7.8393989 -7.2213311 -2.0718043 9 2
11.032369 -10.17325 -2.3768656 9 3
13.964212 -12.894832 -2.3337982 9 4
5.0356832 -4.6925654 -1.8443446 4 0
6.0105929 -5.6069303 -1.8976872 5 1
7.7945313 -7.2812452 -2.0733306 10 2
10.972621 -10.260815 -2.3793685 9 3
13.422516 -12.564962 -2.2575078 5 4
4.9971848 -4.7222986 -1.8422741 4 0
5.9897065 -5.6661644 -1.903536 6 1
7.7720141 -7.3624868 -2.0809629 9 2
10.886387 -10.323576 -2.3762398 9 3
13.324391 -12.648795 -2.2558017 8 4
13.312371 -12.668342 -0.96308637 9 6
4.9529362 -4.7463775 -1.8381329 3 0
5.975317 -5.7321243 -1.911634 7 1
7.7600694 -7.454649 -2.0916483 10 2
10.646037 -10.237755 -2.3393211 10 3
18.216873 -17.536613 -3.1047437 5 4
4.9224505 -4.7835321 -1.8391682 4 0
5.9323602 -5.7709823 -1.9107343 6 1
7.7569699 -7.5538664 -2.1046233 7 2
10.655315 -10.387201 -2.356842 9 3
13.277172 -12.961173 -2.2782257 4 4
4.9283109 -4.8548875 -1.853662 3 0
5.9040413 -5.822175 -1.9143335 6 1
7.7766848 -7.6795688 -2.1244676 10 2
10.804502 -10.680755 -2.4062753 11 3
17.927925 -17.747353 -3.0974314 5 4
4.8879786 -4.8845668 -1.8515915 3 0
5.8732495 -5.8752995 -1.9179326 7 1
7.7783732 -7.7892399 -2.1397321 7 2
10.688742 -10.718631 -2.3975151 10 3
17.919868 -17.988808 -3.1176617 2 4
4.8537588 -4.9185724 -1.8515915 3 0
5.8430343 -5.9272623 -1.921532 6 1
7.8216 -7.945437 -2.1672087 9 2
10.583179 -10.762004 -2.3906317 9 3
12.374035 -12.596306 -2.1680558 1 4
4.819303 -4.9523377 -1.8515915 3 0
5.8123794 -5.9790878 -1.9251312 7 1
7.8220444 -8.0548286 -2.1824734 10 2
10.465666 -10.788421 -2.38062 9 3
17.834085 -18.409777 -3.1471541 5 4
4.8015361 -5.0017505 -1.8578032 3 0
5.7796392 -6.0269523 -1.9278306 7 1
7.8498087 -8.1971521 -2.2061336 10 2
10.365516 -10.835528 -2.3749883 9 3
17.738535 -18.562317 -3.1525166 5 4
4.7731409 -5.0421638 -1.8603914 2 0
5.7454562 -6.0756497 -1.9305301 9 1
7.8477588 -8.3074808 -2.2213984 10 2
10.256271 -10.868479 -2.3668537 9 3
17.671137 -18.752155 -3.1637285 5 4
4.753643 -5.0923095 -1.866603 2 0
7.8897943 -8.47262 -2.2504015 9 2
10.15671 -10.918451 -2.3618479 9 3
17.551956 -18.888153 -3.1659219 7 4
4.7127428 -5.1196866 -1.8645325 2 0
5.6547909 -6.149538 -1.9287304 42 1
7.936862 -8.6403484 -2.2805493 10 2
10.034076 -10.934935 -2.3505845 11 3
11.491962 -12.541276 -2.0885971 3 4
4.6816816 -5.1559372 -1.8660854 3 0
5.6311312 -6.2080941 -1.9350289 14 1
7.9251151 -8.7493849 -2.2946692 9 2
9.9203796 -10.963705 -2.3418241 9 3
12.921143 -14.295094 -2.3659718 4 4
4.6404176 -5.1827383 -1.8640147 3 0
5.6201324 -6.2835684 -1.9462765 7 1
7.8899961 -8.8337851 -2.3023016 10 2
9.7936239 -10.976685 -2.3299353 9 3
11.040587 -12.387329 -2.0374119 1 4
4.6143517 -5.226594 -1.868156 3 0
5.5877285 -6.3358045 -1.9503256 7 1
7.8670597 -8.9328508 -2.31375 7 2
9.716754 -11.044788 -2.3299353 9 3
10.887008 -12.388058 -2.0249813 2 4
4.5828242 -5.2645087 -1.8702265 3 0
5.5484762 -6.3805413 -1.9521253 8 1
7.8318224 -9.0158358 -2.3213823 9 2
9.6491184 -11.119624 -2.3318124 9 3
12.954329 -14.949614 -2.4288561 4 4
4.561986 -5.3131695 -1.8764381 3 0
5.5226789 -6.438869 -1.9584239 7 1
7.7916789 -9.0971317 -2.3282516 9 2
9.5584116 -11.171706 -2.3286836 9 3
12.852225 -15.042705 -2.4293437 9 4
4.5238495 -5.3456779 -1.8764381 4 0
5.4814949 -6.4841766 -1.9602236 7 1
7.7406449 -9.1663046 -2.3320675 9 2
9.4603968 -11.218677 -2.3243036 10 3
12.850486 -15.255037 -2.4490864 12 4
4.5012708 -5.3949299 -1.8826498 3 0
5.4410834 -6.5282741 -1.962023 7 1
7.6698313 -9.2154255 -2.3305411 9 2
9.3237543 -11.214576 -2.3099115 9 3
12.767772 -15.373394 -2.4537175 10 4
4.4684072 -5.4321909 -1.8847204 3 0
5.4027987 -6.5751343 -1.9647225 7 1
7.6368222 -9.3038397 -2.3397002 10 2
9.2271643 -11.253341 -2.3049057 9 3
12.726789 -15.54356 -2.4666357 6 4
4.4240255 -5.4534788 -1.8816146 4 0
5.3677335 -6.6238694 -1.9683217 8 1
7.5889726 -9.3782921 -2.3450427 9 2
9.1285067 -11.292903 -2.2998998 9 3
12.690531 -15.716315 -2.4802852 6 4
4.3906722 -5.4902658 -1.8836851 4 0
5.345686 -6.6916323 -1.9773197 7 1
7.5306621 -9.4402533 -2.3473325 10 2
9.0346737 -11.337818 -2.2961452 9 3
12.669512 -15.916353 -2.4978342 7 4
4.3641958 -5.5359559 -1.8888614 4 0
5.3108964 -6.7440996 -1.9818188 8 1
7.4839897 -9.5172892 -2.3534384 10 2
8.9601822 -11.406828 -2.2973969 9 3
12.627938 -16.093431 -2.5117273 10 4
4.3254414 -5.566288 -1.8888614 4 0
5.2923627 -6.8179579 -1.9926165 7 1
7.429862 -9.5819731 -2.3568728 10 2
8.8847504 -11.470677 -2.2980225 9 3
16.119871 -20.841637 -3.2351439 2 4
4.3015528 -5.6140032 -1.8950732 4 0
5.2505698 -6.860013 -1.994416 8 1
7.35921 -9.6289301 -2.3557279 13 2
8.8236341 -11.557547 -2.3030286 9 3
12.86589 -16.870562 -2.6050794 3 4
4.2575979 -5.6377296 -1.8930025 4 0
5.2048979 -6.8996134 -1.9953159 8 1
7.2835402 -9.669095 -2.3530567 12 2
8.7094755 -11.574669 -2.2942681 9 3
15.93117 -21.195204 -3.2556179 8 4
4.2250562 -5.6766143 -1.8961084 4 0
5.1914845 -6.982698 -2.0088129 9 1
7.2111793 -9.7134018 -2.3515301 12 2
8.6708174 -11.69231 -2.3055315 9 3
15.828897 -21.368114 -3.2651238 11 4
4.1853237 -5.7059717 -1.8961084 4 0
5.1990457 -7.0957971 -2.0308583 10 1
7.1362367 -9.7540007 -2.3492403 10 2
8.5656681 -11.720661 -2.299274 9 3
15.7004 -21.50696 -3.269511 5 4
4.1476502 -5.738183 -1.8971437 4 0
5.1459589 -7.1271791 -2.0295084 9 1
7.0989666 -9.8465815 -2.359544 9 2
8.4997969 -11.802616 -2.3036542 9 3
15.635657 -21.735294 -3.2875478 5 4
4.1119723 -5.7732935 -1.8992143 4 0
5.1130219 -7.1867495 -2.0362568 10 1
7.0761328 -9.9570866 -2.3744273 10 2
8.4718609 -11.934295 -2.3180461 9 3
15.528306 -21.90708 -3.2970533 5 4
4.0725799 -5.8011489 -1.8992143 5 0
5.065105 -7.2229815 -2.0367069 9 1
7.0514908 -10.070572 -2.3896918 10 2
8.3826771 -11.985054 -2.3164818 13 3
12.66619 -18.12957 -2.715493 18 4
4.0451689 -5.8485055 -1.9054259 4 0
5.0300636 -7.2806134 -2.0430055 9 1
6.9877024 -10.129251 -2.3919816 12 2
8.3761415 -12.155519 -2.3380699 9 3
12.517928 -18.186485 -2.7108619 7 4
3.9998884 -5.8702173 -1.9033554 4 0
5.008719 -7.3590484 -2.0551529 10 1
6.923439 -10.18753 -2.3942714 12 2
8.2444782 -12.145055 -2.3249292 9 3
12.369492 -18.242218 -2.7062309 13 4
3.9674232 -5.9108305 -1.9074965 4 0
4.9810948 -7.4294457 -2.0650506 11 1
6.8106461 -10.173622 -2.3797698 10 2
8.1704702 -12.218737 -2.328058 10 3
12.29917 -18.413965 -2.7189052 11 4
3.9303226 -5.9448299 -1.909567 4 0
4.9430676 -7.485178 -2.0708995 9 1
6.7200031 -10.19142 -2.3729007 10 2
8.102354 -12.301874 -2.3330638 9 3
12.228142 -18.587273 -2.7318234 7 4
3.9034824 -5.9947882 -1.9168139 9 0
4.9161906 -7.558712 -2.0816972 9 1
6.6889806 -10.296191 -2.3866391 10 2
8.1130562 -12.502563 -2.3605964 9 3
12.133702 -18.727165 -2.7398667 13 4
3.8563285 -6.0114636 -1.9137081 22 0
4.885654 -7.6248159 -2.0906951 9 1
6.614821 -10.339332 -2.3858757 10 2
10.078505 -15.771444 -2.9644334 4 3
12.064693 -18.901354 -2.7532725 8 4
3.8122039 -6.0349722 -1.9126729 37 0
4.8874178 -7.746088 -2.1145399 13 1
6.595582 -10.465503 -2.4045751 9 2
10.010908 -15.903205 -2.9763224 4 3
12.037021 -19.151508 -2.7774026 14 4
3.7689955 -6.0575004 -1.9116375 25 0
4.897326 -7.8801394 -2.141984 15 1
6.5409899 -10.541321 -2.4114442 10 2
9.880908 -15.942486 -2.970691 6 3
12.005648 -19.393345 -2.8005579 10 4
3.7387242 -6.1034331 -1.9178492 9 0
4.9622059 -8.1102858 -2.1950724 13 1
6.4752297 -10.59565 -2.413734 10 2
6.6887088 -10.957863 -2.0333354 9 3
11.991866 -19.676708 -2.829319 17 4
3.7030799 -6.1386657 -1.9209551 5 0
4.9863377 -8.2757387 -2.2306147 8 1
6.3950295 -10.630503 -2.4114442 10 2
6.5672803 -10.92979 -2.0195692 12 3
11.982278 -19.96553 -2.859055 8 4
3.6739426 -6.1876235 -1.9282019 5 0
4.9662142 -8.3740425 -2.2477109 12 1
6.3355293 -10.695745 -2.4164052 12 2
9.6460581 -16.304096 -3.0004134 7 3
11.961734 -20.250381 -2.8878162 10 4
3.6297898 -6.2091527 -1.9271667 5 0
4.9405432 -8.461504 -2.2621078 11 1
6.2310433 -10.688831 -2.4049568 10 2
6.5769801 -11.295846 -2.0702538 9 3
11.92541 -20.506365 -2.9126775 9 4
3.592133 -6.2443895 -1.9302725 5 0
4.945425 -8.6073093 -2.2918015 12 1
6.1455235 -10.713339 -2.400759 10 2
9.5029116 -16.586304 -3.027633 4 3
11.897314 -20.790701 -2.941195 6 4
3.5579677 -6.2861261 -1.9354489 4 0
4.8996005 -8.6670713 -2.2985499 10 1
6.044528 -10.709818 -2.3904552 10 2
6.3468423 -11.259236 -2.0471017 10 3
11.84537 -21.039312 -2.9645939 13 4
3.5102365 -6.3040614 -1.9333783 5 0
4.8541279 -8.7283154 -2.3057485 10 1
5.9619884 -10.738025 -2.3874023 10 2
6.2211437 -11.21862 -2.0317712 5 3
11.805919 -21.315989 -2.9918926 7 4
3.4809892 -6.3555231 -1.9416605 4 0
4.81178 -8.7961836 -2.3147464 9 1
5.8755865 -10.758708 -2.382823 12 2
6.213614 -11.391843 -2.0552363 6 3
6.5819488 -12.08218 -1.689353 3 4
3.4292061 -6.3660641 -1.9375196 4 0
4.7576404 -8.8432903 -2.3183455 9 1
5.7687497 -10.74066 -2.369848 10 2
6.4756932 -12.072056 -2.1697464 1 3
11.624331 -21.697472 -3.0223601 11 4
3.3946259 -6.4086275 -1.9432135 6 0
4.6921425 -8.8693981 -2.316546 9 1
5.6890407 -10.771991 -2.3679397 10 2
6.3691382 -12.075036 -2.1622374 3 3
11.63171 -22.080177 -3.0642829 10 4
3.3596189 -6.4510174 -1.9489075 4 0
4.6373014 -8.9157705 -2.3201451 10 1
5.6047273 -10.789558 -2.3633604 10 2
8.9830923 -17.315342 -3.089581 3 3
11.593219 -22.384708 -3.0952377 15 4
3.3156304 -6.4737363 -1.9489075 5 0
4.597806 -8.9887676 -2.3309429 9 1
5.5158744 -10.802197 -2.3576362 10 2
8.899682 -17.451546 -3.1027217 4 3
11.552298 -22.682446 -3.1254616 15 4
3.2764347 -6.5088048 -1.9525309 6 0
4.5419431 -9.0345755 -2.334542 10 1
5.4315205 -10.822893 -2.3538198 10 2
8.817462 -17.59272 -3.1168008 12 3
11.486071 -22.947157 -3.1508105 7 4
3.2317719 -6.5332513 -1.9530486 5 0
4.4925704 -9.0940189 -2.3417406 10 1
5.3471465 -10.842941 -2.3500037 10 2
8.7214804 -17.708782 -3.1264994 9 3
11.454381 -23.288631 -3.1866398 10 4
3.1860826 -6.5556536 -1.9530486 5 0
4.4417362 -9.1514587 -2.348489 11 1
5.2578044 -10.847286 -2.3431346 10 2
8.6076269 -17.781961 -3.1290026 9 3
11.409839 -23.612902 -3.220032 8 4
3.1480474 -6.5911345 -1.9571897 5 0
4.3868923 -9.1973095 -2.3525381 10 1
5.1676006 -10.853594 -2.336647 10 2
8.5392599 -17.959364 -3.1496518 9 3
11.351877 -23.906996 -3.2495244 11 4
3.1019566 -6.6129508 -1.9571897 7 0
4.322576 -9.2277117 -2.3525381 10 1
5.0825567 -10.869843 -2.3324494 10 2
8.3944492 -17.977375 -3.1424561 6 3
11.310538 -24.255531 -3.2860851 11 4
3.0621796 -6.6484833 -1.9613309 7 0
4.2661934 -9.2753677 -2.3570371 10 1
5.0049095 -10.901492 -2.331686 10 2
8.2761526 -18.051701 -3.1452718 11 3
11.205383 -24.474684 -3.3050969 11 4
3.0117102 -6.6608977 -1.9587426 6 0
4.2077508 -9.3191347 -2.3606362 10 1
4.9069014 -10.887839 -2.3213823 10 2
8.2050533 -18.231531 -3.1665468 11 3
5.3975062 -12.009993 -1.6167189 3 4
2.9714046 -6.6958876 -1.9628838 6 0
4.1639066 -9.3963871 -2.3727837 11 1
4.8283882 -10.916446 -2.3202376 10 2
8.0895443 -18.315474 -3.1712399 8 3
11.046822 -25.046494 -3.3611569 12 4
2.9253571 -6.7182393 -1.9634014 5 0
4.096652 -9.4216537 -2.3718839 14 1
4.7461519 -10.931048 -2.3164213 10 2
8.0086937 -18.471603 -3.1887605 6 3
10.905595 -25.201342 -3.3716373 18 4
2.8977807 -6.7806301 -1.9758247 5 0
4.0362511 -9.4582815 -2.3741336 15 1
4.663569 -10.949467 -2.3133683 10 2
7.9290214 -18.643404 -3.2087841 8 3
10.8114 -25.457706 -3.3960114 9 4
2.8660545 -6.8381109 -1.9866952 6 0
3.9791496 -9.5078011 -2.3795321 13 1
4.5866604 -10.975524 -2.3122237 10 2
7.801177 -18.695118 -3.2084711 7 3
4.9996023 -12.004868 -1.5967323 2 4
2.8157692 -6.848527 -1.9841069 7 0
3.9202604 -9.5490885 -2.3831315 15 1
4.4972711 -10.976393 -2.3057361 10 2
4.8760409 -11.918631 -2.039593 6 3
10.57948 -25.898376 -3.4350095 9 4
2.7736673 -6.8823519 -1.988248 9 0
3.8520455 -9.572607 -2.3822315 15 1
4.4132171 -10.989303 -2.3019197 10 2
7.5592408 -18.851725 -3.2169187 7 3
10.50024 -26.22592 -3.4686456 9 4
2.7269711 -6.9051414 -1.9892832 9 0
3.775116 -9.5738859 -2.3759329 15 1
4.3349533 -11.016191 -2.3011565 10 2
7.47368 -19.021704 -3.2369423 8 3
10.39229 -26.490778 -3.4939945 9 4
2.6814859 -6.9312177 -1.9913538 9 0
3.7180159 -9.6254578 -2.3822315 15 1
4.2549224 -11.032621 -2.2984853 10 2
7.3887525 -19.188271 -3.2566531 10 3
10.289699 -26.777628 -3.5222681 9 4
2.6424623 -6.9709864 -1.9975655 9 0
3.6606896 -9.6724129 -2.3876305 15 1
4.1992998 -11.118993 -2.3103154 10 2
7.1939778 -19.078581 -3.2294335 7 3
10.156334 -26.991871 -3.5410359 16 4
2.5898242 -6.9824724 -1.995495 9 0
3.5690498 -9.6380539 -2.3727837 17 1
4.1481247 -11.219854 -2.3251987 10 2
7.071629 -19.168489 -3.2360036 7 3
10.041747 -27.263296 -3.5673597 13 4
2.5410149 -7.0003819 -1.995495 9 0
3.4844141 -9.6151009 -2.3610861 27 1
4.0323496 -11.151398 -2.3049729 12 2
6.8584852 -18.998146 -3.1990852 11 3
9.8989573 -27.465328 -3.5846653 9 4
2.4946671 -7.0252328 -1.9975655 9 0
3.4315295 -9.6795998 -2.3709843 15 1
3.9432487 -11.141572 -2.2973404 10 2
6.7777114 -19.182219 -3.2222376 12 3
9.7096148 -27.541254 -3.58564 9 4
2.4505951 -7.0529995 -2.0006714 9 0
3.3700345 -9.715621 -2.3741336 15 1
3.88977 -11.239329 -2.3118417 10 2
6.6333113 -19.199196 -3.2172318 10 3
9.5775871 -27.768097 -3.6066017 10 4
2.4037812 -7.0772529 -2.0027418 9 0
3.303376 -9.7426023 -2.3750331 14 1
3.798629 -11.229016 -2.3042095 10 2
6.5199728 -19.306795 -3.2275565 7 3
9.3841362 -27.836163 -3.6068454 13 4
2.351881 -7.0865278 -2.0006714 9 0
3.2597935 -9.8394213 -2.3930292 14 1
3.7293854 -11.283224 -2.3099339 10 2
3.8108382 -11.549951 -1.9263341 6 3
9.2249718 -28.008469 -3.6207385 10 4
2.307116 -7.117476 -2.0048125 9 0
3.2006218 -9.8916035 -2.4002275 14 1
3.6559501 -11.3258 -2.3133683 10 2
3.8270452 -11.877103 -1.9763933 9 3
9.0310345 -28.077858 -3.6214697 13 4
2.2608683 -7.1444597 -2.0079181 7 0
3.138531 -9.9360065 -2.4056265 14 1
3.606884 -11.446544 -2.3328309 10 2
3.6681693 -11.662333 -1.9363459 6 3
8.860363 -28.221663 -3.6319506 10 4
6.3913636 -20.444872 -1.1226064 9 6
2.2166352 -7.1785283 -2.0130947 9 0
3.06335 -9.9390526 -2.4011276 15 1
3.5118861 -11.422654 -2.3229089 10 2
3.4927819 -11.381726 -1.8856614 11 3
3.6528032 -11.925443 -1.5314103 3 4
6.2344933 -20.443142 -1.1200942 9 6
2.1709228 -7.2086258 -2.0172358 9 0
2.9877179 -9.9396667 -2.3961787 18 1
3.4737794 -11.586055 -2.3511486 13 2
3.4404204 -11.496671 -1.900679 9 3
3.5654831 -11.937339 -1.5297042 4 4
6.0677147 -20.405764 -1.115698 9 6
2.1183677 -7.2161918 -2.0151651 9 0
2.9198971 -9.9658937 -2.3975284 16 1
3.417428 -11.686688 -2.3667948 12 2
3.4572768 -11.84598 -1.9544924 9 3
8.2984619 -28.507763 -3.6455998 10 4
5.9375753 -20.477283 -1.1173728 9 6
2.0723898 -7.2415876 -2.018271 9 0
2.8493178 -9.9761696 -2.3952789 17 1
3.3578084 -11.787677 -2.3824413 7 2
3.3269563 -11.702621 -1.92696 9 3
8.1557007 -28.745014 -3.6687551 13 4
5.7673349 -20.422134 -1.1121392 9 6
2.0280058 -7.2782106 -2.0244827 9 0
2.7853453 -10.016469 -2.4002275 15 1
4.2670341 -15.38643 -3.1036992 10 2
3.1935396 -11.538989 -1.8962989 12 3
7.9611654 -28.824211 -3.67168 13 4
5.6246209 -20.461899 -1.1121392 9 6
1.9781559 -7.2959204 -2.0255179 7 0
2.7102599 -10.01686 -2.3957288 15 1
4.1615582 -15.423426 -3.1052256 10 2
3.1262577 -11.610596 -1.9044335 7 3
7.7556195 -28.86375 -3.6697299 13 4
5.4465523 -20.369461 -1.1050215 9 6
1.9316061 -7.326365 -2.0301766 6 0
2.6412556 -10.039306 -2.3966284 15 1
4.043323 -15.412224 -3.0972116 12 2
3.0611341 -11.69329 -1.9144453 4 3
7.5479064 -28.894142 -3.666805 13 4
5.3022046 -20.39926 -1.1046028 9 6
1.8885628 -7.3714852 -2.0389764 9 0
2.5788274 -10.087709 -2.403827 14 1
3.9506595 -15.499051 -3.1090419 12 2
3.0135102 -11.848384 -1.9363459 4 3
7.3333106 -28.896103 -3.6604679 13 4
3.0132527 -11.899525 -1.073933 16 5
5.1254368 -20.300222 -1.0972759 9 6
1.8389195 -7.3919888 -2.0410471 7 0
2.4998889 -10.071423 -2.3957288 16 1
3.846487 -15.531301 -3.1101868 14 2
4.92874 -19.945957 -3.2541499 10 3
7.1594157 -29.060318 -3.6748486 10 4
2.9148874 -11.858357 -1.0683551 15 5
4.9709659 -20.268688 -1.0937169 9 6
1.8085207 -7.4869599 -2.0638232 9 0
2.4321899 -10.091993 -2.3966284 16 1
3.7581446 -15.641768 -3.1269779 7 2
4.7617431 -19.864626 -3.235378 12 3
6.91712 -28.923033 -3.6514497 10 4
