# .PCD v0.7 - Point Cloud Data file format
VERSION 0.7
FIELDS x y z intensity ring
SIZE 4 4 4 4 2
TYPE F F F F U
COUNT 1 1 1 1 1
WIDTH 1286
HEIGHT 1
VIEWPOINT 0 0 0 1 0 0 0
POINTS 1286
DATA ascii
2.9611225 -8.0178518 -1.9732707 14 1
3.8498883 -10.446807 -2.1641557 10 2
4.1655488 -11.321629 -1.9106908 21 3
8.3307228 -22.678883 -2.9665437 9 4
2.5138626 -6.944469 -1.9789305 9 0
2.9203095 -8.0804825 -1.9836185 13 1
3.764209 -10.438339 -2.1569052 12 2
4.0823941 -11.339282 -1.9088136 19 3
4.7645969 -13.255945 -1.7295698 13 4
2.4601617 -6.9472818 -1.9747895 9 0
2.8488863 -8.0584145 -1.9732707 23 1
3.6984277 -10.484729 -2.1611028 15 2
3.9913206 -11.333968 -1.9031819 18 3
7.9816637 -22.703093 -2.9548442 18 4
2.4065435 -6.9496827 -1.9706483 7 0
2.7747319 -8.026536 -1.9606735 15 1
3.6705906 -10.642066 -2.1881976 12 2
3.9056664 -11.342879 -1.9000533 18 3
7.8152294 -22.735737 -2.9519196 18 4
2.3554904 -6.9589949 -1.9685777 9 0
2.7223716 -8.0567904 -1.9633728 15 1
3.5704589 -10.584953 -2.1714065 10 2
3.8245862 -11.357968 -1.8981761 18 3
7.5930948 -22.601568 -2.9275455 11 4
2.3165648 -7.0005431 -1.9758247 9 0
2.6686907 -8.0788336 -1.9642726 14 1
3.4897156 -10.589111 -2.1672087 18 2
3.736557 -11.358122 -1.893796 17 3
7.5871038 -23.103483 -2.9857993 16 4
2.2664471 -7.0128689 -1.9747895 9 0
2.5823102 -8.0045366 -1.9417773 21 1
3.42172 -10.631903 -2.1710248 10 2
3.5079374 -10.919396 -1.8165172 36 3
3.483073 -10.861528 -1.4005226 19 4
3.4676254 -10.839374 -0.99566722 14 5
2.2127829 -7.013782 -1.9706483 9 0
2.5480232 -8.0911427 -1.9584239 14 1
3.3438828 -10.644293 -2.168735 16 2
3.4085708 -10.87011 -1.8043153 17 3
3.4047911 -10.878002 -1.3995476 18 4
3.3989947 -10.88614 -0.99775898 21 5
2.1683116 -7.0438299 -1.9747895 9 0
2.4897573 -8.1031466 -1.9570743 17 1
2.9041684 -9.475441 -1.9264078 3 2
3.4903598 -11.409328 -1.8897287 19 3
6.9618855 -22.799755 -2.9270582 15 4
2.1190834 -7.0587959 -1.9747895 9 0
2.4331269 -8.1203308 -1.9570743 17 1
2.8171453 -9.4258862 -1.9122878 4 2
3.4072344 -11.422059 -1.8878514 19 3
6.9260306 -23.26256 -2.9801931 19 4
2.0697529 -7.0734177 -1.9747895 9 0
2.3692753 -8.1128016 -1.9512255 15 1
3.1251721 -10.728953 -2.1721697 10 2
3.3207929 -11.422806 -1.884097 18 3
6.7568197 -23.287468 -2.9772682 11 4
2.0203207 -7.0876951 -1.9747895 9 0
2.3072479 -8.1103992 -1.9467264 15 1
3.0528758 -10.759953 -2.174078 22 2
3.2355864 -11.426702 -1.8809682 19 3
6.6961093 -23.695114 -3.0233347 14 4
1.9697577 -7.0979033 -1.9737542 9 0
2.2448502 -8.1056509 -1.9417773 16 1
2.9829094 -10.799928 -2.1778939 13 2
3.152585 -11.437588 -1.8790911 19 3
6.2988729 -22.899124 -2.91609 15 4
1.9309437 -7.1365829 -1.981001 9 0
2.1944911 -8.1275043 -1.9435771 16 1
2.9268858 -10.87015 -2.1881976 10 2
3.0735321 -11.43863 -1.8759624 15 3
6.3554559 -23.718882 -3.0150478 14 4
1.8758974 -7.1352701 -1.9768599 9 0
2.1342988 -8.1354599 -1.9417773 17 1
2.8112657 -10.746467 -2.1591947 10 2
2.9886084 -11.448862 -1.8740851 15 3
6.1745663 -23.721487 -3.0096855 14 4
1.8219236 -7.1372805 -1.9737542 9 0
2.0760281 -8.1505241 -1.9417773 17 1
2.7618392 -10.874769 -2.1809468 9 2
2.9027233 -11.454636 -1.8715822 18 3
5.8000479 -22.938396 -2.9051216 11 4
1.7743752 -7.1592011 -1.9763422 11 0
2.0097198 -8.1269836 -1.9327793 16 1
2.6952791 -10.923815 -2.187053 16 2
2.8223274 -11.464539 -1.8700178 17 3
5.6449714 -22.999535 -2.9078028 13 4
1.7314793 -7.1955299 -1.9830716 9 0
1.9652739 -8.1859522 -1.9435771 17 1
2.6285474 -10.982461 -2.1950669 12 2
2.7362564 -11.458984 -1.8659505 24 3
5.4258866 -22.793129 -2.876848 17 4
1.6799458 -7.2077355 -1.9830716 9 0
1.8947306 -8.1485567 -1.9314297 15 1
2.563791 -11.052181 -2.2053704 18 2
2.6541891 -11.478271 -1.8659505 20 3
5.3697062 -23.277275 -2.9331515 15 4
1.6304362 -7.2230573 -1.9841069 9 0
1.8455023 -8.1958065 -1.9395281 15 1
2.4721694 -11.014691 -2.1943038 4 2
2.5744226 -11.498448 -1.8662634 17 3
2.9358456 -13.144991 -1.6537671 4 4
1.5807943 -7.2380385 -1.9851422 9 0
1.8006841 -8.2656126 -1.953025 14 1
2.3933866 -11.013997 -2.1908689 15 2
2.4944232 -11.507984 -1.8650119 17 3
4.9888496 -23.093855 -2.9009781 15 4
2.8404291 -13.21565 -0.70841956 8 6
1.5338868 -7.2599716 -1.988248 9 0
1.7439792 -8.2757711 -1.9525751 17 1
2.3156292 -11.026595 -2.1901057 13 2
2.4140215 -11.525118 -1.8650119 13 3
4.8307295 -23.12339 -2.9004905 15 4
2.7091174 -13.047425 -0.69837105 8 6
1.4831653 -7.270503 -1.988248 9 0
1.6966507 -8.339304 -1.9647225 15 1
2.232713 -11.003619 -2.1824734 13 2
2.4248481 -11.98272 -1.9363459 6 3
4.6997848 -23.308336 -2.9195023 13 4
2.5801873 -12.86582 -0.68769449 8 6
1.4343895 -7.2842212 -1.9892832 9 0
1.6387222 -8.344924 -1.9633728 16 1
2.1716712 -11.099861 -2.1985013 16 2
2.3210852 -11.896599 -1.9197639 2 3
4.5520182 -23.396294 -2.9265707 18 4
2.4531579 -12.691345 -0.67743665 8 6
1.3827819 -7.2902613 -1.988248 9 0
1.5594188 -8.2451029 -1.9372785 16 1
2.1073465 -11.174193 -2.2103314 12 2
2.2181509 -11.795641 -1.9009918 4 3
4.4009967 -23.493841 -2.9348578 18 4
2.3411174 -12.570304 -0.67010969 8 6
1.3331265 -7.2995048 -1.988248 9 0
1.5126859 -8.307291 -1.9494258 15 1
1.9988035 -11.020572 -2.1771307 22 2
2.3993771 -13.268727 -2.1356435 7 3
4.2469673 -23.556463 -2.9390013 15 4
2.2075469 -12.330762 -0.65650231 8 6
1.2794644 -7.2934113 -1.9841069 9 0
1.425447 -8.1506433 -1.9102844 25 1
1.6169546 -9.2838621 -1.8317665 3 2
2.3093886 -13.300725 -2.1381464 9 3
4.0813932 -23.579672 -2.9382701 18 4
2.0919819 -12.174622 -0.64739585 8 6
1.2297976 -7.3097868 -1.9861774 9 0
1.3872048 -8.2718668 -1.9363787 21 1
1.5478991 -9.2697506 -1.8268054 18 2
2.5917282 -15.571018 -2.5001359 9 3
3.9098539 -23.566465 -2.9331515 13 4
1.9907131 -12.090392 -0.64216226 8 6
1.1799644 -7.3258228 -1.988248 9 0
1.3294225 -8.2813501 -1.9363787 15 1
1.7831458 -11.145002 -2.1939218 16 2
2.1064992 -13.210357 -2.1187487 3 3
3.7816522 -23.822573 -2.9616692 9 4
1.9015268 -12.060259 -0.6398595 8 6
1.130661 -7.3375034 -1.9892832 9 0
1.2635584 -8.22857 -1.9219818 15 1
1.6857183 -11.029093 -2.168735 16 2
1.9963762 -13.10757 -2.0999765 20 3
2.0579784 -13.559721 -1.6839907 5 4
1.0805316 -7.3528633 -1.9913538 9 0
1.2162448 -8.3066044 -1.9381782 15 1
1.5766941 -10.821063 -2.1256123 12 2
1.9005643 -13.091865 -2.0952835 19 3
1.968096 -13.607157 -1.6881342 6 4
1.0313137 -7.3755336 -1.995495 9 0
1.1576865 -8.3110332 -1.9372785 20 1
1.4903306 -10.754021 -2.1103475 12 2
1.8085791 -13.1009 -2.0946577 31 3
6.0906773 -44.23333 5.4824152 0 11
1.8638574 -13.553701 -1.6798471 7 4
0.97827357 -7.3710637 -1.9923891 9 0
1.0935082 -8.2725458 -1.9264808 19 1
1.4154742 -10.766109 -2.1107292 15 2
1.7116874 -13.072074 -2.0880876 21 3
1.7786874 -13.639215 -1.6888655 9 4
1.9355454 -14.984777 -0.79184312 8 6
0.92775315 -7.3853803 -1.9944596 9 0
1.0294405 -8.2297029 -1.9147834 17 1
1.3334944 -10.721178 -2.100044 18 2
1.6189303 -13.071943 -2.0862103 20 3
1.67978 -13.621747 -1.6852095 6 4
0.87480634 -7.380167 -1.9913538 9 0
0.97104788 -8.2289486 -1.9129838 22 1
1.255412 -10.702928 -2.0947013 19 2
1.5258003 -13.067231 -2.0837073 21 3
1.585332 -13.639057 -1.6859406 5 4
1.4783411 -12.855518 -0.67816937 8 6
0.82411867 -7.393774 -1.9934243 9 0
0.90691566 -8.1754837 -1.8990368 24 1
0.89264756 -8.0984583 -1.5837147 10 2
0.87951845 -8.1092873 -0.71363121 9 5
0.87548292 -8.1116953 -0.4275848 27 6
0.88596499 -8.2492971 -0.14482006 7 7
0.77248031 -7.3993473 -1.9934243 9 0
0.85384446 -8.2064438 0.14401726 40 8
0.84257007 -8.1118374 -1.8828404 25 1
0.84604484 -8.1730518 0.43062031 22 9
0.83870697 -8.1298809 -1.5886757 18 2
0.84175432 -8.1733828 0.71886051 15 10
0.83395571 -8.1254988 -1.2937132 22 3
0.83035421 -8.132328 -1.003716 25 4
0.82529646 -8.1390162 -0.71572298 50 5
0.81903267 -8.1195965 -0.42768946 27 6
0.81996709 -8.1717138 -0.14335407 39 7
0.72117954 -7.4084053 -1.9944596 9 0
0.79537356 -8.200263 0.14380784 40 8
0.78723282 -8.1310997 -1.8859898 37 1
0.78819841 -8.1708059 0.43020159 20 9
0.78080428 -8.1238117 -1.586386 19 2
0.78524375 -8.1850119 0.71938354 19 10
0.77683288 -8.1271915 -1.2930875 17 3
0.77855647 -8.1753387 1.008347 22 11
0.77280819 -8.130022 -1.0027411 23 4
0.7706266 -8.152379 -0.71642017 35 5
0.76195413 -8.1211395 -0.42748013 27 6
0.76122695 -8.1593199 -0.14303991 36 7
0.66874659 -7.4055638 -1.9923891 9 0
0.73900002 -8.1995115 0.14370312 28 8
0.74909323 -8.3440762 -1.9341292 13 1
0.71099716 -7.9352775 0.41753629 19 9
0.84800255 -9.501687 -1.8542819 19 2
0.70849985 -7.9700069 0.70003492 16 10
0.84229773 -9.4939032 -1.5095928 17 3
0.70559144 -7.9846869 0.98421687 36 11
0.83508074 -9.4877939 -1.1694584 23 4
0.83281732 -9.5191383 -0.83599782 11 5
0.8253566 -9.491107 -0.4992851 23 6
0.82677537 -9.5849438 -0.16792706 10 7
0.61768126 -7.4022436 -1.9903185 9 0
0.79483742 -9.5655727 0.1675431 35 8
0.69598424 -8.3936491 -1.9444768 17 1
0.689601 -8.3520784 0.43920338 13 9
0.77875423 -9.4721556 -1.8474127 19 2
0.69039953 -8.4154749 0.7387321 16 10
0.77583635 -9.4975824 -1.50928 19 3
0.68394864 -8.4088736 1.0358895 20 11
0.77047986 -9.4932585 -1.1694584 20 4
0.7670424 -9.5126715 -0.83495206 23 5
0.75637192 -9.4627914 -0.49750566 23 6
0.7586655 -9.5544672 -0.16729876 25 7
0.56657761 -7.4140801 -1.9923891 9 0
0.67619723 -8.8689051 0.15525661 29 8
0.63677871 -8.3905315 -1.9426774 17 1
0.67284662 -8.8863344 0.46704614 9 9
0.7149989 -9.4870262 -1.8493209 12 2
0.66755015 -8.8989096 0.7807411 14 10
0.71161366 -9.5085526 -1.5102185 13 3
0.70712328 -9.5379992 -1.1743331 14 4
0.70149022 -9.5297165 -0.83599782 23 5
0.69601929 -9.5234957 -0.50043643 11 6
0.68992311 -9.5316086 -0.16681011 25 7
0.51717186 -7.4331822 -1.9965302 9 0
0.64754587 -9.3541851 0.16366866 16 8
0.58018917 -8.4024477 -1.9444768 16 1
0.64884663 -9.444747 0.49614492 8 9
0.73054606 -10.688542 -2.0824895 24 2
0.6443643 -9.4518738 0.8288511 14 10
0.88421363 -13.037168 -2.0696282 21 3
0.88951999 -13.252434 -1.6308557 4 4
0.81675249 -12.362046 -0.64927989 8 6
0.4644492 -7.4444051 -1.9986008 9 0
0.61823684 -9.9372711 0.17379107 19 8
0.51896495 -8.3888798 -1.9404278 15 1
0.6164397 -10.021281 0.52618575 8 9
0.65422672 -10.665949 -2.0771468 24 2
0.61200702 -10.034953 0.87957567 5 10
0.85594064 -14.115795 -2.2398291 8 3
0.80674607 -13.420804 -1.6508422 9 4
0.73296857 -12.447328 -0.65346682 8 6
0.41182515 -7.4358931 -1.995495 9 0
0.46316218 -8.4428892 -1.9521253 14 1
0.57767385 -10.666436 -2.0763836 24 2
0.8628487 -16.088051 -2.5517592 10 3
0.75366795 -14.191277 -1.7449254 4 4
0.65122622 -12.551869 -0.65870041 8 6
0.35953024 -7.4308681 -1.9934243 9 0
0.4096126 -8.558815 -1.9782196 14 1
0.50431359 -10.654432 -2.0733306 24 2
0.75147521 -16.054089 -2.5455019 10 3
1.1400017 -24.723864 -3.0389342 14 4
0.57026833 -12.655773 -0.66393399 8 6
0.30910283 -7.4370041 -1.9944596 9 0
0.35494074 -8.649024 -1.9984653 17 1
0.42944708 -10.645923 -2.0710409 22 2
0.63812083 -16.027361 -2.5404961 13 3
0.97636098 -24.850063 -3.0535586 17 4
0.48539677 -12.751253 -0.66874892 8 6
0.25704172 -7.4351192 -1.9934243 9 0
0.29594406 -8.6921911 -2.0079131 14 1
0.35550669 -10.660435 -2.0733306 24 2
0.52621704 -16.031425 -2.5404961 10 3
0.80502987 -24.923731 -3.0618455 15 4
0.40107936 -12.906049 -0.67670399 8 6
0.20491636 -7.4290075 -1.9913538 9 0
0.23367253 -8.6356039 -1.994416 14 1
0.28086722 -10.654807 -2.0718043 22 2
0.41326335 -15.995215 -2.5342386 10 3
0.63051343 -24.908901 -3.0594084 15 4
0.31270152 -12.980415 -0.6804722 8 6
0.15320626 -7.437983 -1.9934243 9 0
0.17318442 -8.627284 -1.9921664 16 1
0.20772287 -10.625066 -2.0656981 18 2
0.30340245 -15.946306 -2.526104 10 3
0.45816538 -24.998039 -3.0698888 12 4
0.22675636 -13.12203 -0.68779916 8 6
0.10220097 -7.4118104 -1.9861774 9 0
0.11533508 -8.6945143 -2.0074632 16 1
0.13354087 -10.626257 -2.0656981 24 2
0.19209269 -15.950012 -2.526417 9 3
0.28530294 -24.766356 -3.0411277 11 4
0.13530634 -13.139271 -0.6886366 8 6
0.050428867 -7.4084797 -1.9851422 9 0
0.055172905 -8.7808495 -2.0272589 17 1
0.059483927 -10.650489 -2.0702777 19 2
0.080345973 -15.873924 -2.514215 13 3
0.11207893 -24.698263 -3.0325971 16 4
0.044063743 -13.287692 -0.69638228 8 6
-0.0012971344 -7.4356976 -1.9923891 9 0
-0.0061602555 -8.8238945 -2.0371568 16 1
-0.01485297 -10.638865 -2.0679879 30 2
-0.030457905 -15.864222 -2.5126505 14 3
-0.060204677 -24.638895 -3.0252848 16 4
-0.050033595 -13.651175 -0.71543258 8 6
-0.053235702 -7.4393702 -1.9934243 9 0
-0.068180464 -8.8781986 -2.0497539 16 1
-0.087238289 -10.634592 -2.0672247 22 2
-0.13995682 -16.037474 -2.5401831 14 3
-0.23247702 -24.665663 -3.0286973 16 4
-0.47190249 -45.061687 -2.3617127 0 6
-0.10397977 -7.4465628 -1.995495 9 0
-0.12883577 -8.8931179 -2.0533531 21 1
-0.16100137 -10.602314 -2.0611188 25 2
-0.25461552 -16.207941 -2.5674028 12 3
-0.40081397 -24.691298 -3.0321095 16 4
-0.70762926 -40.54018 -2.1249447 0 6
-0.15564036 -7.430203 -1.9913538 9 0
-0.19225688 -8.9543467 -2.06775 19 1
-0.23518836 -10.608784 -2.0626454 24 2
-0.3672204 -16.182072 -2.5636482 11 3
-0.57359362 -24.705755 -3.0343032 19 4
-0.97872925 -40.047066 -2.0994048 0 6
-0.20761707 -7.4327984 -1.9923891 9 0
-0.25609571 -8.9995375 -2.0785477 21 1
-0.30913147 -10.602959 -2.0618823 24 2
-0.484696 -16.331152 -2.5877395 5 3
-0.74707425 -24.734882 -3.0384467 16 4
-1.2629243 -40.186981 -2.1071503 0 6
-0.25950184 -7.4311681 -1.9923891 9 0
-0.31774345 -8.9644213 -2.0708995 14 1
-0.38328835 -10.604465 -2.0626454 25 2
-0.59616357 -16.258276 -2.5767887 12 3
-0.92232031 -24.798494 -3.0469775 19 4
-1.5374713 -40.021515 -2.0989861 0 6
-0.31121305 -7.4253144 -1.9913538 9 0
-0.37808836 -8.9094162 -2.0587521 23 1
-0.45731217 -10.601532 -2.0626454 25 2
-0.71241063 -16.316872 -2.5868006 10 3
-1.0959498 -24.80335 -3.04844 19 4
-1.7843968 -39.295528 -2.0615137 0 6
-0.36474171 -7.4576926 -2.0006714 9 0
-0.44797468 -9.0622692 -2.0947442 14 1
-0.52907091 -10.590329 -2.0611188 25 2
-0.65344775 -12.943964 -2.0527334 4 3
-1.272939 -24.87043 -3.0577023 20 4
-2.081836 -39.856899 -2.0916591 0 6
-0.41485038 -7.4434643 -1.9975655 9 0
-0.50964934 -9.0590096 -2.0947442 15 1
-0.60343778 -10.594218 -2.0626454 24 2
-0.93504709 -16.266054 -2.5805433 10 3
-1.446908 -24.94244 -3.0676954 15 4
-2.2853937 -38.581337 -2.0255065 1 6
-0.46777314 -7.455811 -2.0017066 9 0
-0.57349485 -9.0649548 -2.0969937 14 1
-0.67528659 -10.585947 -2.0618823 24 2
-1.0419395 -16.200174 -2.5711572 6 3
-1.6170111 -24.870323 -3.0601394 20 4
-2.5940404 -39.262402 -2.0621414 0 6
-0.51873773 -7.4369464 -1.9975655 7 0
-0.63471699 -9.0315714 -2.0902452 15 1
-0.7507413 -10.576926 -2.0611188 25 2
-1.1603727 -16.22777 -2.5767887 10 3
-1.8035719 -25.038607 -3.0823197 17 4
-2.8107164 -38.36639 -2.0160859 1 6
-0.57389712 -7.4755201 -2.0089536 9 0
-0.70030576 -9.0599499 -2.0978935 14 1
-0.82332695 -10.579401 -2.0626454 25 2
-1.267102 -16.172234 -2.5692801 11 3
-1.9834929 -25.09071 -3.090363 12 4
-3.0816872 -38.469807 -2.0225756 1 6
-0.62444621 -7.4675899 -2.0079181 9 0
-0.75999784 -9.0316706 -2.0924947 13 1
-0.89616913 -10.561658 -2.0603557 25 2
-1.3819891 -16.186609 -2.5730343 11 3
-2.158309 -25.124094 -3.0962129 12 4
-3.382777 -38.821423 -2.042254 1 6
-0.67726135 -7.4707441 -2.0099888 9 0
-0.81984615 -8.9912128 -2.0843966 14 1
-0.96911526 -10.567044 -2.0626454 25 2
-1.48887 -16.141422 -2.5674028 13 3
-2.3369622 -25.143991 -3.1006 12 4
-3.6749809 -39.095768 -2.0579548 0 6
-0.72697246 -7.4544249 -2.0068829 9 0
-0.89034647 -9.0804567 -2.1064417 16 1
-1.0440198 -10.571743 -2.064935 25 2
-1.5745877 -15.859366 -2.5242269 11 3
-2.515156 -25.198612 -3.1093748 12 4
-0.78060389 -7.4645386 -2.011024 9 0
-0.94475549 -8.9887447 -2.0866458 17 1
-1.1182122 -10.568102 -2.0656981 25 2
-1.694877 -15.938345 -2.5386188 10 3
-2.691855 -25.188335 -3.1103497 10 4
-4.2020283 -38.869877 -2.0489528 1 6
-0.8331241 -7.4627476 -2.0120592 9 0
-1.0094397 -8.9993591 -2.0906951 15 1
-1.1928439 -10.567842 -2.0672247 22 2
-1.7771695 -15.67096 -2.4979458 9 3
-2.8665135 -25.159067 -3.1091309 15 4
-4.4371824 -38.5261 -2.0324149 1 6
-0.88474804 -7.4529128 -2.011024 9 0
-1.0787021 -9.0462732 -2.1032922 15 1
-1.2665911 -10.559257 -2.0672247 22 2
-1.9172457 -15.913127 -2.5386188 10 3
-3.0253932 -25.00049 -3.0920694 15 4
-0.93482864 -7.4312201 -2.0068829 7 0
-1.1423191 -9.0423889 -2.104192 12 1
-1.3402777 -10.550157 -2.0672247 15 2
-1.3496114 -10.579321 -1.6891795 17 3
-1.3519781 -10.553851 -1.3064394 19 4
-0.98922974 -7.4436631 -2.0120592 9 0
-1.2072233 -9.0477152 -2.1073413 7 1
-1.4146659 -10.560247 -2.0710409 24 2
-1.4236979 -10.585552 -1.6916825 6 3
-3.3629856 -24.87319 -3.0818324 12 4
-1.0393392 -7.4329305 -2.011024 9 0
-1.2555072 -8.9447269 -2.0852964 9 1
-1.4894516 -10.557891 -2.0725675 25 2
-2.229588 -15.744701 -2.5185952 10 3
-3.5322144 -24.849724 -3.0818324 17 4
-1.0917673 -7.429316 -2.0120592 9 0
-1.329012 -9.010932 -2.1028426 10 1
-1.5653074 -10.574697 -2.0779099 24 2
-2.3367074 -15.729161 -2.5185952 10 3
-3.7126429 -24.87158 -3.0876818 15 4
-1.1440743 -7.4331694 -2.0151651 9 0
-1.3891258 -8.9939728 -2.1010427 10 1
-1.6378893 -10.555752 -2.0763836 24 2
-2.4634795 -15.821768 -2.5361156 10 3
-3.9005451 -24.965372 -3.10255 12 4
-8.0820971 -51.31818 -2.7226214 0 6
-1.1953253 -7.4211864 -2.0141299 9 0
-1.4406897 -8.9148006 -2.0848465 10 1
-1.7128005 -10.551811 -2.0779099 24 2
-2.5884807 -15.89387 -2.5505078 10 3
-4.077939 -24.957123 -3.1049874 12 4
-1.248386 -7.4202809 -2.0162005 9 0
-1.5032136 -8.9064465 -2.0852964 9 1
-1.7877355 -10.547339 -2.0794365 28 2
-2.6874571 -15.805305 -2.5392444 10 3
-4.2650909 -25.004362 -3.1144934 15 4
-1.300159 -7.4113851 -2.0162005 9 0
-1.5646805 -8.8918972 -2.0843966 9 1
-1.8615339 -10.546526 -2.0817263 24 2
-2.7997975 -15.813878 -2.5436246 10 3
-4.4513602 -25.040428 -3.1227803 15 4
-8.4309225 -47.140293 -2.5097187 0 6
-1.3526562 -7.4137669 -2.0193064 9 0
-1.6234146 -8.8714561 -2.0821469 10 1
-1.9386646 -10.552582 -2.0855424 24 2
-2.8961694 -15.718183 -2.5314229 15 3
-4.6112409 -24.952942 -3.1157119 12 4
-1.4072611 -7.4193263 -2.0234473 9 0
-1.6849452 -8.8579912 -2.0816972 9 1
-1.804984 -9.4530935 -1.8706915 3 2
-3.0188348 -15.765486 -2.5423732 10 3
-4.7838326 -24.912342 -3.1147368 12 4
-9.3141851 -48.186718 -2.5721033 0 6
-1.456784 -7.3979483 -2.0203414 9 0
-1.7482545 -8.8536596 -2.0834966 9 1
-1.8167369 -9.1667986 -1.8165017 3 2
-3.129595 -15.747899 -2.542999 10 3
-4.9518175 -24.849134 -3.1110809 17 4
-1.5091689 -7.3913832 -2.0213768 9 0
-1.8006418 -8.7954197 -2.0726991 15 1
-1.8522415 -9.0154295 -1.7890252 4 2
-3.2187331 -15.625061 -2.5267298 7 3
-5.1332045 -24.85284 -3.1159556 15 4
-9.6625919 -46.495411 -2.4887843 0 6
-1.56313 -7.3920083 -2.0244827 9 0
-1.8648298 -8.7959795 -2.0758483 16 1
-1.8885813 -8.8774605 -1.76422 7 2
-3.3252661 -15.590618 -2.5248528 7 3
-5.2849998 -24.715454 -3.1032813 17 4
-7.4004364 -34.402748 -1.8442147 5 6
-1.6180007 -7.3960128 -2.0286238 9 0
-1.9228511 -8.767519 -2.0722492 21 1
-1.9304138 -8.7800312 -1.7474288 10 2
-3.4687262 -15.73738 -2.5523849 11 3
-5.5324287 -25.017155 -3.1459355 13 4
-1.6674541 -7.3810601 -2.0275886 9 0
-1.9816234 -8.7504263 -2.0713491 17 1
-2.3957372 -10.544881 -2.1019521 4 2
-3.5776303 -15.70893 -2.5517592 13 3
-5.7149553 -25.033104 -3.15276 13 4
-7.6541877 -33.33971 -1.792716 7 6
-1.7189431 -7.3692389 -2.0275886 9 0
-2.0337911 -8.6984272 -2.0623512 21 1
-2.1467059 -9.1597223 -1.8287135 3 2
-3.6926084 -15.718828 -2.5573912 10 3
-5.8873005 -24.982937 -3.1515415 15 4
-7.9232779 -33.465645 -1.802346 6 6
-1.77306 -7.3683281 -2.0306942 9 0
-2.0862434 -8.6499166 -2.0542529 21 1
-2.1249459 -8.7834759 -1.7565877 4 2
-3.789166 -15.62673 -2.5467534 10 3
-6.0625081 -24.945084 -3.1520288 15 4
-8.0810089 -33.074375 -1.7843423 7 6
-1.8291079 -7.3745203 -2.0358706 9 0
-2.14376 -8.6237955 -2.0515537 15 1
-2.1552572 -8.6506968 -1.7329274 7 2
-3.8839591 -15.55458 -2.5392444 6 3
-6.243259 -24.929113 -3.1554415 15 4
-8.1373682 -32.348431 -1.7481257 16 6
-1.8811729 -7.3693871 -2.0379412 9 0
-2.2072394 -8.627882 -2.0560527 15 1
-2.7010679 -10.527592 -2.1126373 10 2
-4.0263987 -15.659092 -2.5608325 9 3
-3.4511039 -13.392633 -1.6981276 16 4
-8.4150782 -32.491913 -1.7590116 7 6
-1.9374839 -7.3747592 -2.0431178 9 0
-2.2584889 -8.5783415 -2.0479543 18 1
-2.770488 -10.493294 -2.1095843 10 2
-4.1270304 -15.598138 -2.5555136 10 3
-3.5033083 -13.212791 -1.6783847 13 4
-8.7846661 -32.968891 -1.7881104 7 6
-1.984889 -7.3461337 -2.0389764 9 0
-2.3325815 -8.6150341 -2.0605516 15 1
-2.8781419 -10.600638 -2.1351528 7 2
-3.6716015 -13.49512 -2.2151122 10 3
-3.5787556 -13.126725 -1.670585 31 4
-9.0336161 -32.976109 -1.7918787 7 6
-2.0381942 -7.3395429 -2.0410471 9 0
-2.392668 -8.5985403 -2.0605516 15 1
-2.9649944 -10.633753 -2.145838 9 2
-3.6432445 -13.039845 -2.1444039 9 3
-3.6756637 -13.120537 -1.6730225 25 4
-2.090224 -7.332931 -2.0431178 7 0
-2.4629147 -8.6232777 -2.0704496 15 1
-3.0467269 -10.639218 -2.1511807 7 2
-3.6927817 -12.869788 -2.120626 24 3
-3.7737589 -13.117449 -1.6759474 30 4
-9.8083048 -33.959419 -1.8524836 5 6
-2.1437292 -7.3214936 -2.044153 9 0
-2.5300441 -8.6241312 -2.0749483 14 1
-3.1308939 -10.651592 -2.1580498 10 2
-3.7992995 -12.8923 -2.1287606 34 3
-3.862994 -13.083168 -1.6749724 16 4
-9.6739588 -32.616932 -1.7829815 7 6
-2.2014594 -7.3285518 -2.0503645 9 0
-2.601423 -8.6435804 -2.0839467 19 1
-3.2064681 -10.627037 -2.1576684 10 2
-3.8972144 -12.891932 -2.1331406 41 3
-3.9680476 -13.101478 -1.6808221 16 4
-4.0265436 -13.26957 -1.213208 21 5
-9.9049196 -32.560062 -1.7836096 14 6
-2.2491555 -7.3019266 -2.0472586 9 0
-2.6651487 -8.6363802 -2.0866458 20 1
-3.3314991 -10.77565 -2.1923954 10 2
-3.9889672 -12.878317 -2.1353307 34 3
-4.0717778 -13.113268 -1.6859406 42 4
-4.1214519 -13.248747 -1.2139051 31 5
-10.132258 -32.510956 -1.7846563 7 6
-2.2964804 -7.279079 -2.0451882 9 0
-2.7297471 -8.6366215 -2.091145 17 1
-3.4125743 -10.770844 -2.1962116 10 2
-4.0871444 -12.876513 -2.1397109 34 3
-4.1723709 -13.121192 -1.6905717 24 4
-4.182508 -13.129264 -1.2055383 20 5
-10.33954 -32.378548 -1.7813069 7 6
-2.3567476 -7.2922807 -2.0534704 9 0
-2.7875724 -8.6099377 -2.0893452 15 1
-3.5136726 -10.833271 -2.2137661 9 2
-4.1972828 -12.917907 -2.1512871 5 3
-4.2718639 -13.116282 -1.6937402 33 4
-4.2765374 -13.107322 -1.2062355 21 5
-2.4051168 -7.2724013 -2.0524352 9 0
-2.8485656 -8.5981636 -2.091145 15 1
-3.4134989 -10.279326 -2.1053865 9 2
-5.0125217 -15.068203 -2.5151536 9 3
-4.3660641 -13.101967 -1.6956902 36 4
-4.3767767 -13.103602 -1.2086759 31 5
-10.911729 -32.611717 -1.8022411 6 6
-2.4558282 -7.255434 -2.0524352 9 0
-2.919785 -8.6112871 -2.0992434 15 1
-11.257434 -33.16333 1.8354223 4 9
-3.5950975 -10.578684 -2.1717882 10 2
-11.197273 -32.929455 3.0429556 6 10
-5.1233249 -15.049672 -2.5179694 13 3
-8.3426962 -24.464521 -3.1737218 13 4
-2.5013638 -7.2235079 -2.0482941 9 0
-2.9734459 -8.5722828 -2.0947442 14 1
-11.098188 -31.959436 1.7730377 5 9
-3.6759541 -10.573725 -2.1759858 10 2
-5.1659012 -14.834449 -2.4879339 9 3
-8.5119791 -24.401934 -3.1732342 13 4
-11.474251 -32.765331 -1.8194072 6 6
-2.5517323 -7.2058697 -2.0482941 9 0
-3.0371277 -8.5623341 -2.0974436 15 1
-3.7419255 -10.53181 -2.1725514 18 2
-10.097549 -28.388573 2.6361127 16 10
-3.7215667 -10.457151 -1.7580107 14 3
-3.7171974 -10.421831 -1.3585995 11 4
-2.5967779 -7.1774344 -2.0451882 9 0
-3.0979943 -8.5487919 -2.0992434 14 1
-11.413812 -31.46167 1.7539873 17 9
-3.8099988 -10.490667 -2.1694984 10 2
-10.311646 -28.377232 2.6415162 6 10
-5.4253173 -14.914035 -2.5135894 6 3
-3.7853305 -10.388826 -1.3576245 19 4
-2.6481624 -7.1627541 -2.0462234 9 0
-3.163691 -8.5434027 -2.1032922 13 1
-10.629323 -28.673262 1.6026318 8 9
-3.8612857 -10.404914 -2.1572866 13 2
-10.835451 -29.182417 2.7234426 8 10
-4.6339068 -12.466858 -2.1065466 5 3
-9.0342379 -24.266401 -3.1793277 13 4
-15.250784 -40.811794 -2.2833133 0 6
-2.6994674 -7.147707 -2.0472586 9 0
-3.2246373 -8.5247526 -2.104192 15 1
-10.479132 -27.67378 1.5508193 34 9
-3.9554029 -10.434613 -2.169117 12 2
-10.795872 -28.465221 2.6634793 6 10
-5.6344228 -14.840526 -2.514215 10 3
-11.999726 -31.572905 4.1472144 7 11
-9.18367 -24.150787 -3.172503 18 4
-2.7534721 -7.1395016 -2.0503645 9 0
-3.2903903 -8.5183945 -2.1082413 23 1
-11.472338 -29.669575 1.6671097 7 9
-4.038075 -10.432378 -2.1744595 10 2
-12.938483 -33.409283 3.134469 2 10
-5.7278938 -14.775044 -2.5098348 11 3
-9.3304949 -24.030569 -3.1651909 15 4
-11.224369 -28.803867 -1.6201121 21 6
-2.7905092 -7.0877485 -2.0410471 7 0
-3.3326232 -8.4517059 -2.0974436 15 1
-4.1064801 -10.392978 -2.1721697 12 2
-11.145376 -28.193129 2.6523235 9 10
-5.4921851 -13.878754 -2.364038 7 3
-9.4760876 -23.909483 -3.1578786 15 4
-11.809176 -29.765841 5.071919 9 12
-12.53684 -31.519712 -1.777748 7 6
-2.8500066 -7.0931907 -2.0482941 9 0
-3.3930011 -8.4318495 -2.0983434 14 1
-12.660075 -31.429508 1.7757591 5 9
-4.1994925 -10.415038 -2.1828551 12 2
-12.867007 -31.895029 3.0089648 1 10
-5.7058086 -14.129477 -2.4134712 9 3
-12.305672 -30.442316 4.031682 5 11
-9.6368217 -23.828022 -3.1559289 18 4
-11.981108 -29.594784 5.056901 6 12
-2.9009223 -7.0766964 -2.0493293 9 0
-3.4488237 -8.4007463 -2.0965438 15 1
-4.28405 -10.414515 -2.1889608 12 2
-12.901303 -31.347498 2.9657354 2 10
-5.8163514 -14.118522 -2.4184771 6 3
-12.187943 -29.555531 3.9254119 3 11
-9.8089924 -23.774845 -3.1578786 15 4
-12.111266 -29.326014 5.025301 6 12
-2.9457834 -7.0455775 -2.0462234 9 0
-3.52244 -8.4124155 -2.1055419 15 1
-11.819167 -28.199318 1.6024225 16 9
-4.3665252 -10.407889 -2.1939218 13 2
-12.538411 -29.871481 2.8343046 7 10
-5.2796831 -12.566009 -2.1587958 3 3
-12.047674 -28.646288 3.8157294 6 11
-9.9023628 -23.533792 -3.1349673 18 4
-12.448355 -29.555693 5.0794277 6 12
-2.9948988 -7.0248408 -2.0462234 9 0
-3.5887344 -8.4055405 -2.1100409 15 1
-11.973364 -28.016943 1.5967702 8 9
-4.4383078 -10.375347 -2.1935403 12 2
-13.052381 -30.49758 2.9022863 2 10
-5.5376334 -12.926499 -2.2273142 8 3
-12.752751 -29.740067 3.9731846 5 11
-10.027286 -23.372873 -3.1227803 17 4
-12.772087 -29.742147 5.1266713 5 12
-3.0377085 -6.9895868 -2.0420823 9 0
-3.6519949 -8.3910036 -2.1127403 15 1
-12.173357 -27.956768 1.5980263 8 9
-4.4805875 -10.280107 -2.1798022 10 2
-5.7132044 -13.089465 -2.2620428 2 3
-12.288112 -28.126377 3.768688 14 11
-10.219638 -23.369598 -3.1317987 13 4
-12.822212 -29.307049 5.0665998 6 12
-3.0930345 -6.986413 -2.0472586 9 0
-3.7082353 -8.3641691 -2.1122904 14 1
-12.889958 -29.046774 1.665435 7 9
-4.5426836 -10.227044 -2.1752226 10 2
-5.6960654 -12.805602 -2.2198052 8 3
-13.037249 -29.282135 3.9356489 9 11
-10.356666 -23.250534 -3.1252177 17 4
-13.113376 -29.411669 5.1003895 6 12
-3.1369674 -6.9540839 -2.044153 7 0
-3.7689447 -8.3434057 -2.1136403 17 1
-11.970366 -26.486773 1.5232905 16 9
-4.5871067 -10.140435 -2.1633925 15 2
-12.476539 -27.555494 2.6463969 3 10
-6.2949767 -13.896539 -2.4162872 13 3
-13.168222 -29.042658 3.9154186 12 11
-10.484277 -23.101742 -3.1149807 17 4
-12.708936 -27.990721 4.8688669 14 12
-12.946389 -28.44772 -1.638011 10 6
-3.1858416 -6.9360814 -2.0451882 9 0
-3.8256485 -8.3175583 -2.1136403 16 1
-4.6750412 -10.145609 -2.1714065 10 2
-12.978283 -28.152063 2.7121124 6 10
-5.889462 -12.763515 -2.2263756 6 3
-13.977973 -30.278852 4.0948105 10 11
-10.61047 -22.963171 -3.1059625 12 4
-12.920624 -27.937174 4.8751245 7 12
-14.04344 -30.295528 -1.7500098 7 6
-3.2280705 -6.9037352 -2.0420823 9 0
-3.8714333 -8.2683821 -2.1077914 14 1
-14.154962 -30.203886 1.7481257 11 9
-4.7539968 -10.134881 -2.1759858 12 2
-13.429455 -28.616798 2.765626 5 10
-5.9577279 -12.683797 -2.2194924 4 3
-14.040216 -29.877584 4.0533748 10 11
-10.8375 -23.041306 -3.1264365 10 4
-14.032647 -29.807381 5.218029 8 12
-14.249322 -30.19924 -1.7500098 7 6
-3.2683456 -6.8676486 -2.0379412 7 0
-3.9301379 -8.247117 -2.1091411 17 1
-13.027471 -27.312658 1.5858843 25 9
-4.8177981 -10.091657 -2.173696 10 2
-13.35087 -27.953005 2.7101948 9 10
-6.0226264 -12.598395 -2.2116706 5 3
-13.841484 -28.92827 3.9375987 3 11
-10.986949 -22.941811 -3.1232679 15 4
-13.671877 -28.535416 5.0115352 6 12
-13.577891 -28.275904 -1.6438726 10 6
-3.3174074 -6.8440843 -2.0379412 9 0
-3.9601231 -8.159173 -2.0938444 16 1
-13.547226 -27.887035 1.6248223 16 9
-4.8975739 -10.0772 -2.1778939 13 2
-5.9734068 -12.269031 -2.161299 2 3
-13.597167 -27.915413 3.812561 13 11
-11.155543 -22.882389 -3.1257052 15 4
-14.327041 -29.361782 5.17454 5 12
-14.813482 -30.291594 -1.7671762 7 6
-3.3565578 -6.8034339 -2.0327649 7 0
-4.0169864 -8.1313286 -2.0938444 17 1
-4.9739108 -10.050694 -2.1798022 12 2
-14.020509 -28.318562 2.76458 5 10
-6.1606569 -12.432345 -2.1975915 6 3
-13.763942 -27.751595 3.8035424 3 11
-11.395313 -22.965771 -3.1478856 13 4
-15.083457 -30.372114 5.3710217 2 12
-14.346474 -28.824955 -1.6874161 9 6
-3.4022393 -6.7763815 -2.0317297 9 0
-4.0894117 -8.1344271 -2.1019428 16 1
-5.0686817 -10.064821 -2.1904874 10 2
-14.128222 -28.042061 2.747149 2 10
-6.2508554 -12.39609 -2.198843 6 3
-14.172002 -28.080156 3.86204 6 11
-11.560735 -22.896288 -3.1493478 10 4
-14.747212 -29.14394 6.348979 3 13
-3.4441915 -6.7421417 -2.0286238 9 0
-4.1567502 -8.1264982 -2.1073413 17 1
-5.1513577 -10.053652 -2.1958301 12 2
-6.4706979 -12.612267 -2.2451477 6 3
-16.19392 -31.537037 4.3529296 4 11
-11.710317 -22.795601 -3.1466668 15 4
-14.970417 -29.116789 5.1854906 8 12
-15.198327 -29.522043 6.4543052 2 13
-14.251708 -27.65955 -1.6306839 10 6
-3.49652 -6.728219 -2.0317297 9 0
-4.2079854 -8.0869093 -2.1046422 17 1
-16.364944 -31.423389 1.8567752 4 9
-5.1923814 -9.9617329 -2.1836183 10 2
-15.31615 -29.371964 2.8981028 4 10
-6.3913355 -12.246313 -2.1878927 8 3
-16.610374 -31.799746 4.4050894 1 11
-11.826882 -22.63236 -3.1354547 15 4
-14.807913 -28.252832 -1.6717153 9 6
-3.5361845 -6.6899815 -2.0275886 9 0
-4.2698073 -8.0676699 -2.1073413 16 1
-5.2719169 -9.9443216 -2.1878161 10 2
-15.505887 -29.236162 2.8953137 2 10
-6.4989028 -12.243269 -2.1954014 13 3
-15.232876 -28.673012 3.9865904 11 11
-11.982734 -22.545736 -3.1349673 18 4
-16.172379 -30.403019 5.4542446 2 12
-15.326632 -28.776722 6.3375301 3 13
-15.021705 -28.18049 -1.6735994 9 6
-3.5791445 -6.6583242 -2.0255179 9 0
-4.3241787 -8.0342321 -2.1064417 21 1
-16.01074 -29.735176 1.7698975 5 9
-5.3264418 -9.8840113 -2.1824734 9 2
-15.106201 -28.008406 2.7841032 5 10
-6.6458726 -12.316967 -2.2166767 8 3
-15.268279 -28.273476 3.9453983 18 11
-12.086987 -22.363737 -3.1213179 17 4
-15.112449 -27.9499 5.0324974 3 12
-15.32545 -28.284801 -1.6859506 9 6
-3.6262343 -6.6371989 -2.0265532 9 0
-4.3750253 -7.9977736 -2.1046422 16 1
-16.137375 -29.475519 1.7611051 5 9
-5.4085236 -9.8706894 -2.1878161 7 2
-6.687993 -12.190603 -2.2022848 4 3
-15.356376 -27.967825 3.9176121 9 11
-12.244659 -22.291388 -3.1227803 17 4
-15.533699 -28.255699 5.1069598 6 12
-3.6706061 -6.6083436 -2.0255179 9 0
-4.4288573 -7.9636302 -2.1037421 14 1
-16.413368 -29.501131 1.7692695 5 9
-5.3600187 -9.6260986 -2.1416404 10 2
-6.8025599 -12.201734 -2.2126093 2 3
-7.5956206 -13.601911 -1.9128615 7 4
-15.861509 -28.392467 5.1510749 5 12
-3.7098055 -6.5731111 -2.0224121 7 0
-4.4925489 -7.9502654 -2.1082413 14 1
-17.17738 -30.373293 1.8287232 4 9
-5.5247612 -9.7610102 -2.1801836 9 2
-17.334938 -30.614471 3.0779922 1 10
-7.4641399 -13.171357 -2.3978279 9 3
-16.057831 -28.312895 3.9965837 2 11
-12.576315 -22.165331 -3.1291175 15 4
-3.7575264 -6.5504031 -2.0234473 7 0
-4.5168858 -7.8646317 -2.0938444 15 1
-5.5908132 -9.7187986 -2.1794205 7 2
-7.5085855 -13.036764 -2.3828101 12 3
-16.62586 -28.843313 4.0877419 2 11
-12.672239 -21.975534 -3.1147368 12 4
-3.7992737 -6.5173349 -2.0213768 7 0
-4.5716805 -7.8329067 -2.0938444 15 1
-5.5346756 -9.4676685 -2.1317184 12 2
-6.1126609 -10.443821 -1.9166353 9 3
-12.814308 -21.867691 -3.1120558 7 4
-3.8407428 -6.484004 -2.0193064 9 0
-4.6511045 -7.8427029 -2.105092 14 1
-5.6501098 -9.5158691 -2.1511807 10 2
-6.1624107 -10.366315 -1.9100651 14 3
-6.1339784 -10.302106 -1.4721818 13 4
-6.1476579 -10.312793 -1.050401 15 5
-3.8788123 -6.4477787 -2.0162005 7 0
-4.6842699 -7.7774763 -2.0960939 15 1
-5.7681217 -9.5619278 -2.1706433 10 2
-6.667634 -11.039988 -2.0427215 13 3
-13.073513 -21.620985 -3.1023064 17 4
-6.2277613 -10.283257 -1.0517955 15 5
-3.9257464 -6.4238391 -2.0172358 9 0
-4.7465892 -7.7578826 -2.0996931 14 1
-5.9250064 -9.6687336 -2.2042258 12 2
-6.6433072 -10.828164 -2.0120604 13 3
-13.161792 -21.427702 -3.0876818 17 4
-3.9613266 -6.3815055 -2.0125771 6 0
-4.8119488 -7.742763 -2.1046422 17 1
-5.9695387 -9.5904655 -2.1958301 10 2
-6.6905322 -10.736257 -2.0036128 22 3
-13.255375 -21.246031 -3.0747638 10 4
-4.0109329 -6.361865 -2.0151651 9 0
-4.8658848 -7.7089815 -2.1046422 17 1
-6.0499845 -9.5701284 -2.2007911 10 2
-6.7980714 -10.74103 -2.0133119 18 3
-6.8785944 -10.855676 -1.5779644 7 4
-4.0531659 -6.3304548 -2.0141299 9 0
-4.9269462 -7.6863079 -2.1077914 14 1
-6.1113439 -9.5194006 -2.1988828 10 2
-6.9070673 -10.746487 -2.0233238 16 3
-13.555023 -21.065561 -3.0757387 10 4
-4.0961618 -6.3027191 -2.0141299 9 0
-4.9600205 -7.6231909 -2.0996931 14 1
-6.1759992 -9.477581 -2.1988828 10 2
-7.0167537 -10.755473 -2.0339613 19 3
-13.588456 -20.804949 -3.0511212 14 4
-4.1453505 -6.2843661 -2.0172358 9 0
-5.005353 -7.5794959 -2.0969937 11 1
-6.2436175 -9.4402351 -2.2000279 9 2
-7.1290622 -10.766756 -2.0452244 17 3
-13.771436 -20.774845 -3.0603833 17 4
-4.1955709 -6.2649055 -2.0203414 9 0
-5.0342689 -7.5087585 -2.087096 14 1
-6.3060865 -9.3915262 -2.1988828 12 2
-7.215075 -10.733118 -2.0483532 17 3
-13.902835 -20.658436 -3.0574584 17 4
-4.2370343 -6.2322674 -2.0193064 7 0
-5.0953393 -7.4863181 -2.0906951 12 1
-6.3703923 -9.3456497 -2.1985013 13 2
-7.2519727 -10.627008 -2.0377157 19 3
-7.5687003 -11.078677 -1.6474299 4 4
-4.2892179 -6.2152548 -2.0234473 9 0
-5.1386175 -7.437737 -2.087096 14 1
-6.3768997 -9.2197256 -2.1790388 10 2
-7.4703283 -10.788527 -2.0783885 17 3
-7.5904307 -10.945637 -1.6354867 7 4
-23.612259 -33.973591 -2.1682787 0 6
-4.3258843 -6.1780028 -2.0208592 6 0
-5.1891255 -7.4025869 -2.087096 14 1
-6.4230618 -9.1492729 -2.1729329 12 2
-7.5636377 -10.761971 -2.0833945 16 3
-14.232917 -20.228872 -3.0369844 16 4
-19.204576 -27.224232 -1.7460325 8 6
-4.3756227 -6.1571012 -2.0239649 6 0
-5.2361598 -7.359828 -2.0852964 14 1
-6.491334 -9.1106052 -2.1744595 10 2
-7.5995855 -10.654225 -2.072757 13 3
-14.403788 -20.171017 -3.0433216 16 4
-18.510553 -25.855274 -1.6664816 9 6
-4.3744287 -6.0652962 -2.0037773 4 0
-5.2805676 -7.3136153 -2.0825968 11 1
-6.5363736 -9.0396099 -2.1683536 10 2
-7.4884486 -10.34489 -2.0226979 10 3
-14.58619 -20.127836 -3.0520961 17 4
-18.695303 -25.73188 -1.6669004 9 6
-4.3231072 -5.9067774 -1.9613309 4 0
-5.3291941 -7.2734275 -2.0816972 14 1
-6.6237135 -9.0269976 -2.1763675 10 2
-7.571012 -10.306686 -2.0255136 9 3
-14.680484 -19.963148 -3.0425904 19 4
-19.052273 -25.841873 -1.6826012 9 6
-4.3365951 -5.8392301 -1.9489075 4 0
-5.3775167 -7.2329178 -2.0807972 14 1
-6.6607785 -8.9458923 -2.1679718 10 2
-7.6923642 -10.3201 -2.0386541 9 3
-14.735207 -19.747213 -3.0252848 21 4
-19.260925 -25.746618 -1.6851133 18 6
-4.356328 -5.7810416 -1.93959 4 0
-5.4208398 -7.1858649 -2.0780978 14 1
-6.6883883 -8.8564787 -2.1572866 18 2
-7.7981715 -10.314773 -2.0480404 9 3
-14.805606 -19.555233 -3.0116355 16 4
-19.351223 -25.503544 -1.6777864 9 6
-4.3908834 -5.7451162 -1.9375196 4 0
-5.4743614 -7.1549916 -2.0798974 14 1
-6.7010984 -8.745676 -2.1416404 12 2
-7.9000483 -10.299264 -2.0558619 8 3
-7.9020066 -10.290655 -1.5930762 7 4
-19.599461 -25.459616 -1.6838571 9 6
-4.4214149 -5.7021084 -1.9333783 4 0
-5.5170102 -7.1073632 -2.077198 14 1
-6.7933173 -8.7389822 -2.1515625 12 2
-8.0202856 -10.306219 -2.0683768 8 3
-8.0065956 -10.277519 -1.5996571 9 4
-19.757057 -25.296978 -1.6821826 9 6
-4.4611149 -5.671102 -1.9333783 4 0
-5.5713172 -7.0747986 -2.0789976 14 1
-6.8687501 -8.7098408 -2.1561418 12 2
-8.1361036 -10.305794 -2.0796399 8 3
-8.1298447 -10.286786 -1.6098942 9 4
-20.320162 -25.646856 -1.7148402 8 6
-4.4885468 -5.6247206 -1.9282019 4 0
-5.6108403 -7.0235515 -2.0753984 14 1
-6.9327798 -8.6690207 -2.1576684 12 2
-8.2480392 -10.302605 -2.0902774 8 3
-8.2511301 -10.291731 -1.6196437 9 4
-4.5145769 -5.57902 -1.9230256 4 0
-5.6707845 -7.000339 -2.0798974 14 1
-6.978291 -8.6021109 -2.1530888 12 2
-8.3359528 -10.264705 -2.0943449 9 3
-8.3585596 -10.281537 -1.6269559 9 4
-4.5534143 -5.5473676 -1.9230256 4 0
-5.7120967 -6.9515438 -2.077198 13 1
-7.0381732 -8.5531855 -2.1530888 10 2
-8.4865332 -10.302317 -2.1140556 8 3
-8.4882269 -10.293385 -1.6381679 9 4
-8.5761194 -10.385186 -1.1783456 19 5
-4.5945053 -5.5184121 -1.9240609 4 0
-5.7505054 -6.8995223 -2.0735989 13 1
-7.0851345 -8.4887705 -2.1492727 10 2
-8.5607834 -10.245851 -2.1146812 8 3
-8.5942707 -10.274985 -1.6447488 7 4
-8.6466112 -10.32657 -1.1783456 19 5
-4.6154675 -5.465539 -1.9168139 3 0
-5.7985315 -6.8592095 -2.0735989 12 1
-7.122458 -8.4163685 -2.1431668 12 2
-8.7273693 -10.301891 -2.1384594 8 3
-8.7056026 -10.261664 -1.6523046 9 4
-4.6299481 -5.4075818 -1.9074965 4 0
-5.8653774 -6.8432546 -2.0807972 13 1
-7.1861582 -8.3723974 -2.1446934 10 2
-8.8415604 -10.290155 -2.1487842 9 3
-8.8309126 -10.266882 -1.6627855 11 4
-4.6675873 -5.3751273 -1.9074965 4 0
-5.9027815 -6.7903738 -2.077198 13 1
-7.2597332 -8.3425436 -2.1496544 13 2
-8.955512 -10.280378 -2.1594217 9 3
-8.9571791 -10.267811 -1.6730225 7 4
-8.9902573 -10.294844 -1.1957767 20 5
-4.6887479 -5.3258309 -1.9012847 9 0
-5.9437118 -6.7441907 -2.0753984 13 1
-7.3515744 -8.3299294 -2.1595764 18 2
-9.0846109 -10.282743 -2.1731877 9 3
-9.0689459 -10.254187 -1.6808221 7 4
-9.1076727 -10.287111 -1.202052 20 5
-4.7258139 -5.2929692 -1.9012847 22 0
-5.9594812 -6.6676612 -2.0646007 11 1
-7.3963208 -8.2665291 -2.1561418 12 2
-9.2545528 -10.332499 -2.1969659 6 3
-9.1986332 -10.255646 -1.6915467 7 4
-9.2644558 -10.318159 -1.213208 21 5
-4.7570839 -5.2518573 -1.8986967 18 0
-5.9860973 -6.601747 -2.0574024 10 1
-7.4633169 -8.2193565 -2.1580498 16 2
-9.7100534 -10.68244 -2.2864466 6 3
-9.3252249 -10.248288 -1.7012962 7 4
-9.3380547 -10.251599 -1.213208 21 5
-21.329809 -23.383701 -1.658736 10 6
-4.8001671 -5.2256322 -1.9012847 12 0
-6.0082965 -6.5339751 -2.0493042 11 1
-7.5257406 -8.1755867 -2.1599579 12 2
-9.6593895 -10.482452 -2.2576625 12 3
-9.4423151 -10.232537 -1.7095833 7 4
-9.4093962 -10.186158 -1.213208 21 5
-21.521027 -23.273165 -1.6612481 20 6
-4.8198261 -5.1758733 -1.8950732 4 0
-5.9822059 -6.4173789 -2.0254593 17 1
-7.5585184 -8.0970154 -2.1530888 10 2
-9.6487131 -10.325279 -2.2382646 10 3
-9.5876865 -10.249212 -1.7232326 7 4
-9.6164875 -10.265627 -1.2306391 21 5
-21.688444 -23.128183 -1.6616668 10 6
-4.8584967 -5.144906 -1.8961084 3 0
-6.0496206 -6.3995314 -2.0331075 14 1
-7.5851693 -8.0126839 -2.1446934 10 2
-9.9053526 -10.45267 -2.2808149 9 3
-9.7163858 -10.242516 -1.7334697 7 4
-21.563097 -22.675167 -1.639895 10 6
-4.8568835 -5.0717959 -1.8816146 4 0
-6.0698757 -6.3318219 -2.0250094 14 1
-7.6164508 -7.9340405 -2.1378241 12 2
-10.013672 -10.420295 -2.2889495 9 3
-9.8509617 -10.24024 -1.7446817 7 4
-9.8953171 -10.275576 -1.2480702 22 5
-21.62937 -22.42919 -1.6329867 10 6
-4.9110165 -5.0571661 -1.8888614 3 0
-6.1112165 -6.2864947 -2.0241096 14 1
-7.6606956 -7.8721642 -2.1351528 13 2
-10.277345 -10.549987 -2.332751 9 3
-9.966567 -10.216692 -1.7524813 6 4
-22.002129 -22.507105 -1.6495248 10 6
-4.9263506 -5.0043478 -1.8816146 4 0
-6.1511288 -6.2419772 -2.0232098 13 1
-7.70857 -7.8115058 -2.1332448 12 2
-10.092531 -10.216596 -2.2745574 22 3
-10.11544 -10.229069 -1.7663743 4 4
-21.888756 -22.080608 -1.6294278 10 6
-4.9638972 -4.972568 -1.8826498 4 0
-6.2000666 -6.2043962 -2.0250094 14 1
-7.7684717 -7.763051 -2.1347711 12 2
-9.8462601 -9.8290911 -2.203536 6 3
-16.57098 -16.524773 -2.8734355 8 4
-22.458666 -22.341385 -1.6602014 10 6
-4.9874954 -4.9269319 -1.8785087 4 0
-6.255712 -6.1732802 -2.0290585 16 1
-7.8294711 -7.715517 -2.1366794 10 2
-9.9047852 -9.750411 -2.2013459 9 3
-12.75967 -12.547652 -2.1973045 11 4
-22.665422 -22.234394 -1.6639695 19 6
-5.0245385 -4.8946891 -1.879544 3 0
-6.3042436 -6.1348934 -2.0308583 16 1
-7.8719521 -7.6524682 -2.1340079 10 2
-9.9907627 -9.702034 -2.2057261 9 3
-12.208527 -11.839158 -2.0881095 5 4
-22.623913 -21.893492 -1.6499435 10 6
-5.0382376 -4.8416343 -1.872297 3 0
-6.3641324 -6.1093841 -2.0367069 13 1
-7.8968387 -7.5701518 -2.1263754 10 2
-10.061106 -9.6347818 -2.206352 9 3
-12.304612 -11.770873 -2.0907905 7 4
-22.591259 -21.558519 -1.6365455 21 6
-5.0663056 -4.8010287 -1.8702265 4 0
-6.3740778 -6.0339932 -2.0263591 7 1
-7.9423633 -7.5080943 -2.1244676 10 2
-10.139613 -9.5751562 -2.2088549 9 3
-10.902072 -10.284376 -1.8402272 13 4
-22.252495 -20.940386 -1.6013757 11 6
-5.10817 -4.7734551 -1.8733324 3 0
-6.2151914 -5.801846 -1.9629229 6 1
-7.967299 -7.4270301 -2.1172168 10 2
-10.220667 -9.5176001 -2.2119834 9 3
-13.631979 -12.680924 -2.2860253 6 4
-11.03569 -10.25141 -1.3177948 25 5
-22.181467 -20.583456 -1.5858843 11 6
-5.115797 -4.7141142 -1.8640147 3 0
-6.2440724 -5.7477565 -1.9593236 7 1
-8.0088396 -7.3619246 -2.1145453 10 2
-10.304326 -9.4620438 -2.2157381 7 3
-12.029109 -11.03424 -2.0042634 10 4
-11.180449 -10.241405 -1.3265103 25 5
-22.796139 -20.859554 -1.6193793 10 6
-5.1442933 -4.6743884 -1.862462 2 0
-6.2551889 -5.6778278 -1.9503256 7 1
-8.0454912 -7.2926493 -2.1107292 10 2
-10.34963 -9.371316 -2.2113578 7 3
-12.389979 -11.206998 -2.0513051 2 4
-11.364043 -10.264599 -1.339758 26 5
-23.252609 -20.980877 -1.6413604 10 6
-5.1696081 -4.6319132 -1.8598738 2 0
-6.2540169 -5.5976315 -1.9377284 7 1
-8.090353 -7.2310705 -2.1092029 7 2
-10.485531 -9.3619833 -2.2263756 11 3
-13.177536 -11.753136 -2.1680558 5 4
-23.129923 -20.579069 -1.6225195 21 6
-5.1844444 -4.5803618 -1.853662 2 0
-6.2929416 -5.5538354 -1.9377284 7 1
-8.1288548 -7.1640277 -2.1061497 9 2
-10.523947 -9.2650576 -2.2207439 9 3
-13.17877 -11.590065 -2.1548939 10 4
-23.513252 -20.627834 -1.6392671 10 6
-5.2046432 -4.5339036 -1.849521 1 0
-6.331563 -5.5097656 -1.9377284 7 1
-8.1863203 -7.1162586 -2.1084394 7 2
-10.527108 -9.1414013 -2.2082293 9 3
-13.376342 -11.59922 -2.1739056 6 4
-23.396358 -20.245138 -1.6214728 10 6
-5.2412438 -4.5034089 -1.8515915 2 0
-6.3393445 -5.4411573 -1.9287304 6 1
-8.2298384 -7.0538259 -2.1069131 9 2
-10.614676 -9.0882444 -2.2132351 9 3
-13.970919 -11.949174 -2.2572641 11 4
-23.758965 -20.270567 -1.6367549 10 6
-5.2312837 -4.4317436 -1.8370978 1 0
-6.347425 -5.3715901 -1.9197323 7 1
-8.2626677 -6.9849691 -2.1030967 9 2
-10.652145 -8.9953899 -2.2082293 9 3
-13.308883 -11.223011 -2.1375885 8 4
-24.110336 -20.288406 -1.6514089 20 6
-5.2791171 -4.4108977 -1.8433093 2 0
-6.3778553 -5.3232665 -1.9179326 7 1
-8.3413925 -6.9522533 -2.1107292 9 2
-10.617526 -8.8399124 -2.1882055 11 3
-13.800099 -11.477423 -2.2038856 4 4
-24.309795 -20.168056 -1.6553864 10 6
-5.3291674 -4.3899016 -1.8500385 2 0
-6.3877792 -5.2563224 -1.9098345 8 1
-8.3684893 -6.8764024 -2.1053865 9 2
-10.706464 -8.7881355 -2.1938372 9 3
-13.855327 -11.360663 -2.1999855 4 4
-24.437635 -19.987734 -1.6545491 10 6
-5.340189 -4.3367596 -1.8433093 3 0
-8.4284945 -6.8276978 -2.1084394 9 2
-10.77063 -8.7156582 -2.194463 9 3
-13.313698 -10.761995 -2.1020026 8 4
-24.315376 -19.606026 -1.6369642 10 6
-5.3522367 -4.2848859 -1.8370978 4 0
-6.4422812 -5.1520195 -1.9044356 30 1
-8.4575472 -6.7539892 -2.1038601 9 2
-10.840477 -8.647646 -2.1963401 9 3
-13.633795 -10.864251 -2.1405134 1 4
-25.261557 -20.079554 -1.6911843 18 6
-5.3759551 -4.2426267 -1.8350271 3 0
-6.4780931 -5.1069164 -1.9044356 7 1
-8.4952354 -6.6874952 -2.1015704 9 2
-10.931641 -8.5961761 -2.2025976 9 3
-13.289382 -10.438948 -2.0749476 5 4
-25.375959 -19.883001 -1.6895095 9 6
-5.4267902 -4.2216001 -1.8422741 3 0
-6.495122 -5.0472188 -1.8990368 7 1
-8.5572281 -6.640058 -2.1053865 7 2
-11.035102 -8.5535336 -2.2113578 9 3
-13.316418 -10.310672 -2.0678792 12 4
-25.934622 -20.0301 -1.7173523 17 6
-5.431601 -4.164803 -1.8339919 5 0
-6.5271072 -4.9993801 -1.8981371 7 1
-8.569067 -6.5539174 -2.0969911 9 2
-11.100824 -8.4810858 -2.2126093 9 3
-13.32495 -10.169284 -2.0581295 16 4
-13.445823 -10.250396 -1.4792072 30 5
-26.124678 -19.887264 -1.7207018 17 6
-5.4451323 -4.1151338 -1.8288155 7 0
-6.5494061 -4.9442983 -1.8945377 7 1
-8.6009388 -6.4859815 -2.0939381 9 2
-11.14883 -8.3981972 -2.2107322 11 3
-15.342146 -11.540156 -2.357197 11 4
-14.746751 -11.080223 -1.6137757 34 5
-26.166794 -19.639441 -1.7146307 17 6
-5.4559755 -4.065279 -1.8231214 6 0
-6.579783 -4.8972769 -1.8936379 7 1
-8.6239481 -6.4093843 -2.0885954 10 2
-11.140574 -8.2707043 -2.1975915 12 3
-15.520792 -11.509955 -2.3725526 12 4
-14.881387 -11.019691 -1.6200509 35 5
-27.086851 -20.035906 -1.7657107 7 6
-5.4920096 -4.0328074 -1.8257096 7 0
-6.5713844 -4.8201036 -1.8814906 4 1
-8.6336403 -6.3234982 -2.0801997 9 2
-11.158186 -8.1635666 -2.18977 13 3
-14.156728 -10.345989 -2.1529438 5 4
-27.045307 -19.71454 -1.7539873 15 6
-5.5169001 -3.9921024 -1.8246742 7 0
-6.5922408 -4.764977 -1.8778914 4 1
-8.6314096 -6.2297516 -2.0691328 10 2
-11.192472 -8.0692987 -2.1853898 13 3
-14.08041 -10.140181 -2.1305199 6 4
-28.27236 -20.30827 -1.824327 6 6
-5.5351973 -3.9467607 -1.8215685 7 0
-6.6221709 -4.7165766 -1.8769917 4 1
-8.6752138 -6.1719928 -2.0695145 10 2
-11.216545 -7.9711857 -2.1794453 10 3
-14.236662 -10.10252 -2.1434383 7 4
-28.351259 -20.073809 -1.8205588 12 6
-5.5445471 -3.8967745 -1.8158745 6 0
-6.657311 -4.6736331 -1.8778914 3 1
-8.7116604 -6.1067705 -2.0679879 9 2
-11.262213 -7.8858862 -2.177568 9 3
-14.433605 -10.095262 -2.1626935 6 4
-5.5589118 -3.8491721 -1.8117335 6 0
-6.6737509 -4.6159554 -1.8733923 3 1
-8.7799273 -6.0636559 -2.0740941 9 2
-11.31699 -7.8070717 -2.177568 9 3
-14.629594 -10.080984 -2.1814616 7 4
-5.5920315 -3.8146255 -1.8138039 6 0
-6.6864872 -4.5560846 -1.8679937 2 1
-8.8415251 -6.0154629 -2.0786731 9 2
-11.28136 -7.6668029 -2.1603601 13 3
-14.827727 -10.065567 -2.2004731 9 4
-5.6201286 -3.7765715 -1.8143215 7 0
-6.7084231 -4.5027785 -1.8652942 2 1
-8.6582451 -5.8027577 -2.02601 4 2
-11.318193 -7.5768714 -2.1572316 14 3
-15.014794 -10.04015 -2.2177784 11 4
-5.6399145 -3.7329774 -1.812251 7 0
-6.7396955 -4.4558339 -1.8652942 2 1
-8.5641899 -5.653482 -1.9947174 4 2
-11.388954 -7.5096321 -2.1606731 12 3
-15.053024 -9.9143372 -2.2131476 13 4
-5.6528907 -3.6850739 -1.80811 7 0
-6.7575731 -4.4001675 -1.8616948 4 1
-8.5820541 -5.5796413 -1.9897563 4 2
-11.487491 -7.4600644 -2.1694334 10 3
-15.421644 -10.003456 -2.2570205 9 4
-34.29842 -22.188646 -2.1408548 0 6
-5.6882334 -3.6517811 -1.8112158 7 0
-6.7586002 -4.3339477 -1.8535968 5 1
-8.5778093 -5.4920697 -1.9798342 4 2
-11.452754 -7.3243446 -2.1531644 9 3
-15.700216 -10.029133 -2.2874877 6 4
-15.858936 -10.118834 -1.645849 35 5
-5.684196 -3.5933998 -1.8018982 5 0
-6.7870431 -4.2856188 -1.8531467 6 1
-8.5983877 -5.4230814 -1.9760182 4 2
-11.495659 -7.2420068 -2.1519127 10 3
-15.968131 -10.043994 -2.3162489 5 4
-5.711803 -3.556669 -1.8029336 5 0
-6.8028193 -4.2310877 -1.8495475 7 1
-8.6010151 -5.3411717 -1.968004 4 2
-11.559367 -7.1699047 -2.1544156 9 3
-16.780306 -10.396125 -2.4237378 9 4
-5.7332001 -3.5146873 -1.8018982 5 0
-6.8222208 -4.1773863 -1.8468481 6 1
-8.5978928 -5.2564182 -1.9588453 4 2
-11.60914 -7.0890307 -2.1544156 9 3
-16.583012 -10.11437 -2.3849833 11 4
-36.115841 -21.967403 -2.2153811 0 6
-5.7443657 -3.4665909 -1.7977571 3 0
-6.8295202 -4.1165805 -1.8409994 5 1
-8.5570011 -5.1497006 -1.9412909 9 2
-11.646496 -7.00069 -2.1522255 8 3
-16.852345 -10.117905 -2.4135008 12 4
-5.7999845 -3.4451485 -1.8075923 2 0
-6.853065 -4.0658178 -1.8396497 7 1
-8.5986109 -5.0953388 -1.9428172 30 2
-11.678578 -6.9121976 -2.1494098 9 3
-16.809772 -9.9333563 -2.397414 9 4
-34.61216 -20.404396 -2.105685 0 6
-5.7899475 -3.386085 -1.7972395 2 0
-6.8637538 -4.0092492 -1.8351506 8 1
-8.6170149 -5.0252948 -1.9390012 10 2
-11.702653 -6.8165774 -2.1450298 9 3
-16.475491 -9.5851173 -2.340379 9 4
-34.16293 -19.819498 -2.0698874 0 6
-5.8117723 -3.3446167 -1.7967219 4 0
-6.8814402 -3.955405 -1.8324513 8 1
-8.6271839 -4.9528394 -1.9336585 4 2
-11.755635 -6.7406921 -2.146281 9 3
-16.976141 -9.718399 -2.4018011 9 4
-34.605759 -19.762804 -2.0885189 0 6
-5.8142319 -3.2935548 -1.7905102 4 0
-6.8946347 -3.9007974 -1.8288521 8 1
-8.6649685 -4.8944225 -1.9344217 4 2
-11.781762 -6.6468139 -2.1425269 9 3
-16.874144 -9.5080957 -2.3781586 11 4
-34.962284 -19.643997 -2.1017075 0 6
-5.8370838 -3.2528834 -1.7905102 5 0
-6.9080768 -3.8449867 -1.8252529 9 1
