# .PCD v0.7 - Point Cloud Data file format
VERSION 0.7
FIELDS x y z intensity ring
SIZE 4 4 4 4 2
TYPE F F F F U
COUNT 1 1 1 1 1
WIDTH 1347
HEIGHT 1
VIEWPOINT 0 0 0 1 0 0 0
POINTS 1347
DATA ascii
5.1904774 4.4456401 -1.3284123 18 2
5.7427015 4.9134097 -1.1970366 16 3
15.581386 13.321879 2.5170896 4 11
6.3705482 5.4428864 -1.0288211 5 4
7.5682888 6.4593639 -0.87051159 30 5
16.066427 13.697801 -1.1064868 9 6
7.6527534 6.5199118 2.3210452 2 14
4.3496332 3.6822357 -1.5270324 9 0
7.4944868 6.3400669 0.17134774 37 8
4.7943392 4.0544 -1.4495846 18 1
5.2318888 4.418159 -1.3310837 15 2
5.7844152 4.8795638 -1.198601 15 3
6.2450237 5.2625256 -1.0027411 2 4
7.7529817 6.5286174 1.6053306 3 12
7.6040525 6.3986731 -0.86946571 30 5
7.7583785 6.5262227 1.9706753 3 13
7.8446226 6.5940952 -0.53707159 10 6
4.3841319 3.6592095 -1.5301383 9 0
7.5846357 6.3260159 0.17239487 38 8
4.8315058 4.0283198 -1.452284 21 1
7.8165436 6.5125031 0.53319877 19 9
5.3139043 4.4242358 -1.3440586 13 2
7.819263 6.5078363 0.89003444 16 10
5.8745341 4.8857985 -1.2101772 14 3
7.7829385 6.4684067 1.2425799 15 11
6.4098697 5.325357 -1.0232152 18 4
7.7998915 6.4755945 1.6056436 17 12
7.6592722 6.3543353 -0.87068588 24 5
7.7886395 6.4593678 1.9668592 18 13
14.253895 11.812817 -0.970204 9 6
7.7940669 6.4546909 2.3363416 19 14
7.8727117 6.5175052 -0.17839849 11 7
4.4259801 3.6420162 -1.5358323 8 0
7.6873116 6.3211699 0.17372125 38 8
4.9016628 4.02914 -1.4648812 16 1
8.0670872 6.6263781 0.54712015 2 9
5.3568025 4.3969951 -1.3471116 15 2
5.9512711 4.8797369 -1.2189375 14 3
6.6480689 5.4452567 -1.0551448 19 4
7.7115993 6.3096232 -0.87173176 12 5
15.387749 12.572318 -1.041381 9 6
4.4633002 3.6207643 -1.5399734 8 0
7.778306 6.3077474 0.17480332 39 8
4.9296722 3.9948218 -1.4648812 15 1
5.4110208 4.380197 -1.3532175 13 2
6.0196748 4.8676853 -1.2261335 13 3
6.4357185 5.1966839 -1.0156592 19 4
8.0452185 6.4939899 1.6375562 5 12
7.8143873 6.3031693 -0.8783555 18 5
8.07372 6.5076928 2.0157063 1 13
4.477283 3.581852 -1.5363499 9 0
7.9002495 6.3157234 0.17654854 40 8
4.9689288 3.9709067 -1.4684805 15 1
8.2762928 6.6092458 0.55507523 2 9
5.4875064 4.3790488 -1.364666 15 2
8.1785736 6.5241995 0.91530961 2 10
6.0689597 4.8378515 -1.2292621 12 3
8.2028408 6.534193 1.2876717 2 11
6.6650577 5.3073239 -1.0461266 21 4
8.1846447 6.5126972 1.6566411 3 12
7.8571138 6.2498283 -0.8783555 24 5
8.196207 6.5148926 2.0351689 2 13
4.5188661 3.5636661 -1.5420439 8 0
7.9933085 6.3014174 0.1776655 41 8
5.0087762 3.9457676 -1.4720796 15 1
8.4372034 6.644197 0.56282091 2 9
5.5495839 4.3670936 -1.3726799 13 2
8.3069315 6.5322118 0.92454815 1 10
6.1079597 4.8013158 -1.2305136 11 3
8.3126955 6.5297041 1.2979087 2 11
6.8440404 5.3722053 -1.0683068 18 4
8.343791 6.5470691 1.6797936 3 12
8.0040312 6.2759657 -0.88986009 18 5
8.3249416 6.5229001 2.0557761 2 13
4.5497341 3.5367763 -1.5441145 8 0
8.1108398 6.300487 0.17927112 41 8
5.0700631 3.9369981 -1.4819776 16 1
8.4845333 6.5836515 0.56282091 2 9
5.5931044 4.336894 -1.375733 12 2
8.4184675 6.5253282 0.93186915 1 10
6.2405477 4.8336921 -1.2502245 14 3
8.4565325 6.5453887 1.3130203 2 11
6.8609695 5.3085027 -1.0651382 20 4
8.446682 6.5306954 1.6910567 3 12
8.0834217 6.2453279 -0.893695 12 5
8.4666147 6.539021 2.0794365 2 13
4.5773816 3.507277 -1.5451498 8 0
8.2086105 6.2850423 0.18045788 42 8
5.1067095 3.908613 -1.484677 16 1
8.6381655 6.6067657 0.5699386 2 9
5.6279244 4.3013177 -1.3768778 12 2
8.536644 6.5220375 0.93988752 1 10
6.3133945 4.8199744 -1.2580462 12 3
8.5525255 6.5247207 1.32082 1 11
6.8678718 5.2376022 -1.0605072 16 4
8.6083345 6.5601702 1.7142091 3 12
8.2187614 6.2587543 -0.90380508 12 5
8.5886011 6.5380259 2.0981357 3 13
4.61409 3.4845471 -1.5492908 8 0
8.3368864 6.2914238 0.18230784 32 8
5.1214266 3.8634772 -1.4810777 22 1
8.7351151 6.5847716 0.57328814 2 9
5.6829042 4.2808247 -1.3829837 12 2
8.699748 6.5509706 0.95278651 1 10
6.3674073 4.791225 -1.2621135 13 3
8.7374907 6.5698376 1.3422691 2 11
7.0137596 5.2718253 -1.0773251 20 4
8.7360563 6.5616021 1.7304782 3 12
8.2898521 6.2241983 -0.90694261 12 5
8.6764364 6.5097184 2.1084394 4 13
4.6723981 3.4776256 -1.5606788 9 0
8.4260445 6.2691474 0.18332008 33 8
5.1482739 3.8276289 -1.4810777 22 1
8.9400358 6.6442986 0.58375531 2 9
5.7355556 4.2595987 -1.388708 12 2
8.8156652 6.5423231 0.96045625 1 10
6.3998747 4.7477689 -1.2621135 13 3
8.858551 6.5669599 1.3539685 2 11
7.0870814 5.2499094 -1.0829312 16 4
8.8868771 6.5807519 1.7514404 3 12
8.3587294 6.1851349 -0.90973163 12 5
8.8037577 6.5096841 2.1282835 2 13
4.7224379 3.4651721 -1.5694788 11 0
8.567977 6.2822981 0.18544927 33 8
5.2119293 3.8201482 -1.4918754 22 1
9.0119848 6.600606 0.58543009 2 9
5.782578 4.2322106 -1.3929057 12 2
8.8792925 6.4962778 0.96254802 1 10
6.4392405 4.7076402 -1.2633649 13 3
9.0035639 6.5775533 1.3690803 1 11
7.3150234 5.3420377 -1.1121798 12 4
9.0490913 6.6035495 1.77428 3 12
8.4918556 6.1923676 -0.91949302 13 5
8.8938723 6.4831452 2.1393507 2 13
4.7887836 3.4626794 -1.5834551 9 0
8.6813211 6.2726927 0.18695019 34 8
5.2669086 3.8042054 -1.4999737 21 1
9.1517744 6.6053286 0.59150106 2 9
5.8374605 4.2101121 -1.3990116 14 2
9.0601835 6.5320106 0.9771902 1 10
6.5056067 4.6868191 -1.2699351 12 3
9.1652603 6.5980411 1.3866295 1 11
7.3263602 5.2722874 -1.1082799 18 4
9.1527071 6.5817323 1.7855432 3 12
8.5672379 6.1561894 -0.9229793 13 5
9.020236 6.4793096 2.158813 2 13
4.8065457 3.4246812 -1.5813844 9 0
8.8014631 6.2664437 0.18859071 34 8
5.3092141 3.7786448 -1.5044726 19 1
9.2953224 6.6107292 0.59778136 2 9
5.8987184 4.191999 -1.406644 12 2
9.2127647 6.544755 0.98869473 1 10
6.5687761 4.6630096 -1.2758796 13 3
9.3471012 6.6303744 1.4071035 2 11
7.4504342 5.2830124 -1.1214418 15 4
9.2741842 6.5713544 1.800248 3 12
8.5872412 6.0801105 -0.9205389 13 5
9.121335 6.4558806 2.1721697 3 13
4.8429871 3.3999219 -1.5855255 9 0
8.877739 6.2278137 0.18928881 35 8
5.3578024 3.7571518 -1.5107714 16 1
9.390317 6.5800591 0.60092151 2 9
5.9519615 4.1676102 -1.4123683 15 2
9.3529024 6.5465436 0.99880481 1 10
6.6027861 4.6181722 -1.2761924 13 3
9.4582462 6.6104455 1.4168531 1 11
7.5229321 5.2558846 -1.126804 16 4
9.407299 6.5675097 1.817143 3 12
8.6752357 6.0519261 -0.92541963 13 5
9.212883 6.4246101 2.1832366 2 13
4.8920259 3.3836117 -1.5938078 9 0
9.0361519 6.2452703 0.19173212 36 8
5.3903151 3.7240863 -1.512571 15 1
9.5379295 6.5846939 0.60741121 2 9
6.0455532 4.1705489 -1.4276329 15 2
9.5230341 6.5670505 1.0120524 1 10
6.6657715 4.5932598 -1.282137 12 3
9.6284246 6.6298146 1.4353772 2 11
6.9184518 4.7620368 -1.0312586 19 4
9.5359259 6.5587649 1.8330992 3 12
8.778614 6.0356336 -0.93204349 26 5
9.3368015 6.4146104 2.201936 1 13
4.912334 3.347203 -1.5927725 9 0
9.13134 6.2196412 0.19284908 24 8
5.4387345 3.7017174 -1.5188695 15 1
9.6419764 6.5600638 0.61117935 2 9
6.07867 4.1326156 -1.4287778 14 2
9.6906042 6.5832567 1.0249515 1 10
6.7246637 4.5666466 -1.2874558 14 3
9.788312 6.6421466 1.452439 2 11
7.6218719 5.1681604 -1.1307039 19 4
9.6882687 6.566854 1.8537486 3 12
8.9096174 6.034534 -0.94145626 19 5
9.4398909 6.3888803 2.2156742 1 13
4.9510441 3.3244553 -1.5979488 9 0
9.2758303 6.2237096 0.1949783 37 8
5.4735174 3.6711216 -1.5215689 18 1
9.8136292 6.5771027 0.61913443 2 9
6.1579437 4.1239405 -1.4406079 15 2
9.8378372 6.5858655 1.0357589 1 10
6.8007121 4.5492435 -1.2959032 12 3
9.9499683 6.6508694 1.4695007 2 11
7.719594 5.1580687 -1.1399659 19 4
9.7897348 6.5363512 1.8643861 3 12
9.0078773 6.0097866 -0.94738293 20 5
9.5746241 6.3854818 2.2370448 1 13
9.2540998 6.167047 -0.58281326 39 6
9.310236 6.1974196 -0.19522263 40 7
4.9709082 3.2876801 -1.5969136 9 0
9.3190536 6.1588006 0.1949783 37 8
5.5380349 3.6586022 -1.5323665 17 1
9.9326496 6.5568395 0.62373996 2 9
6.2078886 4.0949025 -1.445569 14 2
9.9567652 6.5652771 1.0434285 0 10
6.9180813 4.5581698 -1.3121724 10 3
10.055843 6.6205454 1.4782752 1 11
7.7404919 5.0942278 -1.1377723 21 4
9.8895912 6.5036688 1.8747108 2 12
9.0362949 5.937995 -0.94598836 13 5
9.7010126 6.3723812 2.2561257 1 13
9.3286495 6.1231184 -0.58480203 19 6
9.3800287 6.1498184 -0.1957811 54 7
5.0131636 3.2655494 -1.6031252 9 0
9.4288635 6.1372213 0.19637449 50 8
5.5765095 3.6283529 -1.5359658 20 1
10.075302 6.5504789 0.62981093 2 9
6.2643108 4.0696492 -1.4520565 11 2
10.152744 6.5932674 1.0591166 1 10
6.9613318 4.5172915 -1.3143625 14 3
10.205085 6.6171408 1.4933871 2 11
7.825839 5.0724597 -1.1450845 20 4
10.027606 6.4945989 1.8922316 3 12
9.1310558 5.9094057 -0.95156634 20 5
5.0455976 3.2367277 -1.6062311 9 0
9.6600313 6.1921144 0.20028383 39 8
5.6312399 3.6082547 -1.544064 16 1
10.245255 6.559679 0.63755667 2 9
6.3339138 4.0522676 -1.461597 11 2
10.282449 6.5759044 1.0678321 1 10
7.0209961 4.4866652 -1.3196814 18 3
10.341383 6.6034207 1.5065489 2 11
7.8911791 5.0369263 -1.1494718 21 4
10.187618 6.4977293 1.9138194 3 12
9.3031416 5.9290376 -0.96516263 13 5
5.0925684 3.216902 -1.6139956 10 0
9.8163233 6.1960368 0.20262244 40 8
5.6826611 3.585494 -1.5512625 15 1
10.432719 6.5774689 0.64634913 2 9
6.3886275 4.024693 -1.4677029 11 2
10.436006 6.5719075 1.0789881 1 10
7.1608243 4.5059199 -1.3400177 10 3
10.479659 6.5891786 1.5199546 3 11
7.9463215 4.9943852 -1.1523966 20 4
10.291283 6.4632187 1.9247699 3 12
9.370285 5.8825254 -0.96795171 13 5
5.1345882 3.1935141 -1.6202073 10 0
9.939786 6.1797552 0.20429787 41 8
5.7207966 3.5539606 -1.5548617 18 1
10.504397 6.5231619 0.6480239 2 9
6.4192114 3.9831843 -1.4684662 13 2
10.593392 6.5681844 1.0904927 1 10
7.2349815 4.4841332 -1.3481523 15 3
10.6289 6.5824986 1.5350664 3 11
7.9995651 4.9502788 -1.1550778 19 4
10.420712 6.4460206 1.9407262 3 12
9.4653559 5.8504858 -0.97352958 13 5
5.1660895 3.1645474 -1.6233131 11 0
10.098665 6.1812 0.2066714 14 8
5.768126 3.52918 -1.5611603 14 1
10.706452 6.5455122 0.65765369 2 9
6.4920983 3.9659059 -1.4787698 11 2
10.719476 6.5457659 1.0988595 1 10
7.3065815 4.4582081 -1.3556613 18 3
10.777988 6.5711646 1.5499344 2 11
8.0805349 4.9246416 -1.1619024 19 4
10.568379 6.4357824 1.9598112 3 12
9.7374458 5.9251194 -0.99723595 14 5
5.2360339 3.1573315 -1.6383246 9 0
10.251192 6.1765962 0.20890529 14 8
5.8076487 3.4978702 -1.5652094 13 1
10.837451 6.5221 0.66288728 2 9
6.5414972 3.9336414 -1.4837308 11 2
10.870785 6.5344105 1.1096668 1 10
7.3747807 4.4294691 -1.3625443 15 3
10.925723 6.5570555 1.5645587 2 11
8.2287683 4.9365344 -1.1782329 20 4
10.70793 6.4187241 1.9773319 3 12
9.7649002 5.8488054 -0.9958415 14 5
5.2679167 3.1266162 -1.6414305 9 0
5.8051062 3.4413402 -1.5580109 14 1
11.009879 6.5216107 0.67063302 2 9
6.5671124 3.886874 -1.4833492 9 2
11.053316 6.5395241 1.1236118 1 10
7.4701433 4.4160714 -1.3744334 11 3
11.049856 6.527061 1.5757707 2 11
8.3724327 4.9435573 -1.1938322 27 4
10.839249 6.3950038 1.9932882 3 12
9.8044853 5.7822018 -0.9958415 14 5
5.3163047 3.1053555 -1.6497126 9 0
5.835721 3.4046602 -1.5598106 15 1
11.085074 6.4646235 0.67251712 2 9
6.6307354 3.8638291 -1.4917448 9 2
11.236445 6.5423994 1.1375568 1 10
7.5546622 4.3969183 -1.3844452 14 3
11.221014 6.5255432 1.5938075 2 11
8.4839773 4.9298673 -1.2048005 19 4
10.950852 6.3607616 2.0058029 3 12
9.844614 5.713613 -0.9958415 14 5
5.3406696 3.0710201 -1.6507479 9 0
5.8858004 3.3803844 -1.5670091 15 1
11.292771 6.4805231 0.6823563 2 9
6.6745782 3.8272123 -1.495561 11 2
11.346407 6.5034075 1.1441805 1 10
7.6331687 4.3715611 -1.3932055 14 3
11.386903 6.5160627 1.6108691 2 11
8.5449047 4.8877783 -1.2087002 20 4
11.111612 6.3508096 2.0270779 3 12
10.014752 5.72159 -1.0090892 14 5
5.3855186 3.0469782 -1.6579949 9 0
5.9431882 3.3583858 -1.5760071 15 1
11.465304 6.4761996 0.69010198 2 9
6.7158637 3.7903728 -1.4989955 11 2
11.502599 6.4866776 1.1553365 2 10
7.6937261 4.3369598 -1.3988371 13 3
11.482879 6.4676347 1.6181813 2 11
8.6134205 4.8474717 -1.213575 19 4
11.216561 6.3099008 2.0383413 3 12
10.120453 5.6886268 -1.015713 14 5
5.4263868 3.0215302 -1.6642065 9 0
5.9761271 3.3235395 -1.5787065 15 1
11.642922 6.4697218 0.69805706 2 9
6.7850709 3.7672231 -1.508536 11 2
11.675402 6.4797716 1.1682355 1 10
7.7583642 4.3023047 -1.4050945 14 3
11.645824 6.4527335 1.6347555 2 11
8.7399883 4.8406711 -1.226737 21 4
11.396881 6.3070021 2.0630579 3 12
10.347228 5.7237682 -1.0345386 14 5
5.4846234 3.0039921 -1.6755946 9 0
6.0265403 3.2966983 -1.585905 14 1
11.756783 6.4286551 0.70224392 2 9
6.858799 3.7473044 -1.5192213 8 2
11.874245 6.48212 1.183575 1 10
7.827354 4.2711544 -1.4122906 17 3
11.794049 6.4303279 1.6493798 2 11
8.8363247 4.8137231 -1.2355115 18 4
11.52629 6.2765141 2.0787015 3 12
10.509443 5.7180467 -1.0467404 15 5
5.529274 2.9784527 -1.6828415 9 0
6.0459747 3.2527013 -1.5850052 15 1
11.932667 6.4143395 0.70998967 2 9
6.9304056 3.7222838 -1.5291433 10 2
11.999958 6.4424157 1.1915933 2 10
7.8820858 4.2281108 -1.4166707 18 3
11.927243 6.3926549 1.6615667 2 11
8.9257116 4.7819109 -1.2433112 19 4
11.675402 6.2498083 2.0974736 3 12
10.497385 5.6145067 -1.0415112 14 5
5.5738325 2.9524381 -1.6900884 9 0
6.1133223 3.2341061 -1.5967026 13 1
12.086634 6.3887448 0.7164793 2 9
6.9839997 3.6884794 -1.5352492 9 2
12.171502 6.4254537 1.2041438 1 10
7.9778056 4.2080002 -1.4285597 16 3
12.112072 6.3832722 1.6810659 2 11
9.0853291 4.7860999 -1.2608603 15 4
11.832371 6.227951 2.11781 3 12
10.56454 5.5559216 -1.0443001 15 5
5.6011624 2.9170229 -1.6921589 9 0
6.163413 3.2057357 -1.6039009 13 1
12.301072 6.3926301 0.72652781 2 9
7.0270028 3.648679 -1.5390654 10 2
12.346925 6.4082432 1.2170428 1 10
8.098176 4.1994896 -1.4448289 15 3
12.276195 6.3606582 1.6976401 2 11
9.1731653 4.7508569 -1.2684163 21 4
11.980825 6.1996641 2.1365821 1 12
10.755276 5.5607262 -1.0592909 15 5
11.813771 6.1001558 -0.69680101 8 6
5.6351461 2.8848939 -1.6963001 9 0
6.2116685 3.1759388 -1.6106496 17 1
12.459236 6.3647404 0.73322678 2 9
7.1187534 3.6334481 -1.5535669 7 2
12.501397 6.378027 1.2278501 1 10
8.1519365 4.1554112 -1.4492091 15 3
12.433507 6.3324633 1.7132393 2 11
9.2556419 4.7119164 -1.2752409 20 4
12.171711 6.1911049 2.162863 1 12
10.971454 5.5757713 -1.076722 16 5
11.918405 6.0491691 -0.70046449 35 6
11.909359 6.0367389 -0.23305945 59 7
5.6758575 2.8559027 -1.7025118 9 0
11.954326 6.0097837 0.2335481 54 8
6.2528443 3.1421177 -1.6155984 14 1
12.66401 6.3582578 0.74264729 2 9
7.1720223 3.5977495 -1.5596728 10 2
12.716599 6.3763275 1.244584 1 10
8.205471 4.1107898 -1.4535893 17 3
12.594575 6.3041434 1.7293261 2 11
9.3451195 4.6756134 -1.2830406 21 4
12.355992 6.1766343 2.1878927 1 12
11.03863 5.5132837 -1.079511 16 5
5.7025857 2.8196306 -1.7045823 9 0
6.3218064 3.1216846 -1.6277459 16 1
12.82272 6.3262534 0.74934632 2 9
7.2286611 3.5632157 -1.5665419 9 2
12.83229 6.3226233 1.2515564 1 10
8.2835941 4.0778332 -1.4623495 15 3
12.759407 6.2756395 1.7459003 1 11
9.4238529 4.6330242 -1.2893778 20 4
11.184165 5.4887571 -1.0899696 16 5
12.832064 6.2891479 -0.74892759 8 6
5.7429819 2.7898824 -1.710794 9 0
6.3662372 3.0885346 -1.6335946 11 1
12.99957 6.3010445 0.757092 2 9
7.2604303 3.516083 -1.5680684 9 2
13.033931 6.3092747 1.2668958 1 10
8.3794384 4.0525818 -1.4742386 17 3
12.906572 6.2365074 1.7600372 1 11
9.5614309 4.6180582 -1.3037584 19 4
11.315536 5.4555383 -1.099034 16 5
5.7553449 2.746393 -1.7087234 9 0
6.4122725 3.0557513 -1.6398932 14 1
13.19472 6.282258 0.76588446 2 9
7.2989812 3.4720597 -1.5711213 9 2
13.182026 6.2677422 1.2770059 2 10
8.4717588 4.0245018 -1.4855019 15 3
13.114785 6.2245579 1.7824612 1 11
9.7333288 4.6175647 -1.3227699 18 4
11.317336 5.3593478 -1.0955477 16 5
5.8023667 2.7192631 -1.7170056 9 0
6.4616895 3.0241275 -1.6470916 14 1
13.415563 6.2728939 0.7761423 2 9
7.3692908 3.4426236 -1.5810434 10 2
13.340997 6.2295179 1.2881619 1 10
8.5318718 3.9802921 -1.4911336 12 3
13.287468 6.1932287 1.8000103 1 11
9.8768921 4.6014767 -1.3378818 14 4
11.508905 5.3544726 -1.1105385 17 5
13.185582 6.1233382 -0.76190692 8 6
5.8317375 2.6835365 -1.7201115 9 0
6.5092053 2.9911482 -1.6538402 17 1
13.566848 6.2314496 0.7824226 2 9
7.3961215 3.3940201 -1.5818065 9 2
13.554406 6.2142806 1.3045471 1 10
8.5910912 3.9369383 -1.4967651 14 3
13.46288 6.1637902 1.818047 1 11
10.009866 4.578651 -1.351531 15 4
11.799726 5.3898888 -1.1349421 18 5
13.379595 6.1030779 -0.77069938 8 6
5.8516307 2.6445718 -1.7206291 10 0
6.5560579 2.9587963 -1.6605887 14 1
13.792092 6.2186852 0.79288983 2 9
7.5055571 3.3810074 -1.6001244 9 2
13.763527 6.1971364 1.3205838 1 10
8.6796179 3.9044182 -1.5074027 14 3
13.643191 6.1314955 1.8365711 1 11
10.073395 4.5250511 -1.3559184 14 4
11.86252 5.3187857 -1.1373824 18 5
13.611459 6.094398 -0.78158528 26 6
5.8999705 2.6169741 -1.7294289 9 0
6.6371336 2.9397905 -1.6758853 14 1
13.90823 6.1545687 0.7970767 4 9
7.575664 3.3491662 -1.6100464 9 2
13.879354 6.1331024 1.3275563 12 10
8.7861776 3.8788304 -1.5211689 12 3
13.812802 6.0921803 1.8536329 4 11
10.208276 4.5002589 -1.3698115 20 4
11.895715 5.2342405 -1.1370338 18 5
13.827381 6.0755558 -0.79152906 17 6
5.9269533 2.5795753 -1.7320172 10 0
6.6825171 2.9042573 -1.682184 14 1
14.335583 6.2243643 0.81905776 2 9
7.6240749 3.307138 -1.6153891 9 2
14.21431 6.1628656 1.3554461 1 10
8.838418 3.8283932 -1.5255492 12 3
14.12463 6.1122732 1.8897061 1 11
10.336788 4.4688449 -1.3827296 13 4
11.939283 5.1542244 -1.1377311 18 5
14.076713 6.0682178 -0.80335701 26 6
5.9648056 2.5454378 -1.7377111 9 0
6.7318125 2.868587 -1.6893824 13 1
14.655407 6.2389693 0.83475858 2 9
7.6686554 3.2630551 -1.6199685 9 2
14.511083 6.1685562 1.3795011 1 10
8.8655872 3.765049 -1.5255492 13 3
14.433742 6.1267586 1.925292 2 11
10.455458 4.4337716 -1.3944291 18 4
12.17679 5.1562042 -1.1569053 19 5
14.263274 6.027977 -0.81152141 43 6
6.0073795 2.5141749 -1.744958 9 0
6.7804446 2.8335395 -1.6965809 14 1
14.882913 6.2134576 0.84522581 2 9
7.6773129 3.20205 -1.6169155 9 2
14.789185 6.1652279 1.401813 2 10
8.9500093 3.7273657 -1.535561 15 3
14.682487 6.1087213 1.9525908 3 11
10.574135 4.3972626 -1.4061285 13 4
12.418575 5.1566496 -1.1764282 19 5
14.517195 6.0161872 -0.82355869 17 6
14.362519 5.9432774 -0.2713151 40 7
6.0408707 2.4787748 -1.7496167 6 0
6.8000603 2.7861371 -1.6965809 14 1
15.198406 6.22403 0.86071724 2 9
7.7570786 3.1735027 -1.6291273 7 2
15.082688 6.16435 1.4255193 1 10
9.0446644 3.6947408 -1.5474498 10 3
14.970008 6.1091523 1.9852518 3 11
10.718548 4.3697925 -1.4212404 12 4
12.605595 5.1314178 -1.1907218 20 5
14.826097 6.0262818 -0.83873612 26 6
6.0719409 2.443368 -1.753758 6 0
6.8568406 2.7550435 -1.7060288 17 1
15.519518 6.2293634 0.87641799 2 9
7.7899771 3.1236587 -1.6314169 9 2
15.446093 6.1905031 1.4558495 2 10
9.1307535 3.655741 -1.5577745 9 3
15.28139 6.112124 2.0208375 3 11
10.83283 4.3306332 -1.4324524 12 4
12.758655 5.092773 -1.2018777 20 5
15.120148 6.02315 -0.85297149 26 6
6.0996327 2.4051728 -1.7568637 6 0
6.9031048 2.717818 -1.7127774 13 1
7.8987608 3.1050417 -1.6497347 10 2
15.737437 6.1801147 1.4792072 2 10
9.2363358 3.6252568 -1.5715408 10 3
15.496362 6.0760808 2.0437491 3 11
10.988488 4.304132 -1.4490266 12 4
12.968319 5.0717907 -1.2182629 21 5
15.39521 6.0116348 -0.86616015 26 6
6.1464972 2.3754342 -1.7656636 5 0
6.9541717 2.6833916 -1.7208756 14 1
16.163006 6.2303138 0.90781957 2 9
8.0008593 3.0808599 -1.6665258 7 2
16.032021 6.1701837 1.5029136 1 10
9.3130445 3.5805399 -1.5803012 9 3
15.745954 6.047461 2.0710478 2 11
11.149112 4.2797446 -1.4663321 10 4
13.166258 5.0461473 -1.2336023 22 5
15.660666 5.9896193 -0.87872082 26 6
6.1773844 2.337939 -1.7698047 5 0
7.005547 2.6471794 -1.7289737 14 1
16.511471 6.2358713 0.92498583 2 9
8.0510349 3.0374162 -1.6726319 7 2
16.380466 6.1733327 1.5315007 2 10
9.363081 3.526813 -1.5846813 9 3
16.024567 6.0296245 2.1022463 1 11
11.223314 4.2185674 -1.4721818 9 4
13.410087 5.0325098 -1.2531252 22 5
15.955427 5.9781919 -0.89295614 26 6
6.2330074 2.3106065 -1.7811928 5 0
7.0672669 2.6156628 -1.7397714 13 1
16.809374 6.2146397 0.9392212 2 9
8.1088762 2.9947426 -1.6802641 9 2
16.717428 6.1706991 1.5590419 1 10
9.4060068 3.4681993 -1.58781 9 3
11.303927 4.1612821 -1.4790065 9 4
13.560846 4.9813609 -1.2639326 23 5
16.272421 5.9677463 -0.90834296 18 6
6.2453542 2.2657182 -1.7801574 4 0
7.1000137 2.5715694 -1.7433707 13 1
17.22797 6.2330446 0.96015555 2 9
8.170208 2.9527354 -1.6886597 10 2
17.041183 6.1553769 1.5851886 1 10
9.5043173 3.4292612 -1.6003247 9 3
11.424218 4.1152234 -1.4909496 12 4
13.820285 4.9674435 -1.2848499 23 5
16.618225 5.9632874 -0.92529976 18 6
6.2428126 2.2156036 -1.774981 9 0
7.1361609 2.528451 -1.7478697 15 1
17.459347 6.179256 0.97062278 2 9
8.2165365 2.9047859 -1.6940023 10 2
17.267839 6.1013055 1.6022711 2 10
9.5690069 3.3772886 -1.6072079 9 3
11.516327 4.057797 -1.4992368 13 4
13.944851 4.9025507 -1.2932168 24 5
16.774412 5.8874655 -0.93168473 36 6
16.858351 5.9070139 -0.31180471 33 7
6.1997266 2.1516974 -1.7584167 3 0
7.1536384 2.4785695 -1.7478697 12 1
8.3108339 2.8730142 -1.709267 7 2
17.633921 6.0925045 1.6322527 2 10
9.6521044 3.3310282 -1.6172197 9 3
11.679505 4.0238609 -1.516786 11 4
14.080483 4.8400526 -1.3026297 24 5
17.251493 5.9199638 -0.95586395 18 6
6.1780086 2.0959496 -1.7480639 3 0
7.1707683 2.4285674 -1.7478697 13 1
8.3939266 2.8362916 -1.722242 9 2
18.012026 6.082726 1.6632802 1 10
9.7499933 3.2888174 -1.6297344 9 3
11.79009 3.9700978 -1.5275104 10 4
14.170587 4.7606754 -1.3078591 24 5
17.595379 5.9010005 -0.97261155 18 6
6.1741529 2.0466893 -1.7428875 3 0
7.2356501 2.3943644 -1.7595671 13 1
8.4377584 2.7856228 -1.727203 10 2
18.379486 6.0642056 1.6932617 1 10
9.8552666 3.2478743 -1.6435007 9 3
11.862775 3.9025791 -1.5333602 13 4
14.370066 4.7163048 -1.3231984 25 5
17.989174 5.8936772 -0.99208051 18 6
6.1809392 2.0011554 -1.740817 3 0
7.2855668 2.3545787 -1.7676654 12 1
8.4812908 2.7344801 -1.732164 7 2
18.739965 6.0384021 1.7225461 1 10
9.9190683 3.1923063 -1.6503837 9 3
11.999348 3.8548815 -1.547497 10 4
14.614325 4.686523 -1.3427213 26 5
18.37229 5.8774862 -1.0109214 18 6
6.1468668 1.9428183 -1.7273583 4 0
7.3204117 2.3095217 -1.7721643 14 1
8.5184345 2.6825836 -1.7359804 7 2
19.093359 6.0054722 1.7511332 1 10
10.004641 3.1448555 -1.6610212 9 3
12.124464 3.8019018 -1.5601715 11 4
14.947112 4.6784139 -1.3702626 27 5
18.734051 5.8529496 -1.0286109 19 6
16.491282 5.1364665 4.628202 1 15
6.1894841 1.9100473 -1.7356406 3 0
7.3434119 2.261934 -1.7739639 11 1
8.5857468 2.6380446 -1.7459024 7 2
19.476629 5.9806318 1.7825093 1 10
10.090561 3.0946307 -1.671659 9 3
12.244967 3.7483432 -1.5723584 11 4
15.192828 4.6391163 -1.3897855 27 5
19.14127 5.8338156 -1.048708 28 6
6.1878686 1.862336 -1.7314996 4 0
7.3702226 2.2139761 -1.7766634 11 1
19.920271 5.9763761 1.0899487 10 9
8.6378078 2.5881796 -1.7527716 7 2
19.86528 5.9485421 1.814234 1 10
10.149773 3.0354252 -1.6779163 9 3
12.409697 3.7042081 -1.5901513 9 4
15.450171 4.6000328 -1.4103543 28 5
19.388298 5.7614956 -1.0600126 9 6
6.2192559 1.8245325 -1.7366759 3 0
7.3892393 2.1635673 -1.7775632 10 1
8.7178555 2.5459752 -1.765365 6 2
20.380646 5.948144 1.8574631 1 10
10.237092 2.983839 -1.6888667 8 3
12.51531 3.6407707 -1.6003884 9 4
15.615064 4.5336394 -1.4225559 28 5
20.064974 5.81043 -1.0947636 9 6
6.2132673 1.7757608 -1.7314996 3 0
7.2935977 2.0803907 -1.751019 8 1
8.7387581 2.4876544 -1.7661282 6 2
20.912292 5.9451823 1.902087 1 10
10.354074 2.9416251 -1.704823 9 3
12.624455 3.5771258 -1.6111128 9 4
15.795872 4.4668102 -1.4361523 29 5
20.236687 5.7111578 -1.1019861 19 6
6.2214885 1.7323906 -1.7304642 3 0
7.2531395 2.0155652 -1.7379718 7 1
8.7861843 2.4349751 -1.772234 6 2
21.274851 5.8920465 1.9313713 1 10
10.416243 2.8808529 -1.711706 9 3
12.744192 3.5175126 -1.6232998 9 4
16.057186 4.4198766 -1.4570696 29 5
20.459026 5.619998 -1.1119298 19 6
6.2278376 1.6873987 -1.7289113 2 0
7.2670336 1.9648798 -1.7379718 7 1
8.778327 2.3669324 -1.7672729 7 2
21.688679 5.8439369 1.9651875 1 10
10.487605 2.8219218 -1.7201536 8 3
12.881552 3.4588277 -1.6376804 10 4
16.280111 4.3592019 -1.4745009 30 5
20.588451 5.5012631 -1.1168494 19 6
6.2301254 1.6414181 -1.7263231 3 0
7.2541881 1.9071614 -1.7316732 7 1
8.7737474 2.3001139 -1.7630752 6 2
10.594959 2.7716324 -1.7345455 8 3
12.976451 3.3873708 -1.6466987 9 4
20.775209 5.3960462 -1.1249092 19 6
21.717047 5.6285381 -0.39159712 36 7
6.2208452 1.5926161 -1.7206291 2 0
7.2522202 1.852616 -1.728074 7 1
8.8238363 2.2475281 -1.7699443 6 2
10.667656 2.7112224 -1.7433058 8 3
13.111383 3.3249974 -1.6608355 9 4
16.725708 4.2291512 -1.5093632 31 5
21.656719 5.4639115 -1.1705462 10 6
6.2524352 1.5542742 -1.7263231 3 0
7.2649779 1.8019372 -1.728074 7 1
8.8659935 2.1924739 -1.775287 6 2
10.713175 2.6433125 -1.7476861 8 3
13.213306 3.2528434 -1.6708289 10 4
16.94832 4.1597719 -1.5267943 32 5
22.152163 5.4247003 -1.1952487 10 6
6.259378 1.5096772 -1.7252878 3 0
7.2887492 1.7539098 -1.7307733 7 1
8.8887196 2.1323559 -1.7768134 6 2
10.813975 2.5882273 -1.7611394 9 3
13.307135 3.1775706 -1.6798471 9 4
17.170769 4.0874882 -1.5442253 32 5
6.247191 1.4606668 -1.7190762 9 0
7.29702 1.7021002 -1.7298737 7 1
8.8823566 2.0653539 -1.7726158 7 2
10.885661 2.5251617 -1.7698997 9 3
13.429561 3.1078649 -1.6925216 9 4
23.070471 5.3092875 -1.2406763 10 6
24.103178 5.5336499 -0.43166783 32 7
6.2515836 1.4157374 -1.7175232 10 0
7.2935176 1.6476805 -1.7262744 7 1
8.8908129 2.0019991 -1.7714708 4 2
10.939644 2.4573298 -1.7758442 8 3
13.557468 3.0379057 -1.7059273 10 4
6.2726374 1.3745397 -1.7206291 11 0
7.2972279 1.5950575 -1.7244748 7 1
8.8566151 1.9294374 -1.7619303 4 2
11.010582 2.392647 -1.7846047 8 3
13.673409 2.9637947 -1.7178704 9 4
21.357817 4.6021161 -1.1450062 20 6
6.2858601 1.3315188 -1.7216644 2 0
7.3158131 1.5456822 -1.7262744 7 1
8.8448944 1.8623011 -1.7569693 4 2
11.100478 2.3311477 -1.7964935 8 3
13.814226 2.8934956 -1.7329822 9 4
18.753632 3.904182 -1.0039084 9 6
6.2950034 1.2875997 -1.7216644 2 0
7.3149686 1.4922369 -1.723575 6 1
8.8345928 1.7958137 -1.7523898 4 2
11.139714 2.2583046 -1.800248 8 3
13.931379 2.8166463 -1.7451692 9 4
19.21122 3.8597114 -1.0269363 9 6
6.3152113 1.2458644 -1.7247702 2 0
7.3481526 1.4456466 -1.7289737 7 1
8.7987509 1.7246524 -1.7428495 9 2
11.232758 2.1956379 -1.8127627 8 3
14.065658 2.7417328 -1.7595497 7 4
19.731825 3.8211889 -1.0533136 9 6
6.3351417 1.2039094 -1.7278759 2 0
8.8298674 1.6668251 -1.7466656 9 2
11.274989 2.1222806 -1.817143 8 3
14.178105 2.6610458 -1.7712492 7 4
20.107512 3.7484944 -1.0719451 19 6
6.318687 1.1551392 -1.7211467 2 0
7.3254433 1.3352243 -1.7190759 25 1
8.8332825 1.6052834 -1.7451392 4 2
11.300836 2.0476031 -1.8190202 8 3
14.266665 2.5746913 -1.7800238 7 4
19.9517 3.5790954 -1.0623153 28 6
6.3416257 1.1147752 -1.7252878 2 0
7.3727527 1.2920547 -1.728074 7 1
8.8404064 1.5428971 -1.7443758 4 2
11.301233 1.9662831 -1.81683 7 3
14.367963 2.4921088 -1.7905045 9 4
26.86274 4.6496577 4.3179045 3 12
19.925026 3.4309168 -1.0595938 48 6
6.330204 1.0672665 -1.7201115 2 0
7.3662186 1.2379714 -1.7244748 7 1
8.8352137 1.4800956 -1.741323 4 2
11.131206 1.8587347 -1.7874204 4 3
14.453548 2.4031363 -1.7990354 7 4
19.92033 3.2906449 -1.0581285 57 6
6.3527575 1.0255102 -1.7242525 1 0
7.3650618 1.1849676 -1.7222252 5 1
8.8436394 1.4165241 -1.7409414 3 2
11.077898 1.7684464 -1.7767829 5 3
14.534666 2.3124726 -1.8070788 9 4
19.923641 3.1449001 -1.0570818 48 6
6.3368511 0.97759998 -1.7180409 2 0
7.3750806 1.1338171 -1.7226752 6 1
8.8588991 1.3571861 -1.7420862 4 2
11.079916 1.6915046 -1.7752185 6 3
14.597558 2.2181022 -1.8129284 9 4
19.999882 3.0175638 -1.0600126 9 6
6.3662934 0.93782222 -1.7242525 2 0
7.3768435 1.0827411 -1.7213255 5 1
21.040476 3.0807281 1.114442 29 9
8.8642731 1.2947389 -1.741323 22 2
11.095363 1.6146851 -1.7758442 6 3
14.64768 2.1238155 -1.8173158 9 4
20.734137 2.980443 -1.0977992 39 6
6.372685 0.89335424 -1.7242525 2 0
7.3919425 1.0322927 -1.7231251 5 1
21.015972 2.9274251 1.1120346 36 9
8.8808746 1.2339038 -1.7428495 15 2
11.086799 1.5344772 -1.7727156 6 3
14.719177 2.0293663 -1.8243842 7 4
20.740587 2.8337264 -1.0970665 48 6
6.3787665 0.84884584 -1.7242525 1 0
7.3951049 0.9801535 -1.7222252 4 1
21.010157 2.7772319 1.1106738 7 9
8.9009504 1.173413 -1.7451392 4 2
11.110951 1.4588397 -1.7749057 5 3
14.748734 1.9286168 -1.8263341 7 4
21.381805 2.7694261 -1.1299334 10 6
6.3538699 0.80042654 -1.7159703 1 0
7.4017677 0.92849863 -1.7222252 5 1
8.8621683 1.1054163 -1.7359804 4 2
11.089499 1.3773447 -1.7698997 4 3
14.79336 1.8295094 -1.8302339 7 4
29.496973 3.6113248 -1.5574136 12 6
41.606571 5.0791879 9.6769447 1 14
6.3823233 0.75878549 -1.722182 1 0
7.3887172 0.87451142 -1.7177262 4 1
21.094488 2.489239 1.1131859 3 9
8.9086666 1.0481077 -1.7436126 4 2
11.112578 1.301495 -1.7720897 4 3
14.821545 1.7280197 -1.8321838 7 4
26.704041 3.0803311 -1.4087794 33 6
6.3874645 0.71421301 -1.722182 2 0
7.404326 0.82398826 -1.7199757 3 1
8.8843727 0.98398602 -1.7375069 4 2
11.079947 1.221284 -1.7655195 13 3
14.78589 1.6193171 -1.8263341 6 4
40.8783 4.4191494 9.4924841 1 14
6.3768082 0.66910559 -1.7180409 2 0
7.4213929 0.77478355 -1.7226752 3 1
40.888855 4.2543154 2.1544621 1 9
8.9086008 0.92375982 -1.7409414 3 2
40.930111 4.2369471 3.6000552 2 10
11.094098 1.1445099 -1.7664583 19 3
40.925316 4.2075572 5.0514846 1 11
14.715604 1.5103323 -1.8163408 5 4
40.589645 4.1515722 6.4623084 1 12
40.91304 4.1630058 7.9937525 1 13
40.895794 4.1396189 9.4897852 1 14
6.3774786 0.62419438 -1.7170056 2 0
7.4227414 0.7225759 -1.7217753 3 1
8.8873253 0.86045069 -1.7355988 3 2
11.125227 1.0712402 -1.7702127 4 3
14.731718 1.408128 -1.817072 6 4
6.385428 0.58111989 -1.7180409 2 0
7.4371924 0.67291212 -1.7240249 3 1
8.9244013 0.80119318 -1.7417046 3 2
11.118662 0.99231619 -1.7680227 4 3
14.719211 1.3058897 -1.8143909 5 4
41.011108 3.5808067 9.5041828 1 14
6.3970284 0.53717667 -1.7201115 2 0
7.4358826 0.62049174 -1.7226752 3 1
8.9335604 0.74075669 -1.7424678 3 2
11.15075 0.91872454 -1.7720897 4 3
14.704227 1.2011591 -1.811466 4 4
6.3928332 0.49302375 -1.7180409 1 0
7.4146748 0.5679245 -1.7168264 3 1
8.8954477 0.67509788 -1.7340722 3 2
11.121437 0.83817774 -1.7664583 4 3
14.700186 1.1001537 -1.8100036 4 4
36.983047 2.7223611 -1.9434437 3 6
6.4539323 0.45243731 -1.7335701 1 0
7.4612279 0.51912576 -1.7267244 2 1
8.931282 0.61513793 -1.7401782 3 2
11.130959 0.76078445 -1.7670839 4 3
14.6778 0.99548525 -1.8063475 23 4
6.4183736 0.40493652 -1.7232174 1 0
7.4724493 0.46751064 -1.728524 1 1
8.935358 0.55277079 -1.7401782 3 2
11.155716 0.68426657 -1.7702127 3 3
14.741855 0.89648509 -1.813416 4 4
6.4249015 0.36033434 -1.7242525 2 0
7.4755311 0.41533172 -1.728524 1 1
8.9938879 0.49339214 -1.7508634 3 2
11.132606 0.60487318 -1.7658324 3 3
14.757664 0.79408598 -1.8146347 3 4
6.4195423 0.31508937 -1.722182 1 0
7.4665704 0.36256188 -1.7258245 1 1
8.8990622 0.42589837 -1.7317824 3 2
11.168129 0.52863258 -1.7708384 3 3
14.75095 0.69048178 -1.8131722 3 4
6.4061451 0.26961803 -1.7180409 2 0
7.4533424 0.30978271 -1.7222252 1 1
8.9332066 0.36503917 -1.7378885 3 2
11.167601 0.45048693 -1.7702127 3 3
14.771279 0.58810866 -1.8151222 3 4
38.951508 1.5031885 -2.0428817 1 6
6.4291081 0.22563349 -1.7237349 2 0
7.4709044 0.25827968 -1.7258245 1 1
8.9708538 0.30386525 -1.7447575 3 2
11.123091 0.37093663 -1.7627038 3 3
14.737329 0.48374107 -1.8104911 2 4
38.961052 1.2312005 -2.0428817 1 6
6.4421134 0.18107307 -1.7268407 2 0
7.4881091 0.2065465 -1.7294236 2 1
8.9609814 0.24091291 -1.7424678 3 2
11.180699 0.29473126 -1.7714641 2 3
14.768129 0.38156113 -1.8139035 2 4
6.4393573 0.13601263 -1.7258054 2 0
7.4620924 0.15370631 -1.7231251 2 1
8.9899263 0.17889445 -1.7478106 3 2
11.154835 0.21613236 -1.7670839 3 3
14.774403 0.27852568 -1.8143909 2 4
6.4343553 0.090969138 -1.7242525 3 0
7.4590859 0.10155074 -1.7222252 3 1
8.9634514 0.11733791 -1.7424678 3 2
11.163948 0.14029793 -1.7683355 3 3
14.764076 0.17523979 -1.8129284 2 4
112.36313 1.1374997 -1.9614061 150 7
6.4251661 0.047101937 -1.7216644 2 0
7.4518099 0.050726391 -1.7204256 3 1
8.975831 0.05483032 -1.7447575 3 2
11.152803 0.062289268 -1.7664583 3 3
14.792718 0.074873269 -1.8163408 2 4
6.4118156 0.0022399472 -1.7180409 3 0
7.4422388 -0.0012989157 -1.7181761 3 1
8.9524384 -0.0062499815 -1.7401782 3 2
11.156919 -0.013630755 -1.7670839 3 3
14.800821 -0.028415572 -1.8173158 2 4
6.4039474 -0.042473212 -1.7159703 3 0
7.4517913 -0.053324815 -1.7204256 5 1
8.971796 -0.070465758 -1.7439942 3 2
11.156536 -0.093466967 -1.7670839 3 3
14.782397 -0.13158424 -1.8151222 2 4
6.4150848 -0.087337583 -1.7190762 3 0
7.4414949 -0.10520867 -1.7181761 3 1
8.9396772 -0.13263251 -1.7378885 3 2
11.175364 -0.17165478 -1.7702127 3 3
14.800966 -0.23509607 -1.8175595 3 4
6.4181819 -0.13220039 -1.7201115 3 0
7.4425278 -0.15719827 -1.718626 5 1
8.9463835 -0.19521078 -1.7394148 3 2
11.177843 -0.24975693 -1.7708384 3 3
14.790968 -0.34081972 -1.8165846 3 4
6.4363828 -0.17866021 -1.7252878 3 0
7.4490037 -0.21067177 -1.7204256 4 1
8.9526529 -0.25788918 -1.7409414 3 2
11.159973 -0.32927078 -1.7683355 3 3
14.778307 -0.44377306 -1.8153659 2 4
6.4427013 -0.22385825 -1.7273583 3 0
7.4298239 -0.26205188 -1.7163765 6 1
8.9348831 -0.32138136 -1.7378885 3 2
11.169248 -0.40760571 -1.7702127 3 3
14.794685 -0.54766774 -1.8178033 2 4
6.417819 -0.26786423 -1.7211467 3 0
7.4297605 -0.31399727 -1.7168264 5 1
8.9403334 -0.38252687 -1.7394148 3 2
11.189896 -0.48464799 -1.773967 3 3
14.784552 -0.65067816 -1.817072 3 4
6.4119883 -0.31135499 -1.7201115 3 0
7.4196658 -0.3641803 -1.7150269 5 1
8.8943071 -0.44278482 -1.7310193 3 2
11.150729 -0.56096923 -1.7683355 3 3
14.803572 -0.75250685 -1.819997 3 4
6.4135156 -0.35632548 -1.7211467 3 0
7.4169426 -0.41597003 -1.7150269 5 1
8.9106007 -0.50598055 -1.7348354 3 2
11.156401 -0.63936687 -1.7698997 3 3
14.817774 -0.85698229 -1.8224343 2 4
6.4031601 -0.40060872 -1.7190762 3 0
7.4333067 -0.46896651 -1.7195259 5 1
8.9440765 -0.57055008 -1.7420862 4 2
11.159552 -0.71774405 -1.7711512 4 3
41.201878 -2.6644056 5.0695214 0 11
14.807469 -0.96015126 -1.8219469 2 4
6.4156251 -0.44637382 -1.7232174 3 0
7.4104118 -0.51948613 -1.7150269 5 1
8.9478197 -0.63197017 -1.7436126 4 2
11.142584 -0.79284626 -1.769274 4 3
14.834065 -1.0659214 -1.8260905 2 4
6.3931756 -0.48856091 -1.7180409 4 0
7.4183612 -0.57081181 -1.7177262 5 1
8.9373169 -0.69396573 -1.7424678 3 2
11.176165 -0.87369537 -1.7755314 3 3
14.822507 -1.1665567 -1.8256029 2 4
6.378058 -0.53221756 -1.7149351 4 0
7.414196 -0.62258738 -1.7177262 5 1
8.9400797 -0.75700521 -1.7439942 3 2
11.154047 -0.95035625 -1.7730285 3 3
14.825869 -1.2710253 -1.8270653 2 4
6.3818831 -0.5774278 -1.7170056 3 0
7.4096689 -0.67433262 -1.7177262 5 1
8.9111156 -0.81724817 -1.7394148 3 2
11.151074 -1.0285652 -1.7736541 3 3
14.828494 -1.3755978 -1.8285278 2 4
6.4161506 -0.6257174 -1.7273583 3 0
7.4183569 -0.72737622 -1.7208756 6 1
8.909255 -0.87826997 -1.7401782 3 2
11.175267 -1.107561 -1.7786602 3 3
14.824456 -1.4796774 -1.829259 3 4
6.4155855 -0.66977715 -1.7283937 3 0
7.4209857 -0.77866757 -1.7226752 6 1
8.9029064 -0.94044644 -1.7401782 3 2
11.17512 -1.1863856 -1.7799115 3 3
14.802197 -1.5792856 -1.8277966 3 4
6.3877139 -0.71198165 -1.722182 4 0
7.4173059 -0.83067328 -1.7231251 5 1
8.9273386 -1.0060949 -1.746284 3 2
11.166565 -1.2643732 -1.7799115 3 3
14.806591 -1.6843801 -1.8297465 2 4
6.3729959 -0.75542164 -1.7195939 2 0
7.4113259 -0.88243526 -1.7231251 5 1
8.873313 -1.062791 -1.7371252 3 2
11.137854 -1.3399395 -1.7767829 3 3
14.835855 -1.7927085 -1.834865 2 4
6.4154863 -0.8059144 -1.7325348 3 0
7.4127183 -0.93512982 -1.7249247 5 1
8.935792 -1.1336069 -1.7508634 3 2
11.167418 -1.4226558 -1.7830403 3 3
14.817072 -1.8954823 -1.8341339 2 4
6.3752327 -0.84610814 -1.7232174 3 0
7.3944192 -0.98531264 -1.7222252 4 1
8.9159861 -1.1943984 -1.7485738 3 2
11.176791 -1.5032167 -1.7861689 3 3
14.829052 -2.002331 -1.8373024 2 4
6.3729968 -0.89112961 -1.7242525 3 0
7.3950801 -1.0379945 -1.7240249 4 1
8.9193134 -1.2567028 -1.7508634 3 2
11.170214 -1.5798129 -1.7867948 2 3
14.869741 -2.1136298 -1.8441271 2 4
6.3820744 -0.93673253 -1.7283937 3 0
7.3801312 -1.0871707 -1.7222252 4 1
8.9103222 -1.3189403 -1.7508634 3 2
11.135465 -1.654273 -1.7830403 3 3
14.843229 -2.2130387 -1.8426646 2 4
6.3601046 -0.97891372 -1.7242525 3 0
7.3762136 -1.1392618 -1.7231251 3 1
8.9205389 -1.3825667 -1.7546796 3 2
11.127851 -1.730638 -1.783666 3 3
14.880373 -2.324883 -1.8492455 3 4
6.345664 -1.020955 -1.722182 3 0
7.3605928 -1.1882012 -1.7213255 3 1
8.9222975 -1.4466951 -1.7569693 3 2
11.121346 -1.8092338 -1.7846047 4 3
14.868122 -2.4267552 -1.849733 3 4
6.3364768 -1.0649108 -1.7216644 2 0
7.3790207 -1.2440941 -1.7276241 2 1
8.8735294 -1.500845 -1.749337 3 2
11.145777 -1.8911703 -1.790549 3 3
14.870386 -2.533829 -1.8521705 3 4
6.3536253 -1.1134565 -1.7283937 3 0
7.3739948 -1.2962534 -1.728524 3 1
8.8973627 -1.5704463 -1.756206 3 2
11.116397 -1.9681237 -1.7880461 3 3
14.815199 -2.6309862 -1.8475394 4 4
6.3647017 -1.1612532 -1.7335701 3 0
7.3801007 -1.3505079 -1.7321231 3 1
8.8323994 -1.6210485 -1.7455208 3 2
11.122171 -2.0473206 -1.7911749 4 3
14.810135 -2.736876 -1.8492455 10 4
6.3300776 -1.1995136 -1.7263231 2 0
7.3917961 -1.404713 -1.7370721 3 1
8.8671494 -1.6914992 -1.7546796 3 2
11.099846 -2.1234329 -1.7899233 4 3
14.910084 -2.860436 -1.8641136 2 4
6.3499818 -1.24927 -1.7340877 2 0
7.3454838 -1.4491165 -1.728524 4 1
8.8669863 -1.7541022 -1.7569693 3 2
11.0987 -2.201628 -1.7921134 4 3
14.953999 -2.9772484 -1.872157 2 4
6.3432236 -1.2928494 -1.7346053 3 0
7.3430867 -1.5006424 -1.7303236 4 1
8.8506784 -1.8151736 -1.756206 3 2
11.117887 -2.2862191 -1.7977451 5 3
14.948402 -3.0847833 -1.8741069 2 4
6.3338099 -1.338207 -1.7346053 3 0
7.3531308 -1.5575917 -1.7352724 3 1
8.8262672 -1.8744712 -1.7539164 3 2
11.087719 -2.3628356 -1.795555 3 3
14.92262 -3.1882372 -1.8736194 2 4
6.314877 -1.38033 -1.7320172 2 0
7.3363671 -1.6076363 -1.7339227 4 1
8.8490601 -1.9455919 -1.7611672 4 2
11.082527 -2.4427354 -1.7974323 6 3
14.946519 -3.3026178 -1.8794692 1 4
6.3069711 -1.4248077 -1.7325348 3 0
7.3325677 -1.6605359 -1.7357224 5 1
8.8049803 -1.9988264 -1.7550613 4 2
11.04253 -2.5128551 -1.7936778 12 3
14.981156 -3.4201372 -1.8867813 3 4
6.2990079 -1.4681431 -1.7330524 2 0
7.3097095 -1.7077483 -1.7330229 4 1
8.8519773 -2.0745826 -1.7672729 4 2
11.082409 -2.6034369 -1.8030639 3 3
14.99231 -3.5302205 -1.8911686 3 4
6.3017535 -1.5152438 -1.7366759 3 0
7.3051867 -1.760564 -1.7348225 5 1
8.8334618 -2.1354074 -1.7665098 4 2
11.117719 -2.6937675 -1.8118242 3 3
15.017454 -3.6469796 -1.8975059 3 4
6.2835207 -1.5573421 -1.7346053 3 0
7.3116307 -1.8162184 -1.7393216 5 1
8.7954779 -2.1913285 -1.7619303 4 2
11.113973 -2.7751458 -1.8143271 4 3
15.001257 -3.7541411 -1.8987246 2 4
6.2612653 -1.5983042 -1.7314996 3 0
7.2723417 -1.8604566 -1.7330229 5 1
8.7860641 -2.252609 -1.7630752 3 2
11.129265 -2.85958 -1.8199588 3 3
14.968915 -3.857291 -1.8979933 1 4
6.2614512 -1.6438292 -1.7346053 3 0
7.2915478 -1.9183434 -1.7406713 6 1
8.7739201 -2.3148937 -1.7638384 4 2
11.128127 -2.9422557 -1.8230875 3 3
15.003716 -3.9753604 -1.905793 1 4
6.242363 -1.6854874 -1.7325348 3 0
7.2704535 -1.9671651 -1.7388717 6 1
8.7750139 -2.3791857 -1.7672729 13 2
11.126904 -3.0231133 -1.8262162 3 3
15.067532 -4.1050558 -1.9174925 1 4
6.2530847 -1.7341338 -1.7387464 3 0
7.2719154 -2.0207815 -1.7424709 7 1
8.7733202 -2.4446039 -1.770326 4 2
11.120749 -3.1049693 -1.8287191 2 3
14.997184 -4.1957545 -1.9121301 2 4
6.2408261 -1.7777458 -1.7387464 3 0
7.2688742 -2.0747085 -1.7451702 6 1
8.7635889 -2.5079536 -1.7718524 4 2
11.125385 -3.1901531 -1.8330992 2 3
15.062922 -4.3277593 -1.9243171 3 4
6.2208467 -1.8191025 -1.7366759 3 0
7.2467327 -2.1232123 -1.7433707 6 1
8.7722387 -2.5768201 -1.777195 4 2
11.140744 -3.2788992 -1.8393567 2 3
15.104694 -4.4541488 -1.9335792 3 4
6.2116957 -1.8635978 -1.7377111 3 0
7.2335992 -2.1743131 -1.7438205 5 1
8.8329868 -2.6617904 -1.7932231 4 2
11.1138 -3.3554537 -1.8387309 2 3
15.134033 -4.5778813 -1.9413787 4 4
6.1874547 -1.9035096 -1.7346053 3 0
7.2312799 -2.2287772 -1.7469698 6 1
8.7916784 -2.7164357 -1.7886436 4 2
11.112748 -3.43997 -1.8424854 2 3
15.177546 -4.7069445 -1.9511282 5 4
50.553951 -15.745803 -2.7749574 0 6
6.174015 -1.9466594 -1.7346053 4 0
7.1783791 -2.267467 -1.7379718 15 1
8.7874737 -2.7824874 -1.7916965 4 2
11.077165 -3.5138836 -1.8406081 2 3
15.212421 -4.8344326 -1.959903 5 4
6.1860123 -1.9980274 -1.7418523 4 0
7.190186 -2.326525 -1.7447205 25 1
8.7622318 -2.8419502 -1.7905518 3 2
11.097451 -3.6057806 -1.8481169 2 3
15.268908 -4.9700089 -1.9716024 5 4
6.1719122 -2.0411649 -1.7418523 3 0
7.2089157 -2.388309 -1.7532685 7 1
8.7687712 -2.9101841 -1.7958944 3 2
11.087646 -3.6862199 -1.85062 2 3
15.295986 -5.0971942 -1.9796458 3 4
6.1468959 -2.0794137 -1.7387464 3 0
7.1998749 -2.4398246 -1.7550682 7 1
8.781702 -2.9826956 -1.8027636 3 2
11.061643 -3.7635357 -1.85062 2 3
15.347367 -5.2306485 -1.9908577 3 4
40.278755 -13.782646 -2.231082 0 6
6.1577873 -2.1311214 -1.7459934 3 0
7.1900315 -2.4925826 -1.7568678 7 1
8.7537766 -3.0398247 -1.801237 3 2
11.050694 -3.8439343 -1.8531229 2 3
15.409824 -5.3722997 -2.0037761 2 4
39.618431 -13.858653 -2.1996806 0 6
6.1464019 -2.1753478 -1.7470287 3 0
7.1908221 -2.5492289 -1.7613667 7 1
8.7392006 -3.105016 -1.8027636 3 2
11.037792 -3.9282107 -1.8556259 3 3
15.50096 -5.5257411 -2.0205939 2 4
39.142155 -14.007213 -2.178746 0 6
6.1219826 -2.2149181 -1.7444404 10 0
7.1911716 -2.6060073 -1.7658658 7 1
8.7136192 -3.1646104 -1.8020002 3 2
11.021238 -4.0092244 -1.8575031 4 3
15.521692 -5.6555705 -2.0283935 2 4
6.0810027 -2.2482245 -1.7371935 11 0
7.1618385 -2.6520867 -1.7631663 6 1
8.7318087 -3.2403929 -1.810396 3 2
11.030013 -4.099834 -1.8637605 3 3
15.58229 -5.8011937 -2.0415554 2 4
40.813663 -15.251485 -2.2834179 0 6
6.1067257 -2.3063214 -1.7490991 5 0
7.1540852 -2.7061574 -1.7658658 7 1
8.698534 -3.2955799 -1.8081062 3 2
11.009238 -4.1776204 -1.8650119 2 3
15.671293 -5.9592261 -2.0586171 3 4
40.988819 -15.635715 -2.2991188 0 6
6.1053061 -2.3533933 -1.7532402 3 0
7.1391354 -2.7561944 -1.7667656 7 1
8.6496801 -3.3463089 -1.8027636 3 2
11.038747 -4.2772155 -1.8750238 1 3
15.713645 -6.0980763 -2.0695853 5 4
40.737225 -15.8664 -2.2911639 0 6
6.099514 -2.400203 -1.7563461 3 0
7.1342235 -2.8116839 -1.7703648 7 1
8.6772366 -3.4268045 -1.8134488 3 2
11.052704 -4.3716125 -1.8825326 4 3
15.738976 -6.2346787 -2.0786037 11 4
40.889008 -16.255182 -2.3060269 0 6
6.1005359 -2.4499264 -1.7615224 4 0
7.1270766 -2.8665116 -1.7735142 5 1
8.6348925 -3.4799607 -1.8096325 3 2
11.043897 -4.45754 -1.886287 4 3
15.882788 -6.4202871 -2.1034651 3 4
40.83746 -16.565771 -2.3095858 0 6
6.0618324 -2.4836671 -1.7553109 4 0
7.1014824 -2.9139781 -1.7721643 3 1
8.6648607 -3.5625551 -1.8210812 3 2
11.072785 -4.5593514 -1.8966117 3 3
15.986229 -6.5923119 -2.1232078 5 4
6.0550399 -2.530395 -1.7584167 4 0
7.1079311 -2.9747698 -1.7789129 4 1
8.6542625 -3.6290333 -1.8241341 3 2
11.051614 -4.6411314 -1.8984889 3 3
6.0301185 -2.569576 -1.7563461 4 0
7.0762362 -3.0197301 -1.7762135 4 1
8.2593765 -3.5348554 -1.4229281 3 3
8.5620604 -3.6714725 -1.1438658 2 4
6.0302086 -2.6182556 -1.7615224 3 0
7.0555177 -3.0678265 -1.7762135 4 1
8.2055283 -3.579792 -1.4179221 10 3
8.1475906 -3.5595949 -1.0917057 1 4
6.029449 -2.6681077 -1.7666988 3 0
7.0517449 -3.1249032 -1.7807125 3 1
7.8736401 -3.4956954 -1.6745398 3 2
7.8879237 -3.5069823 -1.3672374 4 3
6.0141978 -2.711724 -1.7677342 3 0
7.0688314 -3.1916995 -1.7906104 2 1
7.8704457 -3.5652246 -1.3684888 3 3
7.8042345 -3.540158 -1.05222 1 4
5.9986305 -2.7552574 -1.7687694 3 0
7.0392947 -3.2377138 -1.7888107 2 1
7.5876918 -3.4995797 -1.3234357 1 3
7.7360811 -3.5745711 -1.0463703 1 4
5.9902372 -2.8009341 -1.7718753 3 0
6.999445 -3.2772899 -1.7843118 3 1
7.7104726 -3.6167734 -1.6554589 3 2
7.5308928 -3.5373492 -1.3178041 2 3
7.476254 -3.5164642 -1.0144405 2 4
5.97577 -2.8451767 -1.7734282 2 0
7.0186124 -3.3462026 -1.7951094 2 1
7.4210939 -3.5476329 -1.3027864 3 3
7.3261957 -3.5085528 -0.99737877 2 4
7.4249396 -3.560622 -0.72042936 10 5
5.9666967 -2.8908401 -1.776534 2 0
6.9956727 -3.3938992 -1.7951094 2 1
7.3499641 -3.5768807 -1.2946517 3 3
7.1498542 -3.4856722 -0.97666097 2 4
5.9371948 -2.929189 -1.7739457 2 0
6.9886789 -3.4525025 -1.7996083 3 1
8.5434752 -4.2261596 -1.8527553 4 2
7.2533817 -3.5943003 -1.282137 3 3
7.0222087 -3.4843271 -0.96252412 2 4
5.9321389 -2.9783678 -1.7786045 2 0
6.9644055 -3.5012083 -1.7996083 3 1
8.5235367 -4.2924852 -1.8550451 4 2
7.0376205 -3.5487933 -1.2483472 1 3
6.909112 -3.4885302 -0.95033723 2 4
5.9060407 -3.0170727 -1.7770516 2 0
6.9241786 -3.5417566 -1.7955593 3 1
8.5597563 -4.3859057 -1.8695467 4 2
6.8650389 -3.5220942 -1.2220662 1 3
6.7821765 -3.4840686 -0.93620038 2 4
5.8985476 -3.0653574 -1.7811928 2 0
6.939045 -3.6106992 -1.8059071 5 1
8.5602665 -4.4618907 -1.8764157 4 2
6.682673 -3.4876788 -1.193908 1 3
6.638052 -3.4688146 -0.91962618 2 4
5.8974991 -3.1172953 -1.7874043 2 0
6.9188356 -3.6617887 -1.8072568 6 1
8.526228 -4.5182166 -1.8756526 4 2
6.5785103 -3.490495 -1.1795161 2 3
6.5014882 -3.455447 -0.90402687 2 4
5.8523192 -3.1445646 -1.7801574 2 0
6.910912 -3.7180314 -1.8117559 6 1
6.4427204 -3.4763029 -1.1594924 1 3
6.4044638 -3.4599919 -0.89378983 2 4
5.8539581 -3.1983118 -1.7874043 2 0
6.8950448 -3.7717993 -1.8144552 6 1
6.311523 -3.4611869 -1.1400945 2 3
6.2757597 -3.4472759 -0.87916553 2 4
5.8388085 -3.2418351 -1.789475 2 0
6.8606958 -3.8139102 -1.8122058 5 1
6.2078395 -3.4609177 -1.1257026 2 3
6.214016 -3.4686275 -0.87380332 2 4
6.2413826 -3.4896209 -0.62560391 8 5
5.8210812 -3.2853668 -1.7910279 2 0
6.8423848 -3.8665071 -1.8144552 3 1
6.0563502 -3.4321012 -1.1025503 3 3
6.0929627 -3.4570661 -0.86015391 2 4
6.088686 -3.4602604 -0.61270487 7 5
5.8147607 -3.3355379 -1.7962043 2 0
6.8540926 -3.9365036 -1.824803 2 1
5.9945831 -3.4526088 -1.0956671 3 3
5.9448643 -3.4281199 -0.84260476 2 4
5.7930017 -3.3770237 -1.7967219 3 0
6.8264437 -3.9842582 -1.824803 2 1
5.8475852 -3.4225316 -1.0731405 3 3
5.8488536 -3.4273868 -0.83236772 2 4
6.0147972 -3.534507 -0.36561903 12 6
5.7825813 -3.4252603 -1.8008629 3 0
6.8303089 -4.0507054 -1.8333511 6 1
8.4903069 -5.0431795 -1.9195386 3 2
5.7692189 -3.4309616 -1.0631288 3 3
5.7736144 -3.4376688 -0.82505554 2 4
5.77177 -3.473516 -1.8050041 3 0
6.4014597 -3.8555143 0.13043928 4 8
6.8068705 -4.1013074 -1.8347007 5 1
8.4885101 -5.1226172 -1.927171 3 2
5.6538258 -3.4159913 -1.0462338 3 3
5.6543574 -3.4203556 -0.8114062 2 4
5.7506762 -3.5157404 -1.8060393 4 0
6.2890997 -3.847928 0.12869404 4 8
6.7830591 -4.1517801 -1.8360505 7 1
8.4960594 -5.2084312 -1.937093 3 2
5.5624976 -3.414047 -1.0337191 3 3
5.6134286 -3.4493537 -0.80896878 2 4
5.7095799 -3.5456102 -1.8008629 3 0
6.2009397 -3.8537412 0.12743747 4 8
6.7770786 -4.2134376 -1.8423492 7 1
8.4861555 -5.2842212 -1.9431988 3 2
5.4748278 -3.4130859 -1.0218301 1 3
5.4915385 -3.4274971 -0.79483193 2 4
5.7108321 -3.6018732 -1.8091452 3 0
6.0656595 -3.8286264 0.12520356 4 8
6.7573843 -4.2668905 -1.8450485 7 1
8.4955187 -5.3727188 -1.9538842 3 2
5.350728 -3.3878207 -1.0030578 1 3
5.3769383 -3.4083607 -0.78167003 3 4
5.3657193 -3.406503 -0.55605364 45 5
5.6888008 -3.6437383 -1.8101805 3 0
6.7438359 -4.3244805 -1.8495475 7 1
5.5999904 -3.5965102 -1.2936851 4 2
5.2804232 -3.3951797 -0.99429762 3 3
5.3096147 -3.4178798 -0.77533287 3 4
5.353529 -3.4514368 -0.55727381 6 5
5.6794186 -3.6938977 -1.8153569 3 0
6.72328 -4.3778362 -1.852247 8 1
5.4925222 -3.5818968 -1.2746042 4 2
34.228008 -22.329987 3.5754771 0 10
5.1937375 -3.390924 -0.98240852 1 3
5.1925735 -3.3940427 -0.76168346 3 4
5.2659583 -3.4472592 -0.55065 6 5
5.6615529 -3.7387798 -1.817945 2 0
6.7120609 -4.4375634 -1.8576458 7 1
34.114761 -22.571507 2.1437857 1 9
5.303689 -3.5117662 -1.2364424 4 2
5.1435947 -3.4096377 -0.97740263 5 3
5.150558 -3.4181366 -0.75900233 3 4
5.25172 -3.4905558 -0.55169582 6 5
5.6401272 -3.781441 -1.8194979 2 0
6.7003336 -4.4973469 -1.8630446 7 1
5.197576 -3.4939432 -1.2173615 4 2
5.0639458 -3.4079642 -0.96676511 7 3
5.0755343 -3.4196255 -0.75144643 25 4
5.0824838 -3.4281783 -0.53635645 51 5
5.6135907 -3.8207238 -1.8194979 2 0
6.6848769 -4.5549865 -1.8675436 7 1
5.0909595 -3.4728169 -1.197899 6 2
4.9688554 -3.3933372 -0.95299888 3 3
5.0072975 -3.4247186 -0.74486554 10 4
5.1216874 -3.5108328 -0.32542503 11 6
5.6033497 -3.8698239 -1.8246742 2 0
5.4631467 -3.7758126 0.11591888 3 8
6.6745563 -4.6147914 -1.8733923 2 1
4.9875007 -3.4535096 -1.1791997 4 2
4.8768597 -3.3806767 -0.93985838 1 3
4.9104819 -3.4077921 -0.73389727 3 4
