# .PCD v0.7 - Point Cloud Data file format
VERSION 0.7
FIELDS x y z intensity ring
SIZE 4 4 4 4 2
TYPE F F F F U
COUNT 1 1 1 1 1
WIDTH 1329
HEIGHT 1
VIEWPOINT 0 0 0 1 0 0 0
POINTS 1329
DATA ascii
8.0528564 3.4331717 -1.7016346 9 2
10.169107 4.329102 -1.7505019 9 3
12.033665 5.1154242 -1.6055069 11 4
18.531914 7.8510761 -1.0547789 19 6
5.8697953 2.4626155 -1.7056175 9 0
6.7671838 2.8349402 -1.6938814 14 1
8.101985 3.387475 -1.7069772 7 2
10.220955 4.2671399 -1.7542564 9 3
12.596774 5.2512689 -1.6757036 13 4
18.921961 7.8609562 -1.0738293 9 6
5.8975639 2.4259861 -1.7087234 9 0
6.7976265 2.7920699 -1.6965809 14 1
8.11759 3.3292682 -1.7054509 9 2
51.555595 21.123484 4.8744464 0 10
10.240623 4.1937261 -1.752692 8 3
12.82423 5.2413101 -1.7010525 13 4
19.400434 7.9053311 -1.0979037 9 6
5.9354396 2.3944592 -1.7149351 9 0
6.8128591 2.7442789 -1.6956811 14 1
8.1734238 3.2856922 -1.71232 10 2
53.055164 21.317293 5.0023909 0 10
10.265987 4.1206541 -1.7520663 8 3
12.878037 5.1612754 -1.7034898 14 4
19.306767 7.7104383 -1.08953 19 6
5.9376388 2.3472822 -1.710794 7 0
6.8391023 2.6995113 -1.6974807 14 1
8.1778955 3.2213595 -1.7085038 9 2
54.32243 21.387259 5.1076751 0 10
10.300017 4.0510573 -1.7530048 9 3
13.04679 5.1234932 -1.7210391 14 4
19.650278 7.6889877 -1.1058589 9 6
5.9791012 2.3155425 -1.7180409 7 0
6.8686862 2.6559198 -1.7001802 14 1
8.2258282 3.1740832 -1.7138464 10 2
59.842735 23.079393 5.6114354 10 10
10.324362 3.9776311 -1.7523791 9 3
13.241577 5.093576 -1.7420006 11 4
20.23313 7.7546215 -1.1355858 20 6
5.987895 2.2710037 -1.7159703 9 0
6.9125748 2.617564 -1.7064787 14 1
29.45203 11.146635 1.6503623 7 9
8.2582607 3.1221879 -1.7161362 9 2
56.509468 21.341879 5.2847753 1 10
10.347502 3.9058676 -1.7517534 9 3
13.310253 5.0136037 -1.7463878 14 4
21.143682 7.9389677 -1.1836301 20 6
6.0104589 2.2328839 -1.7180409 9 0
6.9448485 2.5758722 -1.7100779 14 1
8.3056335 3.0739944 -1.7214788 10 2
10.372663 3.8328485 -1.7514404 8 3
13.419428 4.9480348 -1.7561374 15 4
14.896085 5.4836521 -1.3887396 69 5
14.867883 5.4644246 -0.83015299 43 6
6.037178 2.1937723 -1.7211467 7 0
6.9557767 2.5234485 -1.7082783 14 1
8.3232002 3.0145981 -1.7207156 7 2
58.551815 21.183928 5.4475822 6 10
10.42955 3.769268 -1.7564464 8 3
13.504064 4.8724132 -1.7627183 20 4
21.36281 7.6784635 -1.1897011 20 6
6.0559855 2.1528685 -1.722182 7 0
6.9658771 2.4722226 -1.7064787 15 1
8.3445587 2.9549613 -1.7207156 9 2
10.45561 3.6963642 -1.7564464 8 3
13.592036 4.7971778 -1.7697867 16 4
15.733225 5.5405412 -1.4593358 30 5
21.926517 7.7086425 -1.2180672 10 6
6.0726929 2.1111717 -1.7226996 6 0
7.0050588 2.4311988 -1.7118775 15 1
57.278526 19.856846 3.1771069 1 9
8.357564 2.894068 -1.719189 10 2
55.577087 19.234415 5.1453261 0 10
10.488627 3.6258667 -1.7576978 8 3
53.478615 18.4664 6.9467969 0 11
13.775312 4.7539845 -1.7892859 15 4
15.982511 5.5032172 -1.4788586 30 5
22.13846 7.6099167 -1.2268596 20 6
6.090941 2.0699711 -1.7237349 6 0
7.0366249 2.3872437 -1.7154768 14 1
8.3850021 2.8381681 -1.7207156 9 2
10.543629 3.5626717 -1.7627038 8 3
53.546055 18.07226 6.9389973 0 11
13.890928 4.685616 -1.8000103 19 4
16.283947 5.4833226 -1.5032623 31 5
22.738197 7.6390052 -1.2571098 21 6
6.1107445 2.0292215 -1.7252878 5 0
7.0605178 2.3405132 -1.7172763 14 1
8.456315 2.7982974 -1.7314008 7 2
10.563883 3.4895816 -1.762078 8 3
14.010027 4.617106 -1.8112223 18 4
16.620863 5.4678802 -1.5308034 32 5
22.643562 7.4360609 -1.24905 10 6
6.1336026 1.9905615 -1.7278759 6 0
7.0762863 2.2923994 -1.7172763 14 1
8.4681721 2.7367778 -1.7298744 9 2
58.842602 19.005646 5.4099312 4 10
10.582347 3.4139271 -1.7611394 7 3
14.095927 4.5392818 -1.8182908 21 4
16.89764 5.4284949 -1.5527666 33 5
23.702906 7.6010499 -1.3045261 21 6
6.1676078 1.9541138 -1.7335701 5 0
7.1032643 2.2464712 -1.7199757 13 1
8.5095396 2.6846802 -1.7344538 9 2
10.62288 3.3453054 -1.7639554 8 3
14.197342 4.4627881 -1.827309 19 4
17.125238 5.3700085 -1.5701978 50 5
17.091761 5.3496842 -0.93859309 36 6
6.1903286 1.9138583 -1.7361581 6 0
7.1225004 2.1979721 -1.7208756 14 1
54.120014 16.68051 2.9679723 0 9
8.5205679 2.622901 -1.7329274 9 2
56.516174 17.386641 5.1732163 0 10
10.670523 3.2786098 -1.7680227 9 3
14.353407 4.4019847 -1.8433958 16 4
17.71007 5.4212818 -1.6203996 35 5
24.597544 7.510838 -1.3478603 22 6
6.1979899 1.8689216 -1.7346053 7 0
7.1376715 2.1481941 -1.7208756 15 1
54.232296 16.311766 2.9679723 0 9
8.5344648 2.5637083 -1.732164 9 2
56.762119 17.029476 5.1847205 0 10
10.675564 3.2007904 -1.7652067 8 3
14.513119 4.340342 -1.8599701 15 4
18.094954 5.4012179 -1.6521243 36 5
25.203192 7.5086088 -1.3782152 22 6
6.2365141 1.8343247 -1.7418523 5 0
7.1745653 2.1061499 -1.7262744 14 1
8.5709953 2.5095851 -1.7359804 9 2
10.726089 3.1344995 -1.7698997 9 3
54.459949 15.894277 6.9658084 0 11
14.565192 4.2481298 -1.8628949 12 4
25.753695 7.4772644 -1.40543 22 6
6.2343111 1.7864834 -1.7377111 5 0
7.1778522 2.0527954 -1.723575 14 1
8.6180859 2.4598033 -1.7420862 9 2
57.708134 16.449499 5.2499132 0 10
10.749078 3.0619528 -1.7702127 8 3
54.368317 15.466722 6.9404597 0 11
14.699519 4.1761799 -1.8763006 9 4
26.461243 7.4877877 -1.4412278 22 6
6.2872624 1.7554358 -1.7490991 5 0
7.2179403 2.0112128 -1.7298737 14 1
8.6463976 2.4027359 -1.7443758 7 2
10.789226 2.9921193 -1.7733413 8 3
55.500374 15.370769 7.0711036 0 11
14.811785 4.0993242 -1.8870251 9 4
19.440075 5.3656368 -1.7643808 38 5
19.344059 5.328238 -1.0515342 38 6
6.3347855 1.7211232 -1.7589344 6 0
7.2468519 1.9648528 -1.7334728 13 1
8.662961 2.3423142 -1.7443758 9 2
10.809852 2.9167235 -1.7733413 8 3
14.818956 3.9901414 -1.884344 11 4
23.916346 6.40836 -1.2976178 10 6
6.3148937 1.6684699 -1.7501343 4 0
7.2792349 1.9191839 -1.7379718 10 1
8.6753044 2.2807798 -1.7436126 9 2
10.864345 2.8502085 -1.778973 8 3
14.793358 3.8699303 -1.8775192 13 4
28.351744 7.3850813 -1.5354325 11 6
6.3341565 1.6251594 -1.752205 5 0
7.2890067 1.8660791 -1.7370721 11 1
8.7024279 2.2230787 -1.7459024 7 2
57.469234 14.659408 5.1889043 0 10
10.872976 2.7694664 -1.7770958 8 3
14.952765 3.800298 -1.8943372 9 4
28.911177 7.3102889 -1.5628564 24 6
6.3490968 1.581833 -1.7532402 5 0
7.301857 1.8151468 -1.7370721 11 1
8.7333574 2.1645272 -1.7489554 9 2
58.092346 14.38716 5.2359686 0 10
10.899715 2.6953933 -1.7783473 8 3
15.046385 3.712466 -1.902868 7 4
29.039097 7.1273155 -1.5670433 12 6
6.3674979 1.5392823 -1.7553109 5 0
7.31814 1.7650362 -1.7379718 10 1
8.771163 2.1090119 -1.7535348 7 2
10.952842 2.6275277 -1.7839788 8 3
15.180049 3.6332078 -1.9165175 7 4
21.620184 5.1586304 -1.9446188 34 5
21.617441 5.1460152 -1.1645797 40 6
6.3874917 1.4969982 -1.757899 6 0
7.3530545 1.7192305 -1.7433707 10 1
8.7589054 2.0414829 -1.7481922 7 2
11.003629 2.558599 -1.7892977 9 3
15.232117 3.5334151 -1.9199297 7 4
31.354385 7.2329812 -1.6863693 9 6
6.3808317 1.4485196 -1.7532402 4 0
7.3857841 1.6725892 -1.7483196 9 1
8.803237 1.9887416 -1.754298 9 2
56.748306 12.799207 5.0895467 0 10
10.988029 2.4762626 -1.7839788 8 3
15.333886 3.444391 -1.9296793 7 4
6.4094114 1.4092014 -1.7584167 3 0
7.3798671 1.6185161 -1.7442704 11 1
8.8648558 1.9377158 -1.7638384 6 2
56.401985 12.31826 5.0508494 0 10
11.05137 2.4095907 -1.7914877 8 3
15.279386 3.3230693 -1.9199297 7 4
32.930862 7.1199164 -1.7657107 7 6
6.4190936 1.3644209 -1.7584167 3 0
7.3738294 1.5633217 -1.7402214 9 1
8.872406 1.8745587 -1.7626936 7 2
57.239086 12.083046 5.1181335 0 10
11.07179 2.3331885 -1.7921134 8 3
15.201197 3.1950784 -1.9072554 7 4
24.092104 5.0331097 -1.2898722 10 6
6.4208932 1.3180202 -1.7563461 4 0
7.4132004 1.5176672 -1.7469698 10 1
8.8987417 1.815323 -1.765365 6 2
11.1091 2.2601733 -1.795555 9 3
15.141421 3.072304 -1.8970184 7 4
25.301369 5.101644 -1.3526752 11 6
6.4375176 1.2746657 -1.7584167 4 0
7.4350853 1.468145 -1.7496693 11 1
8.9400921 1.7588385 -1.7710892 7 2
11.1343 2.1844637 -1.7971194 8 3
15.104056 2.9550874 -1.8897061 7 4
25.983353 5.0506563 -1.3872169 11 6
6.4500551 1.2304163 -1.759452 3 0
7.4528112 1.417659 -1.7514689 11 1
8.9656572 1.6989406 -1.7737606 6 2
11.153162 2.1074119 -1.7977451 8 3
15.143827 2.8532448 -1.8921436 7 4
26.779692 5.0116863 -1.4278297 22 6
6.4546876 1.1846559 -1.7584167 3 0
7.4778628 1.3683968 -1.7550682 14 1
9.0371723 1.6472249 -1.7855908 7 2
11.194811 2.0344467 -1.8021252 8 3
15.163376 2.7474587 -1.8921436 7 4
27.619961 4.9696169 -1.4707452 11 6
6.462801 1.1395648 -1.7584167 3 0
7.5179429 1.3215563 -1.7622666 13 1
9.0600567 1.5861205 -1.7878804 9 2
11.235985 1.9609922 -1.8065054 8 3
15.198294 2.6416011 -1.8940935 7 4
28.506176 4.9238858 -1.5160682 23 6
6.4707899 1.0932889 -1.7584167 4 0
7.5368156 1.2693436 -1.7645161 7 1
9.1464186 1.5355073 -1.8027636 6 2
11.277006 1.8851041 -1.8108855 8 3
15.216366 2.5354326 -1.8940935 7 4
29.49637 4.8778167 -1.566834 12 6
6.4630089 1.0456226 -1.7542756 4 0
7.539721 1.2157687 -1.7631663 7 1
9.2017555 1.4771749 -1.8115407 7 2
11.319152 1.8110057 -1.8155787 9 3
15.253299 2.4322591 -1.8965309 7 4
30.504229 4.8259501 -1.618542 22 6
6.4586954 0.99870539 -1.7511697 4 0
7.551877 1.1636955 -1.7640662 7 1
9.1980133 1.4124248 -1.8088694 4 2
11.370269 1.739898 -1.821836 9 3
15.289532 2.3287082 -1.8989682 7 4
31.610664 4.7806735 -1.6754833 9 6
23.980654 3.6181791 5.5990319 6 14
6.4959221 0.9592346 -1.759452 3 0
7.5673351 1.1133991 -1.7658658 7 1
9.1862822 1.3450474 -1.8046715 4 2
11.421232 1.6661793 -1.8280934 9 3
15.316814 2.2262945 -1.9004307 7 4
32.734486 4.7171202 -1.7332623 8 6
6.5024605 0.91386116 -1.759452 3 0
7.5672045 1.0594612 -1.7640662 7 1
9.1643362 1.2765486 -1.7985657 4 2
11.48737 1.5940056 -1.8368537 9 3
15.363446 2.1236577 -1.9043305 7 4
6.4933634 0.86639923 -1.7553109 22 0
7.5744162 1.0066063 -1.7640662 7 1
9.1691332 1.2120237 -1.7978026 4 2
11.611812 1.5287244 -1.8550001 9 3
15.45466 2.0264139 -1.9138362 9 4
35.354141 4.5916896 -1.8683938 10 6
6.4896698 0.81983823 -1.7527226 15 0
7.5928597 0.95516545 -1.7667656 7 1
9.1713257 1.1488556 -1.7966576 4 2
11.704275 1.4599245 -1.8681406 9 3
15.5098 1.9236015 -1.9189547 7 4
6.5008554 0.77632958 -1.7542756 4 0
7.603056 0.90391672 -1.7676654 7 1
9.1713238 1.0838779 -1.7951311 4 2
11.843663 1.393411 -1.8887899 9 3
15.526478 1.8184468 -1.9194423 7 4
6.5214739 0.73265463 -1.7584167 3 0
7.6091805 0.85081899 -1.7676654 7 1
9.1999521 1.023814 -1.7993289 4 2
11.668317 1.2923208 -1.8593802 6 3
15.609828 1.7178243 -1.9282169 7 4
6.5149031 0.68589473 -1.7553109 4 0
9.1777525 0.95490694 -1.7936047 3 2
11.624215 1.2032995 -1.8509328 5 3
15.676731 1.6145071 -1.9350417 7 4
6.56183 0.64455009 -1.7666988 3 0
7.5912261 0.74165219 -1.7609169 38 1
9.2328911 0.89716059 -1.8031452 4 2
11.616406 1.1226279 -1.8484299 5 3
15.738997 1.5099523 -1.9413787 7 4
6.554522 0.5988155 -1.763593 3 0
7.6387949 0.69384122 -1.7708147 5 1
9.2271976 0.83162361 -1.8008554 4 2
11.627895 1.0418497 -1.8490556 5 3
15.865569 1.4131685 -1.9557593 10 4
6.5700932 0.5540157 -1.7666988 3 0
7.6492782 0.64098358 -1.7721643 6 1
9.2210398 0.76620996 -1.7985657 4 2
11.615199 0.9590264 -1.8459269 4 3
15.975948 1.3106571 -1.9681902 8 4
6.5815048 0.50873297 -1.7687694 3 0
7.6360798 0.58622712 -1.7681153 5 1
42.854069 3.2748704 2.2524352 1 9
9.2144175 0.70092279 -1.796276 28 2
11.621611 0.87791359 -1.8459269 4 3
16.087646 1.2068137 -1.9808645 8 4
52.343674 3.8622575 -2.7506735 0 6
6.5617709 0.46114784 -1.7625577 3 0
7.6322098 0.53236055 -1.7663157 5 1
9.2523832 0.63888049 -1.8027636 6 2
43.184349 2.9743023 3.7870915 0 10
11.658989 0.79892439 -1.8509328 4 3
43.188667 2.9443083 5.3152099 1 11
15.99071 1.0873337 -1.9679463 6 4
6.5571189 0.41483581 -1.7604873 3 0
7.6357408 0.47906107 -1.7663157 4 1
9.2585773 0.57439268 -1.8031452 4 2
11.66231 0.71738851 -1.85062 4 3
15.81562 0.96456122 -1.9455223 4 4
43.358898 2.6291566 6.8799887 1 12
6.5791426 0.37013662 -1.7656636 3 0
7.6505737 0.42639253 -1.7690151 4 1
9.2486391 0.508982 -1.8004738 3 2
11.641394 0.6345495 -1.8465527 5 3
15.790256 0.85240424 -1.9416226 4 4
6.5834956 0.32429153 -1.7661812 2 0
7.6747742 0.37401813 -1.7739639 3 1
9.2872648 0.4460974 -1.8073429 3 2
11.65935 0.55391794 -1.8487427 20 3
15.831512 0.74382365 -1.9460098 4 4
6.5759487 0.27791432 -1.763593 2 0
7.6655164 0.3199414 -1.7712647 3 1
9.274394 0.3822282 -1.8042899 3 2
11.682589 0.47535092 -1.8518714 3 3
15.850204 0.63384354 -1.947716 5 4
6.5989256 0.23389949 -1.7692871 2 0
7.661674 0.26755235 -1.769915 3 1
9.2611389 0.31693423 -1.801237 3 2
11.721159 0.394977 -1.8575031 3 3
15.854152 0.52593219 -1.947716 5 4
6.6061907 0.18798946 -1.77084 3 0
7.6711469 0.21427491 -1.7717146 3 1
9.2945271 0.25312674 -1.8073429 3 2
11.703884 0.31261083 -1.8543743 3 3
15.79989 0.41373712 -1.9406476 11 4
6.6247244 0.1422382 -1.7754986 2 0
7.6938868 0.1611639 -1.7766634 3 1
9.2999935 0.18831205 -1.8081062 3 2
11.733432 0.23144011 -1.8587546 3 3
15.853996 0.30441383 -1.9469848 8 4
55.93219 1.0056049 -2.9317558 0 6
6.625556 0.095988594 -1.7754986 2 0
7.7104135 0.10766786 -1.7802627 3 1
9.277524 0.12306876 -1.8035268 3 2
98.610847 1.2908857 8.6280699 62 10
11.72291 0.14936867 -1.8568773 3 3
15.887494 0.19411267 -1.9508847 3 4
6.622201 0.049702156 -1.7744634 2 0
7.6836948 0.053642269 -1.7739639 3 1
9.2938633 0.058399551 -1.8065797 3 2
11.727617 0.06755203 -1.8575031 3 3
15.922221 0.080590241 -1.9550281 2 4
6.5876136 0.0023013619 -1.7651459 2 0
7.6858315 -0.0013414306 -1.7744139 3 1
9.286191 -0.0064829849 -1.8050531 3 2
11.739653 -0.016391657 -1.8593802 3 3
15.922396 -0.030568842 -1.9550281 2 4
24.418653 -0.059666146 -2.1363616 29 5
6.6145148 -0.043869767 -1.772393 2 0
7.7051215 -0.055137638 -1.7789129 3 1
9.2937603 -0.072994515 -1.8065797 3 2
11.7195 -0.098183341 -1.8562515 3 3
15.973404 -0.14218588 -1.9613652 2 4
6.5966625 -0.089809656 -1.7677342 3 0
7.6811662 -0.10859716 -1.7735142 3 1
9.3244324 -0.13834089 -1.8126855 3 2
11.785684 -0.18102935 -1.8668892 2 3
15.938282 -0.25316098 -1.9572219 2 4
6.5784917 -0.13550243 -1.7630754 2 0
7.7036009 -0.16271254 -1.7789129 2 1
9.3232393 -0.2034338 -1.8126855 3 2
11.780182 -0.26321557 -1.8662634 2 3
15.991693 -0.36569482 -1.9640466 2 4
6.627594 -0.18281022 -1.776534 2 0
7.7100692 -0.21670845 -1.7807125 2 1
9.3215923 -0.26851681 -1.8126855 3 2
11.76621 -0.34510219 -1.8643861 2 3
15.984784 -0.47720963 -1.9635592 2 4
6.6145725 -0.22867425 -1.7734282 2 0
7.7122631 -0.27066588 -1.7816124 2 1
9.3587303 -0.33499131 -1.820318 3 2
11.743774 -0.42651984 -1.8612576 2 3
15.988997 -0.58908427 -1.964534 2 4
6.6128149 -0.27484673 -1.7734282 2 0
7.6868215 -0.32351723 -1.7762135 2 1
9.3169346 -0.39864036 -1.8126855 3 2
11.760244 -0.50935054 -1.8643861 2 3
15.984494 -0.70069325 -1.964534 2 4
6.6030164 -0.320631 -1.7713577 2 0
7.6882687 -0.37736413 -1.7771133 2 1
9.3335323 -0.46465072 -1.8165017 3 2
11.776132 -0.59243196 -1.8675148 2 3
15.987142 -0.81267107 -1.9655088 2 4
6.6064038 -0.36704209 -1.7729106 3 0
7.7029576 -0.43201083 -1.7811624 3 1
9.3143806 -0.52890885 -1.8134488 3 2
11.783542 -0.67530793 -1.8693922 3 3
15.983061 -0.92437643 -1.9657527 2 4
6.5767589 -0.41031748 -1.7656636 2 0
7.6940036 -0.48406562 -1.7798127 3 1
9.2909708 -0.59105062 -1.8096325 3 2
11.762901 -0.75448811 -1.8668892 2 3
15.95659 -1.0318663 -1.9633152 2 4
6.6276965 -0.45996657 -1.7801574 3 0
7.6690531 -0.53627241 -1.7748638 3 1
9.2983694 -0.65672892 -1.8119223 3 2
11.741584 -0.83546788 -1.8643861 3 3
16.020277 -1.1483477 -1.9720899 3 4
6.6012087 -0.50445861 -1.7739457 3 0
7.6748376 -0.59054661 -1.7771133 4 1
9.3248758 -0.72405893 -1.8180283 3 2
11.755159 -0.91895819 -1.8675148 3 3
15.964375 -1.2564237 -1.9662402 3 4
6.6013765 -0.55085242 -1.774981 3 0
7.6666436 -0.64378601 -1.7762135 5 1
9.2884312 -0.78486919 -1.8119223 3 2
11.736822 -0.99794698 -1.8656377 4 3
15.978949 -1.3698791 -1.9691651 3 4
6.5782337 -0.59403592 -1.7698047 3 0
7.6737289 -0.69701362 -1.7789129 5 1
9.3061857 -0.85184258 -1.8165017 3 2
11.737438 -1.0805849 -1.8668892 4 3
16.006811 -1.4820893 -1.9737961 2 4
6.5700808 -0.63957143 -1.7687694 3 0
7.6686759 -0.75056893 -1.7789129 5 1
9.2843819 -0.91524976 -1.8134488 3 2
11.76499 -1.1660074 -1.8725207 4 3
16.015827 -1.595769 -1.9762335 2 4
6.5769839 -0.68662685 -1.7718753 3 0
7.6729388 -0.80510437 -1.7811624 7 1
9.287528 -0.98107541 -1.815357 4 2
11.784065 -1.2510331 -1.8769009 2 3
16.012192 -1.7083831 -1.9772084 2 4
19.178591 -2.080075 -0.33672673 101 7
6.5797105 -0.73338181 -1.7739457 4 0
7.6671309 -0.85865152 -1.7811624 6 1
9.3233728 -1.0507271 -1.8237525 4 2
11.78682 -1.3346038 -1.8787781 3 3
16.041294 -1.8248385 -1.9823269 2 4
19.254982 -2.2244718 -0.33833236 136 7
6.5821037 -0.78020817 -1.7760164 4 0
7.6590152 -0.91192657 -1.7807125 5 1
9.2982664 -1.1136892 -1.820318 3 2
11.773293 -1.416386 -1.8781524 3 3
16.051813 -1.9396402 -1.9852518 2 4
6.5841637 -0.82710367 -1.7780869 3 0
7.6640625 -0.96683741 -1.783412 5 1
9.2863684 -1.1780815 -1.8195547 3 2
11.814067 -1.5050346 -1.886287 2 3
16.093014 -2.0587077 -1.9920764 2 4
6.5475879 -0.86898273 -1.7698047 4 0
7.6571259 -1.0203186 -1.783412 5 1
9.3362942 -1.2507035 -1.8310033 3 2
11.775863 -1.5837885 -1.8819069 2 3
16.093988 -2.1731322 -1.9940264 1 4
6.5643206 -0.91788226 -1.7760164 3 0
7.6498165 -1.07375 -1.783412 5 1
9.3081236 -1.3114848 -1.8271869 3 2
11.753075 -1.6622473 -1.8800297 2 3
16.082354 -2.2859943 -1.9945139 2 4
6.5770345 -0.96534795 -1.7811928 3 0
7.6384745 -1.1252275 -1.7825122 4 1
9.30651 -1.3775854 -1.8287135 3 2
11.788079 -1.7512248 -1.8875386 2 3
16.074274 -2.3965802 -1.9954888 2 4
6.5548596 -1.0088894 -1.7770516 4 0
7.651618 -1.1817982 -1.7874612 3 1
9.3007975 -1.4415017 -1.8294767 3 2
11.775886 -1.8314226 -1.8875386 2 3
16.076765 -2.5118051 -1.9979262 2 4
6.5669136 -1.0565518 -1.782228 3 0
7.6510921 -1.2350957 -1.7892607 3 1
9.3060112 -1.5089117 -1.8325297 3 2
11.774511 -1.9154915 -1.8894157 2 3
16.116112 -2.6304505 -2.0049946 2 4
6.5479474 -1.1004505 -1.7791222 3 0
7.6422825 -1.2884798 -1.7892607 3 1
9.2758932 -1.5705651 -1.8287135 3 2
11.784221 -2.0016148 -1.8931701 2 3
16.15019 -2.7519002 -2.0115755 3 4
6.5629392 -1.1501383 -1.7853339 3 0
7.6350207 -1.3421384 -1.7897105 3 1
9.31497 -1.6441568 -1.8386356 3 2
11.797191 -2.0886562 -1.8975502 2 3
16.150131 -2.8680527 -2.0140131 3 4
6.5167403 -1.1889929 -1.774981 3 0
7.6369667 -1.3975126 -1.79241 4 1
9.3109875 -1.7105659 -1.8401619 3 2
11.80175 -2.1745441 -1.900679 2 3
16.203894 -2.9944389 -2.0232751 3 4
6.5424452 -1.2409389 -1.7842987 3 0
7.6423388 -1.4537073 -1.7960092 3 1
9.3103895 -1.7777359 -1.8424517 3 2
11.809563 -2.2613404 -1.9044335 2 3
16.217682 -3.114228 -2.0276623 3 4
6.5241451 -1.284717 -1.7817104 2 0
7.6205335 -1.5047601 -1.7933098 3 1
9.3093071 -1.844981 -1.8447415 3 2
11.816739 -2.3483515 -1.9081879 3 3
16.242271 -3.2366824 -2.0335121 3 4
6.5623374 -1.3398943 -1.7946514 3 0
7.6327519 -1.5626144 -1.7987086 2 1
9.2731228 -1.9051853 -1.8401619 3 2
11.792316 -2.4291954 -1.9069364 3 3
16.265936 -3.3596323 -2.0393617 3 4
63.953918 -13.290791 -3.4232953 17 6
6.5093517 -1.3764825 -1.7827457 2 0
7.6254697 -1.616671 -1.7996083 2 1
9.3018436 -1.9788646 -1.8485577 3 2
11.771207 -2.5106378 -1.9063107 3 3
16.31197 -3.4880507 -2.0481365 3 4
6.5260043 -1.4276724 -1.7899926 2 0
7.6368394 -1.6748767 -1.8050072 2 1
9.2686272 -2.0395358 -1.8447415 3 2
11.803546 -2.6038179 -1.9144453 3 3
16.322109 -3.6095591 -2.0525236 3 4
6.4951515 -1.4685111 -1.7842987 2 0
7.6287622 -1.729012 -1.8059071 2 1
9.2541628 -2.1041927 -1.8447415 3 2
11.777376 -2.6844022 -1.9131937 4 3
16.339087 -3.7331476 -2.0578859 3 4
6.5057001 -1.5175152 -1.7899926 2 0
7.6168165 -1.7808989 -1.8059071 2 1
9.2740307 -2.175204 -1.8516105 3 2
11.762677 -2.7654095 -1.9138194 4 3
16.369329 -3.8574805 -2.0649543 2 4
6.47053 -1.5570205 -1.7832633 2 0
7.5928316 -1.8312891 -1.8032078 2 1
9.3158655 -2.2537448 -1.8630592 3 2
11.760363 -2.85165 -1.9166353 4 3
16.369005 -3.9782286 -2.0683665 2 4
6.4820032 -1.6077358 -1.789475 2 0
7.6101203 -1.8917738 -1.8104061 2 1
9.292285 -2.3168268 -1.8615327 3 2
11.784246 -2.9446974 -1.9238312 6 3
16.369719 -4.0996418 -2.0720227 2 4
6.5099277 -1.6629903 -1.8003453 2 0
7.5891762 -1.9429227 -1.8086064 2 1
9.2667904 -2.3775835 -1.8596245 4 2
11.746712 -3.0204139 -1.9210155 14 3
16.371454 -4.2217546 -2.0759225 2 4
50.678104 -13.125124 -2.7435558 0 6
6.4891152 -1.7048086 -1.7977571 2 0
7.5833139 -1.9965199 -1.8104061 3 1
9.210104 -2.4316947 -1.8516105 3 2
11.782628 -3.1175051 -1.9304014 4 3
16.356932 -4.3400178 -2.0778725 2 4
6.4804797 -1.7522084 -1.7987925 2 0
7.5631905 -2.0492046 -1.8090565 3 1
9.2383766 -2.5082798 -1.8607695 3 2
11.788609 -3.2095232 -1.9350946 4 3
16.370281 -4.4661202 -2.0834785 2 4
6.486702 -1.8025796 -1.8039688 2 0
7.5731053 -2.1087508 -1.8149052 3 1
9.2674627 -2.587522 -1.8703098 4 2
11.773524 -3.2938728 -1.9363459 4 3
16.376932 -4.5910139 -2.0883534 2 4
6.44981 -1.8409283 -1.7972395 2 0
7.5525775 -2.1599617 -1.8135554 3 1
9.2251005 -2.643513 -1.8653487 3 2
11.792602 -3.3859298 -1.9432292 3 3
16.365465 -4.7112741 -2.0910344 3 4
6.4501081 -1.8885878 -1.8008629 2 0
7.5638795 -2.2190003 -1.819854 3 1
9.2309055 -2.7150526 -1.8703098 4 2
11.791414 -3.474875 -1.9469837 3 3
16.348249 -4.8270574 -2.0929844 3 4
38.711777 -11.481652 -2.1161523 0 6
6.4460173 -1.9363506 -1.8034512 2 0
7.5370073 -2.2683821 -1.8171545 3 1
9.1948109 -2.7743258 -1.8668753 3 2
11.819812 -3.5731142 -1.9557439 3 3
16.355947 -4.9537306 -2.0983465 3 4
37.572098 -11.429605 -2.0581639 0 6
6.4231105 -1.9784613 -1.8008629 2 0
7.5377469 -2.3261161 -1.8212038 5 1
9.2052288 -2.8477337 -1.8729813 3 2
11.771937 -3.6485267 -1.9519895 3 3
16.32855 -5.0701494 -2.0993216 3 4
37.891796 -11.816493 -2.0801451 0 6
6.4294066 -2.0296519 -1.8065571 2 0
7.5213242 -2.3786821 -1.8212038 5 1
9.1795082 -2.9101481 -1.8718363 4 2
61.1329 -19.392498 5.6110868 10 10
11.757475 -3.7342081 -1.9538667 3 3
60.988194 -19.393467 7.8578925 7 11
16.317348 -5.1918445 -2.1024902 2 4
37.511589 -11.985904 -2.0638163 0 6
6.4334621 -2.0804319 -1.8117335 2 0
7.5100961 -2.432934 -1.8225534 6 1
9.1627016 -2.9753745 -1.8725995 4 2
11.746146 -3.8210881 -1.9563696 2 3
16.318451 -5.3179345 -2.1073649 2 4
37.172634 -12.164253 -2.0497901 1 6
6.4132786 -2.1234729 -1.8101805 3 0
7.5114245 -2.4914401 -1.8270525 6 1
9.1403742 -3.0370545 -1.8722179 3 2
11.764849 -3.915925 -1.9638785 2 3
16.354368 -5.4562297 -2.1168706 2 4
37.039734 -12.400511 -2.0470688 1 6
6.4352717 -2.179471 -1.8205333 3 0
7.4813738 -2.5381281 -1.8239032 5 1
9.1449709 -3.1096404 -1.8775605 3 2
11.744703 -4.0005107 -1.96513 2 3
16.36194 -5.582808 -2.1227205 2 4
28.869129 -9.8897429 -1.5992823 11 6
6.3943443 -2.2154901 -1.8132863 3 0
7.4874058 -2.5986021 -1.829752 6 1
9.1384287 -3.1769733 -1.8806137 3 2
11.747048 -4.090755 -1.9701359 3 3
16.457508 -5.7439966 -2.1402695 2 4
28.639036 -10.029246 -1.5902805 11 6
6.3791161 -2.2589636 -1.8132863 3 0
7.4640341 -2.647552 -1.8284022 5 1
9.1456242 -3.2512155 -1.8867195 3 2
11.725646 -4.1753149 -1.9713873 3 3
16.547882 -5.9054556 -2.1573315 2 4
28.869177 -10.336661 -1.607028 11 6
6.388217 -2.3137634 -1.8205333 3 0
7.4540572 -2.7042179 -1.8306518 7 1
9.1190138 -3.3136432 -1.8859563 3 2
11.684332 -4.2550588 -1.9695101 2 3
16.618143 -6.0616512 -2.1719556 2 4
27.684179 -10.136449 -1.5450623 11 6
6.3392968 -2.346235 -1.8112158 3 0
7.44596 -2.7602553 -1.8333511 7 1
9.113471 -3.3856487 -1.8897724 3 2
11.695072 -4.3516822 -1.9763933 3 3
16.701908 -6.2246599 -2.1885297 3 4
27.283503 -10.206311 -1.5266401 11 6
6.3372188 -2.3958993 -1.8153569 4 0
7.4265084 -2.81217 -1.8333511 6 1
9.0712585 -3.4422247 -1.8859563 3 2
11.649635 -4.4276085 -1.9738904 2 3
16.793474 -6.392662 -2.2063227 2 4
27.248901 -10.410792 -1.5287334 11 6
6.3059206 -2.4345167 -1.8112158 4 0
7.4103303 -2.8653536 -1.8342509 6 1
9.0543289 -3.508307 -1.8874826 3 2
11.640539 -4.517405 -1.9776447 2 3
16.853903 -6.5507379 -2.2202158 4 4
27.153225 -10.592059 -1.5274774 11 6
6.3067436 -2.485564 -1.8163921 4 0
7.3865204 -2.9155862 -1.8333511 6 1
9.0594511 -3.5814042 -1.8935887 3 2
11.616867 -4.599443 -1.9788963 3 3
16.922159 -6.7136264 -2.2353277 4 4
27.3069 -10.866735 -1.5402474 11 6
6.3076034 -2.5356402 -1.8215685 4 0
7.364696 -2.9650693 -1.8329012 4 1
9.0415096 -3.6475012 -1.895115 3 2
11.591801 -4.6833916 -1.9801477 3 3
26.797348 -10.881275 -1.5157541 11 6
6.2754488 -2.5737491 -1.8174274 4 0
7.3708558 -3.0275178 -1.8396497 6 1
8.9983168 -3.7014911 -1.8912989 3 2
11.592529 -4.7757287 -1.9857793 3 3
26.611938 -11.017585 -1.5094738 11 6
6.2501993 -2.6145148 -1.8153569 4 0
7.3639197 -3.0849257 -1.843249 7 1
9.0005627 -3.7779438 -1.8974047 3 2
11.590837 -4.8723392 -1.991411 3 3
17.099258 -7.1984043 -2.277982 5 4
26.789997 -11.316538 -1.5241278 11 6
6.2460098 -2.664149 -1.8194979 4 0
7.3350353 -3.1331978 -1.8414494 6 1
9.0136776 -3.8576818 -1.9058005 3 2
11.567434 -4.9578085 -1.9932882 3 3
17.201818 -7.3833723 -2.298456 5 4
26.526903 -11.424289 -1.5136607 11 6
6.2166286 -2.7030671 -1.8163921 4 0
7.3219156 -3.1882191 -1.8436987 4 1
8.9613323 -3.9095235 -1.9004576 3 2
11.554262 -5.0479331 -1.9970427 3 3
17.300802 -7.5693245 -2.3186862 8 4
23.699619 -10.403404 -1.3564434 11 6
6.2152681 -2.7542279 -1.8215685 3 0
7.3083863 -3.2432101 -1.8459483 6 1
8.9811602 -3.9911594 -1.9103796 3 2
11.534072 -5.1328878 -1.9995456 3 3
17.272921 -7.7012386 -2.3220987 9 4
23.496981 -10.505787 -1.3489071 22 6
6.2034211 -2.7996485 -1.8236392 3 0
7.2772617 -3.2888682 -1.8436987 5 1
8.9137316 -4.0359468 -1.9019842 3 2
11.55193 -5.2377572 -2.0089316 2 3
17.147799 -7.7858047 -2.3123491 16 4
21.358299 -9.7290363 -1.2299998 20 6
6.176703 -2.8396599 -1.8215685 4 0
7.2647452 -3.3444822 -1.8463982 5 1
8.935257 -4.1211009 -1.9126694 3 2
11.576056 -5.346437 -2.0195692 2 3
16.855198 -7.7953353 -2.2801757 15 4
21.071369 -9.7631283 -2.0317745 32 5
21.514517 -9.9821424 -1.2429792 21 6
6.1532292 -2.8810737 -1.8205333 4 0
7.2588639 -3.4033906 -1.8508973 3 1
8.9062681 -4.1833797 -1.9126694 3 2
11.60995 -5.460753 -2.032084 2 3
16.714163 -7.8722153 -2.268476 16 4
21.46236 -10.140629 -1.2440258 21 6
6.1434293 -2.9289491 -1.8236392 4 0
7.2489958 -3.4606998 -1.8544965 2 1
8.894557 -4.2539248 -1.9164857 3 2
11.621428 -5.5655618 -2.0408442 2 3
16.691017 -8.0041599 -2.2728636 9 4
21.081472 -10.141295 -1.2260222 20 6
6.1610661 -2.990324 -1.8350271 3 0
7.2211533 -3.5095191 -1.8535968 2 1
8.8575811 -4.3124785 -1.9149592 3 2
11.653315 -5.6811838 -2.053359 3 3
18.354397 -8.9599686 -2.5078275 10 4
21.056795 -10.311062 -1.2287437 10 6
6.1227198 -3.0247068 -1.8298507 4 0
7.1894903 -3.5563905 -1.8517971 3 1
8.8096685 -4.3654943 -1.9111431 3 2
11.662915 -5.7869844 -2.0621192 3 3
18.494062 -9.1885805 -2.5356138 11 4
20.56601 -10.249352 -1.2042505 10 6
6.087646 -3.0604358 -1.8257096 4 0
7.1853752 -3.6170101 -1.857196 2 1
8.771965 -4.4233546 -1.9096165 3 2
11.682186 -5.8985376 -2.072757 3 3
18.638508 -9.4231548 -2.5643749 11 4
20.429827 -10.360159 -1.2004824 20 6
6.069572 -3.1046205 -1.8267449 3 0
7.1564794 -3.6653082 -1.8562962 3 1
8.7600851 -4.4943438 -1.9138144 4 2
11.682892 -6.0016127 -2.0802658 3 3
18.71702 -9.6275015 -2.5843616 11 4
20.520298 -10.58678 -1.2101121 10 6
6.0614595 -3.1540518 -1.830886 3 0
7.1445422 -3.7223835 -1.8598953 2 1
8.7232742 -4.5526662 -1.9126694 3 2
11.703734 -6.1159639 -2.0915291 3 3
18.867449 -9.8720512 -2.6145852 12 4
21.261177 -11.157635 -1.2583659 21 6
6.0256333 -3.1890621 -1.8267449 3 0
7.1269908 -3.7767329 -1.8621449 3 1
8.7051516 -4.6208181 -1.9157225 3 2
11.702616 -6.2197714 -2.0990379 4 3
18.263586 -9.7191 -2.5402448 13 4
20.610115 -11.000154 -1.2243475 20 6
6.0270381 -3.2438688 -1.8339919 3 0
7.0987344 -3.8254716 -1.8616948 3 1
8.7072334 -4.70013 -1.9233549 3 2
11.731897 -6.3407669 -2.1121783 4 3
18.169104 -9.8321962 -2.5365887 9 4
20.511753 -11.132339 -1.2230914 10 6
6.0076342 -3.2877204 -1.8350271 3 0
7.0684376 -3.873064 -1.8607951 3 1
8.6810913 -4.7645812 -1.9248812 3 2
11.73755 -6.4501047 -2.1212516 4 3
17.87392 -9.8343983 -2.5049026 4 4
18.607895 -10.267873 -1.113814 19 6
5.9744067 -3.3239467 -1.8319213 3 0
20.229771 -11.264371 0.40416282 43 8
7.0786791 -3.9431791 -1.8706928 2 1
8.6304731 -4.8155041 -1.9210651 3 2
18.9604 -10.605297 -2.6674764 14 4
18.880659 -10.590999 -1.134539 20 6
5.9510555 -3.3655744 -1.8319213 3 0
7.0272384 -3.979059 -1.8643943 3 1
8.6316528 -4.8935027 -1.9286975 3 2
11.72309 -6.6542306 -2.1350179 7 3
17.494999 -9.9466219 -2.4710231 3 4
18.521818 -10.556092 -1.1172681 19 6
5.9514599 -3.4194772 -1.8391682 3 0
20.072538 -11.542222 0.40416282 43 8
7.0101256 -4.032629 -1.8670937 2 1
8.6176929 -4.9654055 -1.9332769 3 2
11.784148 -6.7980971 -2.1547287 4 3
18.922201 -10.933546 -2.6833196 15 4
18.430389 -10.67513 -1.1162214 19 6
5.9134932 -3.4541821 -1.8350271 3 0
20.965233 -12.251093 0.42384914 46 8
7.0046406 -4.0964618 -1.8733923 2 1
8.6099253 -5.0413179 -1.9393828 3 2
11.808471 -6.9252176 -2.1681819 5 3
16.731314 -9.8240557 -2.382302 2 4
18.474319 -10.8605 -1.8748943 35 5
19.239883 -11.328633 -1.1701275 10 6
5.8992023 -3.5012977 -1.8381329 3 0
6.9540925 -4.1323214 -1.8675436 3 1
8.5938749 -5.1148491 -1.9439622 3 2
11.831107 -7.0499563 -2.1813223 4 3
16.815752 -10.032156 -2.4042385 4 4
5.8464913 -3.5254376 -1.8293331 2 0
20.680372 -12.480122 0.42161524 46 8
6.9417577 -4.1908412 -1.8720427 3 1
8.5814772 -5.1889424 -1.9493048 3 2
11.906651 -7.2080836 -2.2044747 5 3
15.955911 -9.6708574 -2.2909 2 4
18.564394 -11.28289 -1.1385165 20 6
5.8530364 -3.58534 -1.8391682 3 0
6.9156532 -4.2412386 -1.8729424 3 1
8.6052656 -5.2857165 -1.963043 3 2
11.962046 -7.3562226 -2.2241855 7 3
16.79575 -10.340898 -2.421788 8 4
17.689819 -10.921189 -1.08953 9 6
5.796699 -3.6067235 -1.8293331 2 0
6.8875299 -4.2904463 -1.8733923 4 1
8.6048012 -5.3685269 -1.9714386 3 2
11.927154 -7.4500184 -2.2273142 9 3
16.524544 -10.333703 -2.3930268 2 4
17.491312 -10.968026 -1.0819937 19 6
5.7899799 -3.6574452 -1.8350271 3 0
6.8614607 -4.3393111 -1.8742923 5 1
8.568059 -5.4269733 -1.9714386 3 2
11.902858 -7.5479569 -2.2323201 9 3
17.254894 -10.954514 -2.5095336 10 4
17.453318 -11.110424 -1.0842965 19 6
5.7561755 -3.6925623 -1.8324389 2 0
6.8326387 -4.3881602 -1.8747422 6 1
8.566288 -5.5100212 -1.9798342 3 2
11.873125 -7.6458416 -2.2367003 9 3
17.691868 -11.406002 -2.5846052 11 4
17.27355 -11.153391 -1.7988945 37 5
17.603443 -11.379464 -1.0985318 9 6
5.7610121 -3.7526917 -1.8422741 3 0
6.8148952 -4.4442701 -1.8783413 6 1
8.5802116 -5.6040454 -1.992046 3 2
11.994707 -7.8431387 -2.2698643 9 3
17.183306 -11.248724 -2.5217206 11 4
16.942513 -11.120685 -1.062106 19 6
5.7056694 -3.7736366 -1.8329566 3 0
6.7804542 -4.4895864 -1.8774415 7 1
8.5572414 -5.6746593 -1.9958621 3 2
11.910038 -7.9070182 -2.2642329 11 3
17.196939 -11.429947 -2.5353701 11 4
17.033989 -11.35167 -1.0727825 19 6
5.7016387 -3.8284543 -1.8402034 3 0
6.7554145 -4.541162 -1.879241 6 1
8.5337029 -5.7452264 -1.9996784 3 2
12.149395 -8.1887016 -2.320549 9 3
17.047613 -11.503089 -2.5251331 4 4
16.792208 -11.360632 -1.0625247 19 6
5.6667919 -3.862725 -1.8376153 2 0
6.7122793 -4.5805225 -1.8760917 5 1
8.4976397 -5.8053937 -2.0004416 3 2
12.081962 -8.2634029 -2.3183591 8 3
17.034037 -11.667816 -2.5351262 6 4
16.385174 -11.24859 -1.0415903 9 6
5.6467228 -3.9056036 -1.8396858 2 0
6.6921601 -4.6338716 -1.879241 6 1
8.4923973 -5.8891897 -2.0088372 3 2
12.317682 -8.5514507 -2.3749883 9 3
17.141682 -11.913777 -2.5631564 9 4
16.360321 -11.400386 -1.0450444 19 6
5.587697 -3.9227302 -1.8293331 2 0
6.6644306 -4.6838403 -1.8805909 5 1
8.4842262 -5.9694543 -2.0164697 3 2
12.304408 -8.6669464 -2.3837488 11 3
16.529282 -11.660127 -2.4836974 10 4
16.297018 -11.521859 -1.0459865 19 6
5.5876164 -3.9797254 -1.8381329 3 0
6.6450882 -4.7381449 -1.8841901 5 1
8.4886799 -6.061625 -2.0275364 4 2
12.250031 -8.7572298 -2.385 10 3
16.487827 -11.804124 -2.4897909 6 4
16.329779 -11.716859 -1.0533136 9 6
5.5480371 -4.0116835 -1.8345095 2 0
6.6062775 -4.7821469 -1.8828404 6 1
8.47159 -6.1391721 -2.0336425 4 2
12.235013 -8.8794718 -2.3943863 9 3
16.246027 -11.80343 -2.4656608 6 4
16.744362 -12.196774 -1.0856572 19 6
5.5417008 -4.0663185 -1.8417563 2 0
6.5805826 -4.8339186 -1.8850898 4 1
8.4495831 -6.2159224 -2.038985 4 2
12.303152 -9.0607262 -2.4200413 9 3
16.049786 -11.832921 -2.4483552 9 4
15.800759 -11.66636 -1.7183627 38 5
16.763203 -12.390538 -1.0924609 9 6
5.4914842 -4.0887551 -1.8345095 2 0
6.5576129 -4.8878937 -1.888239 3 1
8.4484615 -6.306468 -2.0492887 4 2
12.407329 -9.271739 -2.4532056 9 3
17.694601 -13.237252 -2.7132993 7 4
15.718927 -11.776385 -1.7183627 38 5
16.331167 -12.248422 -1.0698518 19 6
5.4658895 -4.1293225 -1.8355448 2 0
6.5311007 -4.9394326 -1.8904886 3 1
8.4183121 -6.3759632 -2.0527232 30 2
12.50915 -9.4846411 -2.4863696 10 3
15.960486 -12.114669 -2.4602985 6 4
16.461416 -12.526624 -1.0840871 19 6
5.4660597 -4.1897097 -1.8453798 3 0
6.5242872 -5.0062618 -1.898587 2 1
8.3684912 -6.4283328 -2.0511968 22 2
12.597759 -9.6875772 -2.5170307 10 3
15.354935 -11.824892 -2.379621 1 4
16.865923 -13.016667 -1.1165354 9 6
5.4343643 -4.2244477 -1.8443446 3 0
6.5054388 -5.0625224 -1.9030858 2 1
8.3899956 -6.5384917 -2.0676064 4 2
12.663763 -9.8797855 -2.5439377 10 3
15.887371 -12.408108 -2.4751666 4 4
5.3986726 -4.2574983 -1.8422741 4 0
6.5035877 -5.1343813 -1.9129838 2 1
8.3857269 -6.6297793 -2.0779099 4 2
12.675026 -10.031703 -2.5602069 10 3
19.912653 -15.776917 -3.1193678 12 4
5.3808861 -4.3047385 -1.8464152 3 0
6.4706264 -5.1820955 -1.9138836 2 1
8.3576164 -6.7029009 -2.0824895 4 2
12.741775 -10.230011 -2.588052 9 3
16.052979 -12.902313 -2.5287893 9 4
16.541403 -13.309139 -1.8574631 36 5
5.3447027 -4.3373294 -1.8443446 4 0
6.4403419 -5.2320571 -1.9156833 2 1
8.3346453 -6.778214 -2.0882137 4 2
12.766825 -10.393829 -2.60745 9 3
19.621197 -15.996955 -3.1083996 7 4
5.3210225 -4.3785195 -1.8464152 4 0
6.4316535 -5.2980762 -1.9237814 2 1
8.3552723 -6.8924551 -2.1053865 4 2
13.042753 -10.770745 -2.6790969 8 3
19.400425 -16.043726 -3.0910943 10 4
5.2776914 -4.4065785 -1.8422741 4 0
6.3965673 -5.3464637 -1.9246813 2 1
8.3732023 -7.0060501 -2.1221778 4 2
13.263625 -11.113732 -2.7407322 10 3
19.25753 -16.153259 -3.0862195 10 4
5.2615414 -4.4558001 -1.8474505 4 0
6.3680058 -5.3985515 -1.9273807 3 1
8.4036732 -7.1344008 -2.1427851 7 2
13.265491 -11.273859 -2.7573142 8 3
12.145481 -10.332959 -1.957953 16 4
5.239099 -4.4999762 -1.8505563 4 0
6.3390274 -5.4504986 -1.9300802 3 1
8.3477097 -7.1877708 -2.1412585 10 2
10.873258 -9.3723049 -2.2736187 2 3
12.082066 -10.425281 -1.9594156 13 4
5.1988163 -4.5288281 -1.8474505 4 0
6.325789 -5.5163937 -1.9377284 3 1
8.3357744 -7.279448 -2.1511807 9 2
11.041054 -9.6521053 -2.3227391 13 3
11.271032 -9.8635693 -1.8390086 1 4
5.1786542 -4.5752449 -1.8515915 3 0
6.3061008 -5.5772047 -1.9435771 5 1
8.3347225 -7.3817225 -2.1641557 9 2
10.082108 -8.9387341 -2.1340792 4 3
11.216744 -9.9551907 -1.8414459 6 4
5.1473918 -4.6103888 -1.8515915 4 0
6.2621884 -5.6147952 -1.9417773 5 1
8.29597 -7.4487767 -2.1672087 7 2
10.113586 -9.0903454 -2.15379 19 3
10.998204 -9.8958778 -1.8165846 14 4
5.1207995 -4.6514072 -1.853662 4 0
6.2372556 -5.6714869 -1.9462765 5 1
8.2495718 -7.5117979 -2.168735 10 2
10.03382 -9.1460915 -2.1503484 18 3
10.964043 -10.00453 -1.8224343 19 4
5.0967283 -4.6948962 -1.8567679 4 0
6.2247286 -5.7399931 -1.9548247 6 1
8.1998138 -7.5718713 -2.1694984 9 2
9.8536787 -9.1086473 -2.1253188 19 3
10.880818 -10.068696 -1.8202407 20 4
5.0666509 -4.7330017 -1.8578032 3 0
6.1958919 -5.7939572 -1.9584239 6 1
8.1624165 -7.6409264 -2.1733146 9 2
9.5954199 -8.9918079 -2.0827687 19 3
10.545361 -9.8958282 -1.7756364 31 4
11.216417 -10.536602 -1.3463819 26 5
5.0539551 -4.7859759 -1.8650501 3 0
6.153482 -5.8333154 -1.9575242 6 1
8.1231136 -7.7112417 -2.1771307 10 2
9.1171494 -8.6639566 -1.9920367 19 3
10.192982 -9.6964731 -1.7273762 21 4
10.328962 -9.8395758 -1.2480702 22 5
5.0092731 -4.8104377 -1.8609091 3 0
6.1196332 -5.8828855 -1.9597737 5 1
8.0775681 -7.7759328 -2.1794205 10 2
9.3323889 -8.9933157 -2.0527334 16 3
10.350771 -9.9851542 -1.7658869 14 4
10.750093 -10.384871 -1.3076848 24 5
4.9977121 -4.8668556 -1.8691912 3 0
6.0965538 -5.9431491 -1.9656224 6 1
8.0596113 -7.8677912 -2.1893425 10 2
8.9952927 -8.7904072 -1.9920367 19 3
10.158773 -9.9377909 -1.7449254 15 4
10.617554 -10.401108 -1.3003637 24 5
4.9581156 -4.8961978 -1.8671206 3 0
6.0770888 -6.0074854 -1.9728208 6 1
8.1216869 -8.0398846 -2.2213984 10 2
8.9842196 -8.9030485 -2.0033 21 3
9.9284868 -9.8490953 -1.7171392 18 4
10.069748 -10.003183 -1.2417951 22 5
10.713656 -10.653988 -0.79184312 8 6
4.9320035 -4.9388938 -1.8702265 3 0
6.0542684 -6.0690794 -1.9791193 7 1
8.374341 -8.406558 -2.3064992 12 2
9.3245335 -9.3702135 -2.0937192 34 3
9.34587 -9.401495 -1.6276871 20 4
10.0502 -10.124141 -1.2480702 22 5
10.707929 -10.798012 -0.79697204 17 6
4.9163799 -4.992476 -1.8774734 3 0
6.028151 -6.1278687 -1.9845182 7 1
8.3952465 -8.5460472 -2.3286331 10 2
9.0181484 -9.1897573 -2.0392799 12 3
9.2480459 -9.4339075 -1.622081 16 4
9.8789234 -10.091548 -1.2355198 22 5
10.117008 -10.345588 -0.75834811 17 6
4.8719854 -5.0169759 -1.87385 2 0
5.9987922 -6.1837912 -1.9890171 6 1
8.3613338 -8.6312408 -2.3358839 9 2
9.254612 -9.5633698 -2.1077983 14 3
9.1916189 -9.5082302 -1.6237873 20 4
9.7141352 -10.062796 -1.2236667 21 5
9.7090263 -10.068047 -0.73301744 17 6
4.8555479 -5.0703998 -1.8810968 2 0
8.2859564 -8.6737871 -2.331686 12 2
8.4048262 -8.8074503 -1.9282113 15 3
8.8565512 -9.2905493 -1.5760144 9 4
9.7865171 -10.280447 -1.2417951 22 5
9.6412535 -10.138477 -0.73322678 26 6
4.8054419 -5.0887237 -1.8754028 2 0
8.3207788 -8.8328838 -2.3587809 16 2
8.6111774 -9.1507492 -1.9901596 12 3
8.8825722 -9.4490595 -1.592345 22 4
9.6545076 -10.284602 -1.2341253 22 5
9.5497465 -10.183684 -0.73165673 17 6
4.7921801 -5.1461821 -1.8842027 2 0
5.8772645 -6.3180523 -1.9921664 31 1
8.2482224 -8.8792515 -2.3557279 18 2
8.2057915 -8.8428545 -1.9106908 30 3
8.5599823 -9.2342358 -1.5460347 18 4
9.5012655 -10.264026 -1.2236667 21 5
9.319767 -10.078537 -0.71941012 26 6
9.7329149 -10.536385 -0.25037223 23 7
4.7639766 -5.1880498 -1.8873086 2 0
5.8685808 -6.3977027 -2.0043139 7 1
8.0242481 -8.7599983 -2.3091705 15 2
8.1238537 -8.8780661 -1.9059978 21 3
8.5127172 -9.3128185 -1.5492033 7 4
8.9807434 -9.8386173 -1.1654465 19 5
9.2478333 -10.141879 -0.71930546 17 6
9.5837126 -10.521289 -0.24841754 22 7
4.717268 -5.2097263 -1.8831675 2 0
5.8342309 -6.450079 -2.0079131 7 1
7.9286814 -8.7779255 -2.2992485 19 2
8.3872128 -9.2953491 -1.9829636 16 3
8.8771839 -9.8625717 -1.1609144 19 5
8.9511251 -9.9551983 -0.70161593 8 6
9.451232 -10.522481 -0.24688175 22 7
4.7065158 -5.2713523 -1.8935202 2 0
5.7994356 -6.5022864 -2.0115123 6 1
7.867208 -8.8330631 -2.2992485 22 2
8.4744291 -9.5248709 -2.0192564 17 3
8.3858166 -9.4352169 -1.5499344 14 4
9.1405458 -10.295244 -1.2044923 20 5
8.574008 -9.6707277 -0.67733198 26 6
9.4093609 -10.624133 -0.24771945 22 7
4.675982 -5.3113313 -1.8961084 3 0
5.7693439 -6.5601754 -2.0169113 7 1
7.9183354 -9.0132523 -2.3320675 21 2
8.1527138 -9.2898436 -1.9576212 20 3
8.0135908 -9.144186 -1.4928997 19 4
8.7744789 -10.023007 -1.1654465 19 5
8.9550104 -10.24004 -0.71292049 26 6
4.6574545 -5.3634577 -1.9033554 3 0
5.7398806 -6.6169586 -2.02231 7 1
7.8552184 -9.0683117 -2.3320675 15 2
8.0346642 -9.2852888 -1.9447935 14 3
8.0433311 -9.3051472 -1.510205 23 4
8.2538443 -9.5621719 -1.1051347 17 5
8.8285265 -10.238779 -0.70852429 26 6
9.6221809 -11.171031 -0.25735319 24 7
4.6249228 -5.4017119 -1.9054259 3 0
5.7188783 -6.6864882 -2.0313082 7 1
7.6106648 -8.910943 -2.277878 16 2
8.0158014 -9.3952541 -1.9560568 16 3
7.9253812 -9.2991295 -1.5002117 10 4
8.1094103 -9.5285234 -1.0946761 16 5
8.560194 -10.06887 -0.69261408 26 6
9.0261793 -10.628255 -0.24339128 21 7
4.6020536 -5.451582 -1.9116375 3 0
5.6745715 -6.7292299 -2.0322077 7 1
7.3712292 -8.7536154 -2.2244515 24 2
7.7770782 -9.2453985 -1.9135066 19 3
7.6824389 -9.1458435 -1.4665757 18 4
8.1861277 -9.755847 -1.1141989 26 5
8.2690134 -9.8651114 -0.67461056 26 6
4.5629253 -5.484374 -1.9116375 3 0
5.6561675 -6.8056331 -2.0430055 7 1
7.3049216 -8.7988195 -2.2229249 21 2
7.5846467 -9.1487398 -1.8822197 30 3
7.7526131 -9.3613148 -1.4924121 19 4
8.0898809 -9.778985 -1.1103642 17 5
8.4004612 -10.168858 -0.69125336 17 6
9.0023069 -10.909027 -0.24688175 22 7
4.5294271 -5.5220699 -1.9137081 3 0
9.4072227 -11.477024 0.25902861 22 8
5.6196337 -6.8585196 -2.0470545 5 1
7.291501 -8.9116459 -2.2381897 15 2
7.6331015 -9.3391209 -1.910378 17 3
7.7557173 -9.5026741 -1.5060616 18 4
8.0196972 -9.8366241 -1.1103642 17 5
8.0164766 -9.8431931 -0.66529477 17 6
8.7019539 -10.700117 -0.2407385 21 7
4.4825091 -5.5453253 -1.9106023 3 0
9.5304747 -11.794388 0.26468319 23 8
5.6108122 -6.9485903 -2.0619013 6 1
7.3696222 -9.1365356 -2.2816939 19 2
7.5524464 -9.3765802 -1.9069364 12 3
7.6580768 -9.5179214 -1.4999681 20 4
8.0631657 -10.03214 -1.1260523 18 5
7.6183004 -9.4922056 -0.63787073 17 6
8.3793755 -10.451691 -0.23382734 19 7
4.4552684 -5.5870156 -1.9147433 3 0
9.2007313 -11.546208 0.25770223 21 8
5.6010303 -7.0313778 -2.0753984 9 1
7.3610377 -9.2540922 -2.2984853 21 2
7.2701216 -9.1496248 -1.8509328 18 3
7.4627328 -9.4021339 -1.473888 16 4
8.0664711 -10.177352 -1.1361622 18 5
7.9134731 -9.9950647 -0.66812086 26 6
8.4884996 -10.732891 -0.23885363 20 7
4.4424214 -5.6513963 -1.9261314 3 0
8.5343885 -10.864768 0.24115735 19 8
5.5493979 -7.0672431 -2.0744987 9 1
7.1835928 -9.1615753 -2.2629948 12 2
7.2109399 -9.2063761 -1.8521842 19 3
7.3810101 -9.4336796 -1.4707193 20 4
7.8406668 -10.035595 -1.1141989 17 5
7.6763835 -9.8359337 -0.65388548 26 6
8.5731974 -10.996909 -0.24339128 21 7
4.3957596 -5.6731095 -1.9230256 3 0
8.5783062 -11.079037 0.24457803 19 8
5.5011177 -7.1073537 -2.0749483 10 1
7.2815375 -9.4212074 -2.3145132 13 2
7.2527246 -9.3940897 -1.8797168 27 3
7.4119544 -9.610733 -1.4902185 21 4
7.5637546 -9.8217354 -1.084566 16 5
7.6684194 -9.9684391 -0.65911913 26 6
8.228157 -10.707657 -0.2357122 20 7
4.3490114 -5.6944475 -1.9199197 3 0
8.1076822 -10.623609 0.23326886 18 8
5.451365 -7.1455851 -2.0749483 13 1
7.0870996 -9.3031464 -2.2732985 22 2
7.3209429 -9.6205568 -1.9147581 16 3
7.4287701 -9.7728662 -1.5072802 24 4
7.5745053 -9.9790421 -1.0960705 16 5
7.8930769 -10.410058 -0.68465906 17 6
8.4188204 -11.115539 -0.24339128 21 7
4.3254166 -5.7462788 -1.9271667 4 0
8.3458519 -11.095452 0.24234411 19 8
5.3767533 -7.1507592 -2.0655005 15 1
6.8993855 -9.1891184 -2.2336102 21 2
7.3484201 -9.7978554 -1.9397876 16 3
7.3234639 -9.7752419 -1.4997243 18 4
7.4825301 -9.9984655 -1.0925844 25 5
7.5380554 -10.087333 -0.65995646 26 6
4.2667785 -5.7515116 -1.9188845 4 0
8.1224327 -10.95283 0.23801592 37 8
5.3475852 -7.2163048 -2.0735989 14 1
6.8740563 -9.2863626 -2.245822 18 2
7.2016959 -9.7396421 -1.9185126 17 3
7.3092818 -9.8995905 -1.5109363 18 4
7.4622159 -10.117805 -1.0999055 17 5
7.4538178 -10.117505 -0.65859574 17 6
7.9310102 -10.780979 -0.23361792 19 7
4.2480583 -5.8084884 -1.9282019 3 0
8.067008 -11.03833 0.23864421 37 8
5.2891455 -7.2399487 -2.0699997 14 1
6.8183146 -9.3468151 -2.2488749 15 2
7.059072 -9.6875048 -1.8984889 17 3
6.9660311 -9.570344 -1.453414 18 4
7.1283774 -9.8185749 -0.63588196 17 6
7.8339643 -10.802338 -0.23291981 19 7
4.2141814 -5.8474078 -1.9313078 4 0
8.0220785 -11.135168 0.23955174 19 8
5.2680745 -7.3178172 -2.0816972 14 1
6.6445007 -9.2399921 -2.2122397 15 2
6.783226 -9.4433336 -1.8415467 14 3
7.1281295 -9.9381304 -1.5016742 19 4
7.1340237 -9.9573517 -1.071667 23 5
7.0532432 -9.8554993 -0.63514924 35 6
7.6909256 -10.7624 -0.23089534 19 7
4.1854701 -5.8917065 -1.9364842 4 0
7.8237615 -11.021317 0.23592164 18 8
5.236186 -7.3789339 -2.0888956 13 1
6.5230789 -9.2060595 -2.1931586 24 2
6.4774799 -9.1518593 -1.7758442 21 3
6.9566083 -9.8433733 -1.4799815 9 4
6.9310451 -9.8181047 -1.0514468 15 5
7.0337601 -9.9746857 -0.63965011 26 6
7.6040912 -10.79948 -0.2305463 19 7
4.1432033 -5.9215055 -1.9364842 4 0
7.6228476 -10.898694 0.23215193 35 8
5.1966462 -7.4353814 -2.0942943 11 1
6.4856229 -9.2900095 -2.2023175 19 2
6.4411964 -9.2401104 -1.7839788 28 3
6.420372 -9.2205238 -1.3795611 18 4
6.7599444 -9.7190437 -1.0357589 14 5
6.955368 -10.014919 -0.63902211 26 6
4.1061487 -5.9566479 -1.9385546 3 0
7.5446634 -10.952963 0.23215193 35 8
5.1335607 -7.4554296 -2.0897954 14 1
6.5524535 -9.5303135 -2.2481117 16 2
6.3843589 -9.2962513 -1.7861689 18 3
6.7713318 -9.8707924 -1.4697444 20 4
6.6108418 -9.647665 -1.0232084 14 5
6.7860336 -9.9181767 -0.62981093 26 6
6.7891116 -9.9338312 -0.21002226 15 7
4.0731459 -5.9979548 -1.9426959 4 0
7.4721808 -11.007372 0.23222172 35 8
5.0923257 -7.5072131 -2.0942943 14 1
6.3200421 -9.3276472 -2.1901057 21 2
6.2578259 -9.2462454 -1.7683355 16 3
6.8456383 -10.129995 -1.5011867 15 4
6.5344105 -9.6803703 -1.021814 14 5
6.6491394 -9.8614674 -0.62332129 26 6
6.9317818 -10.296159 -0.21665418 16 7
4.0386715 -6.0351729 -1.9458016 4 0
7.3551373 -10.999427 0.23096514 35 8
5.0909243 -7.6162276 -2.1149898 15 1
5.9517851 -8.9175797 -2.0840161 18 2
6.1909313 -9.2864199 -1.7677096 16 3
6.3386221 -9.5187521 -1.4041786 18 4
6.2967844 -9.4702492 -0.9949699 14 5
6.5933919 -9.9276114 -0.6245774 8 6
6.8173199 -10.276448 -0.21525799 24 7
4.0049448 -6.0761256 -1.9499428 4 0
7.3133655 -11.103947 0.2320821 17 8
5.2305183 -7.9445601 -2.1959722 15 1
5.9303646 -9.0212536 -2.0985174 13 2
6.015357 -9.1609898 -1.735797 17 3
6.2643938 -9.5511513 -1.4024725 10 4
6.2196021 -9.4973106 -0.99322683 14 5
6.2637105 -9.5755987 -0.5996654 28 6
7.080111 -10.836048 -0.22593886 18 7
3.9561172 -6.094214 -1.9468369 4 0
6.6719627 -10.285708 0.21400142 45 8
5.2639866 -8.1182289 -2.2337639 14 1
6.0315533 -9.3162289 -2.1572866 24 2
5.8085876 -8.9821472 -1.6941855 22 3
6.3731275 -9.8664513 -1.442202 13 4
6.1893778 -9.5929985 -0.99880481 21 5
6.1999531 -9.6241322 -0.59997946 18 6
6.5541458 -10.185651 -0.21141845 15 7
3.9165974 -6.1265678 -1.9483899 12 0
7.1165013 -11.136325 0.2306859 17 8
5.2638159 -8.2434731 -2.2580585 15 1
5.8582058 -9.1849232 -2.1175983 13 2
5.9871831 -9.3979959 -1.7648939 18 3
6.152802 -9.6728601 -1.407591 16 4
6.1842256 -9.733511 -1.0089148 14 5
6.3815141 -10.055655 -0.62415868 26 6
6.5385323 -10.318995 -0.2132335 23 7
3.8758342 -6.1547194 -1.9489075 22 0
7.0556231 -11.212816 0.2312444 35 8
5.2262602 -8.3088036 -2.2661569 13 1
6.090476 -9.6977673 -2.2259779 13 2
5.9077821 -9.4178104 -1.7608266 16 3
6.1353021 -9.7918968 -1.418803 18 4
6.0966883 -9.7416019 -1.0054286 14 5
6.6837087 -10.696169 -0.66100323 8 6
6.4384971 -10.315763 -0.21225616 15 7
3.8470247 -6.2046137 -1.9561545 37 0
6.972815 -11.250384 0.23103496 17 8
5.1742821 -8.3550272 -2.2688563 14 1
5.7423711 -9.2831879 -2.1217961 10 2
5.7739749 -9.345212 -1.7398643 12 3
5.9458952 -9.6385098 -1.3905294 12 4
5.9072928 -9.5871639 -0.98520851 14 5
6.0611615 -9.848424 -0.60605043 18 6
6.3076944 -10.265051 -0.21030149 15 7
3.804702 -6.2306561 -1.9561545 20 0
7.2399025 -11.86552 0.24262336 39 8
5.1274405 -8.4066916 -2.2733555 15 1
5.5395708 -9.0966806 -2.0702777 22 2
5.5638504 -9.1473284 -1.6957498 18 3
5.7296691 -9.4310627 -1.3549435 2 4
5.902216 -9.7303801 -0.99566722 14 5
5.9995031 -9.9024563 -0.60678315 36 6
6.2293954 -10.294061 -0.21002226 15 7
3.7670825 -6.2670002 -1.9592602 4 0
7.2145486 -12.011773 0.24457803 19 8
5.0686259 -8.4422827 -2.2733555 15 1
5.6818447 -9.4786463 -2.1481278 16 2
5.4491172 -9.1012077 -1.6801064 12 3
5.8674545 -9.811573 -1.4036912 19 4
5.7217903 -9.5831738 -0.97649294 20 5
5.9148808 -9.9183674 -0.60521305 18 6
6.4193511 -10.777111 -0.21895789 17 7
3.7193048 -6.2864957 -1.9571897 4 0
6.4039283 -10.832768 0.21965599 31 8
5.0323672 -8.5160503 -2.2837031 18 1
5.4798589 -9.2881193 -2.0962276 16 2
5.5098042 -9.3500586 -1.7189021 17 3
5.7152395 -9.7103014 -1.3834609 9 4
5.5073729 -9.3720932 -0.95104349 13 5
6.056788 -10.319418 -0.6270895 17 6
6.3641829 -10.856166 -0.21965599 17 7
3.7005999 -6.3557143 -1.9706483 4 0
6.7846828 -11.661933 0.23550276 18 8
4.9845476 -8.5711899 -2.2891018 23 1
5.4868455 -9.4500914 -2.1240859 12 2
5.5157442 -9.5113325 -1.7414287 5 3
5.4831452 -9.4665356 -1.343244 19 4
5.5974045 -9.6793756 -0.97823608 14 5
5.7128897 -9.8910265 -0.59861875 9 6
6.3821659 -11.063152 -0.22293703 17 7
3.661901 -6.3914523 -1.9737542 3 0
6.6752853 -11.660421 0.23452544 18 8
4.9245887 -8.6057787 -2.2891018 17 1
5.3642507 -9.3892956 -2.1019521 12 2
5.6871104 -9.9665222 -1.8174559 12 3
5.5859866 -9.8012257 -1.385167 18 4
5.6577873 -9.9433346 -1.0008965 14 5
