# .PCD v0.7 - Point Cloud Data file format
VERSION 0.7
FIELDS x y z intensity ring
SIZE 4 4 4 4 2
TYPE F F F F U
COUNT 1 1 1 1 1
WIDTH 1323
HEIGHT 1
VIEWPOINT 0 0 0 1 0 0 0
POINTS 1323
DATA ascii
8.9456215 -5.7694798 -2.0691328 3 2
24.352488 -15.71216 2.5355349 9 10
12.671951 -8.1821756 -2.3890674 8 3
16.532822 -10.683286 2.416913 18 11
21.237177 -13.728434 -3.1049874 7 4
18.491348 -11.962588 3.4881761 9 12
20.428133 -13.230731 4.7309184 6 13
18.266811 -11.84901 5.0267563 5 14
5.8049459 -3.7914193 -1.8578032 3 0
6.9301553 -4.5315127 -1.911634 7 1
21.438604 -14.029029 1.3427315 25 9
8.9330454 -5.8500757 -2.0756204 4 2
18.167488 -11.902061 1.9001695 7 10
12.673993 -8.3094339 -2.4003308 8 3
16.388126 -10.752708 2.4066761 6 11
21.351578 -14.014697 -3.1359422 13 4
18.257141 -11.992699 3.4597051 31 12
22.52512 -14.813127 5.2403784 9 13
18.32198 -12.067359 5.0649977 22 14
5.7976556 -3.8446643 -1.8640147 3 0
6.9113393 -4.5884056 -1.9152331 7 1
21.365095 -14.194935 1.3443015 6 9
8.9966183 -5.9818659 -2.100044 4 2
18.143673 -12.068326 1.9064447 10 10
12.666649 -8.4316444 -2.4100296 7 3
16.368832 -10.904276 2.4149632 20 11
21.422522 -14.281646 -3.1612909 10 4
18.334026 -12.227276 3.490366 11 12
18.648924 -12.456103 4.3592224 11 13
18.195169 -12.166812 5.0533004 8 14
5.7892237 -3.8990026 -1.8702265 3 0
6.8734818 -4.6344762 -1.9138836 5 1
16.786209 -11.326704 1.0612687 3 9
8.9757919 -6.0588078 -2.105005 4 2
18.12454 -12.243576 1.9135915 21 10
12.720546 -8.5995111 -2.4319305 7 3
16.427145 -11.109473 2.4349496 4 11
21.342024 -14.444205 -3.1642158 10 4
18.159378 -12.299447 3.4737842 13 12
18.395767 -12.473609 4.3202972 11 13
18.153318 -12.323092 5.0654478 13 14
5.7650518 -3.9415047 -1.8712618 3 0
16.802418 -11.496243 0.3553659 34 8
6.8699064 -4.7021618 -1.9219818 5 1
16.499107 -11.301405 1.04808 8 9
8.9500189 -6.1350913 -2.1092029 27 2
13.432843 -9.2114401 1.4249964 5 10
12.761182 -8.7574053 -2.4513285 7 3
16.31777 -11.206509 2.4305623 8 11
21.369925 -14.681649 -3.1834712 15 4
18.943924 -13.024665 3.6411691 20 12
18.57346 -12.784285 4.3828831 8 13
18.063637 -12.447314 5.064548 13 14
5.7215238 -3.9706414 -1.8660854 3 0
16.805908 -11.667365 0.35711116 35 8
6.8481135 -4.757791 -1.9251312 6 1
16.331596 -11.350754 1.042323 16 9
8.9177217 -6.2025962 -2.1114926 16 2
13.382926 -9.315238 1.4265651 16 10
12.921746 -8.9975805 -2.4938784 4 3
16.387695 -11.419461 2.4524989 16 11
21.151299 -14.749863 -3.1661658 13 4
18.640974 -13.004124 3.5998704 17 12
18.379143 -12.840553 4.3580775 12 13
18.097662 -12.658002 5.0987406 5 14
5.7038417 -4.0161676 -1.8691912 3 0
6.8330917 -4.8166442 -1.9300802 5 1
16.129551 -11.378148 1.0344726 8 9
8.9143 -6.2930074 -2.121033 4 2
13.197149 -9.3199167 1.4134917 7 10
13.060264 -9.2300816 -2.5329874 9 3
16.437229 -11.625292 2.471998 16 11
21.089302 -14.921009 -3.1720157 10 4
17.819418 -12.61685 3.4581406 9 12
17.76436 -12.591837 4.2325253 5 13
17.596287 -12.486551 4.9813161 8 14
5.681952 -4.0603828 -1.8712618 3 0
16.721531 -11.953791 0.35878655 35 8
6.8278275 -4.8846397 -1.9381782 4 1
16.4529 -11.774777 1.0603266 15 9
8.9877748 -6.4369879 -2.148891 4 2
13.130144 -9.4106627 1.4133176 2 10
14.865792 -10.658567 -2.8971665 11 3
13.498101 -9.6850882 2.0398493 5 11
17.928999 -12.873805 -2.7101307 18 4
17.644884 -12.674466 3.4409328 15 12
17.264839 -12.419758 4.134068 9 13
17.9783 -12.937758 -1.1608115 20 6
17.465988 -12.578341 4.9691687 5 14
18.060942 -13.016379 -0.38859528 36 7
5.6760798 -4.1148381 -1.8785087 3 0
17.981113 -13.044874 0.38775757 40 8
6.8070378 -4.9401584 -1.9417773 5 1
16.729055 -12.149909 1.0835637 19 9
9.0109062 -6.5492091 -2.1653006 6 2
12.980376 -9.4377193 1.404079 11 10
14.640874 -10.652843 -2.8677568 11 3
13.548911 -9.8655539 2.0578859 6 11
17.815283 -12.976845 -2.7062309 18 4
16.270962 -11.860639 3.1890736 18 12
17.958593 -13.100434 -1.9447932 34 5
17.460602 -12.741829 4.2016144 18 13
17.863348 -13.045289 -1.1592416 30 6
17.324259 -12.660875 4.9538722 13 14
5.62854 -4.1406269 -1.872297 3 0
17.896048 -13.174829 0.38789719 40 8
6.7723832 -4.9875603 -1.9417773 4 1
15.828676 -11.665641 1.030495 8 9
9.0629244 -6.684207 -2.1889608 4 2
13.068083 -9.6416645 1.4208128 11 10
14.478745 -10.690261 -2.850549 12 3
13.487688 -9.9658003 2.0591044 7 11
17.851961 -13.195296 -2.7257299 5 4
13.445069 -9.9451962 2.6487486 6 12
16.27783 -12.053758 3.9371531 7 13
16.966217 -12.581856 4.8764892 18 14
17.937576 -13.307054 -0.38985187 36 7
5.60569 -4.184443 -1.8743677 4 0
6.7654972 -5.0557156 -1.9498757 4 1
16.428226 -12.285414 1.0750854 9 9
9.3917103 -7.0284524 -2.2801676 7 2
14.300999 -10.714095 -2.8302126 11 3
12.81424 -9.6072226 1.966484 17 11
20.698927 -15.524254 -3.1768904 10 4
15.892067 -11.927765 3.1471488 9 12
15.623529 -11.739007 3.7986257 11 13
16.787649 -12.632034 4.8503942 18 14
5.5732598 -4.2211432 -1.8733324 4 0
6.7735167 -5.1357908 -1.9624729 5 1
15.533787 -11.786512 1.021912 5 9
9.3705578 -7.1152182 -2.2870369 8 2
12.92426 -9.8171577 1.4199414 9 10
14.112624 -10.727602 -2.8076861 10 3
12.939609 -9.843071 1.99622 13 11
20.640596 -15.706848 -3.18469 10 4
13.029877 -9.922513 2.5939965 7 12
15.533388 -11.841841 3.7967176 4 13
16.980959 -12.964149 4.9322767 10 14
5.5344644 -4.2528858 -1.8702265 3 0
6.7467651 -5.190083 -1.9651723 5 1
16.274086 -12.52821 1.0763414 6 9
9.3237667 -7.1828594 -2.2878001 9 2
13.043205 -10.051874 1.4406844 11 10
13.923201 -10.7378 -2.7848465 11 3
12.983725 -10.020491 2.0137691 5 11
20.591719 -15.897873 -3.1941957 7 4
15.456551 -11.954798 3.798244 7 13
16.88616 -13.074663 4.9304771 23 14
16.440695 -12.748117 5.5744448 2 15
5.5351105 -4.3151751 -1.8805792 4 0
6.7226577 -5.2466493 -1.9687717 4 1
15.385545 -12.011859 1.0229588 11 9
9.2529993 -7.2292356 -2.2824574 10 2
15.611201 -12.205586 1.7337019 8 10
13.765765 -10.766606 -2.7679517 11 3
12.726068 -9.9605913 1.9842769 3 11
20.630257 -16.158751 -3.2175946 8 4
13.336538 -10.449666 2.6834772 15 12
15.17347 -11.906075 3.7490153 14 13
16.734703 -13.145281 4.912931 15 14
5.5116715 -4.357543 -1.8826498 5 0
6.7020693 -5.3043809 -1.9732707 5 1
9.2099981 -7.2997537 -2.2843654 9 2
12.747252 -10.10697 1.4232532 11 10
13.631462 -10.815791 -2.7560625 11 3
13.144374 -10.436791 2.0608108 11 11
20.698547 -16.440788 -3.2456248 13 4
17.093632 -13.587148 3.4584537 11 12
15.456168 -12.298797 3.8394589 7 13
5.4841299 -4.3983331 -1.8836851 3 0
6.6922283 -5.3730011 -1.9813689 4 1
15.054408 -12.095404 1.0120728 8 9
9.1450405 -7.3528013 -2.2809308 10 2
12.791269 -10.288119 1.4361523 11 10
13.481759 -10.851239 -2.741045 11 3
15.982256 -12.873044 2.5197706 6 11
20.453423 -16.480268 -3.2251506 11 4
15.955761 -12.865481 3.2463284 6 12
12.523871 -10.109099 3.1285043 18 13
12.736473 -10.295403 3.7809772 4 14
5.4562879 -4.4389501 -1.8847204 5 0
6.6817532 -5.441741 -1.9894673 5 1
14.820972 -12.079077 1.0020244 5 9
9.1178293 -7.4363203 -2.2870369 9 2
15.081102 -12.304231 1.7028488 5 10
13.362831 -10.910114 -2.7322848 11 3
12.516216 -10.226177 1.9845206 12 11
20.502481 -16.763168 -3.251718 16 4
12.256967 -10.025068 2.5079577 13 12
12.654734 -10.365158 3.1796415 15 13
29.147568 -23.882504 -1.9748452 2 6
12.576888 -10.312404 3.7548831 9 14
5.4363022 -4.4877195 -1.8888614 4 0
6.6606674 -5.5043116 -1.9948659 4 1
14.771095 -12.215372 1.0045364 2 9
9.0808191 -7.5123072 -2.290853 10 2
12.821043 -10.614028 1.4561981 6 10
13.203795 -10.938664 -2.7157025 10 3
15.752053 -13.054401 2.5119712 6 11
20.401762 -16.91983 -3.2543991 11 4
17.117558 -14.206223 3.5232174 14 12
12.239273 -10.16846 3.093014 28 13
28.008371 -23.286047 -1.9089019 4 6
13.297172 -11.059141 3.9928811 3 14
5.4137273 -4.5330043 -1.8919673 4 0
6.6444807 -5.5694551 -2.0016146 6 1
9.0448751 -7.5922413 -2.2954323 9 2
14.141225 -11.87431 1.6155188 3 10
13.092324 -11.001349 -2.7085066 11 3
17.946348 -15.090827 2.8790414 15 11
20.34087 -17.110407 -3.2636611 13 4
12.884747 -10.846121 2.6675208 13 12
14.976908 -12.620665 3.8070214 10 13
12.206758 -10.297263 3.6869478 15 14
5.3937287 -4.5806923 -1.8961084 4 0
6.6232533 -5.6308532 -2.0070133 7 1
8.9929876 -7.6536312 -2.2954323 10 2
12.867271 -10.958652 1.4786843 4 10
13.011123 -11.085086 -2.7072554 11 3
12.658831 -10.792574 2.0425303 8 11
20.233004 -17.2623 -3.2656112 13 4
13.023983 -11.115671 2.7119482 11 12
11.881198 -10.154676 3.0380609 19 13
27.857708 -23.817965 -1.9208345 4 6
12.001307 -10.268209 3.6464567 16 14
5.3741364 -4.6273842 -1.9002496 3 0
6.6054373 -5.6936173 -2.0133121 6 1
8.9809484 -7.7521462 -2.3061175 7 2
12.781824 -11.036868 1.4774642 9 10
12.933418 -11.175649 -2.7072554 11 3
12.95707 -11.203989 2.1032214 11 11
20.24715 -17.513908 -3.2870603 14 4
16.415573 -14.209587 3.4387426 11 12
14.524021 -12.585539 3.7356586 4 13
27.388956 -23.750174 -1.8999001 9 6
12.342918 -10.710639 3.7728791 9 14
5.3475208 -4.6698718 -1.90232 3 0
6.5860677 -5.7575498 -2.0196106 6 1
17.596771 -15.393962 1.2252895 24 9
8.9502449 -7.8353481 -2.3122237 10 2
12.914303 -11.309599 1.5018677 2 10
12.834283 -11.24744 -2.7028749 11 3
13.372543 -11.727406 2.1838987 16 11
20.121405 -17.65221 -3.2865727 11 4
13.652807 -11.985843 2.8774559 3 12
11.958313 -10.509334 3.0945404 9 13
27.324472 -24.030493 -1.9070178 4 6
12.161053 -10.702563 3.7400362 7 14
5.3379278 -4.7275844 -1.9106023 3 0
6.5807085 -5.834415 -2.0304081 6 1
8.9100075 -7.9106746 -2.3160398 9 2
12.796302 -11.365083 1.4973356 14 10
12.718538 -11.303959 -2.6950533 10 3
13.275514 -11.807285 2.1814616 14 11
20.074797 -17.860868 -3.299247 14 4
13.168978 -11.724888 2.7926683 14 12
12.119151 -10.801564 3.1555991 4 13
26.613487 -23.736761 -1.8689172 5 6
12.903671 -11.512919 3.9924314 10 14
5.2961698 -4.7569895 -1.9074965 3 0
6.5543075 -5.8932447 -2.0349073 7 1
17.574411 -15.807415 1.2387923 5 9
8.8822212 -7.994781 -2.3229089 9 2
12.913541 -11.631485 1.5205191 2 10
12.677987 -11.423326 -2.7028749 11 3
12.89703 -11.628854 2.1322262 3 11
19.999729 -18.045794 -3.3075342 11 4
13.857244 -12.507809 2.9566119 12 12
12.090055 -10.928038 3.1678112 2 13
26.279449 -23.761972 -1.8567752 5 6
12.351909 -11.176479 3.8457632 4 14
13.192642 -11.949776 4.7695179 2 15
5.2922359 -4.8189421 -1.9178492 3 0
6.5399661 -5.9613514 -2.0430055 7 1
17.457726 -15.924337 1.2383735 5 9
8.8348913 -8.064537 -2.3251987 10 2
13.956664 -12.744184 1.6535187 20 10
12.525018 -11.444933 -2.6872315 11 3
12.882923 -11.780229 2.1434383 13 11
19.984821 -18.280657 -3.3255711 14 4
13.569965 -12.421515 2.9137487 9 12
12.126844 -11.112205 3.1971955 14 13
26.192413 -24.01775 -1.8624276 5 6
12.129067 -11.125932 3.7998731 9 14
5.275496 -4.8714981 -1.9240609 3 0
13.835524 -12.780473 0.32876843 31 8
6.4838777 -5.9936352 -2.0385065 15 1
8.7970858 -8.1404886 -2.329778 10 2
13.175885 -12.201005 1.5710694 8 10
12.446825 -11.529922 -2.6872315 11 3
12.699077 -11.771831 2.1261327 2 11
12.508682 -11.603458 -2.0949342 2 4
13.253423 -12.29861 2.8636899 6 12
12.995288 -12.075966 3.4483004 14 13
13.620511 -12.66139 -0.97460032 27 6
12.380699 -11.516941 3.9038005 15 14
5.2506766 -4.9152155 -1.9271667 3 0
13.713856 -12.846674 0.32800052 31 8
6.4585724 -6.0522881 -2.0434554 25 1
13.544739 -12.701573 0.97313493 31 9
8.7658081 -8.2258863 -2.336647 7 2
13.544299 -12.714494 1.6252803 17 10
12.28252 -11.53809 -2.669085 11 3
12.832091 -12.062785 2.1624498 10 11
12.371567 -11.633938 -2.0851846 1 4
12.929876 -12.167466 2.8120663 13 12
13.502553 -12.715266 -1.6226655 35 5
13.10142 -12.341839 3.4986739 11 13
13.473654 -12.701368 -0.97041345 37 6
12.212108 -11.520186 3.8759067 14 14
13.439796 -12.68275 -0.32255536 35 7
5.2218385 -4.9570723 -1.9292372 3 0
13.52235 -12.845694 0.3255572 61 8
6.4528913 -6.132133 -2.0551529 7 1
13.548364 -12.883906 0.97983384 31 9
8.725235 -8.3031225 -2.3412266 10 2
12.828913 -12.21254 1.5496291 13 10
12.13874 -11.563605 -2.655319 10 3
12.731759 -12.137009 2.1597686 6 11
13.399095 -12.777634 -2.273351 15 4
12.7603 -12.176975 2.7936072 16 12
13.445156 -12.839493 -1.6265004 35 5
13.41064 -12.819964 -0.97229749 46 6
12.584815 -12.038924 4.0207748 3 14
13.428945 -12.850926 -0.32444021 35 7
5.1912804 -4.997426 -1.9307902 2 0
13.42658 -12.934235 0.32541758 61 8
6.4281659 -6.1946115 -2.0610015 7 1
13.50553 -13.023929 0.98328799 23 9
8.7179136 -8.4129124 -2.3549647 10 2
11.986679 -11.579446 -2.6396754 11 3
12.639582 -12.218698 2.1585498 7 11
19.656826 -19.008915 -3.3575008 8 4
12.899266 -12.482806 2.8430405 6 12
13.135487 -12.742514 4.2250309 18 14
5.2129431 -5.0888739 -1.9520133 3 0
13.355983 -13.047216 0.32590625 30 8
6.4182124 -6.2720251 -2.071799 7 1
13.422846 -13.126278 0.9839161 13 9
8.6786137 -8.4927931 -2.3603075 10 2
11.826527 -11.585434 -2.622155 12 3
19.618605 -19.238804 -3.3738313 12 4
13.096605 -12.852037 2.9062397 16 12
12.966127 -12.73733 3.5330195 3 13
12.715572 -12.508653 4.1179543 20 14
5.1539497 -5.1020389 -1.9432135 2 0
6.4130278 -6.3550873 -2.0843966 6 1
8.6581306 -8.5918941 -2.3709927 10 2
11.967981 -11.88057 1.4753724 1 10
11.672482 -11.595323 -2.6058857 12 3
12.305849 -12.233041 2.1305199 6 11
19.506334 -19.397696 -3.3777311 12 4
12.027814 -11.969178 2.6875443 4 12
12.118852 -12.072408 3.3250377 2 13
5.1332021 -5.1529503 -1.9489075 3 0
6.4372339 -6.4687696 -2.1068916 6 1
15.554963 -15.64208 1.1561013 4 9
8.6145439 -8.6688414 -2.3755722 9 2
15.084811 -15.185191 1.8726283 3 10
11.493832 -11.578396 -2.5839849 10 3
12.255097 -12.353886 2.1366136 10 11
19.409578 -19.572866 -3.3845556 12 4
12.871391 -12.988741 2.8962278 4 12
12.204164 -12.328333 3.3719769 11 13
12.131422 -12.271976 3.9838831 3 14
5.1106415 -5.2024422 -1.9540838 3 0
6.6730919 -6.8000765 -2.1995716 7 1
15.6048 -15.912858 1.168034 8 9
8.6060314 -8.7820549 -2.3900738 9 2
12.856382 -13.123923 1.6073263 2 10
11.360208 -11.604713 -2.5720959 13 3
12.369837 -12.644898 2.1719556 3 11
19.359898 -19.797308 -3.3999112 9 4
12.773498 -13.07122 2.8946638 13 12
12.510022 -12.81502 3.4811196 5 13
11.641443 -11.941933 3.8502624 4 14
5.0768852 -5.2407699 -1.9551191 3 0
6.7108312 -6.9347215 -2.2279153 10 1
15.415578 -15.94101 1.1621723 12 9
8.5827103 -8.8814507 -2.400759 9 2
12.778293 -13.227686 1.6090693 6 10
11.199342 -11.601309 -2.5539494 11 3
11.524618 -11.946603 2.0381432 4 11
19.387953 -20.104879 -3.4294035 12 4
12.749097 -13.229774 2.9099944 4 12
12.240524 -12.715344 3.4307461 18 13
12.068289 -12.553957 4.0203257 10 14
5.0695324 -5.3068161 -1.9665072 3 0
6.6340017 -6.9517961 -2.2184672 9 1
15.058564 -15.790961 1.1435407 11 9
8.5313339 -8.9525223 -2.4038119 9 2
11.178089 -11.734048 1.4178497 6 10
11.060873 -11.619121 -2.5408089 11 3
11.551761 -12.143269 2.0578859 6 11
19.282688 -20.277145 -3.4357407 12 4
11.118768 -11.700366 2.5564523 9 12
11.908158 -12.544193 3.3620546 12 13
11.39791 -12.019292 3.8241677 4 14
5.0297108 -5.3392663 -1.9654719 3 0
6.5786304 -6.9908442 -2.2162178 10 1
14.830305 -15.765079 1.1343297 11 9
8.4540615 -8.9932203 -2.3992324 9 2
12.629189 -13.444016 1.6137757 7 10
12.944981 -13.785004 -2.9950948 13 3
11.505513 -12.2607 2.0644667 16 11
19.204477 -20.479324 -3.4471965 9 4
11.041571 -11.77866 2.5570781 3 12
11.042112 -11.795731 3.1407163 12 13
11.87941 -12.703499 4.0153761 3 14
11.614249 -12.432987 4.5588388 1 15
5.0142932 -5.3960214 -1.9737542 3 0
6.5176358 -7.0211797 -2.2117188 10 1
14.681851 -15.827229 1.1313989 11 9
8.3990803 -9.0606594 -2.4015222 9 2
12.875269 -13.904027 -3.0013521 10 3
10.961233 -11.845345 1.9815956 9 11
19.07407 -20.619768 -3.4489026 12 4
10.794143 -11.677037 2.5185952 13 12
10.865668 -11.766769 3.1132395 5 13
11.528863 -12.502464 3.9262955 15 14
11.558582 -12.547869 4.5712619 5 15
4.9843302 -5.4394417 -1.9768599 3 0
6.4500389 -7.0463858 -2.2054203 10 1
12.918299 -14.12257 1.003071 2 9
8.3515148 -9.1364641 -2.4061015 9 2
11.977609 -13.107963 1.5534639 10 10
12.84582 -14.067967 -3.0173082 12 3
10.911722 -11.958241 1.9876893 10 11
18.825308 -20.638033 -3.4298911 12 4
12.518157 -13.73318 2.9431584 5 12
10.914115 -11.986048 3.1510198 9 13
11.092569 -12.199125 3.8066218 6 14
11.486287 -12.645415 4.5774736 5 15
4.9591866 -5.4884396 -1.9820364 3 0
6.3876319 -7.076777 -2.2009211 10 1
8.4084568 -9.3287086 -2.4412105 10 2
10.636143 -11.804344 1.3901341 4 10
12.806774 -14.223366 -3.0313873 10 3
10.830628 -12.037078 1.9881767 3 11
18.702009 -20.792568 -3.4337909 15 4
10.8004 -12.016129 2.5589554 9 12
11.07676 -12.336583 3.2227643 21 13
27.310263 -30.437784 -2.1431575 0 6
11.351326 -12.673491 4.5588388 7 15
4.951592 -5.5575452 -1.9944596 3 0
6.3354797 -7.1182871 -2.2000213 10 1
10.638026 -11.956656 0.83873612 4 9
8.4060736 -9.4546862 -2.4591465 10 2
11.82783 -13.312644 1.557996 1 10
12.798864 -14.410641 -3.0526626 10 3
11.092362 -12.498021 2.0517924 8 11
18.572201 -20.940449 -3.4367156 12 4
10.893962 -12.287431 2.6008799 9 12
11.318319 -12.784039 3.3189318 18 13
26.99391 -30.500334 -2.1345747 0 6
8.5581694 -9.6766529 2.9824011 15 14
8.7987461 -9.9591722 3.5608325 5 15
4.9110985 -5.5882177 -1.9934243 3 0
6.2714524 -7.1436725 -2.1946225 10 1
10.325111 -11.769389 0.8205232 6 9
8.3748064 -9.5529995 -2.46945 10 2
11.866943 -13.541187 1.5752529 2 10
12.753909 -14.563542 -3.0661159 12 3
10.540751 -12.044842 1.9652653 1 11
18.543167 -21.204082 -3.4586523 15 4
10.722106 -12.265029 2.5802305 15 12
12.812989 -14.677457 3.7871773 5 13
26.641119 -30.528528 -2.1234794 0 6
8.4750357 -9.7185392 2.9770021 16 14
8.8444757 -10.152912 3.6079376 6 15
4.8633952 -5.6144567 -1.9903185 4 0
6.213798 -7.1809983 -2.192373 9 1
10.371265 -11.994048 0.83099043 4 9
8.3695364 -9.6825275 -2.4877679 9 2
10.493395 -12.148139 1.4044275 2 10
12.747465 -14.768082 -3.0898938 7 3
11.07759 -12.838041 2.0820162 18 11
18.386909 -21.324001 -3.4571898 12 4
12.787441 -14.840557 3.1027217 7 12
10.675089 -12.402177 3.1807859 9 13
26.461056 -30.763813 -2.1266196 1 6
8.4158754 -9.7878122 2.9801517 8 14
8.512351 -9.9140081 3.5013041 8 15
4.8265896 -5.6512103 -1.9913538 4 0
6.1799569 -7.2434759 -2.1982217 10 1
10.235446 -12.005367 0.82680351 8 9
8.4120779 -9.8736792 -2.5213501 10 2
10.430291 -12.246886 1.407391 6 10
12.61973 -14.828132 -3.0839493 10 3
11.016305 -12.953272 2.0878656 11 11
18.204163 -21.412521 -3.4508526 12 4
12.801189 -15.067966 3.1315055 20 12
10.885506 -12.826668 3.2700846 2 13
26.299894 -31.011772 -2.1310158 1 6
9.011446 -10.629693 3.2172501 5 14
8.5303059 -10.076405 3.5375388 18 15
4.8019519 -5.7025008 -1.9975655 3 0
10.280381 -12.212669 0.27864513 25 8
6.1242199 -7.2804785 -2.1964221 11 1
10.166348 -12.090045 0.82785022 2 9
8.1817484 -9.7368145 -2.4721215 6 2
10.389381 -12.372808 1.4134917 6 10
9.8819618 -11.772689 -2.4344335 1 3
10.529854 -12.55344 2.0118194 12 11
18.089937 -21.581686 -3.4576774 12 4
12.789674 -15.263766 3.154032 15 12
12.517915 -14.960643 3.7917566 3 13
26.208649 -31.334078 -2.1408548 0 6
8.5519066 -10.242487 3.5753264 15 15
4.7877107 -5.7647772 -2.0079181 3 0
10.258724 -12.36108 0.28039035 25 8
6.0770111 -7.3249955 -2.1973219 11 1
10.21299 -12.319095 0.83863139 15 9
8.0772514 -9.7498531 -2.4610546 7 2
10.359565 -12.509222 1.4209872 14 10
9.6811476 -11.698339 -2.4050238 2 3
10.658287 -12.888234 2.0534985 1 11
17.989414 -21.760927 -3.4666955 9 4
13.025003 -15.766921 3.2391324 16 12
8.8782654 -10.774027 3.2230988 8 14
8.4261713 -10.236314 3.5525503 37 15
4.752244 -5.80404 -2.0099888 5 0
6.0232577 -7.3642249 -2.1964221 11 1
10.169713 -12.442673 0.84219033 15 9
8.0189238 -9.8181696 -2.4641075 9 2
10.201421 -12.494815 1.4112258 12 10
9.6042385 -11.771764 -2.4062753 2 3
17.83831 -21.887524 -3.4669394 15 4
9.1063356 -11.20934 3.3342245 12 14
8.3922396 -10.341392 3.5685973 17 15
4.7213159 -5.8491015 -2.0141299 3 0
5.9668059 -7.4000273 -2.1946225 12 1
10.063803 -12.490039 0.84062016 9 9
7.9366412 -9.857091 -2.4599097 10 2
10.215132 -12.691447 1.4253449 6 10
9.5342016 -11.853918 -2.4094038 3 3
32.163136 -40.01717 6.3038139 1 11
17.722374 -22.057951 -3.4742515 15 4
9.1021671 -11.365424 3.3616683 8 14
8.4453487 -10.556614 3.6224315 11 15
4.6923952 -5.8970366 -2.0193064 7 0
5.9089355 -7.4338751 -2.192373 14 1
28.458281 -35.828274 2.397929 0 9
7.9103522 -9.9660797 -2.4732664 7 2
11.732466 -14.786777 1.6514269 8 10
9.3726692 -11.821127 -2.3893805 9 3
32.062962 -40.467899 6.3393998 0 11
9.3669443 -11.82662 -1.8524141 18 4
9.3745489 -11.853214 -1.3221526 25 5
9.1638803 -11.607649 3.4143071 12 14
8.4396324 -10.701778 3.6519368 9 15
4.6582661 -5.9387717 -2.0224121 22 0
5.8761253 -7.4994893 -2.1995716 13 1
11.242846 -14.359165 0.95575935 5 9
8.0353584 -10.270002 -2.5347068 6 2
11.503751 -14.708247 1.6336472 20 10
9.2266617 -11.805338 -2.3731112 11 3
31.447317 -40.265213 6.2731032 0 11
9.2291784 -11.821314 -1.8414459 15 4
30.299147 -38.83699 7.8017006 1 12
9.2621698 -11.88066 -1.3179691 25 5
9.0610781 -11.64366 3.406209 2 14
8.3967257 -10.801619 3.6659131 11 15
4.6155105 -5.9696188 -2.0218945 24 0
5.8283901 -7.5464988 -2.201371 13 1
11.681688 -15.136165 1.0020244 7 9
8.022213 -10.402027 -2.5534062 7 2
11.397139 -14.783465 1.6331242 13 10
9.0933857 -11.803741 -2.3599706 11 3
31.216305 -40.549839 6.28334 1 11
9.0858946 -11.806797 -1.829259 19 4
9.0988789 -11.840764 -1.3064646 24 5
9.2778625 -12.086776 -0.79854208 8 6
10.205943 -13.305452 3.8714077 3 14
9.8368216 -12.838141 4.3336663 13 15
4.5948 -6.0293536 -2.0312121 7 0
5.7944508 -7.6118135 -2.2085695 13 1
11.604754 -15.255499 1.0045364 8 9
8.1086006 -10.667213 -2.604543 7 2
11.485316 -15.114905 1.6608399 8 10
9.0131502 -11.870082 -2.3605964 9 3
30.951658 -40.79208 6.28724 0 11
9.0020456 -11.868359 -1.8290153 7 4
8.9943399 -11.875409 -1.303327 24 5
9.1619234 -12.109841 -0.79582059 8 6
8.9845905 -11.884068 3.4395018 2 14
9.6468296 -12.77392 4.2891493 6 15
4.551435 -6.0597391 -2.0306942 4 0
5.7575421 -7.6739035 -2.2148681 13 1
10.944455 -14.597858 0.95617801 10 9
8.0221605 -10.707851 -2.6007268 13 2
11.184841 -14.934774 1.6324271 8 10
9.0069933 -12.035517 -2.3809328 8 3
30.383179 -40.628811 6.2292299 1 11
8.9938517 -12.031081 -1.8443708 12 4
30.057251 -40.236893 7.9546933 0 12
8.9863005 -12.038498 -1.3143086 25 5
26.796906 -35.937706 -2.3493614 0 6
8.9363365 -11.993382 3.4529986 2 14
8.4927902 -11.410568 3.8113694 2 15
4.5228124 -6.1099992 -2.036906 4 0
5.736269 -7.7577848 -2.2274654 11 1
11.008443 -14.898798 0.97083211 10 9
7.9203911 -10.727268 -2.5919495 12 2
11.043626 -14.9628 1.6270235 16 10
8.8676434 -12.023384 -2.3662279 10 3
30.2307 -41.018909 6.2565289 1 11
8.869606 -12.039238 -1.8360838 13 4
29.551931 -40.141903 7.8949356 1 12
8.8996763 -12.097732 -1.31396 50 5
9.1652355 -12.463272 3.0071499 2 13
9.1906424 -12.506968 -0.81340551 17 6
9.6689997 -13.167564 3.7715294 3 14
9.6389284 -13.141027 4.3667955 9 15
4.5096478 -6.182004 -2.0503645 4 0
9.2856321 -12.73845 0.27515465 24 8
5.7049227 -7.8291407 -2.2364633 13 1
9.2018194 -12.637366 0.81926709 14 9
7.8453069 -10.782301 -2.5919495 10 2
9.2102842 -12.66292 1.3699139 9 10
8.7440023 -12.030669 -2.3555903 11 3
9.2097368 -12.680767 1.9243171 2 11
8.741024 -12.039823 -1.8268216 13 4
9.1510944 -12.613908 2.4682233 21 12
8.7635489 -12.08859 -1.3062903 49 5
9.0169439 -12.442698 2.9869242 28 13
9.0539055 -12.502884 -0.80900931 26 6
9.48316 -13.105289 3.7346375 3 14
9.1099615 -12.59417 -0.2713151 27 7
9.0275049 -12.489356 4.129199 22 15
4.4663796 -6.213336 -2.0503645 4 0
9.0984802 -12.666538 0.27222264 24 8
5.6796794 -7.9099345 -2.2481608 15 1
9.052825 -12.616918 0.81382424 25 9
7.740099 -10.795325 -2.5820274 10 2
9.0763903 -12.663754 1.3631158 20 10
8.5976896 -12.004698 -2.3386955 11 3
9.0389585 -12.630141 1.9070116 15 11
8.6082487 -12.032745 -1.8165846 10 4
9.0444288 -12.651775 2.4632173 25 12
8.6395655 -12.094355 -1.3003637 36 5
9.0907269 -12.730622 3.0407324 32 13
8.9710379 -12.572289 -0.80942798 26 6
9.1052036 -12.769738 3.6208122 30 14
9.0311003 -12.67049 -0.27159435 27 7
9.0219069 -12.666943 4.1669865 12 15
4.4519258 -6.2853537 -2.0638232 4 0
8.9913454 -12.703632 0.27166417 24 8
5.6828475 -8.0321169 -2.2715557 12 1
8.9737463 -12.692856 0.81466156 25 9
7.7064595 -10.908425 -2.5961473 9 2
8.9808655 -12.717046 1.36207 17 10
8.4738083 -12.007939 -2.3277452 13 3
8.4782858 -12.027648 -1.8068351 13 4
8.9661207 -12.729143 2.4660332 16 12
8.5457458 -12.141339 -1.2989691 24 5
8.9880714 -12.774509 3.0361528 24 13
8.9531212 -12.734277 -0.81581295 17 6
9.0057507 -12.818643 3.6167631 19 14
8.9769039 -12.782323 -0.27264151 27 7
8.4605141 -12.055976 3.9464731 3 15
4.4466395 -6.3693681 -2.081423 4 0
9.0190783 -12.928545 0.27515465 24 8
5.6570244 -8.1121712 -2.2832532 11 1
8.9556532 -12.851962 0.82094187 8 9
7.6948538 -11.050852 -2.6175179 13 2
8.935071 -12.836751 1.3683451 5 10
8.3523989 -12.008581 -2.3167946 19 3
8.9772511 -12.916571 1.9313855 14 11
8.3395882 -12.003566 -1.7946482 13 4
8.9412279 -12.879126 2.4832411 24 12
8.9501371 -12.906378 3.0529439 15 13
8.926527 -12.881931 -0.82136059 26 6
8.956008 -12.934116 3.6320596 21 14
4.4940243 -6.5339594 -2.1249044 4 0
5.648808 -8.2221403 -2.3030491 13 1
10.755736 -15.667261 0.99595332 10 9
7.6164069 -11.102685 -2.6171362 12 2
26.501907 -38.647148 4.0998058 1 10
8.2091818 -11.980234 -2.3002126 16 3
8.2197065 -12.009075 -1.7868484 13 4
8.7395258 -12.787679 -1.3550974 26 5
8.5926342 -12.61051 4.0888233 17 15
4.5198197 -6.6707287 -2.1590683 7 0
5.6000075 -8.2742863 -2.3066483 12 1
29.490194 -43.605999 2.7588377 0 9
7.2671947 -10.753802 -2.5228767 10 2
26.264914 -38.880756 4.1050353 1 10
8.0943995 -11.991408 -2.2914524 18 3
26.367006 -39.090694 5.7895255 0 11
8.0868378 -11.993746 -1.7761239 15 4
26.145845 -38.806625 7.4112401 1 12
8.770257 -13.02204 -1.3735745 27 5
9.1377697 -13.593311 3.7814274 3 14
8.5474558 -12.734351 4.109529 10 15
4.4881539 -6.7246161 -2.1663156 9 0
5.559401 -8.3391228 -2.3138466 13 1
7.45825 -11.200105 -2.6156096 10 2
25.875841 -38.887344 4.0865583 1 10
7.9600763 -11.967278 -2.2764347 14 3
26.13328 -39.318863 5.7968378 0 11
7.9567838 -11.980457 -1.7658869 18 4
26.75625 -40.301907 7.6618481 1 12
8.9350624 -13.494288 3.7364371 3 14
8.6396141 -13.062938 4.1964922 14 15
4.4592609 -6.7808352 -2.1745977 7 0
5.521769 -8.4060888 -2.3219447 11 1
30.473118 -46.426189 2.910403 0 9
7.406796 -11.292941 -2.6251502 10 2
25.569036 -38.99926 4.0799346 0 10
7.8525195 -11.986207 -2.2695515 15 3
25.103596 -38.347706 5.6276827 0 11
7.8489633 -11.994474 -1.7600372 16 4
27.215855 -41.621883 7.8764763 1 12
25.674475 -39.309532 9.1263943 1 13
8.91115 -13.659251 3.7652307 3 14
8.4079695 -12.907645 4.1276464 4 15
4.4097128 -6.8085589 -2.1735625 7 0
5.4809437 -8.472249 -2.3295932 9 1
7.3446736 -11.36618 -2.6304929 7 2
28.864801 -44.703682 4.6555114 0 10
7.7321877 -11.97963 -2.2582881 17 3
24.758072 -38.387569 5.6086717 1 11
7.7112703 -11.965548 -1.7478503 18 4
27.813419 -43.174522 8.1342802 1 12
25.271971 -39.289677 9.0806007 1 13
8.9788446 -13.975253 3.8349655 4 14
8.3397398 -12.995469 4.1374817 4 15
4.3611884 -6.8351588 -2.1725271 7 0
5.4200068 -8.5044289 -2.3282435 10 1
23.184982 -36.407158 2.2620649 0 9
7.267252 -11.420493 -2.6312563 9 2
27.306583 -42.928856 4.4512181 1 10
7.5996227 -11.956631 -2.2438962 12 3
7.599854 -11.970834 -1.7410256 16 4
27.32403 -43.072399 8.0789022 1 12
24.102354 -38.037907 8.7531719 1 13
8.9873343 -14.205574 3.8808556 4 14
8.2323008 -13.027244 4.129199 4 15
4.3133636 -6.8654394 -2.1725271 9 0
5.3605022 -8.5420609 -2.3282435 10 1
7.2092352 -11.505886 -2.6392701 10 2
23.848303 -38.076477 3.9307239 1 10
7.4824305 -11.955812 -2.2338843 16 3
7.4845295 -11.973101 -1.7337134 18 4
24.62619 -39.425449 7.3624325 1 12
25.214203 -40.41391 9.2591972 1 13
25.968325 -41.687416 11.338882 1 14
9.4954605 -15.261031 4.8161054 9 15
4.2734599 -6.9085283 -2.1766684 9 0
5.2966413 -8.5726442 -2.3264439 10 1
7.1070886 -11.520846 -2.6312563 9 2
26.73173 -43.350021 4.45575 0 10
7.3573322 -11.940486 -2.2213697 16 3
7.3549809 -11.950675 -1.7229888 15 4
23.246239 -37.801006 7.0286012 0 12
7.4331222 -12.091824 -1.2417951 22 5
24.923227 -40.575573 9.2561445 1 13
8.2189121 -13.396294 3.6284606 3 14
24.487888 -39.976254 12.561524 0 15
4.2391925 -6.9612947 -2.1839154 9 0
5.2528667 -8.6360521 -2.3336422 10 1
26.462276 -43.522797 2.6694479 1 9
7.0081186 -11.535398 -2.6236238 10 2
26.355038 -43.414665 4.4433742 1 10
7.2410436 -11.932871 -2.2107322 15 3
7.244626 -11.957588 -1.7166517 16 4
23.018078 -38.007366 7.0376744 1 12
7.2825079 -12.034327 -1.2306391 21 5
24.757185 -40.943459 9.3004122 1 13
8.3085461 -13.756944 3.7103429 6 14
25.173161 -41.730026 13.058456 0 15
4.1718407 -6.9568524 -2.1735625 7 0
5.2039752 -8.688324 -2.3381412 9 1
26.139324 -43.675629 2.6675639 0 9
6.9435372 -11.611001 -2.6297297 9 2
23.019678 -38.50882 3.9251461 0 10
7.1312246 -11.939038 -2.2025976 17 3
22.984879 -38.511623 5.5067883 1 11
7.1305194 -11.952071 -1.7088521 18 4
24.821663 -41.638721 7.6778045 1 12
7.1983161 -12.084875 -1.2306391 21 5
23.156149 -38.891087 8.7982025 1 13
8.1575346 -13.722481 3.6855981 9 14
24.618868 -41.462894 12.920765 1 15
4.1428103 -7.0190806 -2.1839154 7 0
5.1570482 -8.7479458 -2.34444 10 1
24.591 -41.747231 2.5392361 1 9
6.8523498 -11.642274 -2.6259136 10 2
22.833126 -38.809399 3.9394393 0 10
7.0056539 -11.917009 -2.1894569 17 3
22.767736 -38.760159 5.5194631 1 11
7.0006704 -11.922816 -1.6976401 18 4
22.30324 -38.01495 6.980732 0 12
7.0291333 -11.990453 -1.2159969 21 5
22.856287 -39.004368 8.7875175 1 13
24.978142 -42.659454 -2.5907347 0 6
8.1776552 -13.977574 3.7386866 4 14
7.8597593 -13.450367 4.1742334 7 15
4.101469 -7.0611959 -2.1880562 7 0
5.1056299 -8.8005915 -2.3489389 9 1
25.4228 -43.856628 2.656678 0 9
6.7571292 -11.666043 -2.6205709 10 2
22.643488 -39.109249 3.953733 0 10
6.8926134 -11.914332 -2.1800709 13 3
6.8914409 -11.92671 -1.6913029 18 4
22.894615 -39.65464 7.2523026 1 12
22.752115 -39.455513 8.8531561 1 13
24.623875 -42.735882 -2.5848732 0 6
7.8304214 -13.595547 3.6221619 13 14
7.7213707 -13.427873 4.1504226 9 15
4.0578246 -7.0997205 -2.1911621 7 0
5.0595241 -8.8630991 -2.3561375 9 1
25.242476 -44.236824 2.6692388 0 9
6.6795111 -11.715178 -2.6213341 9 2
22.154905 -38.888977 3.9157331 1 10
6.7918048 -11.926641 -2.1738136 14 3
22.125139 -38.884045 5.4931393 0 11
6.7766147 -11.91931 -1.6835033 15 4
22.718843 -39.976147 7.2826509 1 12
23.249243 -40.976013 9.1576872 1 13
24.361973 -42.954613 -2.5880132 0 6
7.9582186 -14.043221 3.7265389 13 14
7.6431127 -13.503655 4.1576695 7 15
4.0226655 -7.1507487 -2.1984091 7 0
5.0067153 -8.910924 -2.3597367 8 1
6.6369405 -11.831726 -2.6369805 12 2
22.045593 -39.316936 3.9436228 1 10
6.6736183 -11.911725 -2.1625502 17 3
23.31732 -41.653114 5.8611846 0 11
6.660428 -11.902796 -1.6747286 13 4
22.84602 -40.861385 7.4146819 1 12
23.00808 -41.201878 9.1729517 1 13
7.8410072 -14.064394 3.7175412 13 14
7.2338128 -12.991261 3.9842606 4 15
3.9829357 -7.1972513 -2.2041032 6 0
4.9688926 -8.9900045 -2.371434 8 1
27.329763 -49.487358 2.9627388 0 9
6.5209818 -11.817611 -2.6236238 15 2
21.73016 -39.396606 3.9363019 0 10
6.5540652 -11.892285 -2.1506615 16 3
6.5599399 -11.917701 -1.6703414 15 4
22.471666 -40.85891 7.3855848 1 12
22.364485 -40.7145 9.0294638 1 13
7.8485131 -14.311872 3.7683802 4 14
7.3480334 -13.415897 4.0986586 9 15
3.9381344 -7.2350621 -2.2072091 6 0
4.9153185 -9.0415945 -2.3759329 9 1
25.715698 -47.34272 2.823525 0 9
6.4130354 -11.816258 -2.6133201 12 2
21.163868 -39.011463 3.8829625 0 10
6.4445248 -11.889123 -2.141901 17 3
21.251129 -39.237637 5.4790025 0 11
6.4463363 -11.907345 -1.6625416 14 4
21.838129 -40.371933 7.2698236 1 12
6.4986339 -12.023988 -1.1957767 20 5
21.607515 -39.995628 8.8363647 1 13
7.4755106 -13.860338 3.635659 10 14
7.3448954 -13.635247 4.1499047 19 15
3.9066739 -7.2981458 -2.2180793 7 0
4.8557515 -9.0825644 -2.3777328 9 1
21.407726 -40.076267 2.3811815 0 9
6.2943339 -11.793194 -2.5984371 10 2
21.260511 -39.850864 3.9516416 1 10
6.3390651 -11.891988 -2.1343923 18 3
21.148384 -39.707424 5.5238504 1 11
6.3313346 -11.892482 -1.6542546 18 4
21.562246 -40.535614 7.2720137 1 12
6.3659105 -11.977577 -1.1867125 30 5
7.8467393 -14.770007 3.2510037 2 13
7.6132259 -14.35464 3.7512836 13 14
7.1419168 -13.483042 4.088306 11 15
3.8700254 -7.3525934 -2.2263615 7 0
4.819427 -9.1679897 -2.3912296 9 1
21.069839 -40.11512 2.3746917 0 9
6.1844807 -11.784697 -2.5869884 10 2
24.222061 -46.175381 4.5619059 1 10
6.2265458 -11.879965 -2.1243804 16 3
20.463617 -39.076813 5.4161177 0 11
6.2260613 -11.894185 -1.648405 14 4
23.431046 -44.800411 8.0075684 1 12
6.2750034 -12.002975 -1.1849694 20 5
7.5117364 -14.399217 3.7494843 9 14
5.7162595 -10.976152 3.3159897 30 15
3.8274789 -7.3965893 -2.2315381 7 0
4.7660427 -9.2221861 -2.3966284 9 1
23.177788 -44.867702 2.6466296 1 9
6.0969191 -11.812563 -2.5839355 10 2
22.880907 -44.368927 4.3675485 1 10
6.1256247 -11.883443 -2.1174972 15 3
21.120623 -41.008224 5.6637564 1 11
6.1174402 -11.887937 -1.6415801 19 4
22.171408 -43.10387 7.6771789 0 12
22.248461 -43.328022 9.4675617 1 13
7.2687478 -14.173864 3.6775 12 14
6.5335088 -12.756614 3.8403571 13 15
3.7840533 -7.4362445 -2.2356789 7 0
4.7190518 -9.2856846 -2.4047267 8 1
24.043131 -47.350624 2.7831216 0 9
6.0178561 -11.861842 -2.5854619 18 2
6.0246587 -11.890676 -2.1112397 16 3
20.690369 -40.871296 5.6247582 1 11
6.0229363 -11.902734 -1.6379241 20 4
24.060684 -47.590775 8.4462109 0 12
21.993731 -43.559071 9.485116 1 13
7.3818846 -14.645389 3.7863762 13 14
5.8084621 -11.538806 3.461446 37 15
3.7562411 -7.51086 -2.2501729 9 0
4.6697841 -9.3497849 -2.4128251 8 1
20.462273 -41.005116 2.4016974 0 9
5.9156265 -11.864912 -2.5770664 19 2
5.9186068 -11.886471 -2.1031051 17 3
20.378002 -40.961426 5.6174459 0 11
5.9034548 -11.871615 -1.6279309 16 4
19.842939 -39.938328 7.0633297 0 12
7.2183552 -14.547654 3.1567442 5 13
7.1427975 -14.420657 3.7152915 12 14
5.8322649 -11.790328 3.5245979 4 15
3.7105305 -7.5507698 -2.2543139 9 0
4.6232858 -9.4206448 -2.4227228 8 1
21.005564 -42.839832 2.5005076 0 9
5.8119216 -11.863606 -2.5679076 18 2
21.924726 -44.773708 4.3616219 1 10
5.8094378 -11.874269 -2.0937192 15 3
5.7995167 -11.869734 -1.622081 18 4
21.143391 -43.311996 7.6336904 1 12
5.8535671 -12.001592 -1.1682355 19 5
20.356178 -41.754841 9.0294638 1 13
7.0658264 -14.519233 3.7278888 9 14
5.6223001 -11.568393 3.4464347 8 15
3.6610866 -7.5834494 -2.2563846 9 0
4.5827928 -9.5053539 -2.4362199 9 1
22.442961 -46.591393 2.7102702 0 9
5.701714 -11.847283 -2.555696 18 2
23.824429 -49.525616 4.808208 0 10
5.6990151 -11.857563 -2.0837073 17 3
20.151258 -41.964897 5.7159162 0 11
5.696754 -11.868771 -1.6164751 21 4
20.685902 -43.136154 7.5770602 1 12
5.7472548 -11.995448 -1.1637034 19 5
20.047222 -41.860516 9.0218315 1 13
5.6875882 -11.897546 3.0444875 12 14
5.8401947 -12.233231 3.6322665 17 15
3.6212981 -7.6367521 -2.2646666 9 0
4.5413446 -9.5899525 -2.449717 9 1
5.5953727 -11.837101 -2.5450106 19 2
5.5975447 -11.857761 -2.0768242 17 3
21.044981 -44.621746 6.0576382 0 11
5.5892081 -11.85618 -1.6094066 18 4
22.75279 -48.308365 8.4574738 1 12
7.1393929 -15.178857 3.2605443 5 13
5.5588403 -11.839943 3.019743 4 14
5.6053915 -11.95536 3.5380566 8 15
3.5678954 -7.6618476 -2.2646666 7 0
4.4907179 -9.656764 -2.458715 8 1
5.4861465 -11.818892 -2.5327988 19 2
19.274954 -41.54332 4.0067239 1 10
5.4963484 -11.857122 -2.069941 19 3
23.430834 -50.592968 6.8458891 0 11
5.4779482 -11.833662 -1.6011195 19 4
20.083265 -43.424362 7.5776863 1 12
6.9953833 -15.14634 3.2429898 12 13
5.5347881 -12.005883 3.0521359 8 14
3.5239577 -7.7076526 -2.2708783 7 0
4.4329042 -9.7091522 -2.464114 10 1
5.3872199 -11.821175 -2.5251663 18 2
19.053835 -41.829174 4.0213661 1 10
5.3905272 -11.844862 -2.0611808 28 3
5.3787756 -11.835471 -1.5962448 18 4
19.585255 -43.135426 7.5032234 1 12
21.3097 -46.998772 10.030829 1 13
19.377632 -42.777267 -2.4611509 0 6
5.45294 -12.043279 3.0521359 4 14
5.1411624 -11.375824 3.3449776 14 15
3.4827194 -7.7602668 -2.2791607 7 0
4.3761706 -9.7647591 -2.4704125 9 1
5.2937989 -11.828897 -2.5190604 13 2
22.315197 -49.909603 4.7831068 0 10
5.284791 -11.825372 -2.0514817 20 3
19.945412 -44.672153 6.0069404 0 11
5.2838869 -11.84554 -1.5925888 20 4
19.146397 -42.942989 7.4469075 1 12
5.3505912 -12.011979 -1.1504558 18 5
5.8868318 -13.228254 2.8144329 3 13
5.9788837 -13.454063 3.3990104 12 14
5.0299168 -11.334625 3.3227189 15 15
3.4344902 -7.7944002 -2.2822666 7 0
4.3253007 -9.8299932 -2.4794104 9 1
5.1905651 -11.818831 -2.5091383 15 2
5.1862388 -11.825797 -2.0452244 20 3
19.470543 -44.439392 5.9572177 1 11
5.179245 -11.826681 -1.5852765 21 4
19.217489 -43.924377 7.5936427 1 12
5.2346826 -11.976017 -1.1434834 18 5
5.6811142 -13.003556 2.7583349 4 13
5.2460904 -12.03071 3.0300906 5 14
5.0416713 -11.578468 3.3838003 10 15
3.384593 -7.8288269 -2.2853725 5 0
4.2673821 -9.8849993 -2.4857092 9 1
5.0923915 -11.818719 -2.5015061 13 2
5.0895014 -11.829054 -2.039593 19 3
19.115921 -44.472107 5.9435682 1 11
5.0722628 -11.80601 -1.5777208 15 4
18.89245 -44.01572 7.5864468 1 12
5.6864572 -13.261106 -1.2623638 23 5
5.7332764 -13.376732 2.8289344 3 13
6.0762558 -14.190645 -0.80900931 26 6
5.1328473 -11.998958 3.0129945 20 14
4.9136672 -11.503237 3.3517067 13 15
3.329855 -7.8522644 -2.2853725 7 0
4.20435 -9.9289055 -2.4893084 9 1
4.8851819 -11.559216 -2.4393022 12 2
17.868805 -42.30138 4.0175309 1 10
4.8885193 -11.584023 -1.991411 18 3
18.814238 -44.626431 5.9464931 0 11
4.8833404 -11.588689 -1.5440848 19 4
5.2248397 -12.411207 2.1328278 3 12
4.8867011 -11.613652 -1.1023458 17 5
5.2875028 -12.57847 2.652245 9 13
5.9058919 -14.063304 -0.79937947 26 6
4.9454637 -11.782056 2.9500082 5 14
3.2883062 -7.9074268 -2.2946897 9 0
4.1394138 -9.968812 -2.4920077 8 1
4.7951102 -11.564997 -2.433578 16 2
5.1602917 -12.458046 1.1797401 18 10
4.7929325 -11.576877 -1.9845279 22 3
5.2062111 -12.587542 1.6725351 15 11
4.795496 -11.605986 -1.5418911 21 4
5.1575823 -12.488477 2.1400237 22 12
4.7948651 -11.6217 -1.0999055 17 5
5.8092699 -14.101331 -0.7992748 17 6
5.1656876 -12.551547 3.133568 13 14
4.8662114 -11.841494 3.4303877 20 15
3.2300291 -7.9188929 -2.2915838 7 0
5.1184316 -12.561131 0.23675935 18 8
4.0788145 -10.014807 -2.4965067 8 1
5.095088 -12.5226 0.70852429 14 9
4.7068615 -11.580003 -2.4297619 19 2
5.0633759 -12.463348 1.1769512 18 10
4.6971378 -11.573447 -1.9782705 21 3
4.6970019 -11.590524 -1.5355538 21 4
5.0584106 -12.494884 2.1350179 18 12
4.6882167 -11.592091 -1.0939789 16 5
5.0605969 -12.519124 2.6247687 45 13
5.001708 -12.385888 -0.70004582 17 6
5.1399074 -12.740917 3.1718099 4 14
5.0274897 -12.46853 -0.23466507 20 7
4.8130174 -11.948647 3.4516108 24 15
3.1832716 -7.9627762 -2.2977955 7 0
4.984632 -12.481417 0.23459524 36 8
4.0203571 -10.071996 -2.503705 8 1
4.9675918 -12.457685 0.70287192 26 9
4.6012011 -11.55057 -2.4167869 19 2
4.9541316 -12.442862 1.1717217 26 10
4.5943232 -11.550892 -1.9688843 18 3
4.9507861 -12.459765 1.6462111 37 11
4.5873957 -11.551081 -1.5260481 19 4
4.9448314 -12.463792 2.1237545 16 12
4.592494 -11.587494 -1.0904927 16 5
4.9383683 -12.466537 2.606451 46 13
4.6659832 -11.790936 -0.66456205 8 6
4.844502 -12.254557 3.042238 27 14
4.9300337 -12.477285 -0.23417638 29 7
4.7131715 -11.940627 3.4397054 37 15
3.1247852 -7.9776106 -2.2957251 7 0
4.893002 -12.504739 0.23438582 36 8
3.9669783 -10.143374 -2.5145028 10 1
4.8717794 -12.469738 0.70161593 24 9
4.5004654 -11.5312 -2.4061015 19 2
4.8751097 -12.497562 1.1736392 28 10
4.4992261 -11.545874 -1.9626271 20 3
4.8608031 -12.486626 1.6452364 38 11
4.4929657 -11.547676 -1.521417 21 4
4.8326521 -12.433567 2.1128042 15 12
4.5114861 -11.619273 -1.0904927 16 5
4.8370104 -12.464103 2.5988188 35 13
4.5965476 -11.856743 -0.66644609 8 6
4.8841004 -12.611547 3.1223207 42 14
4.8341455 -12.489021 -0.23375754 19 7
3.0690148 -7.9992313 -2.2957251 9 0
4.8213291 -12.579674 0.23515373 36 8
3.9058268 -10.196299 -2.5208015 9 1
4.8031654 -12.551943 0.70433736 28 9
4.4822426 -11.725551 -2.4400656 10 2
4.7514777 -12.436372 1.1647493 18 10
4.4783835 -11.733871 -1.9892209 15 3
4.7819977 -12.542514 1.6481611 36 11
4.4793921 -11.754983 -1.5445722 16 4
4.7689242 -12.527925 2.1231289 25 12
4.4642501 -11.739876 -1.0988595 16 5
4.797307 -12.62236 2.6247687 43 13
5.514648 -14.525048 -0.8142429 8 6
4.7731333 -12.585207 3.1074739 34 14
4.5186281 -11.933003 3.4189999 19 15
3.0158143 -8.0276947 -2.2977955 9 0
3.8455005 -10.252511 -2.5280001 9 1
4.427114 -11.828264 -2.4549487 28 2
4.7154984 -12.605465 1.177474 22 10
4.4247069 -11.840717 -2.0020485 34 3
4.7061195 -12.607209 1.6523046 30 11
4.4138713 -11.830606 -1.550422 31 4
4.7172189 -12.657165 2.1393981 25 12
4.4405732 -11.9276 -1.1135018 17 5
4.6837378 -12.587464 2.6106489 49 13
15.297132 -41.154739 -2.301003 0 6
4.8004708 -12.92879 3.1839571 23 14
4.3089719 -11.623714 3.3216836 14 15
2.9570298 -8.0413017 -2.2957251 9 0
3.7859199 -10.312037 -2.536098 8 1
4.4038591 -12.021108 -2.4885311 22 2
4.4084334 -12.053127 -2.0327096 8 3
4.3999419 -12.049463 -1.5750395 4 4
4.6003098 -12.611847 2.1262577 13 12
4.5648437 -12.534998 2.5930946 52 13
14.575205 -40.066799 -2.2344315 0 6
4.3613462 -12.002249 2.9482086 12 14
4.3331308 -11.944079 3.4045057 12 15
2.8982027 -8.0544786 -2.2936544 9 0
3.7270129 -10.374895 -2.5450962 8 1
4.3741508 -12.203103 -2.5198238 27 2
4.3614526 -12.187763 -2.0502305 24 3
4.5727639 -12.834722 2.6484292 17 13
14.346028 -40.310581 -2.2423866 0 6
4.4811053 -12.605289 3.088578 19 14
4.275485 -12.046863 3.4252112 9 15
2.8354874 -8.0562925 -2.2884779 7 0
3.67258 -10.452142 -2.5576935 8 1
4.5031958 -12.844733 -2.6457577 24 2
4.3930688 -12.551656 -2.1062338 10 3
4.3183637 -12.358961 -1.6074568 6 4
4.7614632 -13.66538 2.8129063 16 13
14.106276 -40.530476 -2.2490857 1 6
4.1831036 -12.032522 2.94101 12 14
4.1437726 -11.939539 3.3863885 18 15
2.7829475 -8.0868511 -2.2915838 9 0
3.6083863 -10.503328 -2.5639923 10 1
4.5349998 -13.230581 -2.7186468 13 2
4.5854502 -13.400636 -2.2432706 4 3
10.170219 -29.772587 -3.8630149 8 4
4.6158557 -13.528021 2.2639198 1 12
4.6102409 -13.534748 2.7793241 17 13
13.937485 -40.964535 -2.2677171 0 6
4.2209325 -12.413111 3.0269413 27 14
3.9914269 -11.765109 3.3289306 7 15
2.7276556 -8.109745 -2.2926192 9 0
3.5424159 -10.550432 -2.569391 10 1
4.2682676 -12.734345 -2.6106489 15 2
4.2578278 -12.725304 -2.1253188 24 3
4.2497253 -12.73062 -1.6479174 19 4
4.2983394 -12.898732 -1.1895015 20 5
4.4734769 -13.439935 2.7533739 25 13
13.644462 -41.016762 -2.2654145 0 6
4.1802568 -12.580975 3.0606842 19 14
4.2068305 -12.683144 3.5805027 15 15
2.6748052 -8.1354637 -2.2946897 9 0
3.4778111 -10.596519 -2.5747898 9 1
13.518867 -41.23912 2.2744162 0 9
4.225081 -12.903766 -2.6392701 12 2
4.216753 -12.901174 -2.1497226 7 3
4.2134633 -12.914001 -1.667904 3 4
4.4462204 -13.659723 -1.2567859 22 5
4.3812847 -13.468206 2.7529924 35 13
13.026965 -40.09288 -2.2093103 0 6
4.0694656 -12.539415 3.0435877 22 14
3.9663663 -12.243559 3.4485049 2 15
2.6173534 -8.1521006 -2.294172 6 0
3.4108872 -10.642808 -2.5801885 9 1
13.371898 -41.7738 2.2987001 0 9
4.1845164 -13.088159 -2.6709445 14 2
13.062176 -40.879929 3.7546694 1 10
4.1878438 -13.122247 -2.1816354 10 3
4.1858683 -13.139812 -1.6932528 13 4
4.2004981 -13.217626 -1.2133822 21 5
4.099359 -12.907183 2.632401 8 13
12.738297 -40.156193 -2.2078447 0 6
4.019495 -12.686415 3.0723815 15 14
3.8639002 -12.217535 3.4334936 15 15
2.5621104 -8.175704 -2.2957251 7 0
3.3434844 -10.688681 -2.5855875 8 1
12.817873 -41.027328 2.2526445 0 9
4.3620534 -13.979154 -2.846489 9 2
12.871366 -41.274452 3.7825592 1 10
4.1401896 -13.292615 -2.2051005 8 3
4.1394129 -13.314674 -1.7120206 5 4
4.410934 -14.205527 2.3559034 3 12
4.1352301 -13.325832 -1.2207032 21 5
4.1596832 -13.421176 2.7312403 19 13
12.444655 -40.202171 -2.2055421 0 6
3.8950367 -12.59061 3.0426881 15 14
3.7813597 -12.253443 3.4360819 18 15
2.5072303 -8.2007818 -2.2977955 7 0
3.2744701 -10.730402 -2.5900865 8 1
12.503361 -40.999001 2.2463641 0 9
4.2593632 -13.984106 -2.8415277 4 2
12.42924 -40.858177 3.7363667 1 10
4.1168394 -13.541615 -2.2417061 10 3
4.1114564 -13.557911 -1.7395632 19 4
4.1148276 -13.594652 -1.2426665 22 5
4.2936921 -14.203474 2.884269 13 13
11.965096 -39.605305 -2.1682787 0 6
3.8042293 -12.608166 3.0404384 8 14
3.7329624 -12.395433 3.468693 15 15
2.4623964 -8.2546816 -2.3081484 7 0
3.2091408 -10.778588 -2.596385 9 1
12.068826 -40.58754 2.2191494 1 9
4.1549258 -13.990917 -2.8369484 6 2
12.163881 -40.985764 3.7403758 1 10
5.3756585 -18.136295 -2.9960332 12 3
9.0196896 -30.489038 -3.9039629 5 4
3.9753504 -13.48102 2.7320035 19 13
11.682665 -39.668713 -2.1672323 0 6
3.7183201 -12.633768 3.0404384 8 14
3.4488094 -11.748323 3.2807903 6 15
2.4127975 -8.2994976 -2.3159127 6 0
3.1359859 -10.808216 -2.5981846 9 1
4.0645118 -14.035847 -2.8403828 8 2
4.0355945 -13.963346 -2.3020899 14 3
4.0308003 -13.98335 -1.7868484 14 4
4.0481839 -14.071334 -1.2810152 23 5
11.445448 -39.862499 -2.1735125 0 6
3.7943969 -13.232633 3.1781085 11 14
2.3565028 -8.3277035 -2.3190186 6 0
3.0638614 -10.849134 -2.6026838 9 1
11.586004 -41.080883 2.2369435 0 9
3.9806769 -14.133294 -2.8541212 8 2
11.660997 -41.429802 3.7654767 0 10
3.9940684 -14.209345 -2.3377569 5 3
3.9906838 -14.225904 -1.8141472 11 4
3.9849861 -14.234245 -1.2932168 24 5
3.8250813 -13.681458 2.7613881 14 13
10.998249 -39.391304 -2.1433671 0 6
3.5110693 -12.58371 3.0161438 4 14
3.506629 -12.601778 3.5049276 13 15
2.2977948 -8.3420887 -2.318501 5 0
2.9942439 -10.892808 -2.6080825 10 1
11.291299 -41.104866 2.2340128 0 9
3.8874984 -14.17142 -2.8564107 9 2
5.1146274 -18.683111 -3.0679932 7 3
3.9498291 -14.467897 -1.8414459 19 4
3.946269 -14.484708 -1.313437 25 5
3.9376972 -14.473164 2.9155617 2 13
10.880782 -40.020313 -2.1735125 0 6
3.4838953 -12.831714 3.0696821 9 14
3.5713236 -13.181012 3.6591837 16 15
2.2464623 -8.3780622 -2.3241951 6 0
2.9270823 -10.939291 -2.6143811 9 1
11.18245 -41.850327 2.2702293 0 9
3.7894826 -14.202009 -2.8571742 9 2
3.9075611 -14.675379 -2.4053366 8 3
3.905802 -14.69973 -1.8675259 4 4
3.909349 -14.754573 -1.3354002 25 5
10.703232 -40.48148 -2.1944468 0 6
3.7344966 -14.144499 3.3774152 2 14
3.3236868 -12.615303 3.4956102 15 15
2.1918163 -8.4084969 -2.3283362 7 0
2.8545649 -10.974547 -2.6179802 9 1
3.6922131 -14.23572 -2.8587005 9 2
3.8619292 -14.922223 -2.4413166 30 3
3.8542099 -14.924607 -1.8926311 19 4
3.8618929 -14.997603 -1.3549231 53 5
3.6937406 -14.35496 2.8812158 4 13
10.431292 -40.597775 -2.1967497 0 6
3.2966468 -12.848904 3.0624835 2 14
3.3097992 -12.928281 3.575844 4 15
2.1411233 -8.45543 -2.337136 8 0
2.7769253 -10.99043 -2.6170807 9 1
10.621472 -42.099205 2.2754629 0 9
3.596576 -14.276381 -2.8617535 9 2
4.8180661 -19.167366 -3.1302538 11 3
7.6558309 -30.524225 -3.8639896 14 4
3.6762497 -14.711814 2.9476175 16 13
10.146645 -40.665733 -2.1965404 1 6
3.216666 -12.939824 3.5727384 6 15
2.0746636 -8.440155 -2.3288538 6 0
2.7057002 -11.032261 -2.6224794 9 1
11.078849 -45.241314 2.4410539 0 9
3.5042827 -14.331653 -2.8678594 9 2
4.7145667 -19.325275 -3.1505907 13 3
7.3979445 -30.393696 -3.8408344 5 4
3.5771551 -14.752383 2.9506705 17 13
9.9376984 -41.046165 -2.2132878 0 6
3.2911267 -13.645556 3.7611585 8 15
2.0210662 -8.476984 -2.3350656 8 0
2.6304195 -11.058464 -2.624279 8 1
3.3978038 -14.329024 -2.8625166 9 2
4.6245632 -19.548027 -3.1815646 11 3
7.2357364 -30.657125 -3.867646 11 4
3.4790213 -14.798019 2.9548683 3 13
11.886421 -50.638264 -2.725971 0 6
3.0858257 -13.197921 3.6317489 3 15
1.9614025 -8.4890041 -2.334548 7 0
2.555779 -11.087951 -2.6269784 8 1
3.30371 -14.367127 -2.8655696 8 2
4.5271702 -19.73501 -3.206907 14 3
6.9091458 -30.215361 -3.8057361 12 4
3.1423857 -13.864855 3.8092988 4 15
1.9044182 -8.505929 -2.3355832 7 0
2.4836457 -11.120306 -2.6305776 8 1
3.2118616 -14.428168 -2.8732021 9 2
4.4017062 -19.822054 -3.2159801 12 3
6.4942398 -29.317829 -3.6870356 6 4
3.3076479 -14.994119 2.9846346 27 13
1.8482603 -8.5341206 -2.3397241 7 0
2.4108887 -11.160232 -2.6359763 8 1
3.1177132 -14.468889 -2.8770182 8 2
4.3032074 -20.021509 -3.2435126 12 3
6.3135228 -29.475035 -3.7011721 6 4
3.1869173 -14.941963 2.9697514 45 13
8.748045 -41.050629 -2.1996806 0 6
2.9392943 -13.852059 3.7942874 7 15
1.790921 -8.5502863 -2.3407595 7 0
2.3396509 -11.199274 -2.6413753 8 1
3.0174274 -14.494145 -2.8777814 9 2
4.177784 -20.120693 -3.254776 10 3
6.1594419 -29.742813 -3.7294459 22 4
3.1081302 -15.074831 2.9918852 35 13
2.6672349 -13.016819 3.5603149 2 15
1.7315677 -8.5644741 -2.3412771 8 0
2.2691116 -11.253541 -2.6503732 9 1
2.9231262 -14.549504 -2.8846507 8 2
4.0383792 -20.155178 -3.2557144 7 3
5.5638471 -27.84432 -3.4864385 12 4
1.6698872 -8.5668726 -2.3386889 7 0
