# .PCD v0.7 - Point Cloud Data file format
VERSION 0.7
FIELDS x y z intensity ring
SIZE 4 4 4 4 2
TYPE F F F F U
COUNT 1 1 1 1 1
WIDTH 1298
HEIGHT 1
VIEWPOINT 0 0 0 1 0 0 0
POINTS 1298
DATA ascii
-2.8149111 2.9333115 0.49917686 13 11
-2.7864077 2.9056385 -0.49430209 10 4
-2.7785842 2.9005184 -0.35141194 12 5
-2.7783291 2.9032936 -0.21059991 13 6
-2.7796881 2.9087763 -0.070228487 17 7
-2.7906399 2.9366112 -1.0854871 8 0
-2.8132224 2.9624467 0.071310528 22 8
-2.7611597 2.9086368 -0.92589855 15 1
-2.7890017 2.940022 0.21237932 15 9
-2.7567163 2.9080207 -0.77888238 15 2
-2.7984819 2.9531107 0.35594404 12 10
-2.7613392 2.9159536 -0.63606256 13 3
-2.8134663 2.9730773 0.50258923 14 11
-2.7611084 2.9187691 -0.49332717 16 4
-2.7541625 2.9155009 -0.350889 24 5
-2.7662172 2.9313345 -0.21122794 16 6
-2.7611952 2.9290853 -0.070263386 23 7
-2.7489343 2.9334683 -1.0772049 13 0
-2.7897394 2.9790945 0.071240723 28 8
-2.7434487 2.9306884 -0.9267984 17 1
-2.7847824 2.9769235 0.2136354 19 9
-2.7443922 2.9358001 -0.7811721 17 2
-2.7805178 2.9754875 0.35629267 13 10
-2.7517014 2.9467099 -0.6385656 13 3
-2.7899332 2.9897442 0.50210178 9 11
-2.7677467 2.967005 -0.49820194 13 4
-2.7513957 2.9536095 -0.35315505 22 5
-2.7922676 2.9985342 0.79643679 143 13
-2.7511272 2.9564233 -0.21164663 20 6
-2.7775078 2.9868636 0.94164515 148 14
-2.7597408 2.9687951 -0.070752062 26 7
-2.7808115 2.9935579 1.0948045 201 15
-2.7519882 2.9781263 -1.0865225 12 0
-2.7334971 2.9612248 -0.93039757 15 1
-2.7504416 2.9837587 -0.78880447 15 2
-4.0180044 4.3603721 0.51875097 1 10
-2.7431047 2.9789279 -0.64138144 10 3
-4.0446119 4.3954005 0.73340976 1 11
-2.7536845 2.9935608 -0.49942058 3 4
-3.5568388 3.8761718 -0.27570584 35 6
-2.7742381 3.0243688 0.94749385 151 14
-2.7623584 3.0315363 -1.0989457 1 0
-3.9684136 4.3566446 0.10286448 2 8
-3.5063827 3.8521132 -1.2025883 42 1
-3.9854949 4.3800011 0.31035227 2 9
-3.8831165 4.2704821 -1.1219569 4 2
-3.9526289 4.349978 0.51421887 1 10
-3.8862486 4.2784252 -0.91545457 1 3
-3.9745739 4.3787336 0.72609758 1 11
-3.5209265 3.8816781 -0.64347017 9 4
-2.7851663 3.0716095 0.656712 174 12
-3.4941847 3.8603115 -0.27287969 41 6
-2.7739725 3.0667868 0.9546923 151 14
-3.3357069 3.7111845 -1.3370593 13 0
-3.8924704 4.3336606 0.10167772 4 8
-2.8525472 3.1769841 -0.9857356 14 1
-3.928144 4.377986 0.3082588 2 9
-3.8532083 4.2974877 -1.1219569 4 2
-3.906971 4.3589778 0.51212716 1 10
-6.3603663 7.1012006 -1.5099056 2 3
-3.8883035 4.3442502 0.71586055 1 11
-3.4772155 3.8863225 -0.64030159 6 4
-2.771554 3.0998142 0.65858912 164 12
-2.7385471 3.0661268 0.79910809 5 13
-3.4432099 3.8577917 -0.27099562 40 6
-2.7628722 3.0977118 0.95829147 151 14
-3.2879341 3.7098038 -1.3282595 11 0
-3.8409069 4.3367786 0.10111924 2 8
-3.3961 3.8358927 -1.1827927 30 1
-3.8418994 4.3424783 0.3038626 2 9
-3.7893033 4.2860403 -1.1120348 4 2
-3.8342223 4.3383751 0.50654918 1 10
-6.3315592 7.1691194 -1.5149114 2 3
-3.8447461 4.3564057 0.71342319 1 11
-3.7349823 4.2335258 -0.6931929 3 4
-2.7629094 3.1339052 0.66171783 136 12
-3.8379393 4.3563519 -0.50794363 5 5
-2.7572985 3.1308439 0.81093824 2 13
-3.3858459 3.8472505 -0.26858816 45 6
-2.7591958 3.1374116 0.96459007 151 14
-2.7553298 3.1363254 1.1186159 1 15
-3.2009358 3.6628437 -1.3034128 10 0
-3.7894926 4.3393869 0.10056076 2 8
-3.3602669 3.8492322 -1.1796434 37 1
-3.7721021 4.3240404 0.30072245 2 9
-3.7128458 4.2591143 -1.0982966 4 2
-3.7619553 4.3169699 0.5009712 1 10
-3.730932 4.28439 -0.89981115 1 3
-3.7803569 4.3442073 0.70708597 1 11
-3.686357 4.239172 -0.68978053 1 4
-2.7565148 3.1710076 0.66547227 101 12
-3.7421041 4.3078318 -0.49922809 5 5
-2.74512 3.1623552 0.81399125 3 13
-3.332725 3.8406234 -0.26649469 44 6
-2.7499924 3.1713207 0.96908909 128 14
-2.7523406 3.1773882 1.1263806 1 15
-3.1658175 3.6754091 -1.2997893 8 0
-3.7304003 4.3323994 0.09979286 4 8
-3.2983181 3.8332949 -1.167496 42 1
-3.6993947 4.3024611 0.29737294 2 9
-3.675343 4.2759981 -1.096007 4 2
-3.7127931 4.3226194 0.49853083 1 10
-6.2758946 7.311873 -1.5261748 1 3
-3.7214997 4.3373489 0.70172375 1 11
-3.6385825 4.2437062 -0.68636823 1 4
-2.7401803 3.1981516 0.66703665 100 12
-3.6652801 4.279376 -0.49295285 5 5
-2.7408471 3.2023249 0.81933385 3 13
-3.2908769 3.8476775 -0.26534331 50 6
-2.7558756 3.2278547 1.1372509 1 15
-3.175096 3.7386506 -1.3142831 13 0
-3.6553094 4.3071446 0.098606095 2 8
-3.2399597 3.8190777 -1.1562485 35 1
-3.6821833 4.3434176 0.29841965 2 9
-3.6141939 4.2662373 -1.086848 4 2
-3.6516228 4.311944 0.49434736 1 10
-6.2451119 7.3796349 -1.5311806 1 3
-3.6365304 4.3002062 0.69148672 1 11
-3.5909252 4.2477813 -0.68295586 1 4
-2.7267096 3.2277668 0.66922677 102 12
-3.681592 4.3596606 -0.49922809 5 5
-2.7500794 3.2588906 0.82887435 15 13
-3.238184 3.8400214 -0.26324987 48 6
-2.7519186 3.2645361 0.9857356 100 14
-3.1861246 3.8051615 -1.3298123 12 0
-3.618206 4.3227253 0.098396674 2 8
-3.1932142 3.8176875 -1.14905 33 1
-3.5936003 4.2978983 0.29360473 2 9
-3.56493 4.2666345 -1.0807421 4 2
-3.5984454 4.309803 0.49120975 1 10
-3.3391323 4.0006466 -0.82534832 1 3
-3.5970039 4.312664 0.68953681 1 11
-3.5357637 4.242249 -0.6780811 1 4
-3.1787655 3.8220491 -0.26052842 46 6
-3.1392381 3.8014376 -1.3210124 11 0
-3.5548477 4.3077784 0.097489148 2 8
-3.1473124 3.8152823 -1.1418515 35 1
-3.5609674 4.3197999 0.2933954 2 9
-3.5100932 4.2611098 -1.0731099 4 2
-3.5183659 4.2726755 0.48423728 1 10
-3.1404209 3.8164127 -0.78279817 10 3
-3.5415916 4.3070049 0.68466198 1 11
-3.4866369 4.2416816 -0.67418122 1 4
-2.7020078 3.2894781 0.67423266 135 12
-3.1266778 3.8132591 -0.25843498 45 6
-3.1284802 3.8427355 -1.3277417 12 0
-3.5027225 4.3039579 0.096860856 1 8
-3.1033883 3.815994 -1.135553 33 1
-3.5214016 4.3315406 0.29255801 2 9
-3.4067326 4.1934757 -1.0502127 3 2
-3.4884531 4.297133 0.48423728 1 10
-3.0795159 3.794754 -0.77403784 15 3
-3.4596808 4.2662535 0.67442501 1 11
-7.921216 9.77491 -1.5448159 1 4
-3.4648981 4.2803206 -0.48179695 5 5
-3.0818119 3.8111579 -0.25686491 48 6
-2.7141466 3.3588779 0.99698305 128 14
-3.0628827 3.8162708 -1.3111774 13 0
-3.4292986 4.2758722 0.095674098 1 8
-3.0522928 3.8071582 -1.126555 32 1
-3.4278793 4.2786903 0.28732443 2 9
-3.3815455 4.223877 -1.0517392 3 2
-3.4409378 4.2996054 0.48179695 1 10
-3.0337777 3.7935507 -0.76934481 19 3
-3.4290617 4.2909026 0.67442501 1 11
-7.803226 9.76793 -1.5350664 1 4
-2.7075765 3.3917232 0.6873731 174 12
-3.4018757 4.2645092 -0.47726485 5 5
-3.037035 3.8112452 -0.2553995 47 6
-2.7082686 3.4047604 1.1657211 181 15
-3.0733235 3.8845267 -1.3272241 11 0
-3.3944032 4.2934351 0.095534474 1 8
-2.9893897 3.7825072 -1.1130579 28 1
-3.3929732 4.296248 0.28690574 2 9
-3.3227832 4.2103963 -1.0425804 3 2
-3.3861587 4.2922368 0.4783107 1 10
-2.9876511 3.789819 -0.76433885 17 3
-3.399024 4.3147359 0.67442501 1 11
-3.3086143 4.2014818 -0.65663213 1 4
-2.696049 3.4260652 0.69050181 164 12
-3.4040439 4.3288736 -0.48179695 5 5
-2.9856801 3.8009405 -0.25330606 46 6
-2.7142334 3.4615908 1.1786621 201 15
-3.0378129 3.8952241 -1.3236006 12 0
-3.3446791 4.291791 0.094976 1 8
-2.9509339 3.7879121 -1.1085589 29 1
-3.3383594 4.2883105 0.2848123 2 9
-3.2933102 4.2334895 -1.0425804 3 2
-3.3145261 4.2622967 0.4723841 1 10
-2.9441526 3.7887456 -0.75995874 19 3
-3.3322937 4.2913237 0.66711289 1 11
-7.5881801 9.7755709 -1.5194671 1 4
-2.6902261 3.4682169 0.69519484 147 12
-3.2524116 4.1944928 -0.46436578 4 5
-2.9321694 3.7869506 -0.25100327 43 6
-2.6959093 3.4880962 1.1812501 169 15
-2.9846427 3.8826416 -1.3122126 15 0
-3.2812722 4.2700605 0.093998663 1 8
-2.9078014 3.786782 -1.1022601 27 1
-3.2872019 4.2824163 0.2829282 2 9
-3.2333503 4.2153063 -1.0326583 3 2
-3.2652957 4.2600317 0.46959516 1 10
-2.8966694 3.7804739 -0.75432706 19 3
-3.3078334 4.3202109 0.66808778 1 11
-3.2375691 4.2315006 -0.65419465 1 4
-2.6749566 3.4974315 0.69738495 168 12
-3.2230492 4.2170968 -0.46436578 4 5
-2.886935 3.7814207 -0.24932852 42 6
-2.6866775 3.5216634 1.0226275 140 14
-2.6838136 3.5217316 1.1864265 146 15
-2.9803171 3.9321201 -1.3220477 14 0
-3.2393079 4.2769232 0.093649611 1 8
-2.863137 3.7816284 -1.0950617 32 1
-3.2355342 4.2765913 0.28104413 2 9
-3.1848996 4.2127194 -1.0265524 3 2
-3.2146003 4.2535481 0.46645752 1 10
-2.8463969 3.7690773 -0.7480697 19 3
-3.3086822 4.3843966 0.67442501 1 11
-7.5722241 10.03774 -1.5438409 1 4
-2.6695004 3.5412595 0.70239085 174 12
-3.1935296 4.2394948 -0.46436578 4 5
-2.843653 3.7791398 -0.2478631 41 6
-2.6690533 3.5496795 1.0253268 133 14
-2.6684434 3.5527399 1.1905677 146 15
-2.9204223 3.9094932 -1.3075538 14 0
-3.1782696 4.2577696 0.092742085 1 8
-2.8226833 3.7827814 -1.0896629 35 1
-3.186497 4.2734571 0.27936935 2 9
-3.1366432 4.2096629 -1.0204465 3 2
-3.1872067 4.2790823 0.46680617 1 10
-2.8011434 3.7635026 -0.74306375 17 3
-3.1595252 4.2481046 0.65005112 1 11
-7.4877501 10.071242 -1.5409162 2 4
-2.6635613 3.5851803 0.70739675 176 12
-3.1638546 4.2616868 -0.46436578 4 5
-2.8005447 3.7764406 -0.2463977 40 6
-2.6616106 3.5917122 1.0320754 117 14
-2.6619661 3.5961261 1.1988499 146 15
-2.8861845 3.920454 -1.3044481 16 0
-3.1247699 4.2476373 0.092043988 3 8
-2.7731137 3.7709978 -1.0806649 25 1
-3.1045489 4.224782 0.27476382 1 9
-3.0676699 4.1776552 -1.0074716 3 2
-3.1100969 4.2369833 0.45983368 1 10
-2.7432561 3.7399602 -0.73461634 15 3
-3.1297908 4.2700591 0.65005112 1 11
-7.3920312 10.092536 -1.5360414 1 4
-2.6524704 3.6228142 0.71115112 164 12
-2.7458289 3.7571995 -0.24388559 38 6
-2.6641195 3.6520798 1.2112732 146 15
-2.8580585 3.941005 -1.3044481 13 0
-3.0809534 4.2499218 0.091625139 3 8
-2.7597768 3.8096828 -1.0860636 11 1
-3.078922 4.2533612 0.27518249 1 9
-3.020015 4.1735215 -1.0013657 3 2
-3.0516818 4.2203798 0.45565021 1 10
-2.7002265 3.7370789 -0.73023617 15 3
-3.099906 4.2918034 0.65005112 1 11
-7.3097744 10.1278 -1.5336039 1 4
-2.6518996 3.6769495 0.71803427 162 12
-2.714205 3.7702684 -0.2434669 42 6
-2.6627188 3.7055645 1.2226613 141 15
-2.7496047 3.8476944 -1.2671782 17 0
-3.0341933 4.2490764 0.091136463 3 8
-2.9289842 4.1032519 -1.1638968 5 1
-3.0143564 4.2259736 0.27204233 1 9
-2.9741216 4.1726418 -0.996023 3 2
-3.0105803 4.2253571 0.4539071 1 10
-2.6752188 3.7574468 -0.73054904 16 3
-7.2549973 10.201232 -1.5370163 1 4
-2.6376081 3.7114756 0.72116297 162 12
-2.6647062 3.7565441 -0.24137343 48 6
-2.6291206 3.709121 1.0496217 119 14
-2.6356678 3.7224865 1.2221435 109 15
-2.663729 3.7830794 -1.2397434 32 0
-2.9699366 4.2210908 0.090089321 3 8
-2.8868134 4.1044722 -1.1584979 7 1
-2.9687042 4.2240367 0.27057692 1 9
-2.9223521 4.161171 -0.98839068 3 2
-2.9764314 4.239748 0.45320985 1 10
-2.6285014 3.7469232 -0.72491741 17 3
-7.1790462 10.245131 -1.5360414 1 4
-2.622963 3.7459803 0.72429162 139 12
-2.9286482 4.1856489 -0.44693464 4 5
-2.620111 3.748862 -0.23969871 42 6
-2.6355205 3.7737181 1.0626688 117 14
-2.6130278 3.7666628 -1.2283553 18 0
-2.9426739 4.2450089 0.090159133 1 8
-2.871408 4.1437469 -1.1638968 3 1
-2.9391425 4.2446589 0.27057692 1 9
-2.8932304 4.1814713 -0.98839068 3 2
-2.9127567 4.211267 0.44798052 1 10
-2.5798166 3.732682 -0.71866006 21 3
-2.9521804 4.2746367 0.63786417 1 11
-7.1050959 10.291729 -1.5355538 2 4
-2.9000895 4.2054863 -0.44693464 4 5
-2.568954 3.7308731 -0.23739593 47 6
-2.5670466 3.756104 -1.2190377 22 0
-2.8618214 4.1889873 0.088553511 4 8
-2.7995589 4.1009231 -1.1463506 11 1
-2.8516407 4.178781 0.26513401 5 9
-2.8038676 4.1118565 -0.96740162 9 2
-2.8485081 4.1804557 0.44257683 12 10
-2.5343323 3.720768 -0.71302837 23 3
-2.8202574 4.1436558 0.61544025 7 11
-2.8042982 4.123301 -0.61227161 10 4
-2.7844498 4.0987301 -0.43351269 13 5
-2.5210714 3.7152185 -0.23530249 45 6
-2.8075793 4.1436582 -0.087366745 13 7
-2.8112941 4.1507049 1.3432709 15 15
-2.5284705 3.7542627 -1.2128261 20 0
-2.8079445 4.1723671 0.087785602 9 8
-2.7661412 4.1117997 -1.1441011 8 1
-2.7967699 4.1604633 0.26272655 10 9
-2.7750931 4.131331 -0.96740162 8 2
-2.7988844 4.1683211 0.43926495 8 10
-2.4884839 3.7088444 -0.70739675 20 3
-2.802315 4.1797318 0.6178776 4 11
-2.7695358 4.1323996 -0.61080921 4 4
-2.7801447 4.1544971 -0.4373475 11 5
-2.4884133 3.7227652 -0.23467445 37 6
-2.8174341 4.2181797 1.1710953 5 14
-2.7948546 4.185956 -0.087855421 4 7
-2.7983327 4.194334 1.3510355 4 15
-2.4872496 3.749284 -1.2055792 24 0
-2.787586 4.2052021 0.088064842 4 8
-2.7352149 4.1277614 -1.1432012 7 1
-2.7952225 4.221519 0.26534331 3 9
-2.7526829 4.1604276 -0.9696914 4 2
-2.7631209 4.1777883 0.43821907 2 10
-2.4516392 3.7096467 -0.70426804 21 3
-2.8080719 4.2522016 0.62567729 1 11
-6.7717128 10.258147 -1.5092301 1 4
-2.7703588 4.1998734 0.79687726 3 12
-2.7017314 4.0989461 -0.4295035 4 5
-2.7965391 4.2443957 0.9880091 2 13
-2.4513803 3.7233655 -0.23362774 35 6
-2.7594345 4.1992378 1.3463767 1 15
-2.4430487 3.7390654 -1.1967793 16 0
-2.7537878 4.2178631 0.087925225 1 8
-2.6818347 4.1092219 -1.1328535 4 1
-2.7482266 4.2141633 0.26366857 1 9
-2.7053492 4.1515813 -0.96320391 3 2
-2.7208378 4.1769433 0.43612733 1 10
-2.4062843 3.696872 -0.69863641 20 3
-2.7783177 4.2717018 0.62567729 1 11
-6.6804557 10.275217 -1.5048428 2 4
-2.7272918 4.2012653 -0.43821907 4 5
-2.7347784 4.2144084 0.97656047 2 13
-2.412287 3.7202787 -0.23237166 40 6
-2.6926544 4.157434 -0.086459227 3 7
-2.7006617 4.1729884 1.331883 1 15
-2.401207 3.7316599 -1.1890148 19 0
-2.7026446 4.2033453 0.087227128 1 8
-2.6404395 4.108171 -1.1274546 3 1
-2.6820433 4.1761093 0.26010972 1 9
-2.6614552 4.1472354 -0.95786124 3 2
-2.6894593 4.1924825 0.43577868 1 10
-2.3761525 3.7069285 -0.69738495 21 3
-2.7484279 4.2909942 0.62567729 1 11
-6.6106992 10.324948 -1.5053302 2 4
-2.7114491 4.2381449 0.79687726 3 12
-2.6442375 4.1362691 -0.4295035 4 5
-2.6968324 4.2201638 0.97350752 2 13
-2.3755069 3.7201953 -0.23132494 40 6
-2.6434293 4.1477542 1.3179066 1 15
-2.3668227 3.7352788 -1.1848736 18 0
-2.6668177 4.2119727 0.087017693 3 8
-2.5866807 4.0869865 -1.116657 2 1
-2.6549602 4.1981068 0.26031908 3 9
-2.5925856 4.1026468 -0.94335973 3 2
-2.6388435 4.1774669 0.43229246 1 10
-2.3291295 3.6900167 -0.69112754 20 3
-6.5151696 10.333901 -1.4999681 2 4
-2.6544192 4.2135153 0.78874266 3 12
-2.6547573 4.2189484 0.9689281 2 13
-2.3260889 3.6994917 -0.22902218 37 6
-2.6236503 4.1808352 1.3225653 1 15
-2.334554 3.7418761 -1.1817677 18 0
-2.6267684 4.2135177 0.086668648 1 8
-2.5601485 4.108252 -1.1175569 2 1
-2.6065843 4.1860218 0.25843498 5 9
-2.5701013 4.1306491 -0.94564945 3 2
-2.5927811 4.1687169 0.4295035 1 10
-2.2845416 3.6759887 -0.68549597 20 3
-6.4093604 10.325168 -1.4921683 2 4
-2.58623 4.1727843 -0.4295035 4 5
-2.5756083 4.1572714 0.95061046 2 13
-2.2875896 3.6952622 -0.22776611 38 6
-2.5822134 4.1793284 1.3163538 1 15
-2.2861297 3.7218692 -1.1703798 21 0
-2.549171 4.1533561 0.085063025 3 8
-2.5191762 4.1060925 -1.1121581 2 1
-2.5626826 4.1802783 0.25696957 3 9
-2.5206933 4.1150074 -0.93801707 3 2
-2.5532105 4.1697249 0.42776039 1 10
-2.2443907 3.6682565 -0.68111575 20 3
-2.5544188 4.1782451 0.60130334 1 11
-6.3060718 10.318845 -1.4848562 2 4
-2.59533 4.2501669 0.78874266 3 12
-2.5570335 4.1907392 -0.4295035 4 5
-2.5444779 4.1717992 0.94984722 2 13
-2.2430265 3.6804435 -0.22588199 42 6
-2.5168343 4.1378341 1.2977188 1 15
-2.2460961 3.7145946 -1.1631329 18 0
-2.5118403 4.1573591 0.084783792 3 8
-2.4763443 4.1002259 -1.1058594 3 1
-2.5004137 4.1433468 0.25362006 3 9
-2.479738 4.11233 -0.93343765 3 2
-2.5137527 4.1703839 0.42601725 1 10
-2.2105739 3.6702995 -0.67861283 20 3
-6.2154546 10.332002 -1.4804689 2 4
-2.5269246 4.2038441 0.77685362 3 12
-2.4950821 4.1557965 0.94221485 2 13
-2.2049499 3.6754596 -0.22462595 30 6
-2.4819288 4.14536 1.2946129 1 15
-2.2122042 3.7169042 -1.1589917 19 0
-2.478667 4.1679192 0.084644176 1 8
-2.4327219 4.0922875 -1.0991108 3 1
-2.4836669 4.1813083 0.25487614 4 9
-2.4389436 4.109282 -0.92885822 3 2
-2.4520452 4.1329994 0.4204393 1 10
-2.1728084 3.6652513 -0.67485833 18 3
-2.495832 4.2135034 0.60130334 1 11
-6.1269941 10.347809 -1.4765691 2 4
-2.4613044 4.1601791 0.76559031 3 12
-2.4617732 4.1642876 -0.42322829 4 5
-2.4480302 4.1426907 0.93534577 2 13
-2.172128 3.678725 -0.22389325 30 6
-2.4411609 4.1426125 1.2884012 1 15
-2.1666729 3.6989191 -1.148639 19 0
-2.4394078 4.1678638 0.084295124 3 8
-2.3913 4.0873055 -1.0932621 2 1
-2.4403033 4.1744056 0.25341073 3 9
-2.4022744 4.1126471 -0.92580527 3 2
-2.4191134 4.1431351 0.41974208 1 10
-2.1332307 3.6564441 -0.67047822 20 3
-6.0326166 10.352597 -1.4712068 2 4
-2.4322009 4.1772609 0.76559031 3 12
-2.3965721 4.1193748 -0.41695309 4 5
-2.4131272 4.149497 0.93305606 2 13
-2.134351 3.6730769 -0.22263718 31 6
-2.4024894 4.1428428 1.2832248 1 15
-2.1321139 3.6988916 -1.1439801 17 0
-2.3942828 4.1570673 0.083736651 3 8
-2.3471501 4.0768785 -1.0860636 2 1
-2.3852077 4.1463289 0.25068927 4 9
-2.3598073 4.1054883 -0.92046267 3 2
-2.3821893 4.146102 0.41834757 1 10
-2.093883 3.647264 -0.66609806 23 3
-5.9522953 10.380685 -1.469257 1 4
-2.3892307 4.1701431 0.7612102 3 12
-2.3400388 4.0875912 -0.41207233 4 5
-2.382149 4.1628346 0.93229276 2 13
-2.0967596 3.6670816 -0.22138111 36 6
-2.3572142 4.1276116 -0.082968742 3 7
-2.3591466 4.1343455 1.2754604 1 15
-2.0690718 3.6481497 -1.1237923 19 0
-2.37112 4.1841183 0.083946079 3 8
-2.3562047 4.1628785 0.25068927 3 9
-2.0053928 3.5459642 -0.79185736 17 2
-2.3531859 4.162632 0.41834757 1 10
-2.0178502 3.5723553 -0.64982885 28 3
-2.0063868 3.5564077 -0.50137055 24 4
-2.3251386 4.1247725 0.74994689 3 12
-2.0054035 3.5604701 -0.35751286 35 5
-2.3568816 4.1862068 0.93381923 2 13
-2.0006015 3.5562983 -0.21384473 46 6
-2.005096 3.5686586 -0.071450152 40 7
-2.3340089 4.1574531 1.2775309 1 15
-1.9989936 3.5811813 -1.0989457 24 0
-2.3250515 4.1687255 0.083317786 1 8
-1.9737736 3.5403543 -0.93579644 37 1
-2.2947679 4.1194963 0.24713041 4 9
-1.8265322 3.2816315 -0.73003525 19 2
-2.2957392 4.1263204 0.41311821 2 10
-1.8303225 3.2924969 -0.59664112 12 3
-1.9744239 3.5560982 -0.49942058 27 4
-2.3180904 4.1785059 0.75683004 3 12
-1.9704965 3.5548701 -0.35559544 40 5
-2.3131084 4.1746764 0.92771345 2 13
-1.9734465 3.5645921 -0.21353073 37 6
-1.9710821 3.5647244 -0.071101107 47 7
-2.2823002 4.1309705 1.2645899 1 15
-1.8223892 3.3190274 -1.0145707 16 0
-2.2805007 4.156806 0.082759313 3 8
-1.8131422 3.306288 -0.87056059 12 1
-2.2697895 4.1424236 0.24754909 3 9
-1.8469479 3.373517 -0.74758971 17 2
-2.2649612 4.1387525 0.41276959 2 10
-1.9304951 3.5305097 -0.63731414 20 3
-1.9457437 3.5628271 -0.49844566 27 4
-2.2585859 4.1390977 0.74681824 3 12
-1.9313245 3.5423005 -0.35298076 38 5
-2.2444508 4.11832 0.91168547 2 13
-1.9408716 3.5642498 -0.21269335 30 6
-1.9356381 3.5590742 -0.070717148 31 7
-2.2589395 4.1569877 1.2676958 1 15
-1.928604 3.5713453 -1.0875577 25 0
-2.2305367 4.1339078 0.081991412 3 8
-1.9287766 3.5761421 -0.93804586 42 1
-2.2180767 4.1159711 0.24503697 4 9
-1.9313191 3.5868468 -0.79185736 38 2
-2.251122 4.1825337 0.41555858 1 10
-1.9151578 3.5612977 -0.64044279 24 3
-1.9236426 3.5815694 -0.49917686 25 4
-2.2184238 4.1338787 0.74306375 3 12
-1.926006 3.5904784 -0.35646698 36 5
-2.2174976 4.1373506 0.91244864 2 13
-1.9234843 3.5917985 -0.21353073 34 6
-1.9258338 3.6007142 -0.071275629 28 7
-2.2043686 4.1249495 1.2532018 1 15
-1.9416789 3.6563833 -1.1092985 34 0
-2.1985958 4.1419291 0.08185178 1 8
-1.9174597 3.6153443 -0.94479448 38 1
-2.1825249 4.1168566 0.2441996 3 9
-1.9252388 3.6346076 -0.79948968 25 2
-2.1845882 4.1277089 0.40858611 1 10
-1.9102708 3.6109192 -0.64701301 24 3
-2.1957698 4.1540952 0.57692951 1 11
-1.9245489 3.6440609 -0.50600159 9 4
-2.1883917 4.1453886 0.74243808 3 12
-1.9269198 3.6531806 -0.36134771 10 5
-2.1995454 4.1735711 0.91702807 2 13
-1.9120232 3.6295466 -0.21499613 43 6
-2.2124598 4.2069774 -0.082968742 3 7
-2.172646 4.1330175 1.2511313 1 15
-1.9167457 3.6695151 -1.1092985 19 0
-2.1566732 4.1323586 0.081363119 1 8
-2.1444991 4.1142821 0.24315289 4 9
-2.1472411 4.1248102 0.40684301 1 10
-1.8868384 3.6276727 -0.6476388 22 3
-5.391634 10.379333 -1.4361085 2 4
-2.1357384 4.1149797 0.73430347 3 12
-2.1341381 4.1136575 -0.40544853 4 5
-2.1512089 4.1501002 0.90863246 2 13
-1.8737803 3.6179769 -0.21353073 34 6
-2.1277723 4.1171942 1.2418139 1 15
-1.8743144 3.6501548 -1.0994633 17 0
-2.1321476 4.1540589 0.081502736 3 8
-2.0666223 4.0298581 -1.0455725 2 1
-2.1164443 4.1287842 0.24315289 3 9
-2.0816786 4.0644569 -0.88764352 2 2
-2.1002398 4.1042275 0.40335676 2 10
-1.8531061 3.6228454 -0.64451009 22 3
-5.3425131 10.462687 -1.4424456 2 4
-2.1076791 4.1294222 0.73430347 3 12
-2.0854559 4.0894065 -0.40161365 4 5
-2.1061399 4.1335306 0.90176338 2 13
-1.84911 3.6306474 -0.21353073 37 6
-2.0883222 4.1091928 1.2350845 2 15
-1.8363643 3.6369612 -1.0916989 22 0
-2.0814784 4.1259942 0.080665022 1 8
-2.0444088 4.0542722 -1.0482719 2 1
-2.0749869 4.1184874 0.24168746 4 9
-2.040894 4.0543399 -0.88230079 2 2
-2.0597172 4.0935116 0.40091643 1 10
-1.8171216 3.6145153 -0.64075565 24 3
-2.1090233 4.198801 0.57692951 1 11
-5.326395 10.608801 -1.4575576 2 4
-2.078799 4.1440358 0.73430347 3 12
-2.0764959 4.1430526 -0.40544853 4 5
-2.0603676 4.1126647 0.894131 2 13
-1.8183542 3.6327519 -0.21290269 30 6
-2.0806491 4.1622138 -0.081223503 3 7
-2.0423195 4.0891061 1.2247318 1 15
-1.8057766 3.6393092 -1.088593 20 0
-2.0401902 4.1153417 0.080176361 2 8
-1.9883664 4.0125704 -1.033875 3 1
-2.035552 4.1113935 0.24043141 3 9
-2.0229857 4.0896063 -0.88688028 2 2
-2.0310907 4.1077905 0.40091643 1 10
-1.7865937 3.6164868 -0.63887841 20 3
-2.079659 4.2134228 0.57692951 1 11
-5.2592282 10.659968 -1.4595075 1 4
-2.0498173 4.1584477 0.73430347 3 12
-2.0246341 4.1109767 -0.40091643 4 5
-2.0333395 4.1304712 0.89489418 2 13
-1.7876598 3.6346045 -0.21227466 34 6
-2.0035093 4.0824533 1.21852 1 15
-1.7794806 3.6500897 -1.0880753 17 0
-1.9956458 4.0971251 0.079548068 2 8
-1.967131 4.0403695 -1.0374742 3 1
-1.9875771 4.0859923 0.23812862 4 9
-1.9686402 4.0506568 -0.87543172 2 2
-1.9866908 4.0896125 0.39777881 1 10
-1.754402 3.6146548 -0.63637549 21 3
-2.050195 4.2278376 0.57692951 1 11
-5.1846795 10.696425 -1.4595075 2 4
-1.9776866 4.0837636 0.71866006 2 12
-2.0080335 4.1501193 -0.40335676 4 5
-1.9924872 4.1198225 0.88955158 2 13
-1.7500764 3.6218197 -0.21080926 31 6
-1.9816715 4.1102624 1.2226613 1 15
-1.7489485 3.6519704 -1.0849695 17 0
-1.9739006 4.1253877 0.079827309 2 8
-1.9304682 4.0364242 -1.0329752 3 1
-1.9590049 4.0997677 0.23812862 1 9
-1.9047908 3.9898889 -0.85940373 2 2
-1.9563774 4.0997853 0.39743021 1 10
-1.7265739 3.6214654 -0.63543689 25 3
-5.0893974 10.689345 -1.4536576 2 4
-1.9915562 4.1866622 0.73430347 3 12
-1.9636171 4.1316462 -0.40021914 4 5
-1.9501981 4.1052589 0.88344568 2 13
-1.7213229 3.6267314 -0.21039055 28 6
-1.9463135 4.1100287 1.21852 1 15
-1.7250545 3.6675873 -1.0860047 9 0
-1.9382478 4.1245885 0.079548068 1 8
-1.8939564 4.0321646 -1.0284761 3 1
-1.9201514 4.0916486 0.23687255 2 9
-1.7052026 3.63691 -0.78079039 8 2
-1.9209418 4.0989118 0.39603567 2 10
-1.6853358 3.5994389 -0.62949234 23 3
-5.0138121 10.722815 -1.453414 2 4
-1.9054275 4.0787621 0.71302837 2 12
-1.9077601 4.0874801 -0.39464122 4 5
-1.9463929 4.1721478 0.89489418 2 13
-1.6807741 3.6060755 -0.20850646 22 6
-1.9094266 4.1059995 1.2133437 1 15
-1.7196584 3.723387 -1.0989457 4 0
-1.902703 4.1234941 0.079268835 1 8
-1.8592314 4.0311322 -1.024877 1 1
-1.8815112 4.0831861 0.23561651 2 9
-1.6608876 3.6077087 -0.77201319 17 2
-1.8989443 4.1267014 0.39743021 1 10
-1.649439 3.5877848 -0.62542504 15 3
-4.9346895 10.748536 -1.4521952 1 4
-1.8736098 4.084784 0.71177691 2 12
-1.8476386 4.0318708 -0.38801736 4 5
-1.8779728 4.0999599 0.8765766 2 13
-1.650573 3.6068239 -0.20787844 20 6
-1.8726934 4.1016555 1.2081673 1 15
-1.8148803 4.0027375 -1.1776267 3 0
-1.8507655 4.0856743 0.078291491 1 8
-1.8230054 4.0262613 -1.020378 2 1
-1.8496668 4.088943 0.23519783 2 9
-1.6308095 3.6084824 -0.76972359 19 2
-1.8487625 4.092649 0.39289808 1 10
-1.621101 3.5920107 -0.62417358 15 3
-4.8399549 10.73929 -1.4463456 2 4
-1.8109865 4.0221133 0.69863641 2 12
-1.8103393 4.0225511 -0.38592559 3 5
-1.8428652 4.0986447 0.87352359 2 13
-1.6057107 3.5745342 -0.20536631 22 6
-1.8218887 4.0652685 1.1936734 1 15
-1.8026005 4.0506091 -1.1879795 3 0
-1.8180361 4.0872145 0.078082062 2 8
-1.7996007 4.0495749 -1.0230774 1 1
-1.8169266 4.0904865 0.23456979 2 9
-1.6078022 3.6230884 -0.77048677 40 2
-1.80884 4.0799561 0.39045769 1 10
-1.5950129 3.59935 -0.62354785 13 3
-4.8034053 10.85996 -1.458045 2 4
-1.8155161 4.1066146 0.71115112 2 12
-1.8078656 4.0970411 0.8704707 2 13
-1.5748945 3.5707619 -0.20452894 24 6
-1.7972876 4.0846491 1.195744 1 15
-1.7703466 4.0521641 -1.1848736 3 0
-1.7830582 4.0851455 0.077802829 1 8
-1.7532924 4.0188627 -1.0122797 2 1
-1.7739613 4.0701151 0.23268569 1 9
-1.5652256 3.594624 -0.76209116 26 2
-1.7730758 4.0739055 0.38871458 1 10
-1.5698458 3.6103978 -0.62354785 9 3
-1.793012 4.127584 0.55255568 1 11
-4.7815523 11.01258 -1.4741317 1 4
-1.7632192 4.0648222 0.70176506 2 12
-1.7737266 4.0910006 -0.39010909 4 5
-1.7799362 4.109252 0.8704707 2 13
-1.5499276 3.5816698 -0.20452894 25 6
-1.7511188 4.0563025 1.1838384 1 15
-1.7252731 4.0253601 -1.1734856 3 0
-1.7536353 4.0935121 0.077733018 1 8
-1.7205924 4.020256 -1.0095804 2 1
-1.7430738 4.0747504 0.23226699 4 9
-1.5314634 3.5835314 -0.75751179 27 2
-1.7226863 4.0348783 0.38383389 2 10
-1.5452342 3.6209996 -0.62354785 7 3
-1.7648748 4.1396933 0.55255568 1 11
-4.673439 10.97264 -1.4643822 1 4
-1.7386053 4.0840006 0.70301658 2 12
-1.7264082 4.0592804 -0.38592559 3 5
-1.7465984 4.1107368 0.86818099 2 13
-1.5161433 3.5700767 -0.20327288 23 6
-1.7121637 4.0414457 1.1760738 1 15
-1.7038249 4.0512562 -1.1776267 3 0
-1.7188197 4.0909057 0.077453777 1 8
-2.3798187 5.6669035 -1.4189912 4 1
-1.7022231 4.0573516 0.23059224 2 9
-1.5033726 3.5868931 -0.75598526 25 2
-1.7028819 4.0648861 0.38557699 1 10
-1.5191544 3.6298769 -0.62323499 3 3
-1.7037703 4.0749922 0.54231864 1 11
-4.5955801 10.99687 -1.4634072 2 4
-1.7100511 4.0960388 0.70301658 2 12
-1.6596795 3.9792912 -0.37721002 3 5
-1.717066 4.118906 0.86741769 2 13
-1.4850398 3.565824 -0.20243551 23 6
-1.686872 4.0604362 1.1781443 1 15
-1.6622436 4.0309052 -1.1683092 3 0
-1.6719352 4.0584316 0.076616064 2 8
-2.330555 5.6599526 -1.4131424 3 1
-1.6799325 4.0839143 0.23142964 2 9
-1.4723265 3.5827732 -0.75293231 26 2
-1.6699184 4.0656185 0.38453114 2 10
-1.5087757 3.6769435 -0.62949234 4 3
-1.6767877 4.0904598 0.54280609 1 11
-4.4991274 10.980927 -1.45707 2 4
-1.6814157 4.1078768 0.70301658 2 12
-1.6318583 3.9907813 -0.37721002 3 5
-1.6719285 4.0908122 0.85902214 2 13
-1.4570894 3.5687084 -0.20201682 23 6
-1.6497396 4.0506444 1.1719327 1 15
-1.6152381 3.9958444 -1.1548507 2 0
-1.6420655 4.0662956 0.076546252 2 8
-1.61339 3.9972944 -0.99518347 2 1
-1.6349506 4.05479 0.22912684 2 9
-1.4414098 3.5783963 -0.74987942 25 2
-1.6310788 4.0513024 0.38209078 2 10
-3.5440335 8.8116083 -1.504274 2 3
-1.640787 4.0836473 0.54036868 1 11
-4.3801899 10.90707 -1.443177 2 4
-1.6526943 4.1195159 0.70301658 2 12
-1.6187836 4.0390635 -0.38069627 3 5
-1.6520889 4.1242537 0.86360151 2 13
-1.4336256 3.5825016 -0.20222615 25 6
-1.6228528 4.0656509 1.1729679 1 15
-1.6328368 4.1219716 -1.1879795 3 0
-1.619524 4.0925355 0.0768255 1 8
-2.3007574 5.8169789 -1.4441857 3 1
-1.6168784 4.0921106 0.23059224 1 9
-1.4063014 3.5628059 -0.74453676 27 2
-1.604218 4.0662971 0.38243937 1 10
-3.4795339 8.8287859 -1.5030226 2 3
-1.6020588 4.0691428 0.53695637 1 11
-4.2988544 10.92445 -1.4414707 2 4
-1.5660806 3.9838781 0.67798704 2 12
-1.5963707 4.0651035 -0.38209078 3 5
-1.5902618 4.05162 0.8460471 2 13
-1.3983711 3.5663919 -0.20076075 24 6
-1.5873933 4.0588903 1.1677916 1 15
-1.5746657 4.0576286 -1.1662387 3 0
-1.5851307 4.0888262 0.076546252 1 8
-2.2502344 5.8074603 -1.4378871 3 1
-1.5752934 4.0697722 0.22870816 1 9
-1.3757298 3.557888 -0.74148381 27 2
-1.5628628 4.0439458 0.37930179 1 10
-3.4291956 8.8823471 -1.5080284 2 3
-1.5664688 4.061707 0.53451896 1 11
-4.2139149 10.931969 -1.4385459 2 4
-1.5467479 4.0168352 0.68174148 2 12
-1.5479252 4.0240808 -0.37721002 3 5
-1.5788443 4.1066046 0.85520601 2 13
-1.3748728 3.5797956 -0.20097008 25 6
-1.5479633 4.0410085 1.1595093 1 15
-1.5250236 4.0125427 -1.1501919 2 0
-1.5409315 4.0586638 0.075778343 2 8
-2.197191 5.7902331 -1.4297889 3 1
-1.529852 4.0358481 0.22619602 2 9
-1.3480766 3.5600615 -0.73995733 32 2
-1.5247192 4.0286703 0.37686142 2 10
-3.3489387 8.8580294 -1.4998938 2 3
-1.5324638 4.0576873 0.53256911 1 11
-4.1178632 10.909119 -1.4317211 2 4
-1.5312126 4.0608058 0.6873731 2 12
-1.5197941 4.0347891 -0.37721002 3 5
-1.543221 4.0991521 0.85138983 2 13
-1.3428173 3.5706124 -0.19992337 31 6
-1.521071 4.0553346 1.1605446 1 15
-1.4922577 4.0104179 -1.1465684 3 0
-1.4972315 4.0280862 0.075010449 2 8
-1.4889334 4.0079031 -0.98708516 2 1
-1.5085882 4.065155 0.22724274 1 9
-1.3197777 3.5601821 -0.73804927 36 2
-1.4965566 4.0392165 0.37686142 1 10
-1.4727806 3.9793081 -0.67204249 2 3
-1.505475 4.0720105 0.53305656 1 11
-4.0078888 10.846361 -1.419778 2 4
-1.4905128 4.0380397 0.68174148 2 12
-1.4915888 4.045301 -0.37721002 3 5
-1.498273 4.0656147 0.84223092 2 13
-1.3026774 3.5386658 -0.1976206 35 6
-1.5543269 4.2268105 1.0397238 4 14
-1.4834013 4.0404658 1.1532978 1 15
-1.4642253 4.0207372 -1.1465684 3 0
-1.4718082 4.0459576 0.075150065 2 8
-1.4502648 3.9888966 -0.97988683 2 1
-1.4583538 4.0155149 0.22389325 2 9
-1.2895346 3.5545447 -0.73499632 37 2
-1.4601715 4.0270896 0.37476969 1 10
-3.2222428 8.8964958 -1.4986424 2 3
-1.4635031 4.0450878 0.52818179 1 11
-3.9516451 10.928215 -1.4268464 2 4
-1.4596015 4.040916 0.68049002 2 12
-1.463311 4.0556154 -0.37721002 3 5
-1.4525371 4.0279574 0.83230883 2 13
-1.2792948 3.5514319 -0.19782993 32 6
-1.4732109 4.0964851 -0.075987779 2 7
-1.4538511 4.0470872 1.1522624 1 15
-1.4348208 4.0272226 -1.1455331 3 0
-1.4395053 4.0448298 0.074940629 1 8
-1.4158491 3.9805644 -0.97538781 3 1
-1.4329612 4.0331254 0.22431193 3 9
-1.2568079 3.5412583 -0.73041683 34 2
-1.4306892 4.0334296 0.37442106 2 10
-3.1323469 8.8405724 -1.4855019 3 3
-1.4444999 4.0814056 0.5315941 1 11
-3.8587062 10.908751 -1.420753 2 4
-1.4102958 3.9914062 0.67047822 2 12
-1.4104611 3.9940922 -0.37058622 3 5
-1.4361368 4.0713258 0.83917803 2 13
-1.2478327 3.5414393 -0.19678321 35 6
-1.4217191 4.0462022 1.1491566 1 15
-1.3907814 3.9915335 -1.1325922 2 0
-1.4027328 4.0280962 0.074451968 1 8
-1.3854659 3.9829886 -0.97358811 3 1
-1.3897332 3.9975107 0.22179982 2 9
-1.2300998 3.5423119 -0.72889042 32 2
-1.3802961 3.9793193 0.36849448 1 10
-1.3846461 3.9941051 -0.66953957 2 3
-1.4075912 4.0648818 0.52818179 1 11
-3.8181441 11.038605 -1.4341586 2 4
-1.3856763 4.0083814 0.67172968 2 12
-1.3747391 3.9812427 -0.36849448 3 5
-1.4153606 4.1035247 0.84375745 2 13
-1.215887 3.5271921 -0.19552715 33 6
-1.415871 4.1166553 -0.075987779 2 7
-1.3803287 4.015594 1.1377686 1 15
-1.3598404 3.9899366 -1.1294864 2 0
-1.3707105 4.0264325 0.07424254 2 8
-1.3520455 3.9738779 -0.96908909 2 1
-1.3733612 4.0411534 0.22368389 2 9
-1.2028139 3.5433776 -0.72736394 34 2
-1.3570203 3.9999425 0.36954033 2 10
-3.0101573 8.8829203 -1.4855019 3 3
-1.363906 4.0294824 0.52233207 1 11
-3.7314677 11.030491 -1.4297712 2 4
-1.3627174 4.0329285 0.67423266 2 12
-1.3476076 3.9905078 -0.36849448 3 5
-1.3685708 4.0572548 0.83230883 2 13
-1.1854953 3.5185597 -0.1945851 28 6
-1.3504151 4.0196385 1.1362157 1 15
-1.3295106 3.9920013 -1.1274159 2 0
-1.3432715 4.0356693 0.07424254 2 8
-1.314433 3.9536326 -0.9618907 3 1
-1.3458222 4.0504079 0.22368389 2 9
-1.1737214 3.5365758 -0.72431099 36 2
-1.3303162 4.0131011 0.36988899 2 10
-2.9421723 8.8807001 -1.4817474 2 3
-1.3339521 4.0311346 0.52135712 1 11
-3.6830316 11.142972 -1.4409832 2 4
-1.3302778 4.0271058 0.67172968 2 12
-1.3272089 4.0225229 -0.37058622 3 5
-1.3402125 4.0667105 0.83230883 2 13
-1.1577688 3.5151656 -0.19395708 30 6
-1.3464605 4.0928764 0.99473363 4 14
-1.3175982 4.0122185 1.1315569 1 15
-1.3094822 4.0230021 -1.1336274 2 0
-1.3125916 4.0373421 0.074102923 2 8
-1.2850821 3.9550748 -0.96009105 3 1
-1.3150461 4.0521064 0.22326522 3 9
-1.1465813 3.5372133 -0.72278452 33 2
-1.2919165 3.9879458 0.36675134 2 10
-2.8642907 8.8521585 -1.4736128 3 3
-1.3094397 4.0516825 0.52281958 1 11
-3.6284533 11.233899 -1.4495142 2 4
-1.2754472 3.9535756 0.65796345 2 12
-1.3003142 4.0354834 -0.37093481 3 5
-1.2908379 4.0084639 0.81857067 2 13
-1.1313637 3.5174592 -0.19364306 33 6
-1.3178558 4.1021757 0.99473363 4 14
-1.2866061 4.0121212 1.1289687 1 15
-1.2743434 4.009953 -1.1274159 2 0
-1.2916332 4.0692787 0.074521773 2 8
-1.2503685 3.9416597 -0.9546923 3 1
-1.2710404 4.0116844 0.22054374 2 9
-1.1183052 3.5339015 -0.72049481 34 2
-1.2676486 4.0082655 0.36779723 2 10
-2.809561 8.8945436 -1.4773673 2 3
-1.2643983 4.0077181 0.51599485 1 11
-3.5266573 11.185122 -1.4400083 3 4
-1.2549351 3.9849927 0.66171783 2 12
-1.25896 4.0026498 -0.3671 3 5
-1.2663543 4.028615 0.82086033 2 13
-1.1043884 3.5176489 -0.19322437 35 6
-1.2600311 4.0183029 0.97223842 4 14
-1.261452 4.0302234 1.1315569 2 15
-1.2348728 3.9818482 -1.117063 2 0
-1.2584596 4.0629158 0.07424254 1 8
-1.8342297 5.9254384 -1.4320384 3 1
-1.2394631 4.0090113 0.2199157 2 9
-1.0912896 3.5341189 -0.71896833 33 2
-1.2396345 4.0170178 0.36779723 2 10
-2.7590337 8.9516964 -1.4836246 2 3
-1.2363886 4.0164475 0.51599485 1 11
-3.4449825 11.198086 -1.4385459 2 4
-1.2236031 3.9823277 0.6598407 2 12
-1.2258372 3.9920805 -0.36535689 3 5
-1.2428036 4.0523739 0.82391334 2 13
-1.0768789 3.5157251 -0.19270101 30 6
-1.2611706 4.1199565 0.99473363 4 14
-1.2143279 3.9718847 -0.072497301 2 7
-1.2236942 4.0075226 1.1227571 1 15
-1.2025695 3.9755793 -1.112922 2 0
-1.2192022 4.0331049 0.073544443 1 8
-1.7900015 5.928772 -1.4297889 3 1
-1.2156075 4.0288277 0.22054374 3 9
-1.0649426 3.5339463 -0.71744186 34 2
-1.2069668 4.0103116 0.36640272 2 10
-2.6331751 8.7546196 -1.4479576 2 3
-1.2090206 4.0247703 0.51599485 1 11
-3.3832636 11.277002 -1.4456142 2 4
-1.1953331 3.9867797 0.65921491 2 12
-1.1796482 3.9394643 -0.35977891 3 5
-1.2122324 4.0534277 0.82238686 2 13
-1.0523511 3.5210598 -0.19259633 36 6
-1.2323772 4.1286607 0.99473363 4 14
-1.1930778 4.0046501 1.1196512 1 15
-1.1711069 3.9688506 -1.1087809 2 0
-1.186494 4.0261731 0.07326521 1 8
-1.7540083 5.9557738 -1.4333881 2 1
-1.1829427 4.0218878 0.21970637 2 9
-1.03914 3.5375271 -0.71667862 35 2
-1.1773965 4.0107875 0.36570549 2 10
-2.6286821 8.9661369 -1.4798702 3 3
-1.171968 4.0026312 0.51209503 1 11
-3.2924876 11.25214 -1.4395207 3 4
-1.1719037 4.0101957 0.66171783 2 12
-1.1632807 3.9858553 -0.36326513 3 5
-1.1901104 4.0804324 0.82620305 2 13
-1.0221584 3.5091453 -0.19154961 40 6
-1.2035238 4.1371636 0.99473363 4 14
-1.1618592 4.0017505 1.1165454 1 15
-1.146575 3.9880681 -1.1118866 2 0
-1.1451143 3.988229 0.072427489 2 8
-1.1308435 3.941119 -0.94659406 3 1
-1.1559381 4.0338874 0.2199157 1 9
-1.0090147 3.5258207 -0.71286243 37 2
-1.1329322 3.9614418 0.36047614 2 10
-2.5605941 8.9652777 -1.4767416 2 3
-1.1527077 4.0412588 0.51599485 1 11
-3.1539946 11.064857 -1.4127096 2 4
-1.1406338 4.0068808 0.6598407 2 12
-1.1027361 3.8788927 -0.35280645 3 5
-1.1379871 4.0055466 0.80941176 2 13
-0.99545437 3.5085101 -0.19113094 43 6
-1.1746116 4.1454649 0.99473363 4 14
-1.1333678 4.0079055 1.1160278 2 15
-1.1046432 3.9457471 -1.0979104 2 0
-1.1237044 4.0192361 0.072846346 2 8
-1.6712081 5.9815588 -1.433838 3 1
-1.1105716 3.980298 0.21656621 2 9
-0.98332298 3.5289962 -0.71209919 35 2
-1.1073883 3.9769313 0.36117339 2 10
-2.4894786 8.9524841 -1.4717356 3 3
-1.1127808 4.0071278 0.51063257 1 11
-3.0888846 11.130599 -1.4183155 2 4
-1.090475 3.9347939 0.64670014 2 12
-1.0777551 3.8941774 -0.3535037 3 5
-1.1183687 4.0436692 0.81551766 2 13
-0.97093606 3.5153744 -0.19113094 41 6
-1.11248 4.0333343 0.96593982 4 14
-1.1036509 4.0040498 -0.072497301 2 7
-1.1022835 4.0045443 1.112922 2 15
-1.087734 3.9925056 -1.1087809 2 0
-1.0914177 4.0115466 0.072567105 2 8
-1.0705936 3.9377193 -0.94209504 2 1
-1.0796169 3.9763899 0.21593818 3 9
-0.9535228 3.5168273 -0.70828301 37 2
-1.0816813 3.9922578 0.36187065 2 10
-1.0751888 3.9737978 -0.6520189 3 3
-1.0878874 4.0262966 0.51209503 1 11
-3.0240343 11.199805 -1.424409 3 4
-1.0722369 3.9766407 0.65233177 2 12
-1.0536523 3.9131494 -0.35454956 3 5
-1.0819515 4.0210443 0.80941176 2 13
-0.94118941 3.5027781 -0.19008422 41 6
-1.086315 4.0485311 0.9677394 4 14
-1.0728005 4.0065441 1.111369 1 15
-1.0524126 3.9719901 -1.1010163 3 0
-1.0613393 4.0113358 0.072427489 1 8
-1.0380957 3.9262576 -0.93759602 2 1
-1.0599877 4.0147271 0.21761292 2 9
-0.92894924 3.5233982 -0.70828301 36 2
-1.0446467 3.9650323 0.35873303 2 10
-2.3491607 8.929059 -1.4623495 3 3
-1.0516815 4.0030742 0.50819516 1 11
-2.9296465 11.159202 -1.4166094 3 4
-1.0384374 3.9611003 0.64857739 4 12
-1.0111686 3.8625872 -0.34932023 3 5
-1.0478908 4.0057082 0.8048324 2 13
-0.91570127 3.5053992 -0.18987487 41 6
-1.0629452 4.074872 0.97223842 4 14
-1.037506 3.9858923 1.1036046 2 15
-1.0208035 3.9642746 -1.0968752 3 0
-1.0223535 3.9760406 0.071659587 1 8
-1.5465423 6.0190215 -1.4347378 3 1
-1.0249848 3.994945 0.21614751 1 9
-0.89994341 3.512681 -0.70484847 39 2
-1.0119988 3.9529274 0.35698992 2 10
-2.2897022 8.9567251 -1.4642268 3 3
-1.0266551 4.0218592 0.50965762 1 11
-2.847744 11.163995 -1.4146595 2 4
-1.0049075 3.9452822 0.64482296 1 12
-0.95667785 3.7614207 -0.33955875 3 5
-1.0111952 3.9786761 0.79796326 2 13
-0.8872779 3.4962189 -0.1890375 41 6
-1.0239381 4.0406356 0.96234065 4 14
-1.0195556 4.0262847 -0.072497301 2 7
-1.0115461 4.0005302 1.105675 2 15
-0.98982191 3.9581847 -1.0932516 2 0
-0.98778832 3.955919 0.071170911 2 8
-0.98411846 3.9441502 -0.93849587 2 1
-0.98548359 3.9554908 0.2136354 2 9
-0.87445039 3.5150678 -0.70408523 39 2
-0.98629999 3.9676301 0.35768715 2 10
-0.97650498 3.9340923 -0.64200711 2 3
-0.99091148 3.9981003 0.50575781 1 11
-2.8117297 11.353168 -1.4361085 2 4
-0.98777217 3.9943891 0.6517061 2 12
-0.90524298 3.663398 -0.33014596 3 5
-0.97869128 3.966578 0.79414707 2 13
-0.86093533 3.4945714 -0.18861879 43 6
-1.0001391 4.0626493 0.96593982 4 14
-0.97760814 3.9831042 1.0989457 1 15
-0.96125531 3.9612439 -1.0922165 2 0
-0.96837789 3.993645 0.071729392 2 8
-1.4637309 6.0457096 -1.4360875 3 1
-0.96041322 3.9698727 0.21405408 2 9
-0.84497374 3.4980376 -0.69950581 39 2
-0.9641825 3.9976618 0.35977891 2 10
-2.1474829 8.9106264 -1.451712 3 3
-0.95810127 3.9815927 0.50283301 1 11
-2.7027211 11.24899 -1.4205091 3 4
-0.96332717 4.0125446 0.65358323 4 12
-0.84806383 3.5378783 -0.31829277 6 5
-0.96468294 4.0305939 0.80559564 2 13
-0.83341378 3.4848104 -0.18778142 43 6
-0.95545626 4.0012965 0.94974333 4 14
-0.95226222 3.9971833 1.1010163 1 15
-0.93116826 3.9545326 -1.088593 3 0
-0.93315291 3.969162 0.071170911 2 8
-1.4296728 6.0858874 -1.4432859 3 1
-0.92994022 3.9648132 0.21342604 1 9
-0.81963527 3.5000288 -0.69874257 39 2
-0.92333227 3.9459319 0.35454956 2 10
-2.0816233 8.9100151 -1.4492091 2 3
-0.92937917 3.9843178 0.5023455 1 11
-2.6269903 11.270994 -1.4209967 3 4
-0.92454553 3.972997 0.64607441 1 12
-0.8075642 3.4757881 -0.31219187 9 5
-0.92390794 3.9796948 0.79414707 2 13
-0.80996859 3.4944348 -0.18799078 49 6
-0.93980289 4.061029 0.96234065 4 14
-0.91651309 3.969852 1.0916989 1 15
-0.9001025 3.9458687 -1.0844518 3 0
-0.90009159 3.9521828 0.070752062 2 8
-0.88902342 3.9067328 -0.9249987 3 1
-0.89958304 3.9595232 0.21279801 2 9
-0.79344332 3.4980073 -0.69721615 39 2
-0.89664268 3.9561677 0.35489815 1 10
-2.0150092 8.9050627 -1.4460803 2 3
-0.8971684 3.9713457 0.49990809 1 11
-2.5342529 11.227095 -1.413197 2 4
-0.88375968 3.9215429 0.63668835 3 12
-0.79071212 3.5143859 -0.31515515 13 5
-0.89610189 3.986048 0.79414707 2 13
-0.7816149 3.4824657 -0.18704872 24 6
-0.89949775 4.0142469 0.94974333 4 14
-0.87992603 3.9365613 1.0808283 1 15
-0.8671189 3.9275331 -1.0777225 2 0
-0.87333715 3.962276 0.070821866 1 8
-1.3420485 6.0938358 -1.4405866 3 1
-0.86934322 3.9540033 0.21216999 2 9
-0.76774228 3.4977081 -0.69607127 35 2
-0.86473155 3.9428701 0.35315505 2 10
-1.9494152 8.9034748 -1.4435774 3 3
-0.87366033 3.9969051 0.5023455 1 11
-2.4778366 11.345362 -1.4258715 2 4
-0.86393541 3.962358 0.64232004 1 12
-0.75810635 3.482831 -0.31184325 18 5
-0.86825413 3.9922063 0.79414707 2 13
-0.75346971 3.4702713 -0.18610668 32 6
-0.87145114 4.0204287 0.94974333 4 14
-0.85283041 3.9444966 1.0813459 1 15
-0.8437115 3.952384 -1.0828989 2 0
-0.84732294 3.976099 0.070961483 1 8
-1.2913563 6.0649362 -1.4315885 2 1
-0.84088933 3.9560688 0.21196064 2 9
-0.73759973 3.4760954 -0.6907286 36 2
-0.84172952 3.9702508 0.3550725 2 10
-1.8814837 8.8898115 -1.4391973 3 3
-0.84080923 3.9796011 0.49942058 1 11
-2.4018559 11.37792 -1.4278214 3 4
-0.83380592 3.9566953 0.64044279 1 12
-0.73254269 3.4821901 -0.3113203 15 5
-0.83228368 3.9597454 0.7865147 2 13
-0.72389251 3.4500363 -0.18474595 29 6
-0.82978064 3.9615643 0.93444669 4 14
-0.82764417 3.9617004 1.0844518 1 15
-0.81219703 3.9392571 -1.0777225 2 0
-0.81309414 3.9505799 0.07040301 1 8
-1.2407378 6.0337195 -1.4221406 3 1
-0.81325024 3.9618428 0.21196064 2 9
-0.7121318 3.4753904 -0.68958372 41 2
-0.80480248 3.9311368 0.35106334 2 10
-1.8217483 8.9143419 -1.4410745 2 3
-0.81141883 3.9775941 0.49844566 1 11
-2.325536 11.409972 -1.4297712 3 4
-0.79671085 3.9159627 0.63293391 1 12
-0.70306128 3.4618361 -0.30905426 16 5
-0.80696148 3.9770036 0.78880447 3 13
-0.69661885 3.4393454 -0.18390857 30 6
-0.8152318 4.0322042 0.94974333 4 14
-0.79958242 3.9654889 1.0839342 2 15
-0.7861836 3.9524105 -1.0797932 2 0
-0.79250383 3.9914651 0.071031295 2 8
-1.1902453 6.0001812 -1.4122428 3 1
-0.7878992 3.9791789 0.21258868 2 9
-0.68594664 3.4706476 -0.68767565 36 2
-0.77965409 3.9483869 0.35210916 1 10
-1.7571739 8.9152155 -1.4391973 3 3
-0.77903372 3.9597881 0.49552077 1 11
-2.2412231 11.402556 -1.4268464 2 4
-0.76859409 3.9175522 0.63230819 7 12
-0.67772728 3.4607942 -0.30853131 19 5
-0.77540946 3.9632728 0.78498828 6 13
-0.67335635 3.4480455 -0.18411791 30 6
-0.76916564 3.9459858 0.92814809 4 14
-0.77077264 3.9652848 1.0823812 1 15
-0.75093472 3.917959 -1.0689226 3 0
-0.7541002 3.9419062 0.070053965 2 8
-1.1567411 6.0523686 -1.4225905 4 1
-0.75635952 3.9649637 0.21154197 1 9
-0.66096753 3.4714942 -0.68691242 35 2
-0.74909353 3.9380748 0.35071471 2 10
-1.6904739 8.9039764 -1.4354428 2 3
-0.74767423 3.945626 0.49308339 1 11
-2.1608307 11.414023 -1.4263589 2 4
-0.73865843 3.9092357 0.63011813 10 12
-0.65170199 3.455652 -0.30765978 24 5
-0.74408674 3.9492967 0.7811721 8 13
-0.6518501 3.4664023 -0.1848506 32 6
-0.74160057 3.9512591 0.92814809 4 14
-0.73951924 3.9515803 1.0772049 1 15
-0.72146344 3.9117067 -1.0658169 2 0
-0.72945631 3.9628081 0.070333198 2 8
-0.71407348 3.8830359 -0.91150165 3 1
-0.72433192 3.9465742 0.21028589 2 9
-0.63388592 3.4605751 -0.68385947 37 2
-0.71655959 3.9157715 0.34827435 2 10
-0.71689349 3.925334 -0.63199526 2 3
-0.72224623 3.9624677 0.49454582 1 11
-2.0810931 11.42883 -1.4263589 3 4
-0.71205515 3.9181838 0.6307438 3 12
-0.62507385 3.4463947 -0.30643961 25 5
-0.72139764 3.9814403 0.7865147 2 13
-0.6247927 3.4551456 -0.18401325 32 6
-0.71676624 3.9716821 0.93174726 4 14
-0.7112298 3.9528441 1.0761696 1 15
-0.69278848 3.9090395 -1.0637463 2 0
-0.69689709 3.9402366 0.069844536 2 8
-1.0663621 6.0353055 -1.4149421 3 1
-0.69814926 3.9594026 0.21070457 2 9
-0.60971111 3.464916 -0.68385947 37 2
-0.69541389 3.9560001 0.35141194 2 10
-1.5694023 8.9461679 -1.4385715 3 3
-0.68908828 3.9361274 0.490646 4 11
-2.0050159 11.464591 -1.4290401 2 4
-0.69181585 3.9639251 0.63731414 1 12
-0.60228491 3.454495 -0.30678821 27 5
-0.68550766 3.9399588 0.77735591 2 13
-0.5992893 3.4515519 -0.18359455 32 6
-0.69171345 3.9879894 0.93444669 4 14
-0.69677585 4.0255203 -0.071310528 2 7
-0.68164355 3.9462914 1.0730639 1 15
-0.66321272 3.9004495 -1.0601228 2 0
-0.67542034 3.9764321 0.07040301 2 8
-1.0193141 6.0137835 -1.4081936 4 1
-0.66318196 3.916801 0.20819245 2 9
-0.58349544 3.4534996 -0.68080652 36 2
-0.66115409 3.9214652 0.34792572 2 10
-1.5183134 9.0150814 -1.4479576 3 3
-0.65701586 3.9094048 0.48674619 9 11
-1.9216514 11.458731 -1.4266026 2 4
-0.65567982 3.9139915 0.62855375 1 12
-0.57618397 3.4468246 -0.30574232 27 5
-0.66056895 3.9601405 0.7804088 2 13
-0.57512486 3.451611 -0.18338521 33 6
-0.65362722 3.931206 0.92004979 4 14
-0.66865551 4.0302868 -0.071310528 2 7
-0.65192342 3.9336867 1.068405 1 15
-0.63385183 3.887713 -1.055464 2 0
-0.64571655 3.9692075 0.070193581 1 8
-0.98398507 6.0552058 -1.4162918 3 1
-0.63837683 3.9371076 0.20902982 2 9
-0.55999839 3.4613655 -0.68156981 34 2
-0.63349259 3.9199741 0.34740278 2 10
-0.628299 3.896472 -0.62511224 1 3
-0.63317758 3.9354548 0.48942733 6 11
-0.62933898 3.915966 -0.48698995 2 4
-0.62396222 3.8911669 0.62417358 3 12
-0.55116057 3.4448612 -0.30521941 30 5
-0.63359964 3.9645448 0.7804088 2 13
-0.55038506 3.4515972 -0.18317586 35 6
-0.62769729 3.9452963 0.92229939 7 14
-0.62990791 3.9636483 -0.070053965 2 7
-0.62777311 3.95913 1.0740991 1 15
-0.61175328 3.9244928 -1.0642639 2 0
-0.61430091 3.9499078 0.069774717 1 8
-0.94378167 6.0754066 -1.4194412 3 1
-0.6151576 3.9691002 0.21049525 2 9
-0.53462142 3.4574294 -0.68004328 35 2
-0.60580647 3.922332 0.34722847 2 10
-0.60168469 3.9046674 -0.62573791 2 3
-0.603576 3.9260449 0.48772117 1 11
-1.7622731 11.476289 -1.4256277 2 4
-0.59917277 3.9110491 0.6266765 1 12
-0.52589339 3.440747 -0.30452216 28 5
-0.59701598 3.9106488 0.7689603 2 13
-0.52567345 3.4514065 -0.18296652 36 6
-0.59487098 3.9149027 0.91420108 7 14
-0.61182296 4.0312152 -0.071170911 2 7
-0.59954143 3.9595962 1.0730639 1 15
-0.58035946 3.9019167 -1.057017 2 0
-0.58495134 3.9422317 0.069565296 1 8
-0.9039126 6.0991969 -1.4234902 2 1
-0.58100855 3.9298306 0.20819245 2 9
-0.50875223 3.449424 -0.67775363 37 2
-0.5787009 3.9284368 0.34740278 2 10
-1.3481411 9.1738911 -1.4686069 3 3
-0.57499874 3.9223073 0.48674619 3 11
-1.6780843 11.460814 -1.4222155 2 4
-0.57042646 3.905364 0.62511224 4 12
-0.50042492 3.4344766 -0.30365062 31 5
-0.57648546 3.9613483 0.77811909 2 13
-0.49984536 3.4431329 -0.18233849 36 6
-0.56836319 3.924746 0.91555077 4 14
-0.57736933 3.9918478 -0.07040301 2 7
-0.56664014 3.9273567 1.0632287 1 15
-0.55337751 3.9077857 -1.0575346 3 0
-0.55853385 3.9541395 0.069704913 1 8
-0.54607904 3.8708434 -0.90250361 3 1
-0.55689877 3.9575248 0.20944853 3 9
-0.48356676 3.4451149 -0.67622709 37 2
-0.55347389 3.9481659 0.34879729 4 10
-1.2867936 9.2026424 -1.4717356 2 3
-0.54870063 3.9340897 0.48772117 1 11
-1.594466 11.446691 -1.4190468 3 4
-0.5420624 3.9014244 0.62386072 4 12
-0.47643554 3.4378867 -0.30365062 33 5
-0.54343468 3.9263816 0.77048677 8 13
-0.47524932 3.4425817 -0.18212914 36 6
-0.53828943 3.9093132 0.91105175 4 14
-0.53913462 3.920501 -0.069076627 2 7
-0.53868318 3.9273887 1.0621934 1 15
-0.52402252 3.8962371 -1.0533936 3 0
-0.52985173 3.9500148 0.069565296 2 8
-0.81401128 6.0764561 -1.415392 5 1
-0.52502447 3.9296412 0.20777377 3 9
-0.45976284 3.4503531 -0.67660874 38 2
-0.52064067 3.9124336 0.34531105 5 10
-0.51821959 3.9046631 -0.62386072 1 3
-0.522264 3.9456959 0.48869613 1 11
-1.5103574 11.426054 -1.4151469 3 4
-0.51223028 3.8855293 0.62073201 9 12
-0.45138407 3.4332271 -0.30295336 34 5
-0.51396561 3.9145079 0.76743382 9 13
-0.45223957 3.453737 -0.18254784 32 6
-0.51401407 3.9361639 0.91645062 4 14
-0.52829903 4.0510755 -0.071310528 2 7
-0.51499087 3.9597893 1.069958 1 15
-0.49583235 3.8921351 -1.0513231 3 0
-0.49470392 3.8941047 0.068518147 2 8
-0.49148944 3.8742244 -0.90160388 2 1
-0.49557227 3.9173589 0.20693639 2 9
-0.43566367 3.4534786 -0.67660874 38 2
-0.493065 3.9139965 0.34513673 6 10
-0.49045482 3.9042656 -0.62323499 1 3
-0.49322471 3.9374278 0.48723367 3 11
-1.4307982 11.438291 -1.4153906 2 4
-0.48289123 3.8713691 0.61791623 11 12
-0.42543733 3.4204779 -0.30155888 34 5
-0.48468876 3.9024141 0.76438087 3 13
-0.42762759 3.4528458 -0.18233849 33 6
-0.48843265 3.9551287 0.92004979 4 14
-0.4802607 3.905766 1.0544289 1 15
-0.4695729 3.9031737 -1.0533936 3 0
-0.46988559 3.9173181 0.068867192 2 8
-0.724922 6.0524011 -1.4072938 2 1
-0.47200114 3.9524541 0.20861115 2 9
-0.41154319 3.4564359 -0.67660874 38 2
-0.46243513 3.8896449 0.34269637 8 10
-1.0900682 9.196187 -1.4667298 3 3
-0.46246442 3.9131758 0.48382133 3 11
-0.46015117 3.8994567 -0.48211515 2 4
-0.45977598 3.9079971 0.62323499 4 12
