# .PCD v0.7 - Point Cloud Data file format
VERSION 0.7
FIELDS x y z intensity ring
SIZE 4 4 4 4 2
TYPE F F F F U
COUNT 1 1 1 1 1
WIDTH 1273
HEIGHT 1
VIEWPOINT 0 0 0 1 0 0 0
POINTS 1273
DATA ascii
0.9508031 -9.6623096 -1.5377511 20 3
0.92912525 -9.4930086 -1.1711645 16 4
0.97446048 -10.010264 -0.87992436 31 5
1.0301634 -10.659641 -0.56125087 20 6
1.0952796 -11.395743 -0.19983006 14 7
0.73223299 -7.8633909 -2.1161046 10 0
0.89330733 -9.6478691 -2.2369132 17 1
0.91988903 -9.9919386 -1.9504496 22 2
0.89545637 -9.7826509 -1.5558974 13 3
0.85456985 -9.4083242 -1.1599525 23 4
0.93196797 -10.320424 -0.90659404 19 5
0.9293648 -10.352103 -0.54471272 21 6
1.0110828 -11.351324 -0.19892253 14 7
0.67836034 -7.8643432 -2.1150692 10 0
0.82328874 -9.6032429 -2.2252157 20 1
0.8447873 -9.9355202 -1.938238 24 2
0.82115114 -9.717804 -1.5446341 19 3
0.79582494 -9.4772234 -1.1677521 25 4
0.87014705 -10.449781 -0.91740137 13 5
0.88259983 -10.66686 -0.56093681 30 6
0.91249365 -11.098857 -0.1943849 27 7
0.62542385 -7.8939228 -2.1217985 9 0
0.75439066 -9.5854435 -2.2198169 19 1
0.77861094 -9.9822779 -1.9462519 12 2
0.81432134 -10.511089 -1.6697817 12 3
0.73146957 -9.506299 -1.1706771 24 4
0.79520357 -10.429775 -0.91513532 32 5
0.79499042 -10.499496 -0.55183041 21 6
0.83018893 -11.041147 -0.19326794 19 7
0.56877011 -7.8769021 -2.1161046 10 0
0.69330513 -9.6721153 -2.238713 15 1
0.73378485 -10.338012 -2.0145614 19 2
0.73314589 -10.406171 -1.652261 17 3
0.72878397 -10.422091 -1.2827969 16 4
0.78116274 -11.255828 -0.98712587 14 5
0.75164908 -10.941161 -0.57475352 19 6
0.75145477 -11.022733 -0.19284908 19 7
0.51401651 -7.8845363 -2.1171398 10 0
0.62576652 -9.6767197 -2.238713 14 1
0.65435106 -10.201701 -1.987085 15 2
0.65903544 -10.359664 -1.6441264 16 3
0.63980252 -10.169374 -1.2511108 14 4
0.64053226 -10.266745 -0.89997017 12 5
0.66408658 -10.734718 -0.5636583 30 6
0.67399502 -11.019727 -0.19270948 26 7
0.4615742 -7.9090667 -2.122834 9 0
0.5571841 -9.6340628 -2.2279153 18 1
0.58457077 -10.231503 -1.992046 10 2
0.591052 -10.440928 -1.6563283 7 3
0.58308709 -10.429269 -1.2825531 21 4
0.60894549 -10.995087 -0.96341962 13 5
0.59087837 -10.771001 -0.56533301 20 6
0.40516388 -7.9160256 -2.1238692 9 0
0.48882163 -9.6494799 -2.2306147 14 1
0.51086622 -10.190234 -1.9832687 10 2
0.50091362 -10.133162 -1.606895 24 3
0.50114876 -10.246709 -1.2596416 29 4
0.48691744 -10.063742 -0.88149315 12 5
0.5135988 -10.770964 -0.56512368 20 6
0.35040238 -7.9302411 -2.1269751 9 0
0.4204236 -9.6292953 -2.2252157 15 1
0.43540558 -10.134788 -1.9718202 4 2
0.4352676 -10.256802 -1.6259799 13 3
0.4222028 -10.073441 -1.2379489 16 4
0.42043859 -10.158467 -0.88951147 25 5
0.43303165 -10.642576 -0.55821538 31 6
0.29416963 -7.9093275 -2.1207633 9 0
0.35361785 -9.6436806 -2.2279153 14 1
0.36768773 -10.172832 -1.9786894 10 2
0.36066109 -10.125286 -1.604705 18 3
0.35352933 -10.123756 -1.2437986 19 4
0.34622133 -10.065577 -0.88114458 18 5
0.36605769 -10.806962 -0.56669378 20 6
0.24032657 -7.9111466 -2.1207633 9 0
0.2866877 -9.6030111 -2.2180173 14 1
0.30392525 -10.424377 -2.0271549 10 2
0.29120824 -10.170998 -1.611588 18 3
0.28907382 -10.284672 -1.2632977 16 4
0.27512312 -10.037874 -0.87852991 30 5
0.30128351 -11.206567 -0.58752352 19 6
0.18481942 -7.9010439 -2.1176574 9 0
0.21901764 -9.5775032 -2.2117188 15 1
0.22674838 -10.228006 -1.9886116 10 2
0.21934047 -10.133285 -1.6053306 19 3
0.22380561 -10.596045 -1.3013209 15 4
0.20674987 -10.123212 -0.88585097 31 5
0.13009892 -7.929184 -2.1249044 9 0
0.15419139 -9.7073994 -2.2414124 15 1
0.15599371 -10.272526 -1.997007 18 2
0.14807019 -10.099017 -1.599699 19 3
0.14752594 -10.434587 -1.2813344 14 4
0.13965444 -10.257863 -0.89752978 19 5
0.074776039 -7.933763 -2.1259398 9 0
0.087388575 -9.8173637 -2.2666068 16 1
0.086446598 -10.318502 -2.0057843 12 2
0.07985349 -10.166951 -1.6103365 16 3
0.074136637 -10.359932 -1.2720723 18 4
0.068673141 -10.35422 -0.90589672 25 5
0.019972624 -7.6288567 -2.044153 7 0
0.020701684 -9.8839884 -2.2819035 15 1
0.014399537 -10.312966 -2.0046394 21 2
0.0088935308 -10.190966 -1.614091 16 3
0.0035920057 -10.288733 -1.2632977 16 4
-0.0018493996 -10.601504 -0.92751139 13 5
-0.034636006 -7.9379029 -2.1269751 9 0
-0.048378259 -9.8994827 -2.2855027 15 1
-0.052823652 -9.7631207 -1.8977863 10 2
-0.060027868 -10.115726 -1.6022019 18 3
-0.067907847 -10.238882 -1.2572043 20 4
-0.077886313 -10.884145 -0.95226365 13 5
-0.088579647 -7.9297562 -2.1249044 9 0
-0.1152584 -9.8560534 -2.2756047 16 1
-0.13297537 -10.730325 -2.0859239 6 2
-0.12993315 -10.059755 -1.5934417 18 3
-0.14002663 -10.418808 -1.2793844 15 4
-0.15105222 -10.684118 -0.93483251 13 5
-0.14428826 -7.9482598 -2.1300809 9 0
-0.18369994 -9.8355265 -2.271106 16 1
-0.19259499 -9.9400549 -1.9325136 3 2
-0.2210685 -11.109296 -1.7598881 19 3
-0.47622785 -23.317989 -2.8636861 10 4
-0.19923909 -7.9258156 -2.1243868 10 0
-0.25206038 -9.8223152 -2.2684064 15 1
-0.30543941 -11.587029 -2.2530727 10 2
-0.30498981 -11.344441 -1.7974323 18 3
-0.6444425 -23.512531 -2.8880601 14 4
-0.25500011 -7.9377475 -2.1280103 9 0
-0.32100615 -9.8320026 -2.271106 15 1
-0.38678268 -11.598349 -2.255744 13 2
-0.39300728 -11.602636 -1.8387309 10 3
-0.81082708 -23.572927 -2.8961034 10 4
-0.31048533 -7.9377036 -2.1285279 10 0
-0.38778618 -9.7827883 -2.2603083 23 1
-0.45919889 -11.383508 -2.2145293 10 2
-0.46407896 -11.35684 -1.800248 12 3
-0.97939694 -23.663877 -2.9080465 15 4
-0.36624935 -7.9430628 -2.1305985 10 0
-0.45861524 -9.8343477 -2.2729053 15 1
-0.46486306 -9.8209829 -1.9111431 3 2
-0.80766445 -16.876081 -2.6759684 10 3
-1.1400692 -23.563272 -2.8965909 10 4
-0.42107871 -7.9287367 -2.1274927 10 0
-0.52371228 -9.7647438 -2.2576087 16 1
-0.59913337 -11.027042 -2.1466014 10 2
-0.66501552 -12.122439 -1.9228927 7 3
-1.3162869 -23.766821 -2.9226708 13 4
-0.4766514 -7.9294605 -2.1285279 10 0
-0.58903837 -9.7141666 -2.2468112 16 1
-0.66950405 -10.946284 -2.1317184 10 2
-1.0459861 -16.956009 -2.6906731 5 3
-1.4869993 -23.83432 -2.9321766 11 4
-0.53048557 -7.9241047 -2.1280103 9 0
-0.65960741 -9.7760391 -2.2621078 16 1
-0.73762697 -10.819903 -2.108058 12 2
-1.1616261 -16.90888 -2.6844158 5 3
-1.6504312 -23.841471 -2.9343703 13 4
-0.58579236 -7.9202085 -2.1280103 9 0
-0.72494352 -9.7323294 -2.2531099 17 1
-0.81550008 -10.845814 -2.1141639 12 2
-0.9033556 -11.930707 -1.8950473 8 3
-1.8124595 -23.771965 -2.9273019 11 4
-0.64107156 -7.915926 -2.1280103 9 0
-0.78748745 -9.6609926 -2.2378132 15 1
-0.89586335 -10.8966 -2.1252308 16 2
-1.0071498 -12.172159 -1.9344687 4 3
-1.9770542 -23.742907 -2.9253521 9 4
-0.69496447 -7.8958626 -2.1238692 9 0
-0.84838337 -9.5814962 -2.220717 15 1
-0.95677447 -10.74163 -2.0962276 10 2
-1.0982639 -12.257495 -1.9491737 2 3
-2.1306226 -23.594088 -2.908778 9 4
-0.74759811 -7.8794098 -2.1207633 9 0
-0.91506255 -9.5910187 -2.2243161 14 1
-1.0518396 -10.943792 -2.1370609 10 2
-1.1587282 -11.989987 -1.9078751 3 3
-2.3147848 -23.82206 -2.9387574 13 4
-0.80258858 -7.8739986 -2.1207633 9 0
-0.98358715 -9.599905 -2.2279153 15 1
-1.1341501 -11.012545 -2.1519439 18 2
-1.7370081 -16.780052 -2.6719007 5 3
-2.4787741 -23.7836 -2.9360764 9 4
-0.85658365 -7.8721938 -2.1217985 9 0
-1.0599222 -9.6937218 -2.2513101 15 1
-1.1964011 -10.871657 -2.125994 15 2
-1.8593231 -16.814638 -2.6794097 3 3
-2.6204367 -23.584663 -2.9136524 9 4
-0.91241062 -7.8736982 -2.1238692 9 0
-1.1230646 -9.6473722 -2.2423122 15 1
-1.2706012 -10.865211 -2.1263754 10 2
-1.9709663 -16.778051 -2.6756554 8 3
-2.7924802 -23.628881 -2.9214523 9 4
-0.96574777 -7.8653879 -2.1233516 10 0
-1.1901373 -9.6511087 -2.2450116 15 1
-1.3471488 -10.861922 -2.1275203 9 2
-1.5135442 -12.151463 -1.9394747 4 3
-2.9233234 -23.33699 -2.8878162 8 4
-1.0162752 -7.8142142 -2.1114457 9 0
-1.2455412 -9.5380001 -2.220717 17 1
-1.4331559 -10.930117 -2.1427851 9 2
-1.5844505 -12.018897 -1.9200768 4 3
-3.018708 -22.806322 -2.824688 2 4
-1.0755291 -7.8413796 -2.1207633 9 0
-1.3195405 -9.583127 -2.233314 15 1
-1.4951824 -10.802897 -2.1198881 7 2
-1.6522809 -11.892105 -1.9016175 10 3
-3.19156 -22.882994 -2.836875 6 4
-1.1324531 -7.8489766 -2.1249044 9 0
-1.3886455 -9.5891094 -2.2369132 15 1
-1.4339792 -9.865736 -1.9378562 3 2
-1.7023913 -11.669477 -1.8678278 6 3
-3.4442379 -23.49456 -2.9156024 9 4
-1.1867191 -7.8468175 -2.1264575 10 0
-1.4559301 -9.5929222 -2.2400625 13 1
-1.8686765 -12.211861 -1.9566824 9 3
-3.5019393 -22.80542 -2.8329749 6 4
-1.2354269 -7.80018 -2.1161046 11 0
-1.5234778 -9.5863733 -2.2409625 15 1
-1.8887151 -11.804843 -1.893483 4 3
-3.7344573 -23.237083 -2.8897662 8 4
-1.289122 -7.7954011 -2.1171398 11 0
-1.556481 -9.3816128 -2.1955223 17 1
-1.8140986 -10.887314 -2.1454566 12 2
-1.9430729 -11.623812 -1.8665762 7 3
-3.8482149 -22.946829 -2.8568614 6 4
-1.3395709 -7.7633667 -2.1109281 10 0
-1.6638156 -9.6124611 -2.2522099 18 1
-2.0004549 -11.485767 -1.8465527 3 3
-3.98404 -22.780569 -2.839556 8 4
-1.3910017 -7.7386155 -2.1067872 11 0
-1.7042593 -9.45294 -2.2175674 12 1
-1.7875915 -9.8756752 -1.9508314 3 2
-3.0275617 -16.676134 -2.6844158 7 3
-4.1451149 -22.763918 -2.8410182 10 4
-1.4510292 -7.7609982 -2.115587 9 0
-1.7957096 -9.5768023 -2.2495105 17 1
-2.0492485 -10.897456 -2.1553786 12 2
-2.2239599 -11.792537 -1.900679 5 3
-4.297287 -22.699318 -2.8366311 8 4
-1.506766 -7.7661133 -2.1197281 9 0
-1.8500612 -9.5088835 -2.2364633 14 1
-2.1226418 -10.869396 -2.1527071 9 2
-3.2549188 -16.621174 -2.6825385 7 3
-4.4406042 -22.613052 -2.8295627 12 4
-1.5571349 -7.7364659 -2.1145515 9 0
-1.939146 -9.6084394 -2.2630076 17 1
-2.3126626 -11.418098 -2.2645214 10 2
-3.3751998 -16.619339 -2.6859801 6 3
-4.6193533 -22.684597 -2.8424809 10 4
-1.6087403 -7.7140594 -2.1114457 9 0
-2.0021901 -9.5755939 -2.2585087 22 1
-2.3814342 -11.349796 -2.2542176 10 2
-3.493176 -16.605038 -2.6875443 7 3
-4.7550764 -22.544964 -2.8290751 14 4
-1.6605176 -7.6931992 -2.1088579 10 0
-2.0137622 -9.3061581 -2.1982217 9 1
-2.5039349 -11.532423 -2.2939057 9 2
-3.6144776 -16.605339 -2.6916118 10 3
-4.9369011 -22.623707 -2.8432121 12 4
-1.7074525 -7.6512513 -2.1005754 11 0
-2.1369672 -9.5524092 -2.2598584 16 1
-2.6200678 -11.673657 -2.3255801 10 2
-3.729883 -16.577772 -2.6912987 8 3
-5.0838051 -22.540277 -2.8371184 10 4
-1.7599591 -7.6353803 -2.0995402 10 0
-2.1917574 -9.4859934 -2.2477109 21 1
-2.7038984 -11.674678 -2.3293962 12 2
-3.839956 -16.540455 -2.6894217 8 3
-5.222579 -22.424971 -2.8271253 12 4
-1.8123366 -7.625103 -2.1000578 9 0
-2.2508554 -9.4481068 -2.2423122 19 1
-2.7972 -11.705164 -2.3393183 10 2
-3.9424529 -16.459455 -2.6806614 8 3
-5.3611975 -22.330992 -2.819813 12 4
-1.8655257 -7.6122646 -2.1000578 9 0
-2.3009562 -9.3678179 -2.2270155 15 1
-2.8844833 -11.708226 -2.3438978 12 2
-4.0780969 -16.515915 -2.6944275 8 3
-5.5274525 -22.335415 -2.8251753 12 4
-1.9224061 -7.6140394 -2.1041989 9 0
-2.3098912 -9.1286011 -2.1739271 19 1
-2.9632542 -11.676386 -2.341608 10 2
-4.195735 -16.496613 -2.695992 10 3
-5.6989384 -22.357836 -2.8329749 12 4
-1.9711416 -7.5836062 -2.0995402 10 0
-2.3657041 -9.0820799 -2.1667287 11 1
-3.0545642 -11.701536 -2.3507669 10 2
-4.3094249 -16.473406 -2.6969306 8 3
-5.84582 -22.282944 -2.8285878 12 4
-2.0277028 -7.5886765 -2.1047165 10 0
-2.4133558 -9.0130587 -2.1541312 16 1
-3.1382184 -11.68751 -2.3522935 12 2
-4.4294581 -16.461992 -2.7000592 8 3
-5.9730678 -22.152555 -2.817132 10 4
-2.079608 -7.57061 -2.1036813 10 0
-2.4493258 -8.8982897 -2.1307364 16 1
-3.2239642 -11.688589 -2.3568728 12 2
-4.5140452 -16.332455 -2.68379 8 3
-6.1010685 -22.014666 -2.804945 10 4
-2.1227014 -7.5265307 -2.0953991 10 0
-2.5543537 -9.0389366 -2.1685281 16 1
-3.3044155 -11.66202 -2.3561096 10 2
-4.5939655 -16.180824 -2.6640792 10 3
-6.2545762 -21.985992 -2.8066511 12 4
-2.1859403 -7.5486412 -2.105752 10 0
-2.6195674 -9.0283699 -2.1703279 16 1
-3.3824611 -11.627356 -2.3538198 12 2
-4.6863651 -16.078192 -2.6525033 7 3
-6.3945589 -21.896061 -2.8008015 14 4
-2.240237 -7.5387516 -2.1073048 9 0
-2.6736341 -8.9799795 -2.1631293 21 1
-3.4613051 -11.595934 -2.3522935 10 2
-4.8007593 -16.05265 -2.6537545 7 3
-6.5586624 -21.888918 -2.8056762 12 4
-2.3006976 -7.5487986 -2.1145515 9 0
-2.7191877 -8.9051809 -2.1496322 21 1
-3.5456221 -11.58275 -2.354583 12 2
-4.8953352 -15.962089 -2.6443686 6 3
-6.7089815 -21.835007 -2.8047013 12 4
-2.351038 -7.5251775 -2.1124811 9 0
-2.7824554 -8.8896999 -2.150532 14 1
-3.6263986 -11.557714 -2.354583 10 2
-4.9432678 -15.725886 -2.6108916 9 3
-6.597702 -20.950743 -2.6969688 1 4
-2.3952701 -7.4828224 -2.1052344 9 0
-2.8498039 -8.8867588 -2.1545811 14 1
-3.7175963 -11.572016 -2.3625972 15 2
-5.0774293 -15.776492 -2.6249707 6 3
-7.0314755 -21.795883 -2.8120134 14 4
-2.4383297 -7.4424791 -2.098505 11 0
-2.9254205 -8.9134445 -2.1658287 14 1
-3.8050404 -11.566295 -2.3667948 10 2
-5.1837344 -15.729404 -2.6230936 7 3
-7.1647344 -21.702274 -2.8061638 12 4
-2.4982131 -7.4490862 -2.1052344 9 0
-2.9472377 -8.7727308 -2.136585 14 1
-3.8819366 -11.528284 -2.3645051 10 2
-5.3073101 -15.73401 -2.6299765 7 3
-7.3211546 -21.666773 -2.8081138 12 4
-2.5376153 -7.3949189 -2.0948815 9 0
-3.0274148 -8.8072281 -2.1500821 14 1
-3.964242 -11.506473 -2.3656502 10 2
-5.2282085 -15.149453 -2.5383058 5 3
-7.4748321 -21.622637 -2.8090887 12 4
-2.575104 -7.3369203 -2.0834932 9 0
-3.106277 -8.8355169 -2.1622295 23 1
-4.039907 -11.465554 -2.3629787 10 2
-5.3325281 -15.10886 -2.5376801 9 3
-7.6203113 -21.554953 -2.8071387 14 4
-2.627568 -7.3224006 -2.0845287 9 0
-3.1929328 -8.8833036 -2.1793258 14 1
-4.129168 -11.462931 -2.3683214 10 2
-5.4291601 -15.047109 -2.533613 2 3
-7.7625065 -21.478828 -2.8042138 12 4
-2.6639891 -7.2639761 -2.0731406 9 0
-3.2454636 -8.835187 -2.1730273 14 1
-4.2063808 -11.426455 -2.3667948 10 2
-5.543644 -15.034787 -2.5379932 10 3
-7.8751302 -21.323555 -2.7910519 12 4
-2.7132809 -7.2415833 -2.0721054 9 0
-3.3002188 -8.7940693 -2.1685281 14 1
-4.284668 -11.393135 -2.3660316 10 2
-4.4501209 -11.814304 -1.9995456 8 3
-8.0511332 -21.340492 -2.8005579 10 4
-2.7506516 -7.1881838 -2.0622702 11 0
-3.3894291 -8.8436012 -2.1865242 14 1
-4.3614149 -11.361875 -2.3656502 10 2
-4.4829392 -11.660205 -1.9785833 9 3
-4.5688334 -11.858891 -1.5604153 16 4
-2.8100557 -7.1962872 -2.0700347 9 0
-3.4310918 -8.773139 -2.1748266 15 1
-4.4578204 -11.375019 -2.374809 13 2
-4.5281467 -11.536683 -1.9629399 24 3
-4.6080513 -11.722212 -1.5465221 18 4
-2.8530746 -7.1585479 -2.0648584 9 0
-3.4626355 -8.6747675 -2.1563809 14 1
-4.5414972 -11.354557 -2.3770986 18 2
-4.3918834 -10.963841 -1.8706435 20 3
-4.3113408 -10.746469 -1.4217279 14 4
-4.838563 -12.036308 -1.1349421 18 5
-2.8971591 -7.1241393 -2.0607173 9 0
-3.509881 -8.6178951 -2.1482825 15 1
-4.6332674 -11.353477 -2.3835862 12 2
-4.6207738 -11.305939 -1.9344687 17 3
-4.4486718 -10.868593 -1.4419582 25 4
-5.3655047 -13.082455 -1.2370886 22 5
-2.9468234 -7.1037397 -2.0607173 9 0
-3.5505204 -8.5463924 -2.136585 14 1
-4.7199612 -11.338978 -2.3874023 12 2
-4.6783094 -11.222353 -1.9257084 18 3
-4.4808478 -10.732855 -1.4280651 16 4
-4.8354559 -11.559529 -1.0962449 16 5
-2.990324 -7.0687609 -2.0565763 9 0
-3.6123796 -8.5267801 -2.1379349 16 1
-4.7859659 -11.275028 -2.3809147 13 2
-4.7426314 -11.156694 -1.9200768 17 3
-4.6380882 -10.894917 -1.4539014 15 4
-4.6827407 -10.983846 -1.0446488 15 5
-5.4566183 -12.774327 -0.72799325 17 6
-3.0365391 -7.0406165 -2.0545056 9 0
-3.7019544 -8.5711241 -2.1554811 15 1
-4.847013 -11.206152 -2.3732824 18 2
-4.8341646 -11.160407 -1.9263341 19 3
-4.642911 -10.698381 -1.431965 18 4
-4.7561316 -10.943577 -1.0439515 15 5
-3.078176 -7.0056353 -2.0503645 9 0
-3.7547159 -8.5332422 -2.1523318 17 1
-4.9275041 -11.177429 -2.3744273 12 2
-4.8401608 -10.963747 -1.8981761 18 3
-4.803916 -10.866244 -1.4587761 19 4
-4.9031019 -11.074915 -1.0596396 15 5
-5.3649921 -12.095391 -0.69345152 17 6
-3.1301663 -6.9910278 -2.0524352 9 0
-3.8022373 -8.4801483 -2.1455832 14 1
-4.9946256 -11.12393 -2.3702295 19 2
-4.8984742 -10.894515 -1.8919187 15 3
-4.7549167 -10.555523 -1.4214841 21 4
-5.4504857 -12.065874 -0.69387019 8 6
-3.1776795 -6.9695597 -2.0524352 9 0
-3.8485405 -8.4292526 -2.1392844 15 1
-5.0786958 -11.103073 -2.3732824 19 2
-4.8427925 -10.572701 -1.8418596 18 3
-5.0227995 -10.950541 -1.4792502 15 4
-4.8923383 -10.651395 -1.0254744 14 5
-3.2295134 -6.9542141 -2.0545056 9 0
-3.9171536 -8.4233837 -2.1446834 14 1
-5.1757035 -11.114519 -2.3832045 15 2
-4.9271693 -10.566347 -1.8465527 34 3
-4.9100828 -10.510543 -1.424409 20 4
-4.9750218 -10.635027 -1.0272175 14 5
-5.7044411 -12.177679 -0.70475608 17 6
-5.5618963 -11.851833 -0.22852181 18 7
-3.2602627 -6.8971395 -2.044153 7 0
-3.9794018 -8.407094 -2.1473827 15 1
-4.8990326 -10.331298 -2.2225432 12 2
-5.2422972 -11.040255 -1.9357203 17 3
-5.0181661 -10.553966 -1.4348897 12 4
-5.032011 -10.56406 -1.0237314 14 5
-5.7669621 -12.090686 -0.70203459 17 6
-3.3066592 -6.870729 -2.0431178 9 0
-5.8308496 -12.104795 0.23452544 18 8
-4.0473037 -8.3984194 -2.1523318 16 1
-5.1630859 -10.694644 -2.3084073 10 2
-5.4482064 -11.270158 -1.9826506 5 3
-4.8841438 -10.089853 -1.3763925 16 4
-5.1838779 -10.69002 -1.0394194 14 5
-4.9753318 -10.246295 -0.59694397 9 6
-5.6845555 -11.691296 -0.22691619 18 7
-3.3545437 -6.8474779 -2.0431178 9 0
-5.8571076 -11.945292 0.23222172 17 8
-4.1109843 -8.3804569 -2.1550312 21 1
-5.1596947 -10.499759 -2.2740617 19 2
-5.2956371 -10.762155 -1.8997405 21 3
-4.9667482 -10.080439 -1.3798048 18 4
-5.2388916 -10.618751 -1.0359331 14 5
-5.0449734 -10.20773 -0.59673464 18 6
-5.6649227 -11.44701 -0.22293703 17 7
-3.407438 -6.8342648 -2.0462234 9 0
-4.1641684 -8.3410921 -2.1523318 15 1
-5.3434062 -10.689172 -2.3229089 16 2
-5.3183684 -10.625173 -1.8819069 19 3
-4.8501496 -9.6728706 -1.3286197 11 4
-5.3236251 -10.603285 -1.0380249 14 5
-5.1251035 -10.194567 -0.59799069 28 6
-5.6871362 -11.292879 -0.22070314 17 7
-3.4573736 -6.8178043 -2.0482941 9 0
-4.2120247 -8.2951775 -2.1478326 14 1
-5.3689456 -10.555362 -2.3019197 12 2
-5.2722864 -10.351913 -1.8399823 19 3
-4.9781027 -9.7616549 -1.3454378 25 4
-5.4555283 -10.679414 -1.0491807 15 5
-5.2798271 -10.322128 -0.60762054 18 6
-5.8094511 -11.342898 -0.22244836 17 7
-3.5031149 -6.7900677 -2.0472586 9 0
-6.223197 -12.052061 0.23675935 18 8
-4.2680449 -8.2621078 -2.1469328 15 1
-5.7614408 -11.143493 0.65744436 4 9
-5.3820534 -10.4008 -2.2763515 19 2
-5.3953185 -10.413074 -1.8575031 8 3
-5.1146922 -9.858819 -1.363718 14 4
-5.3388495 -10.273343 -1.0129241 29 5
-5.6762772 -10.908673 -0.64446503 8 6
-5.8349075 -11.199205 -0.22042391 17 7
-3.5432501 -6.7517624 -2.0431178 9 0
-5.9668584 -11.360371 0.22398418 16 8
-4.3401222 -8.2597122 -2.1541312 15 1
-5.2789621 -10.029413 -2.2030807 22 2
-5.6640539 -10.74738 -1.9241441 9 3
-5.6456852 -10.698941 -1.4853437 10 4
-5.190856 -9.8245459 -0.97213513 13 5
-5.4290361 -10.257997 -0.60824853 9 6
-5.8979659 -11.129927 -0.21986541 17 7
-3.5836699 -6.7172608 -2.0400119 7 0
-4.3944077 -8.2265406 -2.1532316 20 1
-5.9201846 -11.073565 0.65807235 8 9
-5.3823047 -10.059027 -2.2175822 19 2
-5.3434119 -9.9737768 -1.7921134 30 3
-5.3158226 -9.9098129 -1.3807799 19 4
-5.4329581 -10.11546 -1.0045571 14 5
-5.3123207 -9.8743076 -0.58762819 19 6
-5.5714936 -10.343062 -0.20506579 14 7
-3.5851061 -6.6111965 -2.0151651 4 0
-5.9225507 -10.912523 0.21672398 15 8
-4.4354248 -8.1690369 -2.146033 16 1
-5.6767049 -10.437808 -2.3095522 10 2
-5.6322322 -10.343129 -1.8653249 7 3
-5.5770016 -10.228949 -1.4305025 18 4
-5.293571 -9.6970091 -0.96655715 20 5
-5.4436102 -9.955328 -0.59464121 19 6
-5.5937524 -10.217197 -0.20332053 14 7
-3.598321 -6.5291152 -1.9975655 4 0
-5.7088823 -10.350159 0.20632236 28 8
-4.4739804 -8.1079445 -2.1379349 16 1
-5.7533193 -10.409234 -2.3118417 10 2
-5.2720914 -9.5267849 -1.7245337 4 3
-5.3309336 -9.6212206 -1.3505563 19 4
-5.4966998 -9.9081526 -0.9913094 14 5
-5.6470623 -10.162461 -0.60929525 9 6
-5.620389 -10.101998 -0.20178472 21 7
-3.6249287 -6.470129 -1.9872128 4 0
-5.8181629 -10.376333 0.20764874 14 8
-4.5419159 -8.0969086 -2.1433337 14 1
-6.2711453 -11.170479 0.67136574 8 9
-5.5344582 -9.8502045 -2.1962116 9 2
-5.2648654 -9.358901 -1.7007557 12 3
-5.4795532 -9.7246408 -1.3705428 34 4
-5.4499826 -9.6603317 -0.97039205 13 5
-5.5201731 -9.7688065 -0.58804685 19 6
-3.6634848 -6.4305949 -1.9830716 4 0
-4.5958757 -8.0574293 -2.1415341 14 1
-6.1627851 -10.795757 0.65147805 8 9
-5.647655 -9.885354 -2.2130029 9 2
-5.378778 -9.4032936 -1.7157733 24 3
-5.8776188 -10.258748 -1.4517077 13 4
-5.6141419 -9.7869949 -0.98712587 14 5
-5.8337126 -10.153338 -0.61369151 9 6
-3.6997244 -6.3874984 -1.9778951 4 0
-6.0302496 -10.402728 0.20988265 14 8
-4.635818 -7.9939914 -2.1334357 15 1
-6.2549181 -10.777291 0.65304816 2 9
-5.7507887 -9.9007092 -2.2255962 12 2
-5.3893261 -9.2672262 -1.6979399 19 3
-5.8352275 -10.021898 -1.4239216 20 4
-5.7465501 -9.8577242 -0.99828184 14 5
-5.7211666 -9.7984533 -0.59464121 19 6
-5.9290676 -10.142319 -0.20506579 14 7
-3.7344286 -6.3448648 -1.9727188 4 0
-6.4763288 -10.999013 0.22279742 16 8
-4.6875572 -7.9547172 -2.1316364 16 1
-6.6172032 -11.22482 0.68287963 12 9
-5.8509684 -9.9171362 -2.2381897 7 2
-5.6733041 -9.6045094 -1.7667711 21 3
-5.9424477 -10.044131 -1.4329399 13 4
-5.8964624 -9.9545031 -1.0122267 14 5
-5.9812999 -10.085682 -0.61452883 9 6
-3.777529 -6.3192992 -1.9727188 5 0
-6.1813202 -10.332323 0.21016188 14 8
-4.7455955 -7.9293151 -2.1334357 15 1
-6.6861701 -11.16293 0.68193758 8 9
-5.9745674 -9.9669771 -2.2587969 19 2
-5.5918083 -9.317379 -1.7210922 31 3
-5.6313686 -9.3721724 -1.3425128 21 4
-3.8055096 -6.2663536 -1.9644365 4 0
-6.2909589 -10.354954 0.21148828 29 8
-4.8170357 -7.9226332 -2.1406343 14 1
-7.0775208 -11.635905 0.71375781 4 9
-5.9483538 -9.7717972 -2.2236881 15 2
-5.7609849 -9.4528408 -1.7533176 19 3
-5.9572906 -9.759613 -1.403935 20 4
-5.8648415 -9.5968494 -0.98398834 14 5
-5.8320928 -9.5320415 -0.58563942 19 6
-6.3473902 -10.358002 -0.21204674 15 7
-3.8277955 -6.207418 -1.9540838 5 0
-6.4051046 -10.378851 0.21288446 14 8
-4.8401399 -7.8399162 -2.1271372 15 1
-6.9706693 -11.282072 0.69502157 10 9
-5.8801379 -9.5096159 -2.1733146 10 2
-5.8549094 -9.4577417 -1.7617651 16 3
-5.6774402 -9.1603413 -1.3232574 19 4
-5.8203106 -9.3762388 -0.96551126 13 5
-5.8584347 -9.4266319 -0.58166188 19 6
-6.449441 -10.365493 -0.21309389 15 7
-3.8771908 -6.1903672 -1.9571897 4 0
-4.8999314 -7.814189 -2.1293867 14 1
-6.3156724 -10.064142 0.6226933 6 9
-5.9965038 -9.5481367 -2.1916323 25 2
-5.8345742 -9.2795086 -1.7361099 14 3
-5.8448873 -9.2851191 -1.3471439 14 4
-6.4422064 -10.206335 -0.63253242 8 6
-6.5301943 -10.333738 -0.21337312 16 7
-3.9037235 -6.1370678 -1.9489075 4 0
-6.5558329 -10.298532 0.21309389 14 8
-4.935523 -7.7502031 -2.1212883 15 1
-7.4570498 -11.700722 0.72715586 6 9
-6.0419002 -9.4729347 -2.1839998 25 2
-5.9736333 -9.355093 -1.7580107 10 3
-5.9737201 -9.3444395 -1.3617681 31 4
-5.9458132 -9.2900639 -0.96498835 34 5
-6.6167746 -10.322533 -0.64258093 17 6
-6.8829813 -10.725466 -0.22244836 17 7
-3.9590502 -6.1291394 -1.9551191 5 0
-6.7647004 -10.468652 0.21756171 15 8
-4.9895077 -7.7155585 -2.1212883 15 1
-7.2587976 -11.220396 0.70035982 16 9
-5.967536 -9.2173481 -2.1343896 15 2
-7.333416 -11.318405 1.1799145 5 10
-6.0930429 -9.4004116 -1.77428 28 3
-6.0636706 -9.3408022 -1.3673741 9 4
-5.9855537 -9.2099056 -0.96097922 13 5
-6.5637999 -10.088082 -0.63075304 17 6
-6.3594155 -9.7590485 -0.20332053 14 7
-3.9858494 -6.0794311 -1.9478723 4 0
-7.0021706 -10.67196 0.22279742 16 8
-5.0483265 -7.6911931 -2.1239879 15 1
-7.4597659 -11.356411 0.7120831 6 9
-6.1395817 -9.3395157 -2.1725514 22 2
-7.3161402 -11.125063 1.1649235 2 10
-6.2008719 -9.421999 -1.7864817 18 3
-6.3772168 -9.6789103 -1.4231904 11 4
-6.0875993 -9.2288227 -0.9672544 20 5
-6.8443418 -10.360304 -0.65074539 17 6
-6.3352404 -9.5787668 -0.20045835 14 7
-4.023911 -6.0450244 -1.9458016 4 0
-7.5179939 -11.289823 0.23675935 18 8
-5.0954137 -7.6460314 -2.1212883 15 1
-7.4693136 -11.204 0.70569807 10 9
-6.2999845 -9.4428587 -2.2065153 6 2
-7.5297079 -11.277526 1.1863639 1 10
-6.3010688 -9.4337816 -1.7968066 9 3
-6.3828254 -9.5417566 -1.409541 19 4
-6.5399046 -9.7655087 -1.0282634 14 5
-6.3218846 -9.4292746 -0.59495521 19 6
-6.740839 -10.038995 -0.21106941 15 7
-4.0509086 -5.9966831 -1.9390724 6 0
-7.047852 -10.425303 0.21965599 31 8
-5.1538911 -7.6208568 -2.1239879 15 1
-7.5686197 -11.183007 0.70768684 16 9
-6.334928 -9.3531322 -2.1958301 10 2
-6.1228805 -9.029871 -1.7279752 17 3
-6.4788442 -9.544076 -1.4163656 19 4
-6.5003848 -9.5614367 -1.0115296 14 5
-6.3684554 -9.3568411 -0.59317577 19 6
-6.8405423 -10.03915 -0.21204674 15 7
-4.0959506 -5.9730368 -1.9406252 4 0
-6.8262734 -9.9471617 0.21058075 14 8
-5.2113791 -7.5911179 -2.1257875 15 1
-7.7856154 -11.33238 0.7205615 10 9
-6.5669112 -9.5513458 -2.2530727 12 2
-6.1633716 -8.9543619 -1.721718 21 3
-6.5824862 -9.5525541 -1.424409 29 4
-6.5217113 -9.4502306 -1.0045571 14 5
-6.2258668 -9.0114431 -0.5740208 20 6
-4.1287217 -5.9316115 -1.9364842 5 0
-6.8704057 -9.8631639 0.20981283 14 8
-5.2620192 -7.551352 -2.1248875 14 1
-7.3504434 -10.540535 0.67345917 14 9
-6.7356749 -9.6517754 -2.2878001 9 2
-6.5040402 -9.3094683 -1.7986836 16 3
-6.8094354 -9.7357311 -1.4587761 10 4
-6.4092059 -9.1498995 -0.97736448 13 5
-6.4789829 -9.2392111 -0.59139633 19 6
-4.1477375 -5.8710866 -1.9261314 4 0
-6.9575672 -9.8410845 0.21037132 14 8
-5.3112345 -7.5096598 -2.123538 16 1
-7.5011582 -10.598188 0.6804722 8 9
-6.4148045 -9.0566025 -2.1572866 21 2
-7.7625523 -10.955337 1.1746851 4 10
-6.7585478 -9.5313253 -1.85062 15 3
-6.9140086 -9.7397537 -1.4665757 16 4
-6.4382944 -9.0562153 -0.97213513 13 5
-7.2138705 -10.135913 -0.65200138 8 6
-6.9912663 -9.8122616 -0.21030149 15 7
-4.1897502 -5.8435569 -1.926649 6 0
-6.6810308 -9.3113527 0.20003949 26 8
-5.3498964 -7.4534001 -2.118139 16 1
-7.396687 -10.297376 0.66445738 8 9
-6.5145445 -9.0626097 -2.1694984 10 2
-6.5803118 -9.1439953 -1.7842916 21 3
-6.8565183 -9.5172977 -1.4402521 31 4
-7.025948 -9.7381363 -1.0505754 15 5
-7.3756738 -10.211592 -0.66016579 8 6
-6.968205 -9.6368198 -0.20757893 15 7
-4.2202125 -5.800106 -1.9219903 22 0
-5.4006529 -7.4142933 -2.1176891 14 1
-7.454278 -10.226119 0.66320133 14 9
-6.5498862 -8.9788427 -2.1603396 22 2
-8.2283382 -11.275603 1.2212263 6 10
-6.620688 -9.0659275 -1.7780343 20 3
-6.5150895 -8.9115276 -1.355431 24 4
-7.3830252 -10.072864 -0.65451354 17 6
-7.0684371 -9.6330805 -0.20855626 15 7
-4.2537174 -5.761178 -1.9188845 37 0
-7.6612401 -10.368705 0.22503133 16 8
-5.4256392 -7.3403664 -2.1073413 17 1
-7.586062 -10.25572 0.66853952 14 9
-6.6941729 -9.0433569 -2.187053 25 2
-8.0507507 -10.872028 1.183575 7 10
-6.8625879 -9.260725 -1.8255905 16 3
-6.548759 -8.8275623 -1.3495812 23 4
-6.9005828 -9.2916422 -1.0125754 14 5
-7.0264549 -9.4473438 -0.61704099 17 6
-4.2845683 -5.7189722 -1.9147433 28 0
-7.8443708 -10.466732 0.22831239 17 8
-5.4358287 -7.247745 -2.0915949 15 1
-7.5993595 -10.128758 0.66362 12 9
-7.0231571 -9.3539677 -2.27368 12 2
-7.9182067 -10.5384 1.1532447 1 10
-6.5717711 -8.7432404 -1.7323555 21 3
-6.7522907 -8.9703636 -1.3785861 11 4
-7.5911865 -10.073843 -1.1035661 17 5
-6.922204 -9.1760731 -0.60238689 18 6
-4.3385897 -5.7096725 -1.9214727 10 0
-7.6364379 -10.042424 0.22021447 16 8
-5.4708772 -7.1919661 -2.0861959 14 1
-7.8610282 -10.32655 0.68015814 14 9
-6.9252977 -9.0907526 -2.2213984 18 2
-6.9177446 -9.0709829 -1.8068182 15 3
-7.1047063 -9.3060284 -1.4375709 9 4
-6.7609911 -8.8430119 -0.97387826 13 5
-6.8355703 -8.9308577 -0.58940756 28 6
-8.0721159 -10.535007 -0.23166324 19 7
-4.3512158 -5.6440549 -1.909567 4 0
-7.7625461 -10.061699 0.2218201 16 8
-5.4780908 -7.0980592 -2.0699997 15 1
-8.3504524 -10.812019 0.71595591 10 9
-6.8925486 -8.9179153 -2.1908689 19 2
-6.8310118 -8.8287382 -1.7680227 11 3
-7.2655325 -9.3801823 -1.4568262 19 4
-7.4048843 -9.5360069 -0.63274175 17 6
-7.9883738 -10.276313 -0.22719543 18 7
-4.3809924 -5.601367 -1.9054259 4 0
-7.7783732 -9.9379721 0.22028428 16 8
-5.50108 -7.0258851 -2.0601017 14 1
-8.0155315 -10.229935 0.68110019 14 9
-7.1496725 -9.1183176 -2.2523096 12 2
-6.8461313 -8.7217884 -1.7561336 8 3
-7.2964993 -9.2855272 -1.4500016 19 4
-6.8098741 -8.6538067 -0.96341962 13 5
-7.8741956 -9.9955444 -0.66686481 26 6
-7.6909161 -9.7523794 -0.21679381 16 7
-4.4175868 -5.5676193 -1.9043906 4 0
-8.0788469 -10.174716 0.22677657 17 8
-5.5087848 -6.9354286 -2.044805 15 1
-8.4210587 -10.594312 0.70925695 8 9
-7.1300492 -8.9637012 -2.2263594 12 2
-6.8564019 -8.6104221 -1.7433058 24 3
-7.4675589 -9.367857 -1.4709631 14 4
-6.7905684 -8.506402 -0.95226365 13 5
-7.8365531 -9.8061495 -0.65786302 17 6
-7.613905 -9.5173159 -0.21274483 15 7
-4.4408503 -5.5193591 -1.8981789 4 0
-8.9279709 -11.088293 0.24848737 20 8
-5.5436411 -6.8825936 -2.0403061 15 1
-8.1282396 -10.084237 0.67879742 16 9
-7.1711774 -8.8905115 -2.2202537 10 2
-6.9955173 -8.6634502 -1.7636423 18 3
-7.2815681 -9.0080509 -1.4222155 31 4
-6.7756052 -8.3701639 -0.94215357 19 5
-8.1697035 -10.081543 -0.68005347 8 6
-4.4670606 -5.4732542 -1.8930025 4 0
-5.5940232 -6.8467417 -2.0412059 14 1
-8.2034998 -10.033431 0.67921609 14 9
-7.1485286 -8.7369099 -2.1943038 12 2
-7.023283 -8.5746708 -1.7555077 24 3
-7.7835484 -9.4927292 -1.5072802 13 4
-6.9881268 -8.5105133 -0.96341962 13 5
-7.7325802 -9.4071016 -0.63818467 26 6
-4.4928417 -5.4270549 -1.8878261 4 0
-5.6391978 -6.8045211 -2.0403061 13 1
-8.560215 -10.321822 0.70276725 12 9
-7.2507267 -8.7366428 -2.206897 13 2
-7.1688161 -8.6287489 -1.7767829 10 3
-8.0603447 -9.6915102 -1.5477408 10 4
-7.3340025 -8.8087931 -1.0028139 14 5
-8.2636223 -9.9112701 -0.67628533 17 6
-4.5380735 -5.4044333 -1.890932 4 0
-8.1942616 -9.7551632 0.22237857 16 8
-5.6790414 -6.7560363 -2.0376067 14 1
-8.2960672 -9.8658686 0.67555261 12 9
-7.3024416 -8.6780758 -2.2046072 13 2
-7.1841125 -8.5283871 -1.7661453 17 3
-7.4929404 -8.882411 -1.4268464 16 4
-7.4493074 -8.821312 -1.0101351 14 5
-8.4250193 -9.9661388 -0.68392634 17 6
-4.5647368 -5.3616509 -1.886791 4 0
-8.1350727 -9.5485487 0.21895789 31 8
-5.7248969 -6.7172236 -2.0376067 14 1
-8.3660355 -9.8092327 0.67565727 8 9
-7.3628478 -8.6268835 -2.2046072 19 2
-7.4641809 -8.7363462 -1.8199588 25 3
-7.3983955 -8.6501732 -1.3975978 20 4
-7.9938107 -9.3364296 -1.0753275 16 5
-4.5894303 -5.3150315 -1.8816146 3 0
-5.7792969 -6.6859398 -2.0403061 13 1
-8.5005426 -9.8306198 0.68110019 8 9
-7.4393811 -8.597352 -2.20995 15 2
-7.8804398 -9.0974321 -1.9063107 14 3
-8.1050863 -9.3435793 -1.5187359 19 4
-8.7015142 -10.020541 -1.1610888 19 5
-8.3703232 -9.6289558 -0.66864425 17 6
-8.3203001 -9.5579281 -0.22119181 17 7
-4.6382275 -5.2982049 -1.886791 3 0
-8.6744413 -9.9017601 0.22977838 17 8
-5.8195348 -6.640583 -2.0385065 11 1
-8.7125063 -9.9347115 0.69250941 8 9
-7.4772081 -8.5201178 -2.2034624 12 2
-7.9046493 -8.9976721 -1.8969245 19 3
-7.6889076 -8.7397861 -1.4292837 21 4
-7.6151013 -8.64676 -1.0080433 14 5
-8.4360209 -9.5687876 -0.66853952 26 6
-4.6529298 -5.2388792 -1.8774734 3 0
-9.0089922 -10.13994 0.23675935 18 8
-5.8306494 -6.557992 -2.0259092 12 1
-8.9639282 -10.075046 0.70674485 10 9
-7.5182323 -8.4471807 -2.1981196 12 2
-7.9241428 -8.8907404 -1.886287 16 3
-8.0959864 -9.0739765 -1.4931433 20 4
-8.3764534 -9.365263 -0.65849108 17 6
-4.6790462 -5.1947861 -1.8733324 3 0
-8.7466125 -9.7038736 0.22803316 17 8
-5.8097363 -6.4433165 -2.0029643 6 1
-9.1825619 -10.176816 0.7183634 2 9
-7.5850649 -8.4004517 -2.2000279 18 2
-7.8588572 -8.694519 -1.8562515 17 3
-7.4945259 -8.2827253 -1.3715178 13 4
-7.6735582 -8.4716673 -1.000025 14 5
-9.0293627 -9.9545107 -0.70433736 17 6
-8.8681507 -9.7665005 -0.23026705 19 7
-4.7178059 -5.164845 -1.8743677 3 0
-5.805922 -6.3493872 -1.9863179 7 1
-9.2057858 -10.063973 0.71480459 16 9
-7.6937675 -8.4051046 -2.214911 10 2
-7.9365406 -8.6612139 -1.8606318 17 3
-7.5696149 -8.2492161 -1.3746864 10 4
-7.8079929 -8.5000582 -1.0097864 14 5
-8.8792562 -9.6561213 -0.68748522 17 6
-4.744976 -5.1241083 -1.8712618 3 0
-5.8198609 -6.2782793 -1.9764199 8 1
-7.7469139 -8.3454332 -2.2133844 12 2
-8.0667353 -8.6808434 -1.8769009 15 3
-7.9622083 -8.5473909 -1.0219883 14 5
-8.8170509 -9.4551296 -0.67754138 17 6
-4.7726989 -5.082408 -1.868156 3 0
-8.9873362 -9.5638494 0.22908029 17 8
-5.8421922 -6.2147794 -1.9692216 7 1
-7.78615 -8.2711315 -2.2080419 10 2
-8.1975908 -8.69907 -1.8931701 24 3
-7.7616401 -8.2278156 -1.3888232 7 4
-8.0900927 -8.5640144 -1.0307038 14 5
-8.9102888 -9.42237 -0.67963481 8 6
-4.786747 -5.0265813 -1.8598738 3 0
-9.5312042 -10.001757 0.24115735 19 8
-5.866611 -6.1540956 -1.9629229 7 1
-7.835568 -8.2080536 -2.2057521 10 2
-8.4710217 -8.864419 -1.9419776 10 3
-7.754396 -8.1060114 -1.3773675 19 4
-7.91118 -8.2612419 -1.0007222 14 5
-9.0035019 -9.3887634 -0.68172824 8 6
-4.8190398 -4.9902606 -1.8588384 3 0
-9.4573469 -9.7899523 0.23759706 18 8
-5.8985972 -6.101778 -1.9593236 7 1
-7.8803349 -8.1432419 -2.2026992 10 2
-8.0514832 -8.311388 -1.8327864 34 3
-8.2683029 -8.5232964 -1.458045 21 4
-7.8354135 -8.0685921 -0.98398834 14 5
-9.0226517 -9.2814341 -0.67837876 17 6
-4.8474889 -4.9518223 -1.8567679 3 0
-5.9236255 -6.044786 -1.9539249 7 1
-7.9713683 -8.1230612 -2.2122397 13 2
-8.2366667 -8.3846226 -1.8615704 19 3
-8.1089993 -8.2460165 -1.4200217 21 4
-8.0816736 -8.2067623 -1.0076946 21 5
-9.112464 -9.2438221 -0.6802628 8 6
-4.8819408 -4.9178596 -1.8567679 3 0
-9.7932367 -9.8584042 0.24255355 19 8
-5.9437037 -5.9811673 -1.9467264 7 1
-8.0403471 -8.0797367 -2.2156742 12 2
-8.614255 -8.647397 -1.9332174 16 3
-8.1004868 -8.1231413 -1.408566 31 4
-8.1415854 -8.1529636 -1.0080433 14 5
-8.6712675 -8.6742992 -0.64279026 8 6
-9.8123283 -9.8054819 -0.24213469 21 7
-4.9024501 -4.8700423 -1.8515915 3 0
-5.96595 -5.9203095 -1.9404278 7 1
-8.0658789 -7.9930067 -2.2072787 10 2
-8.7446079 -8.6565332 -1.9488608 16 3
-8.1287699 -8.038476 -1.4036912 6 4
-8.6759777 -8.5706244 -1.0669606 15 5
-8.9989262 -8.877243 -0.66246861 8 6
-9.7324152 -9.590765 -0.23850459 20 7
-4.9349484 -4.8343477 -1.8510739 2 0
-6.0071344 -5.8785167 -1.9404278 7 1
-8.1018467 -7.9200792 -2.2023175 9 2
-8.80474 -8.5981922 -1.9491737 11 3
-8.3097563 -8.1034908 -1.4251401 11 4
-8.6699514 -8.4458933 -1.0589422 15 5
-8.6726713 -8.4396982 -0.63420719 17 6
-4.9524593 -4.7858768 -1.8453798 3 0
-6.01336 -5.8050075 -1.92963 7 1
-8.1244345 -7.8319836 -2.1935403 10 2
-8.8147526 -8.488554 -1.9382232 17 3
-8.5020609 -8.1788578 -1.4485391 1 4
-8.8321543 -8.484539 -1.0714927 15 5
-8.9763594 -8.6140366 -0.65200138 8 6
-4.9354024 -4.7032089 -1.8267449 2 0
-6.0226879 -5.733325 -1.9197323 7 1
-8.1533003 -7.7507277 -2.1866713 12 2
-8.9310932 -8.4812202 -1.950738 15 3
-8.6194372 -8.1766844 -1.4587761 1 4
-9.1486359 -8.6665697 -1.1025201 17 5
-9.1726427 -8.6802034 -0.66184056 8 6
-4.9892349 -4.6884813 -1.8345095 2 0
-6.0199437 -5.6511264 -1.9062351 15 1
-8.161375 -7.6506538 -2.1744595 10 2
-9.4687881 -8.8669386 -2.0546105 17 3
-8.9836445 -8.4038038 -1.5104488 23 4
-9.3079195 -8.6949759 -1.1143733 17 5
-10.322345 -9.6324844 -0.7399258 8 6
-5.0289292 -4.6601028 -1.8370978 3 0
-6.0520983 -5.6023445 -1.9039857 28 1
-8.1814318 -7.5628371 -2.1656821 10 2
-9.4782152 -8.7523737 -2.0433471 13 3
-9.8052073 -9.0448179 -1.6379241 24 4
-9.2238655 -8.4877253 -0.65692103 17 6
-5.0413742 -4.606636 -1.8298507 3 0
-6.1198492 -5.5862308 -1.9129838 21 1
-8.1963043 -7.4711509 -2.15576 10 2
-9.6091928 -8.7498302 -2.0583651 8 3
-8.9180126 -8.1119251 -1.4802252 5 4
-9.1098576 -8.2748127 -1.076722 16 5
-10.044638 -9.1143141 -0.71082705 8 6
-5.063365 -4.5622764 -1.8262272 2 0
-6.1615944 -5.5459781 -1.9138836 7 1
-8.2117624 -7.3809357 -2.1462197 10 2
-9.5671587 -8.590148 -2.0364642 13 3
-9.7635517 -8.7572575 -1.6103816 14 4
-9.2178621 -8.2562103 -1.0826486 16 5
-10.030622 -8.9747171 -0.70538408 17 6
-5.1029654 -4.5354071 -1.8293331 2 0
-6.1656852 -5.4741511 -1.903536 7 1
-8.1824827 -7.25454 -2.1256123 10 2
-9.9048967 -8.7723627 -2.0955963 24 3
-9.9180841 -8.7747812 -1.625981 13 4
-10.468352 -9.2485971 -1.2220978 21 5
-10.094473 -8.9088764 -0.70559341 8 6
-5.1127114 -4.4805703 -1.8215685 3 0
-6.1890888 -5.4181376 -1.8990368 6 1
-8.1767626 -7.1481376 -2.1111107 12 2
-9.9138212 -8.6575232 -2.0846457 8 3
-10.758013 -9.3715925 -1.2482445 22 5
-11.765543 -10.238449 -0.81738305 17 6
-5.1438661 -4.4447689 -1.8215685 3 0
-6.2002087 -5.3518777 -1.8909385 6 1
-8.1699572 -7.0421729 -2.0966094 12 2
-10.224008 -8.8033514 -2.1368952 9 3
-10.039634 -8.6354475 -1.625981 14 4
-10.594875 -9.103384 -1.2220978 21 5
-10.164825 -8.7215462 -0.70192993 17 6
-5.1453609 -4.3836932 -1.8112158 3 0
-6.2255487 -5.2983575 -1.8873394 6 1
-8.1638546 -6.940619 -2.082871 12 2
-10.34392 -8.7847023 -2.1494098 7 3
-10.514502 -8.9169455 -1.6927652 18 4
-10.904445 -9.2378292 -1.2503363 22 5
-11.713489 -9.9126902 -0.80419439 17 6
-5.1662054 -4.3411126 -1.80811 3 0
-6.2584834 -5.2533555 -1.8864396 6 1
-8.1398888 -6.8229189 -2.0645535 10 2
-10.801807 -9.0445347 -2.2313814 11 3
-10.523181 -8.8018684 -1.6844782 16 4
-10.682688 -8.9257812 -1.2179143 21 5
-12.673409 -10.574083 -0.86500871 17 6
-5.2172146 -4.3221931 -1.8153569 3 0
-6.2574744 -5.1784725 -1.875192 4 1
-8.1468019 -6.7348313 -2.0546315 12 2
-10.908816 -9.0085344 -2.2407675 7 3
-10.699236 -8.8229122 -1.7027587 9 4
-11.242996 -9.2614183 -1.2743913 23 5
-12.749718 -10.491381 -0.86532277 26 6
-5.2076168 -4.2548018 -1.8018982 4 0
-6.2880478 -5.1320634 -1.8738421 7 1
-8.1905756 -6.675313 -2.0538683 12 2
-12.252105 -9.9747858 -2.502326 10 3
-10.893032 -8.8588457 -1.7239639 22 4
-12.317002 -9.9919224 -0.83119977 8 6
-5.2702932 -4.2450023 -1.8132863 3 0
-6.3146133 -5.0807104 -1.871143 6 1
-8.2017794 -6.589685 -2.0450909 9 2
-12.278311 -9.8543835 -2.4935656 6 3
-10.706807 -8.5839071 -1.6849656 19 4
-12.391135 -9.9094353 -0.83151376 17 6
-5.2665157 -4.1816769 -1.8018982 4 0
-6.3331351 -5.0231819 -1.866194 4 1
-8.2752848 -6.5542088 -2.05196 9 2
-10.435143 -8.2559767 -2.1074855 3 3
-11.412803 -9.0197611 -1.7861173 7 4
-12.451094 -9.8262243 -1.3876938 27 5
-12.721952 -10.029178 -0.84899396 17 6
-5.3107929 -4.1567159 -1.8070747 4 0
-6.3557653 -4.969244 -1.8625948 4 1
-8.3053646 -6.4841943 -2.0481439 7 2
-10.486294 -8.1780643 -2.1062338 3 3
-12.446278 -9.6717329 -0.82607079 17 6
-5.3182688 -4.1030178 -1.7998277 4 0
-6.3686934 -4.9080977 -1.8562962 5 1
-8.1855068 -6.2991376 -2.0076923 4 2
-11.802294 -9.0725927 -2.3577805 7 3
-13.197104 -10.133816 -2.0430176 6 4
-12.351768 -9.4607286 -0.81539428 17 6
-5.3560104 -4.0728054 -1.8029336 3 0
-6.3779736 -4.844656 -1.8490976 4 1
-8.19487 -6.2157388 -1.9992968 4 2
-11.833854 -8.9661198 -2.3515232 9 3
-12.977865 -9.8222084 -1.9984137 5 4
-12.454175 -9.4019461 -0.81780171 17 6
-5.3812218 -4.0329971 -1.8018982 4 0
-6.4007206 -4.7918363 -1.8459483 3 1
-8.1641598 -6.1031284 -1.9813608 6 2
-11.706226 -8.741456 -2.3139789 9 3
-13.087491 -9.7622271 -2.004751 10 4
-12.201306 -9.0912647 -1.3312168 25 5
-12.772686 -9.5031424 -0.83433986 17 6
-13.274739 -9.8658886 -0.28869772 30 7
-5.3905988 -3.9815576 -1.7956866 4 0
-6.430881 -4.7447205 -1.8450485 3 1
-8.1707439 -6.021791 -1.972965 4 2
-10.677359 -7.860528 -2.0999765 1 3
-13.003378 -9.5589228 -1.9815956 13 4
-12.592088 -9.2464266 -1.3667763 27 5
-12.74689 -9.3498306 -0.82847828 17 6
-5.4175754 -3.9447727 -1.7956866 4 0
-6.4236298 -4.6721797 -1.833801 2 1
-8.1903439 -5.948451 -1.9676224 4 2
-11.633766 -8.4400272 -2.2764347 10 3
-12.391428 -8.9797935 -1.8789817 9 4
-12.497829 -9.0336313 -0.80817193 17 6
-5.435565 -3.9000988 -1.7925807 4 0
-6.4497542 -4.6226811 -1.8320013 2 1
-8.1997433 -5.8682737 -1.95999 4 2
-11.657054 -8.3333263 -2.2695515 9 3
-13.259948 -9.4687071 -2.0006073 7 4
-12.427958 -8.8615046 -1.3354002 25 5
-12.625664 -8.992506 -0.8123588 17 6
-13.639711 -9.7039919 -0.2921882 30 7
-5.4626589 -3.8620574 -1.7925807 4 0
-6.4564009 -4.5595546 -1.824803 3 1
-8.2116289 -5.7905226 -1.9531209 6 2
-11.614818 -8.1812172 -2.2501535 12 3
-13.186106 -9.2776718 -1.9796458 7 4
-12.447134 -8.7447462 -1.3308681 25 5
-12.496858 -8.7699108 -0.80011219 17 6
-5.4799781 -3.8172007 -1.789475 4 0
-15.396579 -10.716849 0.32744205 31 8
-6.4896746 -4.5154819 -1.8252529 3 1
-8.2050972 -5.7005706 -1.942054 4 2
-11.632699 -8.0729027 -2.2426448 12 3
-13.757935 -9.5371037 -2.0554485 10 4
-13.123853 -9.0840006 -1.3964093 28 5
-12.912627 -8.9277992 -0.82272136 17 6
-13.997649 -9.6671553 -0.29693523 31 7
-5.5128646 -3.7832236 -1.7915455 4 0
-15.471018 -10.609102 0.32744205 31 8
-6.5097876 -4.4623542 -1.8221035 5 1
-8.2106743 -5.6198606 -1.9340401 6 2
-11.639856 -7.958046 -2.2332587 11 3
-14.061876 -9.6031542 -2.0907905 7 4
-13.162338 -8.9787397 -1.3939689 28 5
-13.048923 -8.8880301 -0.82743156 17 6
-5.5423427 -3.7468081 -1.7925807 4 0
-14.548766 -9.8317509 0.30649915 28 8
-6.5294766 -4.4091649 -1.8189542 3 1
-8.2340879 -5.5539613 -1.9306054 27 2
-11.710138 -7.8896689 -2.2363873 12 3
-14.377282 -9.6720676 -2.1275952 5 4
-12.961526 -8.6999407 -0.81811577 17 6
-5.5709333 -3.7111378 -1.7936161 4 0
-6.5285125 -4.3441062 -1.8104061 4 1
-8.2792006 -5.500689 -1.932132 24 2
-11.735305 -7.7880659 -2.2307556 12 3
-13.906658 -9.2150898 -2.0483801 7 4
-13.183557 -8.7160816 -0.82826895 8 6
-14.136952 -9.3322315 -0.29567868 31 7
-5.5941153 -3.6690605 -1.7925807 3 0
-6.5431309 -4.2865996 -1.8059071 4 1
-8.2730465 -5.4137301 -1.9218283 4 2
-11.734509 -7.6671538 -2.220118 12 3
-13.930753 -9.0917425 -2.0425303 15 4
-13.809694 -8.9886932 -0.86354333 17 6
-5.6228404 -3.6320119 -1.7936161 4 0
-6.5843601 -4.2482104 -1.8090565 6 1
-8.2868176 -5.3384447 -1.9161041 4 2
-11.76117 -7.5679455 -2.2151122 10 3
-13.942014 -8.957489 -2.0347307 13 4
-13.781661 -8.8442736 -1.4326662 29 5
-13.813258 -8.8543444 -0.85987979 26 6
-5.6193428 -3.5730247 -1.7842987 3 0
-6.5899148 -4.1853137 -1.8023077 5 1
-8.3139391 -5.2741494 -1.9138144 4 2
-11.821699 -7.4878187 -2.2163637 11 3
-14.064598 -8.8981476 -2.0435054 11 4
-13.822214 -8.7211685 -0.85653037 17 6
-5.6560116 -3.5438843 -1.7884396 3 0
-6.6423059 -4.1570244 -1.8090565 7 1
-8.3163462 -5.196631 -1.9061821 4 2
-11.854342 -7.3987899 -2.2132351 10 3
-14.38441 -8.9674492 -2.0812848 10 4
-14.163009 -8.8054152 -0.87401056 17 6
-14.390455 -8.9363747 -0.29567868 31 7
-5.6691055 -3.4972117 -1.7848163 2 0
-15.688221 -9.674118 0.32171765 30 8
-6.6512566 -4.0982838 -1.8036577 6 1
-8.3214302 -5.1213803 -1.8993129 4 2
-11.850579 -7.2848248 -2.2032232 11 3
-14.257176 -8.7505074 -2.0539861 15 4
-14.266904 -8.73592 -0.87673205 17 6
-14.623102 -8.9399977 -0.29916915 31 7
-5.6960816 -3.4605482 -1.7858515 2 0
-6.669003 -4.0468497 -1.8009582 7 1
-8.3267555 -5.0448513 -1.8924437 4 2
-11.651023 -7.0505567 -2.1569188 12 3
-14.183895 -8.5731678 -2.0349743 12 4
-14.486625 -8.7319984 -0.88646656 8 6
-5.7184429 -3.4197078 -1.7853339 3 0
-6.6903996 -3.9961967 -1.7991585 7 1
-8.3322411 -4.9709568 -1.8859563 3 2
-11.45608 -6.826488 -2.1121783 13 3
-14.15469 -8.421155 -2.0223 16 4
-14.610991 -8.6719227 -0.89044398 17 6
-5.7382584 -3.3787439 -1.7842987 3 0
-15.206679 -8.9466972 0.30796516 28 8
-6.7174454 -3.9505639 -1.7991585 7 1
-8.3531961 -4.9047127 -1.8829032 3 2
-11.430191 -6.7033696 -2.0987251 12 3
-14.184278 -8.3085594 -2.0184002 12 4
-14.359021 -8.3873777 -0.87149841 17 6
-5.7466631 -3.3298841 -1.7796398 2 0
-15.23954 -8.8269453 0.30740669 28 8
-6.7246227 -3.8918574 -1.7937597 6 1
-8.3693914 -4.8379154 -1.8790871 3 2
-11.362645 -6.5602274 -2.0780756 11 3
-14.6117 -8.4224749 -2.0708041 18 4
-14.471187 -8.3213043 -0.87484795 17 6
-14.864041 -8.5333996 -0.29916915 31 7
-5.7977228 -3.3069618 -1.7884396 3 0
-15.290367 -8.7144012 0.30719727 28 8
-6.764504 -3.8537111 -1.7973589 7 1
-8.3722439 -4.7618985 -1.8722179 3 2
-11.353204 -6.4495173 -2.0680637 9 3
-14.691136 -8.335556 -2.0739727 18 4
-14.773787 -8.3722286 -1.4856569 30 5
-14.457656 -8.1797495 -0.87055635 26 6
-5.8071899 -3.2588437 -1.7842987 3 0
-6.7623434 -3.7901964 -1.7897105 5 1
-8.3907585 -4.6971283 -1.8691651 3 2
-11.341667 -6.3412437 -2.0580521 9 3
-14.904971 -8.3198671 -2.0959091 20 4
-14.807513 -8.2553015 -1.4832165 30 5
-14.713672 -8.1928883 -0.88259363 17 6
-5.8157091 -3.2117684 -1.7801574 3 0
-6.806756 -3.7544317 -1.7946595 7 1
-8.3889532 -4.6194935 -1.8615327 3 2
-11.382201 -6.2600031 -2.0574262 7 3
-15.079571 -8.2832088 -2.1124835 15 4
-14.971954 -8.2003059 -0.89463085 26 6
-5.8328958 -3.1683238 -1.7786045 2 0
-16.487417 -8.9482155 0.32744205 31 8
-6.8156705 -3.6975291 -1.7901604 6 1
-8.3450384 -4.5196776 -1.8447415 3 2
-11.258827 -6.0901656 -2.027391 6 3
-15.192917 -8.2079287 -2.1202829 18 4
-15.046425 -8.105051 -0.89567763 17 6
-15.445885 -8.3097973 -0.30615014 32 7
-5.8565774 -3.1284359 -1.7791222 3 0
-16.485979 -8.7989931 0.32618546 30 8
-6.8378806 -3.6480207 -1.7892607 7 1
-8.3833189 -4.4650021 -1.8462679 3 2
-11.233053 -5.9752388 -2.0151892 5 3
-15.558386 -8.2655802 -2.1631808 13 4
-15.328554 -8.1194792 -0.90907568 9 6
-5.879446 -3.0893972 -1.7796398 2 0
-6.8591013 -3.5995824 -1.7883608 7 1
-8.3752575 -4.3877912 -1.8378724 3 2
-11.224457 -5.8729963 -2.0064287 5 3
-15.77967 -8.2459049 -2.1860926 15 4
-15.222281 -7.9309735 -0.89955056 18 6
-5.8900414 -3.0439837 -1.776534 2 0
-6.879981 -3.5510232 -1.7874612 6 1
-8.4188919 -4.3378744 -1.8409253 3 2
-11.21148 -5.7693424 -1.9970427 4 3
-15.796238 -8.1146812 -2.1804864 11 4
-15.792975 -8.1025581 -1.552941 33 5
-15.320351 -7.8499441 -0.90216732 18 6
-5.9047832 -2.9982593 -1.7744634 2 0
-6.898263 -3.4981747 -1.7856615 6 1
-8.3929243 -4.2506094 -1.8287135 3 2
-11.197827 -5.6613379 -1.9873437 7 3
-15.918068 -8.0373096 -2.1895049 7 4
-18.619408 -9.3727293 -1.0924609 19 6
-5.92557 -2.9569643 -1.7744634 2 0
-6.9207721 -3.4490631 -1.7852116 5 1
-8.4160948 -4.1869435 -1.8271869 3 2
-11.173393 -5.5513825 -1.9760804 6 3
-16.443243 -8.1589203 -2.2538519 4 4
-15.993827 -7.9254942 -1.5616566 33 5
-17.653227 -8.732439 -1.0321698 19 6
-5.9599457 -2.922328 -1.7786045 2 0
-6.9499335 -3.4032323 -1.7865613 3 1
-8.4567461 -4.1355977 -1.8298583 4 2
-11.132821 -5.4370565 -1.9623141 24 3
-16.555117 -8.0708971 -2.2614079 6 4
-17.654779 -8.5841274 -1.0288203 19 6
-5.9709969 -2.8775003 -1.7760164 3 0
-6.9501095 -3.3448622 -1.7807125 5 1
-8.4305525 -4.0501051 -1.8180283 3 2
-11.179412 -5.3634772 -1.9638785 30 3
-17.560274 -8.413476 -2.3908329 13 4
-17.759333 -8.4821844 -1.031437 19 6
-5.9787178 -2.8299577 -1.772393 2 0
-6.9909096 -3.3045878 -1.7852116 4 1
-8.5058613 -4.015255 -1.8283319 4 2
-11.142402 -5.2527213 -1.9510508 4 3
-17.442562 -8.2078438 -2.3669467 12 4
-18.020971 -8.4569845 -1.043265 19 6
-6.0171103 -2.7981582 -1.7780869 3 0
-7.0097055 -3.2552855 -1.7843118 5 1
-8.5301208 -3.9541252 -1.8275685 4 2
-11.144742 -5.1590385 -1.9451064 4 3
-17.256575 -7.9773126 -2.3342857 12 4
-19.719376 -9.086586 -1.1378884 20 6
-6.0400138 -2.7576876 -1.7791222 3 0
-7.0251689 -3.2030356 -1.7825122 4 1
-8.5110598 -3.8733318 -1.8176465 4 2
-11.13193 -5.0590401 -1.9366589 4 3
-17.17808 -7.7959371 -2.3162489 13 4
-19.895155 -8.9997349 -1.1443782 10 6
-6.0485415 -2.7107124 -1.7760164 3 0
-7.0402441 -3.1507285 -1.7807125 5 1
-8.5486469 -3.8186252 -1.8199363 4 2
-11.134505 -4.9667196 -1.9310273 4 3
-17.123285 -7.6273627 -2.3016248 13 4
-20.775295 -9.2237005 -1.1912712 10 6
-6.0460968 -2.6590884 -1.7698047 3 0
-7.0370884 -3.0905328 -1.7744139 4 1
-8.5654526 -3.7564056 -1.8180283 4 2
-11.139102 -4.8781357 -1.9260213 4 3
-17.04879 -7.4519796 -2.2845628 13 4
-25.286709 -11.021228 -1.445624 23 6
-6.0711508 -2.6209347 -1.7718753 3 0
-7.0740676 -3.0495038 -1.778463 3 1
-8.5860586 -3.6941881 -1.8168833 4 2
-11.122068 -4.7784176 -1.917261 3 3
-17.057163 -7.3177586 -2.2789569 11 4
-25.366709 -10.845995 -1.4458333 23 6
-6.0964174 -2.5814979 -1.7739457 3 0
-7.0790319 -2.9932115 -1.7744139 4 1
-8.5947266 -3.6287861 -1.8134488 3 2
-11.139774 -4.6964622 -1.9147581 3 3
-16.901073 -7.111505 -2.2514145 12 4
-25.417845 -10.663812 -1.4445772 23 6
-6.0964489 -2.5314672 -1.7687694 4 0
-7.1105561 -2.9481976 -1.7771133 4 1
-8.604146 -3.5604367 -1.8100141 4 2
-11.132932 -4.6000314 -1.9078751 3 3
-16.761303 -6.9153547 -2.2263095 11 4
-25.486116 -10.478609 -1.4441586 11 6
-6.12113 -2.4917591 -1.77084 3 0
-7.1363797 -2.9006875 -1.778463 3 1
-8.6245441 -3.5003109 -1.809251 4 2
-11.1054 -4.5004072 -1.8978633 3 3
-16.634344 -6.727469 -2.2031541 15 4
-25.049305 -10.100245 -1.4154785 22 6
-6.1128297 -2.4400096 -1.763593 4 0
-7.1324263 -2.8426652 -1.7726144 4 1
-8.66154 -3.4450943 -1.8119223 3 2
