# .PCD v0.7 - Point Cloud Data file format
VERSION 0.7
FIELDS x y z intensity ring
SIZE 4 4 4 4 2
TYPE F F F F U
COUNT 1 1 1 1 1
WIDTH 1314
HEIGHT 1
VIEWPOINT 0 0 0 1 0 0 0
POINTS 1314
DATA ascii
6.5343885 -0.4649519 -1.7553109 2 0
7.5981297 -0.54464072 -1.7586673 3 1
9.2033348 -0.66454703 -1.7936047 3 2
11.505807 -0.83685809 -1.8271548 3 3
15.467875 -1.1358896 -1.9043305 3 4
6.5175896 -0.50836736 -1.7516873 2 0
7.588419 -0.59588885 -1.7573177 5 1
9.1593285 -0.72568047 -1.7859724 3 2
11.527251 -0.91936141 -1.8315349 3 3
15.459785 -1.2411491 -1.9043305 3 4
6.5254321 -0.554838 -1.7547932 2 0
7.5801907 -0.64851886 -1.7564179 5 1
9.1776485 -0.79002929 -1.7905518 3 2
11.508918 -0.99678034 -1.8296577 4 3
15.466565 -1.3504289 -1.9062805 3 4
6.5211892 -0.60265654 -1.7547932 2 0
7.5674715 -0.70334524 -1.7546182 5 1
9.1401863 -0.85595506 -1.7844458 3 2
11.48538 -1.0816432 -1.8271548 4 3
15.495774 -1.4675107 -1.9111552 3 4
6.5149012 -0.64797682 -1.7542756 2 0
7.5681939 -0.75674027 -1.7559679 7 1
9.1595421 -0.92070252 -1.7894068 4 2
11.493475 -1.1613848 -1.8296577 3 3
15.506876 -1.5778655 -1.9138362 2 4
6.5314703 -0.69455397 -1.7599696 2 0
7.5609298 -0.80803031 -1.7555181 4 1
9.1040916 -0.97937554 -1.7798663 3 2
11.532222 -1.246691 -1.8371665 3 3
15.527058 -1.6895202 -1.9177362 2 4
6.4937015 -0.73756772 -1.7511697 3 0
7.5530181 -0.86189306 -1.7550682 6 1
9.1438437 -1.0482764 -1.7890252 3 2
11.574027 -1.3350664 -1.8453012 3 3
15.544463 -1.8013049 -1.9213922 2 4
6.5114093 -0.78566098 -1.7573814 3 0
7.5371442 -0.91342944 -1.7528186 5 1
9.1672897 -1.1174818 -1.7951311 3 2
11.536974 -1.4124746 -1.840921 3 3
15.551212 -1.9122039 -1.9238297 2 4
6.503849 -0.83085483 -1.7568637 2 0
7.5402479 -0.96726567 -1.7550682 6 1
9.1789436 -1.1823635 -1.7989473 3 2
11.534929 -1.4919845 -1.8421725 2 3
15.580791 -2.0263567 -1.9291918 2 4
6.5018725 -0.87562114 -1.757899 2 0
7.5508699 -1.0209177 -1.7591172 5 1
9.1198854 -1.2395406 -1.7890252 3 2
11.543803 -1.5751472 -1.8453012 2 3
15.554836 -2.1307473 -1.9277295 2 4
6.468823 -0.91719449 -1.7506521 2 0
7.5281243 -1.0714105 -1.7555181 4 1
65.353561 -9.3244638 3.4597211 43 9
9.1537657 -1.3092943 -1.7974207 3 2
11.540347 -1.6568218 -1.8465527 2 3
15.574948 -2.2443843 -1.9321167 2 4
6.4641728 -0.96261722 -1.7511697 2 0
7.5204611 -1.1239403 -1.7555181 4 1
9.1327524 -1.371418 -1.7951311 3 2
11.532406 -1.7379363 -1.8471783 2 3
15.551048 -2.3518751 -1.9311417 2 4
6.4897437 -1.0127856 -1.7599696 2 0
7.5278335 -1.1788272 -1.7591172 3 1
9.142602 -1.4365979 -1.7989473 3 2
11.512505 -1.8151636 -1.8459269 2 3
15.565622 -2.4653525 -1.9350417 2 4
6.4769793 -1.0560036 -1.7584167 1 0
7.5234814 -1.2306691 -1.760017 3 1
9.1478472 -1.5029361 -1.8020002 3 2
11.534635 -1.901274 -1.8515586 2 3
15.589607 -2.5780473 -1.9401602 2 4
6.4351692 -1.0953604 -1.7490991 2 0
7.5204692 -1.2841464 -1.7613667 3 1
9.1180553 -1.5618536 -1.7981842 3 2
11.517533 -1.9790742 -1.8509328 2 3
15.600573 -2.6918828 -1.9438162 3 4
6.4656086 -1.1458799 -1.759452 2 0
7.5057988 -1.3342834 -1.760017 3 1
9.1687765 -1.6365103 -1.810396 3 2
11.483991 -2.0559514 -1.8478041 2 3
15.57798 -2.7973075 -1.9433287 3 4
6.4308543 -1.1860845 -1.752205 2 0
7.5192952 -1.3909043 -1.7654159 3 1
9.079917 -1.6861415 -1.7951311 3 2
11.496545 -2.1411376 -1.8521842 2 3
15.593196 -2.9125538 -1.947716 3 4
6.4300065 -1.2324057 -1.7542756 2 0
7.5323663 -1.4477785 -1.7708147 2 1
9.1334667 -1.7621351 -1.8081062 3 2
11.469682 -2.2190945 -1.8503071 2 3
15.617304 -3.0300391 -1.9533219 5 4
6.4553504 -1.2840492 -1.763593 2 0
7.5144315 -1.4988037 -1.7690151 2 1
9.144043 -1.8304795 -1.8126855 3 2
11.469404 -2.3022234 -1.85281 2 3
15.613285 -3.1425195 -1.9555157 3 4
6.446229 -1.3290842 -1.763593 2 0
7.4923339 -1.5488604 -1.7663157 1 1
9.1079731 -1.8894864 -1.8081062 3 2
11.483995 -2.3886745 -1.8578159 3 3
15.614285 -3.2563064 -1.9584407 3 4
6.4405718 -1.3748614 -1.7646283 1 0
7.5080171 -1.6068383 -1.7726144 2 1
9.0945606 -1.9530257 -1.8081062 3 2
11.474764 -2.4704521 -1.8590674 3 3
15.653265 -3.3786364 -1.9662402 3 4
6.4345899 -1.420624 -1.7656636 1 0
7.5004215 -1.6600567 -1.7735142 2 1
9.115201 -2.0241301 -1.8149751 3 2
11.499658 -2.5599434 -1.8659505 3 3
15.67967 -3.4990749 -1.9725773 3 4
57.358368 -12.87368 -3.0808086 0 6
6.4132142 -1.4629332 -1.7625577 1 0
7.5000477 -1.7149851 -1.7762135 2 1
9.0667686 -2.0782328 -1.8081062 3 2
11.478116 -2.6372743 -1.8653249 4 3
15.697416 -3.618263 -1.9779397 3 4
6.425674 -1.5118618 -1.7687694 1 0
7.4616466 -1.7597337 -1.769915 2 1
9.0749645 -2.1469033 -1.8126855 3 2
11.447893 -2.7146072 -1.8634475 4 3
15.709119 -3.7337489 -1.9825708 2 4
56.029312 -13.389408 -3.0190523 0 6
6.4337368 -1.5612398 -1.7739457 1 0
7.4491796 -1.8117827 -1.769915 2 1
9.0177946 -2.1999688 -1.8042899 3 2
11.468958 -2.8043146 -1.8700178 4 3
15.671101 -3.840492 -1.9811082 2 4
6.4151831 -1.6042428 -1.7718753 1 0
7.4401298 -1.8646904 -1.7708147 2 1
9.0364895 -2.2714858 -1.8111591 3 2
11.474003 -2.8905873 -1.8740851 3 3
15.71512 -3.9677825 -1.9901265 2 4
55.573624 -14.103578 -3.0048168 0 6
6.4150529 -1.6518803 -1.774981 1 0
7.4457998 -1.9214559 -1.7753137 3 1
9.0204115 -2.3345165 -1.8111591 3 2
11.476488 -2.9765711 -1.8778396 4 3
15.698565 -4.0803938 -1.991589 2 4
6.3809552 -1.6906875 -1.7687694 2 0
7.4096026 -1.967389 -1.769915 3 1
8.9887161 -2.3933923 -1.8081062 3 2
11.417256 -3.0464334 -1.8715822 4 3
15.690791 -4.1955304 -1.9942701 2 4
6.354085 -1.7311311 -1.7646283 1 0
7.4220066 -2.0262547 -1.7762135 2 1
8.9831495 -2.4591968 -1.810396 3 2
11.44524 -3.1396532 -1.8797168 4 3
15.687916 -4.312336 -1.9976823 2 4
45.074184 -12.449361 -2.4506838 0 6
6.3492866 -1.7775317 -1.7666988 1 0
7.4001746 -2.0759149 -1.7744139 2 1
9.0016699 -2.5319507 -1.8176465 4 2
11.457266 -3.2291248 -1.8853484 4 3
15.66507 -4.4239106 -1.9986575 2 4
25.860579 -7.322681 -2.3514619 24 5
44.355949 -12.58492 -2.4163513 0 6
6.3330088 -1.8207467 -1.7656636 1 0
7.415463 -2.1361578 -1.7816124 5 1
8.9913197 -2.596911 -1.8191731 4 2
11.442033 -3.3112285 -1.8865999 3 3
15.652868 -4.538692 -2.0010948 2 4
43.914177 -12.791499 -2.3970916 0 6
6.3349662 -1.8692888 -1.7698047 1 0
7.3872876 -2.1840074 -1.778463 3 1
8.9955587 -2.6663136 -1.8237525 4 2
11.441361 -3.3977759 -1.8903543 3 3
15.624609 -4.6489916 -2.0015824 2 4
6.3143663 -1.9112307 -1.7677342 2 0
7.3737259 -2.2360926 -1.7789129 4 1
8.9466705 -2.7199121 -1.8176465 4 2
11.447596 -3.4867773 -1.8953601 3 3
15.646832 -4.7747593 -2.0086505 3 4
6.3193202 -1.9609919 -1.7729106 2 0
7.3523521 -2.2857802 -1.7775632 3 1
8.9743223 -2.7969084 -1.8271869 3 2
11.438061 -3.571321 -1.8978633 3 3
15.620696 -4.8862486 -2.0096257 3 4
6.2870655 -1.9992065 -1.7677342 2 0
7.3566403 -2.34356 -1.7825122 4 1
8.9625587 -2.860317 -1.8287135 3 2
11.439828 -3.6575158 -1.9022434 3 3
15.586204 -4.995182 -2.0096257 3 4
6.3063774 -2.0527174 -1.7770516 2 0
7.327549 -2.3893514 -1.7793628 6 1
8.9125137 -2.9130585 -1.8226075 3 2
11.429034 -3.7422087 -1.9047463 2 3
15.604655 -5.1184802 -2.0164504 3 4
6.262569 -2.0869219 -1.7687694 2 0
7.3365679 -2.4490871 -1.7856615 6 1
8.9143009 -2.9826832 -1.8271869 3 2
11.421359 -3.8281844 -1.9078751 3 3
15.572304 -5.2285595 -2.0169377 3 4
6.2515039 -2.1318388 -1.7698047 2 0
7.3340449 -2.5052855 -1.7892607 6 1
54.620987 -18.679642 3.0253327 0 9
8.9006901 -3.0473876 -1.8287135 3 2
54.491245 -18.66715 5.0393448 1 10
11.390618 -3.9065449 -1.9072492 2 3
15.601132 -5.3597202 -2.0254686 2 4
6.2528853 -2.1811569 -1.7744634 2 0
7.3090172 -2.5538545 -1.7874612 6 1
8.8964186 -3.1137383 -1.8321481 4 2
11.397318 -3.9957507 -1.9128809 3 3
54.251701 -19.041206 7.0596476 0 11
15.638247 -5.4948273 -2.0352182 2 4
6.236074 -2.2230189 -1.7739457 3 0
7.2914643 -2.6035459 -1.7874612 6 1
8.8578281 -3.1698177 -1.8287135 3 2
11.343113 -4.0658898 -1.9085008 3 3
53.631657 -19.245165 6.9962754 0 11
15.637851 -5.6145625 -2.0400932 2 4
30.899277 -11.136609 -1.7213298 8 6
6.243999 -2.2750983 -1.7806751 2 0
7.287756 -2.6597307 -1.7910603 7 1
8.8612967 -3.2410204 -1.8340561 3 2
11.344128 -4.1558518 -1.9135066 2 3
15.659772 -5.7461629 -2.0481365 2 4
31.120644 -11.462502 -1.7380774 8 6
6.2333951 -2.3206558 -1.782228 3 0
7.2690096 -2.7105436 -1.7910603 7 1
8.8494892 -3.3069279 -1.8363459 3 2
11.314838 -4.2349472 -1.9135066 3 3
15.766115 -5.9103956 -2.0673916 2 4
30.751986 -11.571164 -1.7219577 8 6
6.2278767 -2.3682363 -1.7853339 3 0
7.228056 -2.7529013 -1.7856615 15 1
8.8738756 -3.3868289 -1.8462679 3 2
11.270235 -4.3081927 -1.9110037 3 3
15.820871 -6.0572281 -2.0800662 2 4
30.465378 -11.706766 -1.710444 8 6
6.196785 -2.4060631 -1.7811928 3 0
7.2213745 -2.808239 -1.7888107 25 1
8.8317223 -3.4415684 -1.8424517 3 2
11.269327 -4.3982596 -1.9160095 3 3
15.831816 -6.1884885 -2.0871346 3 4
30.390347 -11.922086 -1.7108626 8 6
6.1762443 -2.4478421 -1.7801574 3 0
7.2523093 -2.8787158 -1.8014081 6 1
8.8038321 -3.5016901 -1.8416885 3 2
11.271379 -4.4899845 -1.9216411 4 3
15.884104 -6.3371143 -2.0998089 3 4
30.387955 -12.16662 -1.715468 8 6
6.1733322 -2.4966953 -1.7842987 3 0
7.2157793 -2.9226916 -1.7973589 7 1
8.7937241 -3.5689733 -1.8447415 3 2
11.22146 -4.5611262 -1.9185126 4 3
15.924049 -6.4822793 -2.1110208 3 4
30.268995 -12.364875 -1.7135839 8 6
6.1557517 -2.539732 -1.7842987 4 0
7.2168126 -2.9819257 -1.8027576 7 1
8.7873688 -3.6362541 -1.8485577 3 2
11.204753 -4.6434517 -1.9210155 3 3
15.971909 -6.6321163 -2.1234517 5 4
6.1098294 -2.5695906 -1.7760164 3 0
7.1999402 -3.0324926 -1.8036577 7 1
8.8196497 -3.7219388 -1.8607695 3 2
11.168424 -4.7200241 -1.9203898 3 3
15.964784 -6.7569261 -2.1285703 25 4
30.404478 -12.912199 -1.731169 8 6
6.1165986 -2.6228411 -1.7832633 4 0
7.1714311 -3.0796075 -1.8018579 6 1
8.746562 -3.7632456 -1.8508474 3 2
11.15334 -4.8056951 -1.9235184 3 3
16.095842 -6.9452896 -2.1524565 3 4
23.216778 -10.051609 -1.3258792 21 6
6.1335416 -2.6809533 -1.7936161 9 0
7.1515422 -3.1303794 -1.8023077 5 1
8.7236719 -3.825793 -1.8516105 3 2
11.123137 -4.8850307 -1.9241441 4 3
16.172344 -7.1126328 -2.1692746 5 4
21.972931 -9.6957989 -1.2586799 10 6
6.0687938 -2.7032704 -1.7801574 14 0
7.1544299 -3.1913438 -1.8086064 5 1
8.6931667 -3.885 -1.8508474 3 2
11.09958 -4.9674067 -1.9260213 3 3
16.252722 -7.2838144 -2.1868236 5 4
21.132351 -9.501688 -1.214299 10 6
6.0467343 -2.7429204 -1.7791222 13 0
7.1183472 -3.233521 -1.8050072 4 1
8.6915379 -3.9554672 -1.8561901 3 2
11.112247 -5.0641422 -1.9341559 3 3
16.3039 -7.4404273 -2.2004731 5 4
21.041763 -9.6336718 -1.2128336 10 6
6.0590043 -2.7996528 -1.7884396 4 0
7.0991378 -3.2847738 -1.8059071 5 1
8.6245251 -3.9978838 -1.8477943 3 2
11.098123 -5.151577 -1.9379103 2 3
16.330765 -7.5908842 -2.2111976 11 4
21.006575 -9.7955275 -1.2147176 20 6
6.0428076 -2.843529 -1.789475 4 0
7.0883727 -3.3400693 -1.8090565 6 1
8.6283617 -4.073082 -1.8546635 3 2
11.069032 -5.2323074 -1.9391619 2 3
16.455002 -7.7887878 -2.2353277 9 4
20.493845 -9.7311935 -1.1889683 20 6
6.0297775 -2.8889852 -1.7915455 4 0
7.0490685 -3.381887 -1.8050072 4 1
8.6252127 -4.1436205 -1.8600061 3 2
11.068763 -5.324656 -1.9454193 3 3
16.502157 -7.9525967 -2.2492208 11 4
20.477488 -9.8947945 -1.1918992 20 6
6.0064998 -2.9282682 -1.7905102 4 0
7.0556564 -3.4443226 -1.8126557 3 1
8.6137114 -4.212359 -1.8638223 3 2
11.088091 -5.4296002 -1.9554311 2 3
16.494354 -8.0912123 -2.2558017 9 4
20.243025 -9.9564142 -1.1822693 10 6
5.9784708 -2.9677386 -1.7884396 4 0
7.0325742 -3.4955909 -1.8131055 4 1
8.584094 -4.2723913 -1.8638223 3 2
11.077239 -5.5229077 -1.9604369 2 3
16.787352 -8.3808422 -2.3038182 11 4
20.574867 -10.303125 -1.2059252 20 6
5.9645038 -3.0128875 -1.7905102 3 0
7.0010428 -3.5410836 -1.8113058 4 1
8.5322866 -4.32306 -1.8592429 3 2
11.1124 -5.6376424 -1.9735774 2 3
17.034613 -8.6533709 -2.3459849 9 4
20.637682 -10.515425 -1.2138803 20 6
5.9639435 -3.0650506 -1.7967219 4 0
6.9692206 -3.5863068 -1.8095063 4 1
8.5305853 -4.3954244 -1.8653487 3 2
11.105369 -5.7294536 -1.9792091 3 3
17.338835 -8.9607401 -2.3964391 11 4
20.281893 -10.508643 -1.1971327 10 6
5.9326692 -3.1002064 -1.7936161 4 0
6.9619145 -3.6426957 -1.8140053 3 1
8.4927368 -4.4512258 -1.8638223 3 2
11.121072 -5.8362174 -1.9892209 3 3
17.330156 -9.1062536 -2.4037511 11 4
21.158627 -11.150959 -1.2534462 10 6
5.9211168 -3.1469879 -1.7967219 4 0
6.9535174 -3.7003648 -1.8185043 2 1
8.487442 -4.52426 -1.8695467 4 2
11.135823 -5.9434786 -1.9992328 3 3
17.295925 -9.2429228 -2.4078948 13 4
19.97476 -10.705884 -1.1877123 10 6
5.9091997 -3.1937597 -1.7998277 3 0
6.9206591 -3.7451091 -1.8167046 3 1
8.4366636 -4.5731115 -1.8653487 3 2
11.121838 -6.0361514 -2.0042386 3 3
17.304234 -9.4032526 -2.4181318 12 4
19.804831 -10.793461 -1.18206 20 6
5.9070759 -3.2460997 -1.8060393 3 0
6.9301996 -3.8130603 -1.8261526 3 1
8.4543962 -4.659379 -1.8764157 4 2
11.098451 -6.1241469 -2.0076802 4 3
17.453619 -9.6428661 -2.4483552 10 4
19.797131 -10.969212 -1.1861422 20 6
5.8910165 -3.2910283 -1.80811 3 0
6.8693953 -3.8423228 -1.8171545 3 1
8.4028215 -4.7077327 -1.8722179 3 2
11.119172 -6.2372365 -2.0192564 4 3
17.133177 -9.6225567 -2.4127693 9 4
19.728771 -11.112055 -1.1866657 10 6
5.8544574 -3.3244433 -1.8039688 3 0
6.827157 -3.8815179 -1.8131055 4 1
8.3578081 -4.7594795 -1.8695467 4 2
11.118258 -6.33917 -2.0270779 5 3
17.693108 -10.100158 -2.5014904 10 4
19.876045 -11.378512 -1.200273 20 6
5.8377991 -3.3690968 -1.8060393 3 0
6.8336391 -3.9485846 -1.8221035 4 1
8.3532639 -4.8344297 -1.8760341 3 2
11.131844 -6.4503078 -2.0377157 5 3
17.860836 -10.361896 -2.5353701 13 4
19.934235 -11.597343 -1.2086468 10 6
5.8108039 -3.4078147 -1.8050041 3 0
6.8059068 -3.9961956 -1.8221035 3 1
8.3404741 -4.9031153 -1.8806137 3 2
18.00182 -10.612348 -2.5658374 11 4
16.95063 -10.016589 -1.0318558 19 6
5.7891326 -3.448277 -1.8055217 2 0
6.7718525 -4.0384364 -1.8203038 5 1
8.2757025 -4.9431014 -1.8737445 3 2
11.094406 -6.6346064 -2.0474145 6 3
17.782539 -10.651063 -2.5451195 13 4
17.524488 -10.508971 -1.7877386 37 5
16.90255 -10.148048 -1.0332165 19 6
5.7924037 -3.5066226 -1.8143215 3 0
6.7361155 -4.0827513 -1.8185043 4 1
8.2812719 -5.0251994 -1.8829032 3 2
11.112481 -6.7538376 -2.0596163 4 3
17.680616 -10.758438 -2.5412197 13 4
16.875534 -10.296826 -1.0360427 19 6
5.7661362 -3.5459638 -1.8138039 2 0
21.078176 -12.972451 0.43201688 47 8
6.7273617 -4.1419382 -1.8239032 4 1
8.2584705 -5.0925741 -1.8859563 3 2
11.135657 -6.874836 -2.072757 4 3
17.552731 -10.849253 -2.5336637 4 4
16.738728 -10.374406 -1.0320652 19 6
5.7166634 -3.5707805 -1.8060393 2 0
6.6850634 -4.1805367 -1.8203038 4 1
8.2559938 -5.1709461 -1.8935887 3 2
11.140944 -6.9859915 -2.0827687 5 3
18.779528 -11.789512 -2.7225614 9 4
15.398203 -9.6930122 -0.95356125 18 6
5.7030139 -3.6178465 -1.8096628 2 0
6.6705203 -4.2365079 -1.8243531 3 1
8.2329445 -5.2368875 -1.8966415 3 2
11.151885 -7.1017971 -2.094032 5 3
15.554971 -9.917244 -2.2650638 9 4
15.380213 -9.8171558 -1.5963445 34 5
14.828689 -9.4796963 -0.92236894 18 6
5.6678739 -3.6512957 -1.8065571 2 0
6.6604338 -4.2956476 -1.829752 6 1
8.2399902 -5.3204942 -1.9065636 3 2
11.174621 -7.2236547 -2.1074855 7 3
14.985453 -9.7019453 -2.1919422 13 4
15.144114 -9.8159237 -1.5789135 33 5
14.961518 -9.7087002 -0.93472028 18 6
5.6639085 -3.7035353 -1.8132863 3 0
6.6196275 -4.3334126 -1.8266027 5 1
8.2354822 -5.3994184 -1.914196 3 2
11.147038 -7.3166656 -2.1118655 9 3
14.822849 -9.7404947 -2.1778054 13 4
14.468087 -9.5327015 -0.9080289 18 6
5.6314778 -3.7387114 -1.8112158 3 0
6.6038194 -4.3892293 -1.8306518 6 1
8.1887321 -5.4488249 -1.9119062 3 2
11.093688 -7.3901811 -2.1112397 9 3
14.024605 -9.3567858 -2.0700727 15 4
14.514105 -9.7053442 -0.91504198 18 6
5.6244626 -3.7908921 -1.8174274 3 0
6.5730162 -4.4352245 -1.8306518 6 1
8.1592913 -5.5138769 -1.914196 3 2
11.099422 -7.5092244 -2.122503 11 3
14.131518 -9.5713558 -2.0956655 18 4
14.346799 -9.7427559 -0.90886635 18 6
5.5851054 -3.8213389 -1.8132863 3 0
6.5515394 -4.4876127 -1.8333511 6 1
8.2112589 -5.6328988 -1.9355664 3 2
11.09395 -7.6189604 -2.1315763 13 3
13.951486 -9.5921745 -2.0788474 7 4
14.370522 -9.9061556 -0.91472793 9 6
5.5693989 -3.8679504 -1.8169098 2 0
6.5120506 -4.5276785 -1.8311015 5 1
8.1427345 -5.6698923 -1.9286975 3 2
10.995116 -7.6645947 -2.1228158 14 3
13.933016 -9.7234211 -2.0861595 11 4
13.703099 -9.5736446 -1.4624733 30 5
14.595575 -10.212341 -0.93356889 9 6
5.5612078 -3.9200938 -1.8231214 2 0
6.4850597 -4.5764012 -1.8324513 6 1
8.171298 -5.7727642 -1.9447254 3 2
10.921724 -7.7244296 -2.1187487 10 3
13.62181 -9.6483469 -2.0495987 13 4
14.646241 -10.397004 -0.94131458 9 6
5.5375385 -3.9601045 -1.8241568 2 0
6.4600968 -4.6249747 -1.8342509 7 1
8.1674957 -5.8559809 -1.9535027 4 2
10.782479 -7.739439 -2.1021667 4 3
14.003971 -10.062875 -2.1173582 15 4
13.678064 -9.8431711 -1.4743265 30 5
13.81814 -9.9549627 -0.89253747 8 6
5.5113206 -3.9998012 -1.8246742 3 0
6.4402637 -4.6791253 -1.8378501 6 1
8.1184759 -5.9070821 -1.9515946 3 2
10.365735 -7.5505137 -2.0311453 3 3
13.628633 -9.9381695 -2.0710478 15 4
13.480292 -9.8444204 -1.4603816 30 5
13.828922 -10.110125 -0.89777112 9 6
5.4910402 -4.0439081 -1.8272625 2 0
6.3901873 -4.7112517 -1.8329012 4 1
8.1117868 -5.9892702 -1.95999 3 2
11.56136 -8.5455914 -2.2770603 9 3
13.487112 -9.9799385 -2.0600796 10 4
13.972948 -10.36588 -0.91179711 9 6
5.4410105 -4.0659542 -1.8200157 2 0
14.062139 -10.515997 0.30649915 28 8
6.3930302 -4.7825975 -1.843249 6 1
8.1043425 -6.0716524 -1.9683858 3 2
10.126558 -7.5949473 -2.0048645 9 3
13.075809 -9.8175936 -2.0076756 13 4
13.900241 -10.463176 -0.91179711 9 6
5.4186497 -4.1085086 -1.8220862 2 0
13.637917 -10.34799 0.29882011 27 8
6.3517241 -4.8212214 -1.8409994 5 1
8.0977058 -6.1554079 -1.977163 4 2
10.079576 -7.6702428 -2.0061157 7 3
13.284871 -10.120359 -2.0505736 15 4
13.89352 -10.610876 -0.91619331 9 6
5.3944287 -4.1497717 -1.8236392 3 0
13.560824 -10.435701 0.29868048 27 8
6.3240871 -4.870203 -1.8427991 4 1
8.1147041 -6.2559342 -1.9916644 4 2
11.453327 -8.8393707 -2.2914524 11 3
13.088242 -10.115743 -2.0310745 15 4
13.767288 -10.663617 -0.91263455 9 6
5.3599644 -4.1816401 -1.8215685 4 0
13.367846 -10.436594 0.29602769 27 8
6.30615 -4.9251313 -1.8472981 4 1
8.0600061 -6.3039656 -1.9889932 10 2
11.456661 -8.9702606 -2.3045928 11 3
12.337897 -9.6706705 -1.9248046 13 4
13.604564 -10.690365 -0.90677285 9 6
5.327611 -4.2165599 -1.8205333 3 0
13.241364 -10.487452 0.29484096 27 8
6.303688 -4.9944506 -1.8567461 3 1
8.0357933 -6.3759451 -1.9939542 60 2
11.461818 -9.104084 -2.3183591 10 3
12.332234 -9.8059874 -1.9345541 11 4
13.856009 -11.045278 -0.92864931 18 6
5.3070831 -4.2609072 -1.8236392 4 0
13.317478 -10.699874 0.29819182 27 8
6.2944889 -5.0590901 -1.8643943 2 1
8.0002623 -6.4392753 -1.9962438 7 2
11.48412 -9.2532873 -2.3358798 9 3
11.404399 -9.198904 -1.7990354 1 4
12.379313 -9.9959822 -1.3920516 28 5
14.848606 -12.00701 -1.0007683 9 6
5.2742109 -4.2954135 -1.8226038 3 0
6.2439132 -5.0905967 -1.8598953 2 1
8.0125227 -6.5395122 -2.0103636 4 2
11.478998 -9.3787346 -2.3477688 9 3
11.309174 -9.2531567 -1.7941607 2 4
12.26915 -10.049337 -1.3875195 27 5
12.610474 -10.339942 -0.85464621 8 6
5.2567682 -4.3410554 -1.8267449 4 0
6.2331495 -5.1528449 -1.8670937 3 1
8.0241394 -6.6428642 -2.0248652 4 2
11.401076 -9.4485598 -2.3452659 11 3
11.31926 -9.3907585 -1.80586 2 4
12.092664 -10.057362 -0.82429141 17 6
5.2085619 -4.3627625 -1.8205333 4 0
13.150627 -11.022957 0.2995182 27 8
6.2194228 -5.2150168 -1.8738421 3 1
7.9835825 -6.7037716 -2.0263917 4 2
11.17455 -9.3931913 -2.3121016 9 3
12.120709 -10.199355 -1.9450349 9 4
12.141233 -10.241989 -0.83245581 17 6
5.1897559 -4.4090247 -1.8246742 4 0
6.1991935 -5.2721963 -1.8787912 3 1
7.9724593 -6.7898941 -2.0355504 4 2
11.499536 -9.8041897 -2.3934476 9 3
11.106871 -9.482811 -1.7931857 1 4
11.989002 -10.257683 -0.82690823 17 6
5.1551466 -4.4435263 -1.8236392 4 0
13.268041 -11.440547 0.30580106 28 8
6.1657338 -5.3202415 -1.880141 3 1
7.9426908 -6.8607864 -2.0401299 6 2
11.109368 -9.6096706 -2.3264937 1 3
12.044343 -10.429459 -1.9562467 18 4
11.724828 -10.163529 -1.3575379 26 5
11.864013 -10.298695 -0.8233493 17 6
5.1239996 -4.4794078 -1.8236392 4 0
13.215935 -11.56153 0.30649915 28 8
6.1431065 -5.3759899 -1.8846399 3 1
7.9347348 -6.9536772 -2.0508151 4 2
11.757751 -10.314901 -2.4772964 9 3
11.880254 -10.433384 -1.9413787 18 4
11.635631 -10.229351 -1.3554461 26 5
11.862283 -10.4433 -0.82826895 17 6
5.1012759 -4.5227594 -1.8267449 4 0
13.28654 -11.783907 0.30998966 28 8
6.1156282 -5.4278002 -1.8877892 5 1
7.9664741 -7.0779409 -2.0714226 4 2
11.672508 -10.381567 -2.4741678 12 3
12.340782 -10.991373 -2.0291247 12 4
11.745364 -10.472094 -1.3767121 27 5
12.205162 -10.893523 -0.85736769 8 6
12.331711 -11.02195 -0.28869772 30 7
5.0962343 -4.5806236 -1.8360624 7 0
6.1017199 -5.4901576 -1.8949877 4 1
7.9008236 -7.1189284 -2.0672247 9 2
11.61735 -10.47868 -2.4779222 9 3
12.026999 -10.859602 -1.989639 6 4
12.247275 -11.085691 -0.86574155 8 6
5.0584207 -4.6108837 -1.8339919 4 0
6.0805163 -5.5483832 -1.9003865 4 1
7.8666782 -7.1857824 -2.0710409 9 2
11.146318 -10.192266 -2.3921962 9 3
11.327213 -10.372207 -1.8858064 13 4
11.470615 -10.514565 -1.3613727 26 5
11.421021 -10.480115 -0.8123588 17 6
5.0155678 -4.6347198 -1.8298507 4 0
6.0569143 -5.6028762 -1.9048855 4 1
7.7918367 -7.2178459 -2.0645535 12 2
10.310107 -9.5606432 -2.2270014 1 3
11.398928 -10.58142 -1.9096928 6 4
11.471756 -10.660213 -1.3700883 27 5
11.781832 -10.963691 -0.84344637 17 6
4.988728 -4.6749063 -1.8319213 4 0
6.0290222 -5.6556907 -1.9084847 5 1
7.7554069 -7.2828121 -2.0679879 10 2
10.149799 -9.5413017 -2.206352 3 3
11.002452 -10.357315 -1.8553391 9 4
11.513055 -10.849353 -1.3840332 27 5
11.156308 -10.524207 -0.80377567 8 6
4.9503679 -4.7042966 -1.8298507 4 0
5.9978633 -5.7057023 -1.9111842 4 1
7.7102013 -7.3448915 -2.069896 12 2
10.118433 -9.6491318 -2.2144866 4 3
11.501373 -10.994792 -1.3920516 28 5
10.904668 -10.435301 -0.79100567 8 6
4.9368806 -4.7575092 -1.8370978 4 0
5.9662991 -5.7555537 -1.9138836 5 1
7.6559129 -7.395812 -2.0691328 12 2
10.515165 -10.168573 -2.3167946 8 3
10.935213 -10.585861 -1.8687446 16 4
10.886017 -10.564031 -0.79498327 26 6
4.925653 -4.8134618 -1.8453798 3 0
5.9482608 -5.8188691 -1.9210819 5 1
7.5970826 -7.4422107 -2.0672247 10 2
10.126583 -9.930541 -2.2463992 6 3
10.940374 -10.739821 -1.8823941 5 4
10.885417 -10.697069 -1.3352259 25 5
10.886027 -10.712618 -0.80042619 26 6
4.875463 -4.8314137 -1.8391682 3 0
5.9240942 -5.8767233 -1.9264808 5 1
7.5351048 -7.4826822 -2.0641718 10 2
9.2630196 -9.2082138 -2.0686896 1 3
10.637219 -10.589058 -1.8429084 12 4
10.706038 -10.668731 -1.3223269 25 5
10.681355 -10.655287 -0.79069173 17 6
4.8451896 -4.8672261 -1.8402034 3 0
5.8990722 -5.9321103 -1.9314297 6 1
7.6473041 -7.7008791 -2.1095843 12 2
9.2124195 -9.2866812 -2.0718184 2 3
10.425168 -10.520216 -1.8185345 19 4
10.634098 -10.746045 -1.3226755 25 5
10.852428 -10.978164 -0.80900931 17 6
4.8408651 -4.9312625 -1.8515915 3 0
5.873888 -5.9898453 -1.9368286 7 1
7.6345639 -7.7961597 -2.121033 10 2
10.892021 -11.134221 -2.4669719 8 3
10.486048 -10.730454 -1.8421772 10 4
10.608913 -10.871358 -1.3289508 25 5
10.640288 -10.914936 -0.79885614 17 6
4.8049774 -4.9635501 -1.8510739 2 0
5.8508935 -6.0503187 -1.9431273 7 1
7.6399579 -7.9114075 -2.1378241 10 2
10.85654 -11.254062 -2.4766707 9 3
10.310325 -10.699053 -1.8243842 6 4
10.499601 -10.910701 -1.3247672 25 5
10.56106 -10.986073 -0.79864681 17 6
4.7995558 -5.0277157 -1.862462 2 0
5.8354092 -6.1192236 -1.9521253 7 1
7.6034946 -7.9844551 -2.1431668 10 2
10.837614 -11.392554 -2.490437 11 3
10.5581 -11.110371 -1.8819065 12 4
10.01722 -10.555947 -1.2731711 23 5
10.561053 -11.140704 -0.80450839 17 6
4.7524214 -5.0484405 -1.8578032 3 0
5.8005581 -6.1683307 -1.9548247 7 1
7.6900258 -8.189045 -2.1836183 10 2
10.109103 -10.776402 -2.34026 9 3
10.46399 -11.166429 -1.8789817 12 4
10.087585 -10.779828 -1.291648 24 5
10.513025 -11.246262 -0.80681115 17 6
4.73809 -5.1041484 -1.8660854 2 0
5.7388024 -6.1886706 -1.9485261 18 1
7.6900263 -8.3044739 -2.2000279 13 2
10.610422 -11.470255 -2.4747934 6 3
10.242973 -11.084665 -1.8531454 13 4
10.12558 -10.972986 -1.3062903 24 5
10.186531 -11.050642 -0.78765625 17 6
4.7023411 -5.1371021 -1.8660854 2 0
7.651721 -8.3797035 -2.2057521 10 2
10.62993 -11.653506 -2.4982588 5 3
10.472852 -11.493384 -1.9092052 13 4
10.043364 -11.037514 -1.305593 24 5
9.8807564 -10.870238 -0.769862 26 6
4.6728349 -5.1769753 -1.8686736 2 0
5.6740203 -6.2927976 -1.9561743 26 1
7.6298156 -8.4737701 -2.2164373 12 2
9.8204355 -10.918189 -2.3258679 3 3
9.9465742 -11.07008 -1.827309 2 4
9.793087 -10.914574 -1.2829325 23 5
10.108565 -11.278053 -0.79372716 17 6
4.6391482 -5.212358 -1.8697089 2 0
5.6765647 -6.3846855 -1.9723709 7 1
7.5769901 -8.5341692 -2.2183454 10 2
10.43866 -11.769753 -2.4916885 9 3
10.428518 -11.770725 -1.9308981 9 4
9.5469093 -10.787024 -1.260272 23 5
10.159202 -11.495011 -0.803985 8 6
4.6255827 -5.2707534 -1.8790263 2 0
5.6588302 -6.4549317 -1.9818188 7 1
7.5588217 -8.6313314 -2.2301757 10 2
9.8757668 -11.288946 -2.3756142 4 3
9.8080196 -11.227311 -1.8304777 9 4
9.4189692 -10.793364 -1.2532996 22 5
9.6725597 -11.095678 -0.7714321 17 6
4.5870705 -5.2991953 -1.8779911 2 0
5.6198611 -6.4991965 -1.9836185 7 1
7.5278912 -8.7180681 -2.2389529 10 2
9.8431644 -11.411465 -2.3868773 5 3
9.5097904 -11.036656 -1.7887983 7 4
9.3303938 -10.843754 -1.2515564 22 5
9.5935602 -11.161422 -0.77132744 17 6
4.5687757 -5.3531318 -1.8857557 3 0
5.5794086 -6.5442038 -1.985418 7 1
7.4757524 -8.7808743 -2.2416241 12 2
9.6775131 -11.379085 -2.3659151 7 3
9.6792784 -11.393242 -1.8355962 7 4
9.5773869 -11.301261 -0.77635163 17 6
4.5362678 -5.3908091 -1.8878261 3 0
5.561172 -6.6158133 -1.9953159 7 1
7.4483495 -8.8734512 -2.2519279 10 2
9.7780676 -11.661311 -2.4103425 6 3
9.248971 -11.042049 -1.7685682 9 4
9.4587202 -11.304482 -1.2895564 24 5
9.9285402 -11.882827 -0.81152141 26 6
4.5034571 -5.4282937 -1.8898968 3 0
5.5223107 -6.6634789 -1.9980152 7 1
7.4315958 -8.9768734 -2.2652845 10 2
9.5902014 -11.596682 -2.3834357 6 3
9.2133713 -11.156861 -1.7766114 7 4
9.2984276 -11.271875 -1.2784004 23 5
9.7254944 -11.802162 -0.8014729 17 6
4.4590635 -5.4498515 -1.886791 3 0
5.4990249 -6.7280722 -2.0061135 7 1
7.3861241 -9.0498304 -2.2706273 10 2
9.340497 -11.456661 -2.3411984 5 3
9.7531319 -11.97985 -1.8967746 4 4
9.3527613 -11.500365 -1.2968775 24 5
9.7234602 -11.968983 -0.80817193 17 6
4.4223766 -5.4846272 -1.8878261 3 0
5.4507389 -6.7672501 -2.0061135 7 1
7.3055344 -9.0797606 -2.2652845 10 2
9.5032492 -11.828111 -2.4031465 5 3
9.1511288 -11.402071 -1.7951355 1 4
9.3594847 -11.674192 -1.3090792 24 5
9.7723722 -12.206644 -0.81947649 8 6
4.4200411 -5.5607367 -1.9033554 3 0
5.4348693 -6.8448186 -2.0178108 7 1
7.2220783 -9.1087294 -2.2595603 10 2
9.3468561 -11.801256 -2.3843744 5 3
9.8053865 -12.39352 -1.9404038 13 4
9.1052618 -11.525124 -1.2850242 23 5
4.3834958 -5.5944996 -1.9043906 3 0
5.437398 -6.9470463 -2.0367069 7 1
7.2912993 -9.3290796 -2.3015382 9 2
9.0600157 -11.604639 -2.3318124 8 3
9.6209631 -12.336445 -1.9209048 14 4
9.1323071 -11.726741 -1.3003637 24 5
4.3585024 -5.6433134 -1.9106023 3 0
5.3982887 -6.9971805 -2.0403061 8 1
7.391336 -9.5943813 -2.3542016 10 2
9.0570869 -11.769361 -2.3521488 7 3
9.7656803 -12.703912 -1.9674588 6 4
8.9652958 -11.679578 -1.2881619 24 5
4.3213391 -5.6766777 -1.9116375 3 0
5.3445892 -7.0284915 -2.0385065 9 1
7.4096575 -9.7583246 -2.3816779 10 2
9.0702009 -11.958216 -2.3771784 7 3
9.4238043 -12.437927 -1.91603 13 4
10.047174 -13.279927 -1.4568955 29 5
4.2756414 -5.6966901 -1.9085318 3 0
5.2966247 -7.0647078 -2.0385065 9 1
7.4771943 -9.9877014 -2.4251826 9 2
9.2524099 -12.372453 -2.4469483 5 3
9.4256496 -12.617881 -1.933823 5 4
4.2403626 -5.7326126 -1.9106023 4 0
5.2494912 -7.1046481 -2.0394061 9 1
7.5023055 -10.164733 -2.4557118 10 2
9.1644621 -12.430374 -2.4460096 6 3
13.709423 -18.622213 -2.8393121 12 4
4.2217321 -5.7894392 -1.9199197 3 0
5.2010102 -7.1402154 -2.0394061 9 1
7.4380894 -10.226387 -2.4580016 7 2
9.0728149 -12.487659 -2.4447582 6 3
13.51589 -18.623524 -2.8254192 10 4
4.1721931 -5.806221 -1.9157786 3 0
5.1544452 -7.1811008 -2.040756 11 1
7.4259872 -10.361043 -2.4778459 9 2
8.996913 -12.566755 -2.4478867 6 3
13.331272 -18.641537 -2.8139632 12 4
4.1427202 -5.8509731 -1.9209551 3 0
5.1064367 -7.2200918 -2.0416558 13 1
7.4304852 -10.521683 -2.5037959 9 2
8.8941603 -12.608274 -2.4438195 8 3
13.196232 -18.727661 -2.8129883 12 4
4.0929294 -5.8670764 -1.9168139 4 0
5.0770755 -7.2859435 -2.0502038 14 1
7.4215021 -10.662251 -2.5251663 9 2
8.7878351 -12.639329 -2.4381878 8 3
13.07196 -18.829115 -2.814451 12 4
4.0682225 -5.9170871 -1.9240609 4 0
5.0406027 -7.3396106 -2.0556028 15 1
7.3990707 -10.789902 -2.5431025 10 2
8.7071953 -12.711779 -2.440378 7 3
12.92114 -18.892059 -2.8103073 8 4
4.0301089 -5.952445 -1.9261314 4 0
4.9890447 -7.3771052 -2.0560527 17 1
7.3521361 -10.883592 -2.5530245 10 2
8.3022995 -12.308664 -2.3515232 7 3
12.774514 -18.960403 -2.8071387 12 4
3.9905989 -5.9836502 -1.9271667 4 0
4.9547086 -7.437705 -2.0632513 23 1
7.3077731 -10.986598 -2.5648546 10 2
8.1593227 -12.280767 -2.335254 9 3
12.593538 -18.976349 -2.7964141 12 4
3.9572134 -6.024281 -1.9313078 4 0
4.9176297 -7.494925 -2.0695498 14 1
7.2382021 -11.044296 -2.5667627 10 2
8.0441666 -12.288093 -2.3261807 8 3
12.430344 -19.017279 -2.7895896 14 4
3.9350088 -6.0802698 -1.9406252 4 0
4.8791952 -7.5478625 -2.0749483 16 1
7.1257892 -11.040126 -2.5541694 10 2
7.9464102 -12.325688 -2.3227391 11 3
12.311357 -19.118139 -2.792027 12 4
3.898695 -6.1173677 -1.9437311 7 0
4.8473125 -7.6146207 -2.0839467 15 1
7.0274782 -11.056464 -2.5465369 7 2
7.8305225 -12.334168 -2.3139789 10 3
12.176523 -19.201944 -2.7917831 10 4
3.8476777 -6.1313462 -1.93959 29 0
4.812664 -7.6779952 -2.0920448 16 1
6.9407454 -11.090279 -2.5431025 12 2
7.7840123 -12.452187 -2.3258679 11 3
12.118923 -19.409403 -2.809576 12 4
4.8561702 -7.8689523 -2.1347857 14 1
6.8661265 -11.138936 -2.543484 13 2
7.7208228 -12.540207 -2.3324382 4 3
11.981046 -19.490154 -2.8090887 14 4
3.7768338 -6.2069187 -1.9468369 39 0
4.7974358 -7.8934984 -2.1325359 16 1
6.7291231 -11.089252 -2.5213501 10 2
7.4436679 -12.28128 -2.2745574 9 3
11.788481 -19.472761 -2.7949519 14 4
3.7353954 -6.2364488 -1.9478723 7 0
4.7672243 -7.968606 -2.1437836 14 1
6.6434884 -11.122475 -2.5182972 10 2
7.3324456 -12.290537 -2.2667358 4 3
11.648181 -19.547764 -2.7939768 12 4
3.7074635 -6.2890019 -1.9561545 4 0
4.7025776 -7.9865794 -2.1397343 16 1
6.5776167 -11.188894 -2.5228767 10 2
8.8157806 -15.014124 -2.757627 11 3
11.585745 -19.75532 -2.8120134 12 4
3.65959 -6.3080468 -1.9540838 4 0
4.6848097 -8.0849733 -2.1572804 15 1
6.4698362 -11.179032 -2.5106649 10 2
8.8161926 -15.251644 -2.7901654 8 3
11.484256 -19.899336 -2.8210318 8 4
3.6242321 -6.3462319 -1.958225 4 0
4.6316013 -8.12006 -2.1581805 15 1
6.4168935 -11.268284 -2.520587 13 2
8.705595 -15.305953 -2.788914 3 3
11.077919 -19.500662 -2.7537599 4 4
3.5911949 -6.3915887 -1.9644365 5 0
4.5929208 -8.1844864 -2.1667287 16 1
6.3265562 -11.292254 -2.5160077 10 2
8.5734472 -15.321537 -2.7807794 7 3
11.387961 -20.376358 -2.8661234 12 4
3.5464857 -6.4165044 -1.9644365 4 0
4.5610986 -8.262414 -2.1788759 14 1
6.2352481 -11.313794 -2.5110466 10 2
8.4481773 -15.348136 -2.7748349 10 3
11.234913 -20.436228 -2.8634422 10 4
3.5145223 -6.4648685 -1.9716836 4 0
4.5488677 -8.3779726 -2.2009211 16 1
6.1486282 -11.34324 -2.5079937 10 2
8.3248329 -15.377209 -2.769516 7 3
11.085359 -20.501942 -2.8617361 12 4
3.4693031 -6.4892468 -1.9716836 4 0
4.5205584 -8.4662523 -2.2157679 14 1
6.0425053 -11.335647 -2.4969265 10 2
8.1105261 -15.23443 -2.7335362 10 3
10.899092 -20.498207 -2.8505242 12 4
3.4311063 -6.526989 -1.9758247 4 0
4.4631543 -8.5010557 -2.2166677 14 1
5.9650445 -11.381032 -2.4976897 7 2
7.9691601 -15.224177 -2.721647 10 3
10.822858 -20.702219 -2.8683171 10 4
3.3901486 -6.557056 -1.9778951 4 0
4.4212809 -8.5624065 -2.224766 14 1
4.9726143 -9.6466532 -2.1095843 3 2
5.275815 -10.248021 -1.8255905 13 3
10.668077 -20.748924 -2.864661 14 4
3.3582938 -6.6081195 -1.9861774 4 0
4.359632 -8.5895882 -2.2238662 14 1
5.1207561 -10.1023 -2.2015543 15 2
5.2077217 -10.287219 -1.8262162 13 3
10.576685 -20.929199 -2.8792853 12 4
3.3115091 -6.6273689 -1.9851422 4 0
4.3115063 -8.6399889 -2.229265 14 1
4.7874885 -9.6106167 -2.087069 21 2
5.154254 -10.360465 -1.8327864 24 3
10.47461 -21.082483 -2.8904972 12 4
3.2787828 -6.678072 -1.9934243 5 0
4.2613773 -8.6908741 -2.2346637 15 1
4.7789459 -9.7593527 -2.1122558 21 2
5.0532413 -10.3332 -1.821836 21 3
10.327172 -21.155096 -2.8904972 14 4
3.2349308 -6.7037148 -1.9944596 4 0
4.2249656 -8.7670784 -2.2468112 17 1
4.6647396 -9.6969414 -2.0916483 18 2
4.5943389 -9.5634108 -1.6804192 10 3
10.196676 -21.253538 -2.8943973 12 4
3.2128737 -6.7785063 -2.0099888 3 0
4.1703267 -8.8104515 -2.2504103 17 1
4.5365419 -9.6014643 -2.0641718 24 2
4.5889978 -9.725666 -1.7032586 24 3
4.9423718 -10.488814 -1.4236778 19 4
3.1719954 -6.8147826 -2.0141299 5 0
4.1021461 -8.8252134 -2.2468112 25 1
4.4380016 -9.5652266 -2.0496705 21 2
4.4636869 -9.6337957 -1.6816708 18 3
4.6739655 -10.101492 -1.366643 3 4
3.1404021 -6.871902 -2.0244827 9 0
3.9918909 -8.7472649 -2.2198169 21 1
4.4378495 -9.7424793 -2.0809629 18 2
4.3128929 -9.4813175 -1.6497581 18 3
4.657515 -10.253162 -1.3827296 12 4
3.0844438 -6.8760328 -2.0193064 7 0
3.9355075 -8.7855911 -2.2225163 21 1
4.4178095 -9.8807611 -2.1038601 22 2
4.3045835 -9.6410646 -1.6722846 19 3
4.5300441 -10.160327 -1.3659117 4 4
3.0363648 -6.8973985 -2.0193064 9 0
3.893682 -8.8574514 -2.2337639 26 1
4.2272434 -9.6344967 -2.0450909 22 2
4.2086329 -9.6057463 -1.6610212 20 3
4.6396241 -10.604538 -1.4212404 12 4
2.9881387 -6.9184275 -2.0193064 9 0
3.8140013 -8.8432617 -2.2234163 38 1
4.1070952 -9.541151 -2.019141 22 2
4.1461496 -9.6457825 -1.6628985 27 3
4.9951363 -11.677032 -0.66560876 17 6
2.9262011 -6.9071016 -2.0099888 9 0
3.6823206 -8.7045555 -2.1820252 28 1
4.0510759 -9.5949135 -2.0244837 22 2
4.1454725 -9.8328533 -1.6901182 24 3
4.0967593 -9.7315388 -1.2964462 21 4
4.4962459 -10.717081 -0.60908592 9 6
2.8912511 -6.9594741 -2.0193064 9 0
3.5856202 -8.6436501 -2.16043 29 1
3.8383017 -9.2710562 -1.9504496 21 2
4.0080509 -9.6954298 -1.6616471 16 3
4.0847692 -9.8956852 -1.3144828 16 4
4.0374494 -9.8004417 -0.92733705 13 5
4.7328377 -11.505516 -0.65200138 8 6
2.8272927 -6.9419165 -2.0084357 10 0
3.5839188 -8.8128862 -2.1964221 24 1
3.6110575 -8.8974152 -1.8664937 21 2
3.8393683 -9.4741907 -1.6190969 17 3
3.9917595 -9.8650761 -1.3066832 10 4
4.1688695 -10.323504 -0.97405255 27 5
2.7852056 -6.9776335 -2.0130947 9 0
3.5381799 -8.8775177 -2.20632 30 1
3.5488539 -8.9224081 -1.8664937 19 2
3.7461555 -9.4328346 -1.6075207 22 3
3.9937694 -10.071698 -1.3303258 29 4
4.0794349 -10.303477 -0.96952045 13 5
4.2209096 -10.682583 -0.60196823 9 6
2.7336102 -6.9897108 -2.011024 9 0
3.5392027 -9.0635595 -2.246361 16 1
3.5279763 -9.048789 -1.8878642 25 2
3.7055101 -9.5188627 -1.6178455 17 3
3.6983659 -9.5201683 -1.2540357 20 4
3.8993304 -10.053072 -0.94337374 13 5
4.1480975 -10.711066 -0.60196823 27 6
4.619998 -11.95436 -0.22370495 17 7
2.6928837 -7.026195 -2.0162005 9 0
3.4286757 -8.9600372 -2.2148681 24 1
3.3218427 -8.6990461 -1.8100141 15 2
3.5010357 -9.1827297 -1.5565232 17 3
3.7703283 -9.9254589 -0.9289059 33 5
4.0172677 -10.592235 -0.59369916 19 6
2.6478386 -7.055676 -2.0193064 9 0
3.3168101 -8.8523664 -2.1824751 25 1
3.2541559 -8.7036362 -1.8061981 21 2
3.6751761 -9.845418 -1.6644629 22 3
3.5307047 -9.4735298 -1.2413613 19 4
3.6960831 -9.9384661 -0.92768568 19 5
3.9035964 -10.513297 -0.58773285 28 6
2.5971839 -7.0703626 -2.018271 9 0
3.2737155 -8.9265337 -2.1950724 30 1
3.2783258 -8.9584455 -1.8542819 19 2
3.4829786 -9.5331488 -1.6075207 20 3
3.4801261 -9.5408392 -1.2469672 25 4
3.6378932 -9.989604 -0.93012613 26 5
3.8328331 -10.547802 -0.58815157 19 6
4.0202017 -11.081505 -0.20576388 22 7
2.5542965 -7.1065011 -2.0234473 9 0
3.1961789 -8.9069853 -2.1847248 27 1
3.1709225 -8.8511772 -1.8275685 18 2
3.5936317 -10.047674 -1.6901182 18 3
3.4034271 -9.5368586 -1.2433112 22 4
3.5760894 -10.03728 -0.93221778 19 5
3.6632268 -10.298907 -0.57286942 30 6
3.9240131 -11.056534 -0.20478654 36 7
2.5109932 -7.1383023 -2.0275886 9 0
3.0799482 -8.7704096 -2.146033 25 1
3.1908548 -9.1065521 -1.8756526 16 2
3.3218558 -9.4963589 -1.5934417 17 3
3.2818165 -9.4029522 -1.2228371 16 4
3.365639 -9.6593704 -0.89491516 18 5
3.5833638 -10.301595 -0.57161337 30 6
3.7864084 -10.909858 -0.20157529 14 7
2.4585924 -7.1524339 -2.0265532 9 0
3.0031953 -8.7516727 -2.1361351 21 1
3.1144764 -9.0914602 -1.8680203 16 2
3.1094306 -9.0974445 -1.5227332 17 3
3.2250669 -9.4519358 -1.2262495 10 4
3.4368834 -10.090004 -0.93256646 19 5
3.6380885 -10.705181 -0.59254777 19 6
3.4994283 -10.314897 -0.19012651 32 7
2.4147513 -7.1877365 -2.0317297 9 0
2.868907 -8.5544071 -2.0830467 23 1
3.0742576 -9.1879864 -1.8832849 22 2
3.0902767 -9.2519579 -1.5449469 18 3
3.3864143 -10.162169 -1.315214 20 4
3.4979191 -10.515132 -0.96952045 13 5
3.3303707 -10.028991 -0.55381918 31 6
3.4431357 -10.392825 -0.19110386 13 7
2.3656645 -7.2121744 -2.0338001 9 0
2.9337513 -8.9599323 -2.1766264 25 1
2.946605 -9.0151501 -1.8435967 21 2
3.0858448 -9.4635172 -1.5765467 10 3
3.2385845 -9.9496117 -1.2847468 16 4
3.1079638 -9.5653296 -0.87992436 12 5
3.2166407 -9.9233685 -0.54670143 31 6
3.5083957 -10.842786 -0.19892253 21 7
2.3130598 -7.2129884 -2.029659 9 0
2.8956497 -9.0460072 -2.1928227 17 1
2.930562 -9.1771326 -1.8725995 24 2
3.0290115 -9.5025969 -1.5796754 17 3
3.1622937 -9.9387131 -1.2806032 28 4
3.0711138 -9.6755171 -0.88811702 31 5
3.0934479 -9.7636061 -0.53675765 43 6
2.2661116 -7.2400227 -2.0327649 9 0
2.8545091 -9.1366863 -2.2099192 22 1
2.8932941 -9.2835884 -1.890154 21 2
2.9074409 -9.3462076 -1.5502658 25 3
3.0828254 -9.9283199 -1.2764597 22 4
2.8838232 -9.3103752 -0.85273176 18 5
3.0092816 -9.7334452 -0.53393149 32 6
3.4135351 -11.061513 -0.20206398 35 7
2.2222815 -7.2778378 -2.0389764 9 0
2.6906645 -8.828311 -2.1307364 21 1
2.8192754 -9.2735071 -1.8840481 22 2
2.9390585 -9.6857319 -1.6031406 18 3
3.0065327 -9.9268007 -1.2735348 19 4
2.797437 -9.2597122 -0.84628218 36 5
2.958554 -9.8115826 -0.53707159 32 6
3.1160796 -10.3536 -0.18873031 19 7
2.1758287 -7.3079877 -2.0431178 9 0
3.5684683 -12.000782 0.21853903 31 8
2.6184189 -8.811388 -2.1221881 25 1
2.482199 -8.3743963 -1.6978186 18 2
2.6741152 -9.0392466 -1.4930108 20 3
2.8573353 -9.6772032 -1.2389238 23 4
2.7603042 -9.3726664 -0.85482353 24 5
2.8753424 -9.782177 -0.53435016 32 6
3.1146514 -10.616875 -0.19312833 13 7
2.1274476 -7.3322763 -2.0457058 10 0
3.2909198 -11.357004 0.20639215 42 8
2.6560349 -9.1719999 -2.2045202 15 1
2.6873429 -9.3044214 -1.8825216 16 2
2.8276119 -9.8093386 -1.6169068 18 3
2.8303204 -9.8380852 -1.2569605 19 4
2.7420797 -9.5501842 -0.86929142 30 5
2.7959826 -9.7636099 -0.53225672 33 6
2.9217622 -10.223054 -0.1855889 24 7
2.0851388 -7.3785534 -2.0545056 9 0
3.3776667 -11.960319 0.21693341 15 8
2.4628694 -8.7326784 -2.0947442 21 1
2.4133084 -8.5741291 -1.7314008 24 2
2.6646194 -9.4860401 -1.5605905 20 3
2.6619658 -9.5020666 -1.2116251 22 4
2.7037737 -9.6707926 -0.87852991 18 5
2.7026222 -9.6862268 -0.52702314 55 6
2.8031459 -10.07367 -0.18251726 30 7
2.0430694 -7.4223766 -2.0627878 9 0
2.3992424 -8.7342072 -2.091145 22 1
2.3731029 -8.6627197 -1.7459024 18 2
2.5623872 -9.3729334 -1.5390024 17 3
2.5251241 -9.255682 -1.1779891 24 4
2.6818485 -9.8504543 -0.89317203 25 5
2.6422601 -9.731843 -0.52848852 33 6
2.7533388 -10.162001 -0.18377385 24 7
1.9832066 -7.406601 -2.0545056 9 0
2.7317376 -10.209236 0.18447194 11 8
2.305006 -8.6264868 -2.0614514 34 1
2.4627907 -9.2363834 -1.8580981 22 2
2.4792266 -9.3176184 -1.5271133 17 3
2.3942647 -9.023653 -1.1463031 19 4
2.5783384 -9.7379675 -0.88131887 12 5
2.5892212 -9.7998095 -0.53121001 22 6
2.6588924 -10.092025 -0.18216823 12 7
1.9444335 -7.4647961 -2.0669291 9 0
2.7791967 -10.684789 0.19270948 12 8
2.3246715 -8.9437475 -2.1334357 24 1
2.3627849 -9.1165199 -1.8306217 22 2
2.4101601 -9.3193998 -1.5246104 16 3
2.3401318 -9.074749 -1.1506904 16 4
2.6066122 -10.130061 -0.91513532 13 5
2.7805169 -10.829395 -0.58595341 19 6
2.4653759 -9.6299105 -0.17351182 27 7
1.8814965 -7.441061 -2.0565763 9 0
2.7300091 -10.804747 0.19452453 24 8
2.2386842 -8.8732347 -2.1127403 22 1
2.9006515 -11.513952 0.62227458 2 9
2.3077109 -9.1670609 -1.8374907 24 2
2.3520677 -9.3708944 -1.5302421 17 3
2.290225 -9.1447811 -1.157515 19 4
2.4343946 -9.7420912 -0.87852991 24 5
2.327302 -9.341239 -0.50451869 23 6
2.6373646 -10.609443 -0.19082463 32 7
1.819832 -7.4146152 -2.0457058 11 0
2.5593319 -10.44333 0.18768318 23 8
2.0672922 -8.4419432 -2.0065634 23 1
2.2504354 -9.2176695 -1.8443599 19 2
2.1687779 -8.9034348 -1.4513992 17 3
2.3346202 -9.6061325 -1.2138187 9 4
2.4001284 -9.8982611 -0.89108032 12 5
2.6138711 -10.837542 -0.19459434 13 7
1.7689195 -7.4308977 -2.046741 10 0
2.4456143 -10.281529 0.18447194 33 8
2.1006162 -8.8448515 -2.0987935 14 1
2.1324177 -8.999711 -1.7978026 13 2
2.2503617 -9.5196991 -1.5493271 18 3
2.3071132 -9.7902966 -1.2350241 19 4
2.3182006 -9.8604679 -0.88619953 18 5
2.2676103 -9.6680002 -0.52042878 22 6
2.5554476 -10.92952 -0.19592072 13 7
1.7148213 -7.4277077 -2.0425999 10 0
2.4124033 -10.465933 0.18747376 34 8
2.031616 -8.8209648 -2.0897954 23 1
1.9298398 -8.4058933 -1.6764479 4 2
2.1565049 -9.4157963 -1.5299293 19 3
2.2457252 -9.8289976 -1.2379489 31 4
2.1440072 -9.4140625 -0.84471345 11 5
2.2553711 -9.9270496 -0.53351277 32 6
2.3757966 -10.482505 -0.18761338 12 7
1.6629243 -7.4394984 -2.0425999 11 0
2.3845756 -10.685494 0.19110386 24 8
1.9441137 -8.7189083 -2.0623512 32 1
2.0942957 -9.4234047 -1.8764157 18 2
1.9645916 -8.8616991 -1.4376329 17 3
2.1410468 -9.6816216 -1.2174748 20 4
2.0687976 -9.3859959 -0.84087861 11 5
2.03719 -9.2656708 -0.49719161 23 6
2.2485809 -10.252724 -0.18321536 18 7
1.6027831 -7.4131613 -2.0322473 10 0
2.1829262 -10.113523 0.1805975 31 8
1.8930577 -8.7779875 -2.073149 32 1
1.8609667 -8.6585102 -1.7214788 22 2
1.9047478 -8.8848562 -1.4391973 20 3
2.1008003 -9.8244524 -1.2335616 23 4
2.0647089 -9.6804533 -0.86597949 18 5
1.98242 -9.3265543 -0.49970376 23 6
2.1628473 -10.20166 -0.18202859 18 7
1.5517806 -7.4279523 -2.0332825 12 0
2.2104628 -10.590118 0.18883504 34 8
1.8388859 -8.8253288 -2.0812473 26 1
1.7644383 -8.4902916 -1.6856068 15 2
1.9424524 -9.3715096 -1.5158502 17 3
2.028146 -9.819438 -1.2311242 21 4
2.0372748 -9.8897724 -0.88341063 18 5
2.0237992 -9.8504515 -0.52702314 33 6
2.012162 -9.8286171 -0.17511745 11 7
1.509975 -7.4818974 -2.0451882 9 0
2.1755724 -10.799364 0.19229062 24 8
1.7810794 -8.8491039 -2.0839467 29 1
1.7626412 -8.789216 -1.7424678 12 2
1.9052614 -9.5262442 -1.5386896 22 3
1.9006878 -9.5293236 -1.193101 19 4
1.9320658 -9.7220163 -0.86719966 30 5
1.9340137 -9.7585459 -0.52137089 33 6
2.1034069 -10.642477 -0.18935861 12 7
1.4591805 -7.4998417 -2.0472586 9 0
1.9354409 -9.9662628 0.17721173 40 8
1.7303925 -8.9187136 -2.0974436 20 1
1.7649504 -9.1309233 -1.8077245 21 2
1.8020697 -9.349225 -1.5080284 20 3
1.8003932 -9.3669138 -1.1711645 24 4
1.8293 -9.5532818 -0.85098869 18 5
1.8628446 -9.756114 -0.52053344 33 6
1.8368112 -9.6471987 -0.17141753 10 7
1.409276 -7.523138 -2.0508821 10 0
2.0863183 -11.158913 0.19815461 12 8
1.6541314 -8.8558674 -2.0798974 30 1
1.6501675 -8.8689442 -1.7535348 21 2
1.7684642 -9.5324945 -1.535561 19 3
1.7508432 -9.4651413 -1.1818891 22 4
1.7848288 -9.6771946 -0.86092436 30 5
1.8307776 -9.9653215 -0.53100067 11 6
1.8847134 -10.289217 -0.18258709 18 7
1.3793209 -7.6582766 -2.0850463 11 0
1.9083295 -10.606046 0.18810204 34 8
1.5554125 -8.6619682 -2.0317578 16 1
1.6029073 -8.9534082 -1.7680362 19 2
1.6587635 -9.2934523 -1.4952009 17 3
1.6819429 -9.4614973 -1.179939 23 4
1.7224423 -9.7188463 -0.8635391 12 5
1.663516 -9.4150476 -0.50106448 11 6
1.8280836 -10.388778 -0.18412289 24 7
1.3344101 -7.7093654 -2.0964344 10 0
1.8342389 -10.61911 0.18810204 34 8
1.5013875 -8.7011595 -2.0385065 25 1
1.8213668 -10.577603 0.56250691 12 9
1.535707 -8.9372911 -1.7626936 22 2
1.545817 -9.024435 -1.4501476 13 3
1.5767956 -9.2440615 -1.1514217 39 4
1.5957689 -9.3849354 -0.83286029 23 5
1.612433 -9.5130758 -0.50567007 23 6
1.7481902 -10.357908 -0.18335499 18 7
1.2801573 -7.7244339 -2.0979872 9 0
1.7176017 -10.375186 0.18356441 22 8
1.7566729 -10.657371 0.56606579 12 9
1.4152259 -8.5952291 -1.6932391 22 2
1.4633054 -8.9261017 -1.432627 18 3
1.5019777 -9.192152 -1.143622 21 4
1.5250866 -9.3643827 -0.83007127 23 5
1.622956 -10.009362 -0.53141934 22 6
1.6879588 -10.444876 -0.18468137 24 7
1.2328554 -7.7751598 -2.1093752 9 0
1.7089361 -10.801989 0.19089442 11 8
1.3481184 -8.5309544 -1.9939661 18 1
1.6784948 -10.6457 0.56480968 8 9
1.409211 -8.9581079 -1.7626936 19 2
1.3985072 -8.9204874 -1.430124 19 3
1.4676898 -9.4046831 -1.168727 21 4
1.485289 -9.5502739 -0.84558499 35 5
1.4894128 -9.6099205 -0.50964761 34 6
1.5893935 -10.302534 -0.18195879 12 7
1.1841192 -7.8296251 -2.1217985 9 0
1.5895761 -10.522998 0.1857634 33 8
1.3056232 -8.6637106 -2.0227599 17 1
1.5491226 -10.303902 0.54607344 17 9
1.3652959 -9.0919819 -1.7871171 21 2
1.3007673 -8.7036409 -1.3938313 20 3
1.4183707 -9.5246534 -1.1823765 16 4
1.392553 -9.3850079 -0.83007127 17 5
1.3844286 -9.3753281 -0.49666828 23 6
1.5541075 -10.562656 -0.1863568 18 7
1.1340994 -7.8506913 -2.1254222 10 0
1.4868232 -10.317836 0.18195879 10 8
1.2903321 -8.9653664 -2.091145 22 1
1.4816016 -10.31988 0.54638743 21 9
1.3161809 -9.1904621 -1.8046715 22 2
1.2642198 -8.8606987 -1.4176092 20 3
1.3708144 -9.6439085 -1.1960258 23 4
1.3330731 -9.413764 -0.83181441 23 5
1.4409267 -10.226815 -0.54125851 21 6
1.3828433 -9.8519087 -0.17365146 11 7
1.0705895 -7.7952595 -2.1083403 9 0
1.4589492 -10.636776 0.18740395 23 8
1.2063154 -8.8177643 -2.054703 42 1
1.4183526 -10.381176 0.54910892 14 9
1.2090583 -8.8724022 -1.7405598 19 2
1.2038786 -8.8690987 -1.4176092 19 3
1.2678604 -9.3896341 -1.1633649 25 4
1.26679 -9.4188919 -0.83146584 17 5
1.2903993 -9.632616 -0.50933355 46 6
1.4017204 -10.519404 -0.18523984 24 7
1.0354916 -7.9402905 -2.1456099 9 0
1.3802708 -10.612991 0.18681055 34 8
1.1239299 -8.6537771 -2.0146616 23 1
1.3886883 -10.721603 0.56658912 24 9
1.1621778 -8.9974518 -1.7634568 18 2
1.2026697 -9.3494635 -1.4930108 37 3
1.1958462 -9.3350382 -1.1555651 18 4
1.1844952 -9.2849979 -0.81891537 11 5
1.2475028 -9.8335829 -0.51948678 11 6
1.3040203 -10.322372 -0.18160973 17 7
0.98618019 -7.9971766 -2.1590683 9 0
1.3434367 -10.909922 0.19187176 24 8
1.1086111 -9.0289145 -2.100143 21 1
1.3037678 -10.633671 0.5614602 18 9
1.0930461 -8.9408445 -1.7508634 10 2
1.0721713 -8.8083792 -1.4054073 18 3
1.1325552 -9.3589249 -1.157515 22 4
1.1201214 -9.2969971 -0.81926399 17 5
1.1810143 -9.8458128 -0.51969612 22 6
1.2144037 -10.18429 -0.17902678 17 7
0.93038273 -7.9921904 -2.1559627 9 0
1.2856811 -11.077945 0.19466414 24 8
0.97355127 -8.4013128 -1.9525751 22 1
1.0559839 -9.1686497 -1.7939863 24 2
1.1040215 -9.6300964 -1.5352479 16 3
1.0751265 -9.4216433 -1.1643399 24 4
1.0794368 -9.5183973 -0.83808959 11 5
1.0309314 -9.1333866 -0.48170018 48 6
1.1642528 -10.363217 -0.18202859 12 7
0.86070639 -7.8717442 -2.1217985 9 0
1.2083111 -11.086651 0.19466414 24 8
0.91698337 -8.4272776 -1.9570743 22 1
0.96705085 -8.9454756 -1.7489554 18 2
1.0207067 -9.4883022 -1.51147 10 3
1.0260167 -9.5848503 -1.1835952 7 4
1.0664728 -10.028932 -0.88236475 12 5
0.98626763 -9.321104 -0.49122533 12 6
0.82067043 -8.0236206 -2.161139 9 0
1.1288558 -11.074923 0.19431511 37 8
0.89324278 -8.7785683 -2.0371568 21 1
1.0699062 -10.55134 0.55580795 8 9
0.92155164 -9.1199932 -1.7817745 16 2
0.87067491 -8.6618357 -1.3788135 20 3
0.97665566 -9.7675753 -1.2052879 19 4
0.92714202 -9.3382425 -0.82100707 17 5
1.0069469 -10.196339 -0.53696698 43 6
1.0225739 -10.410306 -0.18258709 12 7
0.7642687 -8.0253086 -2.1601038 9 0
1.0605772 -11.178089 0.19599053 25 8
0.82624042 -8.7244482 -2.0232098 25 1
0.86263674 -9.1770248 -1.7916965 19 2
0.86276096 -9.2302094 -1.4682941 13 3
0.90511638 -9.8127031 -0.86214459 24 5
0.87609321 -9.5527468 -0.50273925 11 6
0.92808121 -10.178219 -0.17839849 28 7
0.71042919 -8.0554657 -2.1668332 10 0
0.91217273 -10.384427 0.18195879 10 8
0.77552307 -8.8464813 -2.0502038 30 1
0.9890191 -11.327301 0.59589726 6 9
0.78698224 -9.0498247 -1.7657466 22 2
