# .PCD v0.7 - Point Cloud Data file format
VERSION 0.7
FIELDS x y z intensity ring
SIZE 4 4 4 4 2
TYPE F F F F U
COUNT 1 1 1 1 1
WIDTH 1357
HEIGHT 1
VIEWPOINT 0 0 0 1 0 0 0
POINTS 1357
DATA ascii
10.588894 36.305317 4.643466 0 11
1.8058219 6.1874638 -0.79141963 25 4
10.870724 37.19907 6.1381764 0 12
2.5525813 8.7234945 -0.79520899 11 5
10.979493 37.498344 7.5949616 0 13
2.5347412 8.6457291 -0.47217503 24 6
12.63963 43.056744 10.359896 1 14
2.567163 8.7393656 -0.15899143 13 7
1.8390963 6.1928 -1.7309818 6 0
1.8451064 6.201139 -1.493675 56 1
10.590281 35.547089 1.9438623 2 9
2.4131889 8.0897322 -1.6409575 10 2
2.5437865 8.5112648 -1.4069717 19 3
10.845527 36.241913 4.6449285 2 11
1.8512523 6.1823125 -0.79239452 24 4
11.005916 36.707893 6.0696583 1 12
2.6347983 8.7822533 -0.80218142 11 5
11.208819 37.313606 7.5732098 0 13
2.6318552 8.7502298 -0.47887406 12 6
12.89535 42.84655 10.330202 1 14
2.6200352 8.6944256 -0.15850276 9 7
1.9002948 6.2389474 -1.7475463 6 0
1.8940383 6.2067466 -1.4981741 52 1
11.068808 36.249718 1.9863591 1 9
2.4400723 7.9811239 -1.6222582 18 2
11.12363 36.338417 3.3248172 1 10
2.5519123 8.3313189 -1.3800651 20 3
11.096606 36.182438 4.6468782 0 11
1.8990322 6.1844172 -0.79434443 22 4
11.223016 36.526386 6.0521374 1 12
3.3978901 11.04501 -1.0110066 14 5
11.393912 36.990524 7.5235987 0 13
3.3984609 11.02632 -0.60468972 18 6
11.646098 37.739006 9.118166 1 14
1.9317844 6.1908293 -1.7377111 7 0
1.9374056 6.1974301 -1.4990739 47 1
11.185601 35.736969 1.9624939 2 9
2.5403507 8.1062737 -1.6512611 19 2
11.136456 35.514717 3.2563128 1 10
2.6691802 8.5017681 -1.4113519 24 3
11.388225 36.229076 4.6629653 1 11
1.9446552 6.1827106 -0.79580688 24 4
11.486647 36.47541 6.0568304 0 12
2.7655537 8.7712097 -0.80462182 16 5
12.459386 39.49213 8.049468 1 13
2.755861 8.7245388 -0.47950208 12 6
11.481478 36.304138 8.790638 0 14
2.7662091 8.7413607 -0.16003856 9 7
1.9796612 6.1919141 -1.7418523 9 0
1.9889435 6.2097363 -1.5053725 56 1
11.50433 35.874825 1.9744265 2 9
2.5788765 8.0322638 -1.6398127 16 2
11.331091 35.27108 3.2411478 2 10
2.7508478 8.5525045 -1.4229281 19 3
13.538141 42.040249 5.4229422 0 11
1.9938593 6.1878777 -0.79824424 19 4
11.695542 36.253326 6.0333648 1 12
2.7771146 8.5981197 -0.79050261 27 5
11.761571 36.392773 7.4343004 0 13
2.7736578 8.5720692 -0.47217503 12 6
12.090189 37.320599 9.0569792 1 14
2.0396752 6.2293472 -1.7563461 9 0
2.0310352 6.1919951 -1.5044726 59 1
11.814326 35.975803 1.984475 5 9
2.6827145 8.1595373 -1.6695787 15 2
11.79497 35.853523 3.3021567 0 10
2.8067768 8.5218353 -1.4210509 21 3
11.792248 35.761131 4.6234798 0 11
2.0357664 6.1700377 -0.79775679 15 4
12.758152 38.622322 6.4422851 1 12
2.8480854 8.6168499 -0.79398882 27 5
13.271084 40.104595 8.2112741 1 13
3.6336551 10.967898 -0.6055271 9 6
12.156923 36.673264 8.9197588 0 14
2.9131794 8.7778034 -0.16143475 9 7
2.081887 6.2112932 -1.7553109 9 0
2.0779357 6.1887493 -1.5071721 59 1
2.7306864 8.1187572 -1.6649995 16 2
12.484976 37.07695 3.4227803 0 10
2.8710294 8.5212517 -1.4241794 18 3
12.027779 35.657463 4.6205544 2 11
2.0787919 6.1556749 -0.79775679 16 4
11.96093 35.398075 5.9179163 1 12
2.9241302 8.6439409 -0.79834664 39 5
13.607423 40.178322 8.2456198 1 13
2.9063272 8.576519 -0.47458252 24 6
12.169109 35.869625 8.7447472 1 14
2.9602408 8.7155952 -0.16066685 19 7
2.1303787 6.2152538 -1.7604873 9 0
2.1238074 6.1855216 -1.5098715 52 1
12.779289 37.176968 2.0602574 0 9
2.7866602 8.0976381 -1.6646177 12 2
12.37511 35.939922 3.3255146 0 10
2.9504061 8.5588942 -1.4338784 17 3
11.974644 34.698177 4.5069723 3 11
2.1277709 6.1620221 -0.80043793 11 4
11.972192 34.632263 5.8037195 2 12
2.972676 8.5894251 -0.79520899 22 5
13.955114 40.299973 8.2898884 1 13
2.9523933 8.5163898 -0.47238436 24 6
3.0208094 8.6990213 -0.16073667 14 7
2.1852248 6.2330437 -1.7698047 7 0
2.1733983 6.18893 -1.5143706 43 1
14.921137 42.441765 2.3577352 0 9
2.8678887 8.1483603 -1.6791192 6 2
12.31335 34.965641 3.2432394 1 10
2.9956329 8.4971037 -1.4269954 16 3
12.170343 34.4827 4.4899111 2 11
2.1760232 6.161993 -0.80238777 11 4
12.200509 34.51059 5.797462 3 12
3.0332336 8.5703411 -0.79538327 27 5
12.685567 35.822937 7.3869796 0 13
3.1078763 8.7666454 -0.48745713 24 6
12.540997 35.336269 8.6565666 1 14
3.0828052 8.6814899 -0.16080648 9 7
2.2241235 6.2049055 -1.7661812 10 0
2.2205036 6.1846104 -1.5170699 47 1
13.122808 36.510006 2.0332522 1 9
2.8934677 8.0413151 -1.6611832 16 2
13.275229 36.873405 3.4287066 0 10
3.048187 8.4573975 -1.4238666 5 3
3.2211032 8.9273949 1.1653148 2 11
3.1566038 8.7438526 -1.1414284 7 4
12.371986 34.233219 5.7652364 1 12
3.1112895 8.5995436 -0.80008972 11 5
12.492967 34.511433 7.1343489 1 13
3.1261289 8.6264381 -0.48086283 24 6
12.793365 35.264339 8.660615 1 14
3.1897297 8.7875767 -0.16317999 9 7
2.2866564 6.2418337 -1.7811928 9 0
2.2649655 6.1726174 -1.5179697 52 1
12.550974 34.16777 1.9076457 3 9
2.7503257 7.4791889 -1.5489874 4 2
3.1357579 8.522748 0.79451174 1 10
2.7794404 7.546164 -1.2736895 4 3
12.906069 35.002277 4.5805817 0 11
2.265285 6.1403208 -0.80360651 8 4
14.228484 38.526611 6.5048585 0 12
3.1104546 8.4131603 -0.78475034 22 5
12.850734 34.740086 7.1999869 1 13
13.229584 35.687614 8.7870378 0 14
2.3254364 6.2130523 -1.7775693 10 0
2.3148441 6.174902 -1.5224687 49 1
3.0358365 8.0809994 -1.6779745 7 2
12.981932 34.537842 3.2280743 2 10
3.1541443 8.3825855 -1.418548 11 3
13.158512 34.933613 4.5835061 2 11
3.2447731 8.6097651 -1.1297289 10 4
14.006222 37.125198 6.2845993 1 12
13.185944 34.895618 7.2511239 0 13
3.2215409 8.5165653 -0.47719929 24 6
13.622551 35.994064 8.8851166 0 14
2.922457 7.7136908 -0.14398235 7 7
2.3735838 6.2092981 -1.7811928 9 0
2.3620772 6.1695104 -1.5251682 59 1
12.727953 33.22678 1.8647302 7 9
3.0619519 7.9849906 -1.6623281 12 2
12.98067 33.815815 3.1689827 1 10
3.1785512 8.2760954 -1.404156 9 3
14.665427 38.145054 5.017849 0 11
3.2498999 8.4442511 -1.110961 9 4
13.384075 34.757893 5.8991446 1 12
3.2741661 8.4940329 -0.79642916 33 5
13.049723 33.819126 7.046195 3 13
4.2663555 11.050785 -0.6208092 8 6
13.900218 35.967152 8.9022131 0 14
3.3543053 8.6703577 -0.16227247 19 7
2.4256229 6.218194 -1.7884396 7 0
2.4153636 6.1823316 -1.5323665 49 1
13.046906 33.360321 1.877291 3 9
3.1949191 8.1608591 -1.7035428 3 2
13.24034 33.802738 3.1761296 2 10
3.4273405 8.7410545 -1.4870663 5 3
14.940074 38.063911 5.0207734 0 11
3.3631744 8.564209 -1.1297289 12 4
13.317813 33.878593 5.7655497 2 12
3.3202536 8.4375954 -0.79329151 27 5
13.445023 34.149677 7.1339669 2 13
3.4001698 8.6274233 -0.48599172 24 6
14.116632 35.782227 8.8806171 0 14
3.389755 8.5878019 -0.16115552 23 7
2.4761212 6.2190571 -1.7936161 9 0
2.4642398 6.1797996 -1.5359658 66 1
13.323895 33.379726 1.8835713 3 9
3.2000947 8.0089149 -1.6764479 4 2
13.413141 33.552231 3.1613131 2 10
3.9535806 9.8796568 -1.685425 8 3
13.468544 33.622704 4.4472561 5 11
3.4346976 8.5700026 -1.1336287 12 4
13.511347 33.678463 5.7474031 3 12
3.3931856 8.449338 -0.79660344 22 5
13.735074 34.184322 7.1610622 2 13
5.3756785 13.365685 -0.75499856 8 6
14.479632 35.964813 8.9508018 0 14
3.4466343 8.5565109 -0.16101591 14 7
2.5267463 6.2195177 -1.7987925 9 0
2.5131955 6.1768866 -1.539565 59 1
3.2759411 8.0354643 -1.6867516 6 2
13.573307 33.276974 3.1442304 3 10
4.1217685 10.095048 -1.7270367 12 3
13.795307 33.753887 4.4772363 1 11
3.4854283 8.5237675 -1.1307039 11 4
13.864352 33.872169 5.7968364 3 12
3.5064943 8.5624857 -0.80950248 16 5
13.860949 33.813301 7.1034374 3 13
3.5210557 8.5809574 -0.48609638 24 6
4.5704093 11.121692 -0.20988265 15 7
2.5760219 6.2160039 -1.8029336 9 0
2.5607419 6.1699891 -1.5422645 59 1
13.841071 33.333031 1.8915263 3 9
3.3298073 8.0111656 -1.68637 9 2
13.978262 33.597137 3.1836247 3 10
3.5982676 8.6442814 -1.482999 10 3
13.971313 33.530926 4.460175 2 11
3.5861099 8.5981627 -1.1438658 19 4
14.163833 33.942902 5.8253074 2 12
3.613025 8.6499453 -0.82013553 28 5
14.353401 34.329742 7.2328062 1 13
4.659204 11.138203 -0.63274175 8 6
3.6183295 8.6329632 -0.16338943 29 7
2.6062455 6.1698518 -1.7946514 9 0
2.6117883 6.1739535 -1.5476632 63 1
14.215182 33.57032 1.9105766 3 9
3.3994458 8.0202618 -1.6932391 9 2
14.293731 33.706661 3.2031479 2 10
3.6538973 8.6080399 -1.4811217 12 3
14.673141 34.534267 4.6071491 3 11
3.622035 8.5205717 -1.1367973 20 4
14.573685 34.250355 5.89539 3 12
3.6538742 8.5829859 -0.81612635 11 5
14.599812 34.261959 7.2392936 1 13
4.7368555 11.105401 -0.63274175 8 6
4.7390285 11.094397 -0.21058075 15 7
2.6454351 6.1426349 -1.7920631 10 0
2.6625445 6.1734633 -1.5521622 49 1
14.913383 34.562073 1.9727516 2 9
3.4936562 8.0888577 -1.7127017 3 2
14.552434 33.660904 3.2083771 3 10
3.6606445 8.4633093 -1.4604723 12 3
14.954418 34.541061 4.6215296 1 11
3.7011609 8.5406141 -1.1428908 18 4
15.065022 34.746624 5.9983239 1 12
3.7565339 8.6559658 -0.82553917 17 5
14.725228 33.898094 7.183959 1 13
3.7543361 8.6385136 -0.49363276 23 6
2.6936896 6.1363988 -1.7956866 9 0
2.7071471 6.1582928 -1.5530621 49 1
14.491072 32.933483 1.8856647 3 9
3.5403702 8.0384951 -1.7073588 3 2
14.726004 33.41993 3.1951294 2 10
3.7019813 8.3935204 -1.4529635 10 3
17.000242 38.508274 5.1684794 0 11
3.7943809 8.5908346 -1.1531279 16 4
18.288549 41.367863 7.1637607 1 12
3.8088129 8.6113081 -0.82379609 11 5
4.9464741 11.16235 -0.6398595 8 6
2.7198987 6.0804114 -1.7848163 10 0
2.7500741 6.1392436 -1.5530621 35 1
14.742679 32.896049 1.8892236 7 9
2.740046 6.108283 -1.3013173 15 2
15.215213 33.887032 3.2498634 1 10
2.7407558 6.1013093 -1.0593743 34 3
17.141466 38.123714 5.1324058 1 11
2.7251136 6.0551748 -0.81530601 22 4
3.9163189 8.6898613 -0.83390617 23 5
4.9574347 10.984607 -0.63159037 17 6
2.7644272 6.068789 -1.7868867 10 0
2.7740064 6.0813761 -1.5431641 77 1
15.015113 32.886799 1.8946666 3 9
2.7573266 6.0336504 -1.2894872 34 2
15.607897 34.137825 3.2840283 2 10
2.7799964 6.0748415 -1.0581229 55 3
17.316269 37.804588 5.1055946 1 11
2.7706323 6.0432186 -0.81628096 38 4
3.9344981 8.5699615 -0.82501626 28 5
5.0765486 11.042278 -0.63692868 26 6
3.9945621 8.672843 -0.16667047 10 7
2.813477 6.0611172 -1.7905102 9 0
2.8190956 6.0649047 -1.544064 73 1
16.126242 34.661823 2.0035253 1 9
2.8126378 6.0427322 -1.2955931 36 2
17.080193 36.662052 3.5385232 0 10
2.8217258 6.0512118 -1.0574971 29 3
17.710676 37.963425 5.1436176 0 11
3.9835413 8.5310688 -1.1560526 10 4
4.0077305 8.5711641 -0.82780522 34 5
4.0387774 8.6218596 -0.49897105 23 6
2.8548949 6.0395827 -1.7899926 10 0
2.9113889 6.1507602 -1.5710582 47 1
16.425999 34.671124 2.010643 1 9
3.8063397 8.0269775 -1.7268214 4 2
17.58169 37.060337 3.5887249 1 10
2.9249089 6.1598439 -1.0800236 18 3
17.825096 37.505821 5.0987701 0 11
4.0336261 8.4833307 -1.1533716 21 4
4.0957351 8.6023388 -0.83355749 11 5
4.0988669 8.5934553 -0.49897105 11 6
4.1393971 8.666749 -0.16764782 10 7
2.899503 6.0247273 -1.7915455 9 0
2.9627185 6.14784 -1.5755571 42 1
18.04421 37.42625 2.17749 0 9
3.8651519 8.0097246 -1.7287296 3 2
17.839993 36.936691 3.5887249 1 10
2.9659107 6.1380138 -1.0797108 22 3
18.572639 38.402241 5.2377009 1 11
4.1922126 8.6604433 -1.1814015 5 4
4.1183228 8.4964428 -0.82606214 28 5
4.1380796 8.5258265 -0.49666828 11 6
2.9472413 6.0187311 -1.7956866 9 0
3.0113604 6.1415291 -1.5791564 43 1
18.456404 37.607758 2.1954935 0 9
3.9365606 8.0142632 -1.7355988 3 2
18.574272 37.797886 3.6845961 0 10
3.0174079 6.1348834 -1.0828395 22 3
6.2156363 12.631853 1.7285949 3 11
4.1695037 8.4660873 -1.1587338 5 4
4.2289338 8.575428 -0.83652079 29 5
4.2081161 8.518219 -0.49792436 11 6
4.2514057 8.5945129 -0.16736858 10 7
2.9933097 6.0089059 -1.7987925 9 0
3.0635328 6.1418147 -1.5845551 43 1
18.735159 37.527718 2.198215 0 9
20.001745 40.012287 3.9136415 0 10
3.0626297 6.1212707 -1.0840909 24 3
4.2439241 8.4712343 -1.1633649 19 4
4.292563 8.5571318 -0.83756667 29 5
4.3834782 8.7231598 -0.51163632 23 6
4.3457608 8.6368275 -0.16876477 15 7
3.0463655 6.012517 -1.8060393 9 0
3.1193748 6.1486259 -1.5917536 43 1
19.017782 37.389027 3.6699538 0 10
3.11677 6.124928 -1.0884712 24 3
4.3435297 8.5209856 -1.1743331 28 4
4.3476739 8.5180807 -0.83669513 17 5
4.4960918 8.7937098 -0.51760262 22 6
4.4423976 8.6774797 -0.17016095 10 7
3.1017087 6.0146022 -1.8132863 9 0
3.1740224 6.1469254 -1.5971525 47 1
20.631321 39.852932 3.9261916 0 10
3.1623363 6.1059771 -1.0890969 25 3
4.4126205 8.5055447 -1.1765267 24 4
4.3956542 8.4619999 -0.83425474 17 5
4.4243031 8.5026369 -0.50232059 23 6
4.5746012 8.7802496 -0.17281373 10 7
3.1392822 5.9819889 -1.8101805 9 0
3.2269921 6.1413064 -1.6016515 38 1
4.0856376 7.7622428 -1.7050693 6 2
21.001875 39.88422 3.9436228 0 10
3.2188425 6.1076565 -1.093477 28 3
18.90873 35.848446 4.9764132 1 11
4.4978366 8.5236874 -1.1833514 18 4
4.4667268 8.4540052 -0.83652079 35 5
4.5069118 8.5156736 -0.50493735 23 6
4.5590081 8.6032104 -0.16995154 15 7
3.208257 6.0110559 -1.8257096 9 0
3.2771358 6.1323771 -1.6052507 40 1
10.500396 19.640738 1.1671966 4 9
4.2087755 7.865809 -1.7340722 6 2
18.941509 35.370232 3.5102847 0 10
3.2771301 6.1169491 -1.0991087 28 3
18.972197 35.383003 4.929615 1 11
4.5459661 8.4710922 -1.1804266 20 4
4.605792 8.5717983 -0.85133731 12 5
4.6054606 8.5604305 -0.50943822 34 6
4.7195191 8.7577677 -0.17365146 11 7
3.2573867 6.0043631 -1.8303684 10 0
3.3281004 6.1270542 -1.6097497 36 1
20.10977 36.991386 2.2065887 0 9
19.216124 35.303482 3.5165601 1 10
3.331094 6.114737 -1.1028631 30 3
19.205452 35.225292 4.9262028 1 11
4.5654998 8.370244 -1.1706771 15 4
4.5809507 8.3881207 -0.83617222 29 5
4.7072864 8.6051664 -0.51404381 22 6
3.3038936 5.9899321 -1.8329566 9 0
3.3839865 6.1275516 -1.6160485 43 1
19.006958 34.402687 2.0598388 0 9
19.406164 35.067356 3.5064497 1 10
3.3841202 6.1126599 -1.1066176 28 3
19.058018 34.395729 4.8282199 0 11
4.7383804 8.5447569 -1.199682 21 4
4.7254744 8.5109644 -0.85168588 12 5
4.7812777 8.6008558 -0.51571852 22 6
3.3360853 5.9521389 -1.8282977 10 0
3.4427803 6.1349669 -1.6241466 42 1
18.796795 33.468102 2.0116897 1 9
4.4385643 7.8965044 -1.7607856 3 2
18.886602 33.586807 3.3711839 0 10
3.4286499 6.0923285 -1.1072433 27 3
19.221678 34.126942 4.8092084 0 11
4.7852502 8.4889851 -1.1965134 31 4
4.8964157 8.6755705 -0.87155735 18 5
6.1166048 10.824283 -0.65158272 17 6
4.9003749 8.6578684 -0.17365146 11 7
3.3900714 5.9482546 -1.8345095 10 0
3.5001142 6.1338696 -1.6304452 38 1
18.36425 32.156845 1.9407221 2 9
3.788476 6.6311483 -1.4844941 3 2
18.525158 32.3992 3.2652025 2 10
3.4858935 6.0916409 -1.1116234 28 3
19.879616 34.725807 4.9130411 0 11
4.8641343 8.4898195 -1.2013881 23 4
6.2059927 10.818751 -1.0911899 16 5
4.9063687 8.5393324 -0.51613724 11 6
6.3546858 11.046675 -0.22244836 17 7
3.4411981 5.9411597 -1.8396858 10 0
3.5565381 6.1328859 -1.6367439 35 1
17.790283 30.652832 1.8574033 4 9
18.036192 31.039089 3.1407444 2 10
3.5521665 6.10814 -1.1191323 37 3
20.085625 34.524403 4.9042664 1 11
4.9172888 8.445364 -1.1999257 23 4
5.015058 8.6029196 -0.87120879 12 5
4.9870129 8.541091 -0.51833534 22 6
4.9985824 8.550621 -0.17288354 26 7
3.4903753 5.9325843 -1.8443446 9 0
3.6120479 6.1320424 -1.6430426 21 1
17.966049 30.475979 1.8540539 8 9
18.038418 30.562149 3.104836 4 10
3.5926592 6.0821176 -1.1188195 28 3
20.029293 33.894699 4.8340697 0 11
5.0150847 8.4800406 -1.2096752 20 4
5.0795951 8.5788679 -0.87225467 24 5
5.0633698 8.5378733 -0.52021945 22 6
6.6452322 11.191854 -0.22719543 18 7
3.5485132 5.9385381 -1.853662 9 0
3.7957699 6.3447828 -1.7069286 22 1
18.329023 30.613445 1.869964 7 9
18.154863 30.286572 3.0893226 7 10
3.6542971 6.0914025 -1.1250768 31 3
20.408487 33.992313 4.8681931 0 11
5.070642 8.4423065 -1.2091877 19 4
5.1434669 8.5500278 -0.87295192 24 5
6.5093923 10.807802 -0.66121256 8 6
3.5788555 5.8954573 -1.8479681 10 0
4.0019078 6.5845785 -1.7789129 12 1
18.922174 31.109278 1.9082738 6 9
3.9740767 6.5285058 -1.4856389 8 2
18.458086 30.310535 3.104836 2 10
3.7214065 6.1062255 -1.1325856 27 3
20.753836 34.026955 4.893786 2 11
5.1749511 8.4812613 -1.2199122 20 4
21.134285 34.609947 6.4228873 0 12
6.6180749 10.829396 -1.1103642 17 5
6.6930938 10.939276 -0.67209846 26 6
3.6371667 5.8982801 -1.8567679 9 0
4.0498295 6.5597935 -1.7798127 25 1
19.424946 31.402611 3.2305148 2 10
3.7681012 6.0868163 -1.1338371 33 3
19.815779 31.984505 4.6198235 3 11
5.2005672 8.3909359 -1.2121125 19 4
5.2566619 8.4715261 -0.87225467 12 5
6.8378267 11.002546 -0.67890209 17 6
6.8234115 10.966538 -0.22545019 18 7
3.6844082 5.8825674 -1.8598738 9 0
4.0955272 6.5313601 -1.7798127 20 1
4.8935742 7.7949786 -1.7890252 3 2
19.889591 31.65764 3.2709551 3 10
3.8262672 6.0877848 -1.1388431 33 3
20.047813 31.872419 4.6232357 3 11
5.2188387 8.2905846 -1.2028506 23 4
20.401033 32.396328 6.0637136 1 12
5.3135524 8.4312496 -0.87190604 18 5
5.3917117 8.5453472 -0.52953523 11 6
3.7347274 5.8736563 -1.8650501 9 0
4.0498891 6.3619571 -1.7411212 14 1
20.24239 31.774178 1.9744265 2 9
21.522083 33.743893 3.501569 0 10
3.8814261 6.0809069 -1.1425974 28 3
20.686621 32.384109 4.7182941 2 11
5.3307309 8.3418531 -1.215525 21 4
6.9642353 10.885496 -1.1305844 18 5
6.9942646 10.915629 -0.67942542 26 6
3.7840281 5.8604217 -1.8691912 9 0
4.1693215 6.4497228 -1.7730643 13 1
20.373592 31.504852 1.9662621 6 9
20.564636 31.751644 3.3096521 1 10
3.9356201 6.0742378 -1.1463519 28 3
20.771559 32.034355 4.6878266 1 11
5.4904113 8.4609632 -1.2384363 15 4
7.1184907 10.944789 -0.68424034 8 6
3.8439484 5.8652296 -1.8790263 10 0
4.055974 6.181684 -1.7069286 7 1
20.568922 31.325117 1.9639592 2 9
5.0220571 7.6424479 -1.7775766 3 2
20.825176 31.679178 3.3167989 1 10
3.9909556 6.0664191 -1.1501063 33 3
21.047089 31.968145 4.6995258 1 11
5.5795412 8.4714727 -1.2455047 20 4
21.379272 32.435707 6.1528811 0 12
5.5423603 8.4022369 -0.88062155 12 5
7.2299509 10.948154 -0.68758982 17 6
3.8751705 5.8237762 -1.8743677 9 0
20.731716 31.097666 1.9587257 2 9
5.1079764 7.6561961 -1.7890252 3 2
20.575745 30.828724 3.2427166 3 10
4.0518618 6.0663342 -1.1554251 37 3
21.605112 32.322136 4.7736225 0 11
5.5877891 8.3564062 -1.2342927 4 4
5.5720582 8.3202963 -0.87608945 12 5
8.8588734 13.213258 -0.83371186 8 6
3.9351957 5.825397 -1.8836851 9 0
4.2292247 6.2535906 -1.7429208 21 1
21.011003 31.044802 1.9645873 2 9
5.2317638 7.724381 -1.8134488 3 2
20.850817 30.773396 3.2521293 3 10
4.1207209 6.0771384 -1.1629339 33 3
21.93726 32.328201 4.7970219 0 11
5.6437621 8.3139076 -1.2338053 9 4
5.7442636 8.4492598 -0.89386928 18 5
5.790832 8.508172 -0.53937441 21 6
7.52741 11.047198 -0.23333868 19 7
3.9845114 5.8105264 -1.8878261 9 0
4.4591765 6.4954252 -1.8189542 14 1
4.6048436 6.6975923 -1.5798986 4 2
4.1832037 6.0775132 -1.1685656 31 3
23.166866 33.6325 5.0144367 0 11
5.7455993 8.3380508 -1.2433112 19 4
5.7736878 8.3663158 -0.88933718 25 5
5.8977704 8.5365524 -0.54377061 31 6
4.0426378 5.8079367 -1.8961084 9 0
4.5222402 6.489718 -1.8261526 14 1
23.546766 33.766087 2.157393 0 9
4.5829558 6.567071 -1.5566198 9 2
22.728022 32.555668 3.4736793 0 10
4.2402411 6.0692101 -1.1726329 28 3
23.555798 33.691204 5.047585 1 11
5.9447465 8.4994469 -1.2735348 19 4
5.8845325 8.4008732 -0.8973555 25 5
7.6429052 10.899001 -0.69763839 8 6
6.0126081 8.564599 -0.18265688 12 7
4.0853128 5.7827296 -1.8971437 7 0
4.5786862 6.4739008 -1.8306518 13 1
22.480389 31.761971 2.0393231 0 9
4.6706772 6.594193 -1.5707397 3 2
4.2893648 6.0491281 -1.1745101 30 3
23.395229 32.96904 4.9637389 1 11
6.0912685 8.580759 -1.2920588 15 4
6.0423231 8.4992342 -0.9123463 19 5
6.0488119 8.4989347 -0.54670143 31 6
6.0629663 8.509388 -0.18237765 18 7
4.1458468 5.7823286 -1.9064611 7 0
4.5976353 6.4053655 -1.8203038 16 1
4.7074294 6.5486741 -1.5676868 4 2
23.917847 33.260696 3.5841925 1 10
4.3534141 6.049499 -1.1804546 42 3
23.538979 32.685703 4.9457021 1 11
6.0744424 8.4317226 -1.2759721 18 4
6.0688715 8.411603 -0.90746558 19 5
6.1559463 8.5228834 -0.55099303 21 6
6.1690941 8.5316715 -0.18377385 24 7
4.1838408 5.7501197 -1.9054259 9 0
4.6456861 6.3778358 -1.8216537 14 1
4.873363 6.680604 -1.6073751 3 2
4.4211683 6.0540571 -1.1873378 30 3
23.813463 32.584671 4.955452 1 11
6.1929045 8.4708414 -1.2884028 29 4
6.1298013 8.3722439 -0.9078142 19 5
6.1952243 8.4523125 -0.54921359 21 6
4.2215872 5.7176623 -1.9043906 9 0
4.721374 6.3875594 -1.833801 7 1
9.9449005 13.444676 0.87641799 2 9
4.8486309 6.5501614 -1.5840963 10 2
24.643116 33.27898 3.6228898 0 10
4.4915524 6.0611348 -1.1948466 33 3
25.378899 34.222595 5.2313638 1 11
6.2152305 8.3779726 -1.2808468 20 4
6.2284961 8.383626 -0.91374075 26 5
6.2350068 8.3832178 -0.54753882 10 6
6.3592639 8.5409441 -0.18586813 12 7
4.2486601 5.6710443 -1.8986967 12 0
4.7529874 6.3372955 -1.8288521 8 1
22.464083 29.930241 1.9612379 2 9
4.9673462 6.6134758 -1.6077567 13 2
25.31049 33.685925 3.6863391 1 10
4.5575037 6.0612049 -1.2011039 41 3
23.600082 31.363918 4.8194456 0 11
6.2926698 8.3597546 -1.2847468 19 4
6.2053189 8.2317514 -0.9018876 19 5
6.3800044 8.4542713 -0.55507523 31 6
4.2834716 5.6350932 -1.8966261 11 0
4.7888532 6.2931032 -1.8257027 10 1
22.631332 29.718666 1.957679 2 9
5.0443325 6.6192384 -1.6176788 13 2
24.866211 32.617924 3.588376 1 10
4.6212711 6.0575109 -1.2067356 41 3
23.522139 30.810247 4.7594857 1 11
6.4135284 8.3976603 -1.2974212 16 4
6.5395365 8.5533628 -0.94197923 13 5
4.3545585 5.6463566 -1.9106023 9 0
4.8362408 6.2641478 -1.8270525 7 1
22.930779 29.690376 1.9660528 2 9
5.082068 6.575429 -1.6153891 4 2
24.430199 31.586197 3.4935508 1 10
4.6817379 6.0509119 -1.2117414 36 3
23.928192 30.903696 4.7989717 0 11
5.556459 7.1710958 -1.1138859 4 4
24.636789 31.784472 6.3693867 1 12
6.45011 8.3154354 -0.92071325 13 5
6.4837132 8.3497257 -0.55402851 10 6
4.4095564 5.637887 -1.9178492 7 0
4.9124093 6.2740431 -1.8396497 8 1
23.03895 29.403795 1.957679 2 9
5.0660682 6.4609962 -1.5959265 10 2
24.666767 31.447392 3.4966884 0 10
4.7385035 6.036726 -1.2154959 32 3
23.97291 30.518906 4.7650919 1 11
6.5532341 8.3396502 -1.3022959 12 4
25.096191 31.914494 6.4303961 1 12
6.6706443 8.4768791 -0.94372231 19 5
6.5838695 8.3576002 -0.55758733 20 6
4.4464073 5.6039381 -1.9168139 9 0
4.9282126 6.2044983 -1.8293018 13 1
23.442495 29.492407 1.9744265 2 9
5.2112675 6.5514607 -1.6272193 3 2
24.63138 30.954826 3.4609547 0 10
4.8051429 6.0344043 -1.2217534 32 3
23.956524 30.063593 4.7200003 1 11
6.66574 8.3619947 -1.3130203 19 4
25.05969 31.414221 6.3646932 1 12
6.7492862 8.4456139 -0.56658912 10 6
4.4575596 5.5381489 -1.9049082 10 0
4.965292 6.1623569 -1.8270525 14 1
23.692965 29.383989 1.9781946 2 9
5.1742773 6.4125509 -1.6016507 18 2
26.625162 32.985142 3.7086511 0 10
4.8868742 6.0498843 -1.2317652 37 3
24.043512 29.744329 4.6961136 0 11
6.841013 8.4479485 -0.95104349 13 5
6.8684545 8.4727612 -0.57161337 20 6
4.5154061 5.528553 -1.9126729 9 0
5.0043278 6.1206336 -1.8252529 12 1
25.172428 30.765671 2.0832853 0 9
5.1915593 6.3428507 -1.5932552 10 2
26.868092 32.80302 3.709697 0 10
4.9475722 6.0361485 -1.2361453 37 3
25.690502 31.331831 4.9749508 1 11
6.8374314 8.3329153 -1.3235012 16 4
25.260584 30.76371 6.3046227 0 12
6.9251161 8.4307747 -0.9545297 20 5
8.9412231 10.869742 -0.73762304 8 6
4.5711465 5.5177217 -1.9199197 9 0
5.0581317 6.0990477 -1.8293018 17 1
5.2756991 6.3523579 -1.6050854 4 2
25.168808 30.294443 3.4457896 0 10
5.0097952 6.0257664 -1.2411512 33 3
24.761229 29.761597 4.7536359 1 11
6.9690886 8.373477 -1.337638 23 4
25.185242 30.239019 6.2329755 0 12
7.0246134 8.4312096 -0.96010768 27 5
9.038641 10.833126 -0.73940241 17 6
4.6232271 5.5019441 -1.9256139 10 0
9.3552723 11.117622 0.76148826 2 9
5.0469346 5.9934244 -1.5230374 22 2
25.491373 30.250555 3.4609547 0 10
5.0430589 5.9824619 -1.239274 25 3
24.949158 29.57567 4.7509546 1 11
5.0413232 5.9719443 -0.95959932 29 4
23.793547 28.175823 5.8409505 2 12
5.0372725 5.9608111 -0.68277812 27 5
9.1108761 10.769831 -0.73929775 17 6
4.6467896 5.4541717 -1.9199197 9 0
5.0835729 5.9605222 -1.8086064 35 1
25.987463 30.448935 2.0979395 0 9
5.0605998 5.9252033 -1.5146419 26 2
10.093603 11.813919 1.3594552 2 10
5.0769963 5.9381032 -1.2373967 37 3
24.04775 28.106607 4.5418272 4 11
5.083147 5.9389982 -0.95984304 39 4
24.231249 28.291079 5.8997698 0 12
5.0709872 5.91642 -0.68173224 27 5
7.2115984 8.4050026 -0.58040577 9 6
4.7163301 5.4581413 -1.9328607 10 0
5.170958 5.9779458 -1.824803 17 1
5.2226725 6.0292192 -1.550514 19 2
10.105376 11.661856 1.3500425 2 10
5.2218599 6.0219078 -1.2624264 37 3
24.588158 28.335352 4.6064177 2 11
9.4239511 10.856318 -1.7651558 5 4
24.990391 28.768444 6.0355549 1 12
7.2336287 8.3213415 -0.96463978 13 5
7.3356524 8.4297886 -0.58563942 19 6
4.6817427 5.3422699 -1.9033554 14 0
5.2369809 5.9695363 -1.8333511 13 1
27.883224 31.761164 2.2149625 0 9
5.2957349 6.0280089 -1.5596728 19 2
25.173723 28.644569 3.3363218 0 10
5.2924728 6.0179391 -1.2693094 34 3
24.469315 27.803871 4.547677 4 11
9.473279 10.760463 -1.7602808 16 4
25.103134 28.493969 6.0145931 1 12
7.3665075 8.3586063 -0.97474986 13 5
7.4141479 8.4008331 -0.58720946 38 6
4.6932597 5.2805729 -1.8930025 13 0
5.3225732 5.9823279 -1.8486477 15 1
24.335611 27.342527 1.9183224 3 9
5.3497009 6.0064831 -1.563489 16 2
27.175982 30.490938 3.5733855 0 10
5.3543472 6.0053663 -1.2743154 33 3
24.820555 27.818857 4.5776563 1 11
7.451323 8.3455791 -1.3737113 21 4
24.989904 27.97916 5.9416947 1 12
7.5083256 8.4005651 -0.98573142 35 5
7.4858136 8.3665409 -0.58836091 28 6
4.7859912 5.311656 -1.9157786 13 0
5.3944931 5.9806919 -1.8594455 15 1
24.539303 27.186783 1.9193691 3 9
5.4283504 6.0097818 -1.5741742 24 2
10.022141 11.091721 1.3078591 6 10
5.4226389 5.9971437 -1.2805728 29 3
7.5652437 8.3579473 -1.3841921 31 4
24.284168 26.809929 5.7292562 4 12
7.5559721 8.3389244 -0.98451126 28 5
7.612484 8.3895149 -0.59369916 19 6
4.7591023 5.2082329 -1.8904144 12 0
5.4492669 5.9572639 -1.8639444 14 1
5.5036011 6.0103416 -1.5840963 22 2
26.782137 29.22757 3.4682755 0 10
5.5060449 6.0066934 -1.2905844 34 3
26.114233 28.46874 4.7433987 0 11
7.5750785 8.252285 -1.3754175 19 4
24.3806 26.550879 5.7092328 4 12
7.6490507 8.3241177 -0.98904335 14 5
7.6680579 8.3360376 -0.59359449 19 6
4.802321 5.1842217 -1.8935202 12 0
5.506917 5.9386106 -1.8697932 16 1
25.338388 27.305573 1.9522361 2 9
5.5721493 6.0005431 -1.5917287 22 2
27.700489 29.819731 3.5608351 0 10
5.5828166 6.005722 -1.298719 30 3
26.442131 28.42528 4.766798 0 11
7.7013984 8.2760954 -1.3880919 20 4
24.89517 26.734217 5.7858853 3 12
7.7462802 8.3155918 -0.99427271 14 5
7.7478652 8.3056688 -0.5952692 9 6
4.8304601 5.1421204 -1.8904144 12 0
5.5682664 5.9213142 -1.8765416 15 1
24.480873 26.023947 1.872476 7 9
5.6532326 6.0053639 -1.6031773 22 2
27.959909 29.680729 3.5674589 0 10
5.6533689 5.9992127 -1.3056022 26 3
26.092972 27.669819 4.6697898 1 11
7.7480903 8.2105789 -1.386142 21 4
25.030478 26.515291 5.7752485 5 12
7.9601178 8.4264202 -1.0141442 14 5
7.8947954 8.3485107 -0.60217756 9 6
4.8973236 5.1426973 -1.9028376 18 0
5.6286125 5.9044337 -1.8832903 20 1
24.579243 25.765694 1.8661957 7 9
5.7221327 5.9941516 -1.6108096 24 2
24.066307 25.201565 3.048708 3 10
5.7224083 5.9881606 -1.3118596 13 3
26.430939 27.639061 4.6956263 0 11
7.9135714 8.2724075 -1.4056411 20 4
25.38983 26.522551 5.8152957 4 12
7.9911823 8.3418713 -1.010658 14 5
8.060709 8.4056349 -0.61034197 18 6
4.9438429 5.1195002 -1.9069788 15 0
5.6724052 5.8677964 -1.8841901 15 1
23.886442 24.69198 1.8004616 5 9
5.8075395 5.9991937 -1.6230214 24 2
27.902161 28.812922 3.5090644 2 10
25.575718 26.373676 4.5108719 3 11
7.9904857 8.2369022 -1.4090534 18 4
26.907631 27.718092 6.1184659 1 12
8.0603304 8.2973118 -1.0120524 14 5
4.9956827 5.1014233 -1.9131904 15 0
5.7214165 5.8364024 -1.8868895 22 1
5.8822861 5.9921312 -1.6321803 22 2
10.056693 10.240924 1.2557399 3 10
7.9529114 8.0929432 -1.7971194 1 3
24.655472 25.072084 4.3175874 7 11
8.1424551 8.2771511 -1.4256277 21 4
27.071383 27.500004 6.1118956 0 12
8.3725405 8.4991589 -1.0437772 15 5
28.39403 28.793264 -2.1192925 0 6
5.0720105 5.1075482 -1.9287195 16 0
5.7015696 5.7355094 -1.8670937 22 1
5.9544468 5.9815292 -1.6405759 21 2
10.084366 10.126697 1.2503363 2 10
8.0566254 8.0847988 -1.8077569 1 3
24.978491 25.048344 4.3434238 7 11
11.486228 11.51433 -1.9969513 18 4
27.477631 27.525633 6.1600771 0 12
8.3612633 8.3700256 -1.0350616 14 5
28.532198 28.532207 -2.114687 0 6
5.0993199 5.0638475 -1.9256139 15 0
5.7885108 5.7422276 -1.8823904 21 1
24.690514 24.475979 1.8220242 9 9
6.026742 5.9702125 -1.6489714 24 2
24.014524 23.780947 2.9568458 8 10
8.1634188 8.0783758 -1.8190202 1 3
24.90292 24.626293 4.300282 5 11
27.629776 27.29426 6.1513166 0 12
8.4605722 8.3549166 -1.040291 14 5
5.1566343 5.0497479 -1.9338959 16 0
5.7866697 5.6607914 -1.8688934 17 1
24.453844 23.91357 1.7925066 5 9
6.1206007 5.9811907 -1.6634729 24 2
23.815042 23.256357 2.9122219 12 10
8.2662764 8.0695381 -1.8296577 1 3
24.704781 24.099968 4.2376413 8 11
8.5286484 8.3140535 -1.4624323 16 4
27.819166 27.109695 6.1522555 0 12
8.5500927 8.326231 -1.0441258 15 5
23.75761 23.111359 -1.7370306 8 6
5.2075582 5.0306401 -1.9401076 16 0
5.8545127 5.6496916 -1.8783413 25 1
24.643202 23.764452 1.7941815 5 9
6.2017903 5.976459 -1.6741582 22 2
23.944094 23.066067 2.9087355 8 10
8.3451824 8.0335512 -1.8346636 1 3
25.955383 24.968718 4.4221516 3 11
8.6322641 8.3012094 -1.4704757 18 4
28.064711 26.969584 6.1647701 1 12
8.6999893 8.3546562 -1.0552818 15 5
23.98469 23.008524 -1.7418455 16 6
5.2677298 5.018147 -1.9494252 14 0
5.840168 5.5576334 -1.8612449 23 1
24.976406 23.751471 1.8063233 4 9
6.2775154 5.9654779 -1.6833171 22 2
24.159435 22.950491 2.9153595 8 10
8.4383087 8.0104599 -1.8427982 1 3
25.123819 23.833298 4.2520218 4 11
8.6871214 8.2380142 -1.4699881 19 4
28.792864 27.28525 6.282722 1 12
5.1449332 4.8331094 -1.8914497 15 0
5.9470382 5.5807319 -1.8828404 23 1
28.990715 27.186041 2.0828664 0 9
6.3648515 5.9644651 -1.6955289 22 2
25.386337 23.781069 3.0433042 3 10
8.5632477 8.0161524 -1.8578159 1 3
25.823088 24.156357 4.3417177 3 11
8.8444672 8.2707214 -1.4868062 20 4
25.940212 24.240465 5.6231942 4 12
8.8507357 8.2650089 -1.0594652 15 5
5.3698778 4.9743032 -1.9613309 13 0
6.0216088 5.5721684 -1.8940878 38 1
29.144609 26.950439 2.0803545 0 9
6.452477 5.962522 -1.7077407 22 2
25.143415 23.226068 2.9946711 3 10
6.6914115 6.1768212 -1.4423259 6 3
24.803375 22.879892 4.1433144 7 11
12.29497 11.337522 -2.0534985 6 4
26.079744 24.032017 5.6169367 4 12
9.0665102 8.3487768 -1.0782908 16 5
9.038662 8.314393 -0.64362764 8 6
5.4087529 4.9406013 -1.9628838 15 0
6.0416489 5.512918 -1.888239 15 1
6.5258718 5.9464211 -1.7161362 22 2
24.820358 22.608559 2.9373229 8 10
8.732769 7.948997 -1.8703307 2 3
24.953693 22.69816 4.1418519 7 11
12.488374 11.355583 -2.0725102 11 4
25.802443 23.445517 5.5218244 7 12
9.1260777 8.2895489 -1.0786394 16 5
24.780497 22.477474 -1.7533594 7 6
5.4431129 4.9027209 -1.9628838 16 0
6.0205951 5.4171638 -1.8697932 20 1
28.83629 25.936985 2.032624 2 9
6.6246018 5.9543586 -1.7314008 25 2
30.131413 27.063862 3.5434039 0 10
6.9023452 6.1974716 -1.4692327 7 3
30.530142 27.393133 5.0363727 0 11
9.2241335 8.2705336 -1.5211732 11 4
25.995268 23.299667 5.5290203 5 12
9.1732788 8.2076235 -0.64509302 8 6
5.4720259 4.8617082 -1.9613309 13 0
5.9713373 5.299737 -1.843249 26 1
30.188147 26.774035 2.114687 0 9
6.721838 5.9574504 -1.7459024 22 2
27.602276 24.454805 3.2263312 5 10
8.9006948 7.8802176 -1.8828454 9 3
25.163183 22.262505 4.1252775 7 11
9.4140396 8.3259192 -1.5431098 12 4
26.234262 23.185642 5.5452895 7 12
9.4977884 8.3881702 -1.108621 17 5
9.3756332 8.2715511 -0.65524626 17 6
5.491303 4.8106575 -1.9561545 12 0
5.9817939 5.2348189 -1.8351506 24 1
28.825756 25.208412 2.0068748 1 9
6.8002257 5.9426723 -1.7554429 10 2
27.503736 24.02689 3.1951294 1 10
9.0001392 7.8568554 -1.8922316 6 3
25.551348 22.28986 4.163301 4 11
12.700569 11.075509 -2.0690978 8 4
26.499741 23.092773 5.5671902 7 12
9.4708185 8.2386723 -0.65786302 8 6
5.5364466 4.7823086 -1.9602956 12 0
6.0506506 5.2209415 -1.8450485 26 1
28.943562 24.956993 2.0028973 3 9
6.9887905 6.021925 -1.7932231 10 2
33.108353 28.517931 3.8229995 0 10
9.0517778 7.7912545 -1.8916059 11 3
25.95916 22.328419 4.2042489 4 11
12.711352 10.929627 -2.0583735 12 4
31.445791 27.019037 6.566494 1 12
25.518957 21.887848 -1.7619424 7 6
5.5814643 4.753561 -1.9644365 12 0
6.0632038 5.1583686 -1.8378501 23 1
31.652199 26.909555 2.1772807 0 9
7.0127034 5.957737 -1.7886436 9 2
30.573112 25.964592 3.509239 1 10
9.1571541 7.7713337 -1.9022434 10 3
26.141663 22.169756 4.2086363 6 11
12.947845 10.976694 -2.0842097 13 4
30.721781 26.02634 6.3772082 1 12
25.701645 21.734955 -1.7640359 7 6
5.5627341 4.6709995 -1.9463193 14 0
6.0796585 5.0996332 -1.8320013 22 1
29.791256 24.97127 2.0372298 1 9
7.1504478 5.9893155 -1.8130672 7 2
28.150595 23.570972 3.2122121 1 10
9.2672396 7.754117 -1.9138194 13 3
26.129816 21.847906 4.1820688 9 11
12.94953 10.823653 -2.0722666 18 4
30.977032 25.873262 6.392539 1 12
26.030689 21.703367 -1.7761778 7 6
5.5922318 4.6295867 -1.945284 14 0
6.1196179 5.0607905 -1.8333511 25 1
7.3041086 6.0317574 -1.8413069 10 2
26.286295 21.699596 2.982121 1 10
9.2617188 7.6402063 -1.9016175 20 3
26.065718 21.486927 4.1477013 11 11
13.0355 10.741821 -2.0739727 21 4
31.024227 25.54714 6.3653193 2 12
26.011856 21.381603 -1.7646639 15 6
5.5855036 4.5586729 -1.9318254 18 0
6.2061529 5.0598125 -1.8486477 25 1
7.3810573 6.0091271 -1.8500841 12 2
26.471146 21.543224 2.9859557 1 10
9.2918444 7.5566659 -1.8969245 8 3
26.065659 21.182991 4.1240587 9 11
13.104011 10.645547 -2.0729976 20 4
28.3738 23.034113 5.7883887 2 12
25.789633 20.898952 -1.7396474 16 6
5.5901003 4.4977694 -1.922508 18 0
6.2792997 5.0468822 -1.8598953 21 1
7.3284044 5.88377 -1.8268054 24 2
27.63102 22.168335 3.0992582 1 10
7.3351469 5.8828697 -1.4892563 24 3
26.268097 21.052267 4.1333208 9 11
29.795986 23.853996 6.0452542 1 12
7.3277731 5.8622599 -0.82100707 51 5
5.6236129 4.4620161 -1.9235432 14 0
6.3089247 5.000392 -1.8585455 24 1
28.690939 22.723854 1.918113 3 9
7.3600631 5.8251581 -1.8245157 25 2
32.931293 26.05426 3.6737885 0 10
7.3822331 5.8364215 -1.4905078 33 3
26.468954 20.911425 4.1418519 4 11
7.3811073 5.8292537 -1.154834 37 4
29.912159 23.606255 6.0352426 1 12
7.3612475 5.8073139 -0.82030988 40 5
26.111414 20.569811 -1.7420549 8 6
5.7915792 4.5297618 -1.9701307 7 0
6.2254376 4.8638439 -1.8239032 18 1
28.87327 22.550175 1.919997 3 9
7.7802801 6.0720625 -1.9183939 10 2
29.058947 22.662548 3.2240651 3 10
9.1931152 7.1669574 -1.8462398 17 3
26.911343 20.965019 4.1886497 6 11
13.718573 10.679617 -2.1346636 11 4
30.387045 23.647175 6.0984416 1 12
26.181425 20.337688 -1.7374493 8 6
5.8291793 4.4939394 -1.9722012 6 0
6.3410697 4.8832841 -1.847748 26 1
28.435589 21.882557 1.8804311 3 9
7.8328691 6.0234127 -1.9206835 13 2
27.095039 20.828362 2.9899647 3 10
9.104743 6.9938908 -1.8183944 20 3
27.789745 21.331545 4.3015008 7 11
12.586439 9.6579132 -1.9479598 10 4
30.204353 23.159868 6.0283594 1 12
28.028248 21.467997 6.862637 1 13
26.300911 20.130396 -1.7357744 8 6
5.8527203 4.4472904 -1.969613 9 0
6.333097 4.8070846 -1.8356007 21 1
28.742989 21.809221 1.8908982 3 9
7.8674269 5.9652152 -1.919157 28 2
30.878017 23.395241 3.3893123 0 10
9.1206398 6.9079051 -1.812137 20 3
29.037563 21.976868 4.4713869 2 11
12.680473 9.5901642 -1.9521034 12 4
27.846422 21.052441 5.5290203 7 12
26.832697 20.249271 -1.7617332 15 6
5.8921328 4.414299 -1.9727188 9 0
6.5341744 4.8899674 -1.8841901 35 1
28.97452 21.667833 1.896132 3 9
7.8050847 5.832581 -1.8939703 22 2
31.202545 23.30854 3.4074407 0 10
9.0768318 6.7755275 -1.7939906 23 3
33.518307 25.00197 5.1343555 0 11
12.885494 9.6080561 -1.9735522 1 4
28.178049 20.995613 5.5656261 3 12
26.935659 20.047979 6.5268126 2 13
27.124046 20.173506 -1.7715724 14 6
5.9476733 4.3914161 -1.981001 7 0
6.6528425 4.906692 -1.9084847 18 1
29.632555 21.846989 1.9294175 2 9
7.7718973 5.7257528 -1.8764157 24 2
31.605183 23.267317 3.4335878 0 10
9.0972853 6.6948533 -1.7889848 20 3
33.118378 24.354586 5.047585 1 11
12.845088 9.4391012 -1.9572219 6 4
28.309153 20.795151 5.563436 5 12
26.910316 19.738695 6.4871244 3 13
27.032026 19.820694 -1.7567089 7 6
5.9430628 4.3258214 -1.969613 9 0
6.8074493 4.9495387 -1.9431273 23 1
30.104277 21.87204 1.9501425 2 9
7.9260683 5.7544012 -1.9038923 19 2
34.000957 24.675957 3.6755319 0 10
9.0494537 6.5627561 -1.7705256 17 3
33.715176 24.432613 5.1124191 0 11
13.037684 9.4411812 -1.9764771 12 4
28.644068 20.734835 5.6006675 7 12
27.127022 19.607851 6.506206 2 13
26.72616 19.311001 -1.7280288 8 6
27.012497 19.503546 7.6919761 5 14
6.0115457 4.3101993 -1.9820364 9 0
6.9013143 4.9426827 -1.9597737 15 1
33.579834 24.031937 2.1640921 0 9
8.0810089 5.7811756 -1.9313688 24 2
33.59317 24.014896 3.6127799 0 10
9.0045633 6.4323831 -1.752692 22 3
32.996395 23.562183 4.978363 1 11
13.079041 9.3326349 -1.9728212 10 4
31.413364 22.39867 6.1106434 0 12
28.187532 20.076302 6.7267809 2 13
27.023127 19.232752 -1.7382866 16 6
6.025712 4.256979 -1.9768599 7 0
7.0120783 4.9483147 -1.9813689 17 1
32.747852 23.092508 2.1000328 0 9
8.1446428 5.7390289 -1.9367114 21 2
33.57106 23.646694 3.5925596 0 10
9.1300182 6.4262118 -1.7683355 19 3
35.070389 24.666178 5.2645125 0 11
13.155242 9.2490911 -1.9745274 3 4
28.62398 20.109812 5.540597 3 12
28.728762 20.160969 6.822185 1 13
27.074976 18.986292 -1.7330531 8 6
6.0299172 4.1971469 -1.9685777 7 0
6.7968531 4.7256947 -1.9111842 20 1
8.2296629 5.7133818 -1.9473966 22 2
34.079063 23.650297 3.6291652 0 10
9.4798288 6.573947 -1.8271548 12 3
34.4716 23.887075 5.1494675 1 11
14.389513 9.9674969 -2.1492879 10 4
30.231989 20.925816 5.8234301 4 12
28.568447 19.752241 6.751204 4 13
27.101698 18.72415 -1.726354 8 6
27.418329 18.928774 7.6919761 5 14
6.0686312 4.1615028 -1.9716836 7 0
6.8972039 4.724381 -1.9300802 34 1
34.052673 23.30764 2.1626265 0 9
8.321208 5.6912508 -1.9596084 24 2
36.588718 25.015337 3.877733 0 10
9.6266222 6.5766883 -1.8465527 34 3
35.227741 24.048756 5.2372136 0 11
14.102942 9.6239805 -2.0963967 8 4
30.48016 20.784359 5.8431406 2 12
28.734858 19.572208 6.7580738 2 13
27.149193 18.478313 -1.7211205 8 6
27.44665 18.67374 7.664083 5 14
6.1039376 4.123363 -1.9737542 9 0
7.0527854 4.7589579 -1.9642726 22 1
34.94241 23.568943 2.2088916 0 9
8.3630075 5.6366773 -1.9603716 22 2
34.878571 23.490496 3.679018 0 10
9.7465391 6.5617599 -1.8609446 19 3
32.231537 21.683193 4.7697225 0 11
13.191195 8.8674555 -1.9516157 1 4
28.417566 19.067045 6.6519837 3 13
27.529795 18.464401 -1.7372398 8 6
6.1350813 4.0838571 -1.9747895 7 0
7.0201068 4.6676779 -1.9462765 21 1
32.544209 21.622334 2.0476968 0 9
8.4643087 5.6194186 -1.9748732 21 2
35.402874 23.494915 3.7173665 0 10
9.8497314 6.5317669 -1.8718951 13 3
35.860447 23.762516 5.2820616 0 11
12.950043 8.5779543 -1.9072554 3 4
28.274843 18.693424 6.588635 2 13
27.778006 18.351036 -1.7447762 8 6
6.1634407 4.0409303 -1.9747895 9 0
7.0508904 4.6174903 -1.9458266 24 1
31.333982 20.504393 1.9624939 6 9
8.2732935 5.4097643 -1.9214467 22 2
31.596838 20.652779 3.3025053 0 10
9.650322 6.3029695 -1.8255905 19 3
34.549263 22.548182 5.0656214 0 11
13.43191 8.7628298 -1.9691651 2 4
32.771851 21.363714 6.1960568 0 12
27.898746 18.152306 -1.7443576 8 6
27.405281 17.8176 7.5466576 9 14
6.1817636 3.9915149 -1.9716836 9 0
7.0813169 4.5670977 -1.9453768 22 1
31.076807 20.027639 1.937582 5 9
8.4396057 5.4347873 -1.951213 24 2
27.992601 18.019268 2.9125707 10 10
9.6143408 6.184154 -1.8105727 19 3
30.040096 19.307625 4.3846154 9 11
13.808404 8.8716497 -2.0152316 18 4
29.397787 18.873055 5.5330877 7 12
29.177616 18.71014 6.7374659 6 13
27.446312 17.586409 -1.7083505 8 6
6.2225208 3.956553 -1.9758247 9 0
7.0949335 4.5060568 -1.9404278 24 1
8.6620779 5.4950023 -1.9939542 16 2
28.341528 17.965275 2.9357541 2 10
9.5827942 6.0720472 -1.7968066 18 3
31.868132 20.177357 4.6312795 2 11
12.96748 8.2040396 -1.8841002 9 4
33.412228 21.130503 6.2614465 0 12
29.50839 18.63282 6.7836418 3 13
27.646444 17.450361 -1.7133747 8 6
27.892281 17.591921 7.6132436 8 14
6.2460341 3.9120555 -1.9747895 7 0
7.1997843 4.504168 -1.9606735 18 1
35.597504 22.25243 2.2000992 0 9
8.5536966 5.3428731 -1.9603716 13 2
32.833527 20.500732 3.3865235 0 10
9.6048374 5.992456 -1.7930521 18 3
32.341763 20.162317 4.6795397 1 11
13.034816 8.1229315 -1.8858064 11 4
33.857414 21.082588 6.3171377 1 12
29.134405 18.120468 6.6691566 5 13
27.577604 17.138851 -1.7016513 9 6
6.3126574 3.8926899 -1.9872128 9 0
7.2343731 4.4558382 -1.9615731 14 1
8.6008253 5.2891932 -1.9626614 22 2
27.510416 16.911303 2.8252404 7 10
9.6582241 5.9324875 -1.7952422 12 3
32.393757 19.88204 4.6668653 1 11
9.6327047 5.9098692 -1.3876045 14 4
33.481697 20.52565 6.2201476 0 12
29.198248 17.878695 6.6550364 2 13
27.696577 16.945921 -1.7016513 9 6
28.183397 17.230242 7.6262903 5 14
6.3330717 3.8445177 -1.9851422 9 0
7.2719674 4.4092693 -1.9633728 15 1
32.221836 19.52194 1.9744265 2 9
8.6509762 5.2371531 -1.9657143 19 2
28.752838 17.399618 2.9402859 2 10
9.6064339 5.8086991 -1.7780343 34 3
32.426418 19.591772 4.6517534 2 11
33.695202 20.334288 6.2332883 0 12
9.5820036 5.7779531 -0.97893327 49 5
29.693941 17.898415 6.7393746 3 13
27.472036 16.546045 -1.6807171 9 6
29.097776 17.51137 7.8404436 4 14
6.3398571 3.7883196 -1.9789305 9 0
7.2942052 4.3533998 -1.9611233 23 1
28.075743 16.743135 1.7131653 6 9
8.7210569 5.1967344 -1.9733468 19 2
27.937292 16.640749 2.8449378 4 10
9.5941286 5.7101784 -1.7683355 25 3
9.5999527 5.706841 -1.371274 41 4
33.146809 19.688978 6.1062636 0 12
9.5758467 5.6834607 -0.97422689 41 5
31.825756 18.881727 7.1931181 1 13
27.549078 16.331442 -1.6784142 9 6
6.3278499 3.7214417 -1.9670248 11 0
7.3462667 4.3151989 -1.966972 20 1
32.525715 19.090366 1.9765199 2 9
8.6724491 5.0860643 -1.9542658 16 2
28.037306 16.436247 2.8433688 2 10
9.6917114 5.6770058 -1.778973 26 3
33.704185 19.726706 4.7950716 0 11
9.7166634 5.6847911 -1.3822422 25 4
34.047466 19.903698 6.2464285 0 12
9.7477598 5.6938539 -0.9876489 21 5
30.925991 18.057209 6.9610944 2 13
27.386396 15.977695 -1.6616668 10 6
6.3553486 3.6781425 -1.9675424 9 0
7.3930831 4.2735629 -1.9714712 18 1
28.756439 16.609238 1.74038 6 9
8.700943 5.0214696 -1.9527394 19 2
30.771145 17.751419 3.1079736 1 10
10.259935 5.9140334 -1.8756495 17 3
33.438553 19.259108 4.7380366 1 11
30.108656 17.32025 5.5014882 4 12
10.270936 5.9036689 -1.036456 14 5
27.60813 15.849755 -1.6683658 19 6
6.3707995 3.627948 -1.9644365 9 0
7.4667788 4.2468948 -1.9831684 12 1
31.584007 17.949509 1.9038776 3 9
8.8416348 5.0207086 -1.9763998 22 2
27.36998 15.535683 2.7534242 2 10
10.331903 5.8598027 -1.8812811 20 3
30.466951 17.265469 4.2997947 1 11
13.484439 7.6384554 -1.902868 7 4
30.292442 17.14563 5.5130639 1 12
31.769842 17.959887 7.0938973 1 13
27.620722 15.601619 -1.6625041 10 6
6.3824892 3.575829 -1.9602956 9 0
7.4520307 4.1699219 -1.9714712 17 1
8.8481846 4.9450836 -1.9702938 16 2
30.876833 17.242342 3.0940287 1 10
10.426744 5.8201494 -1.8912928 18 3
32.899963 18.349493 4.6254296 0 11
13.599862 7.578918 -1.9116427 3 4
30.8813 17.202421 5.5987902 1 12
32.299374 17.962845 7.183959 1 13
28.302347 15.733488 -1.6970459 9 6
6.3965306 3.5267055 -1.9571897 9 0
7.5075541 4.1341405 -1.9786695 17 1
28.108252 15.465422 1.6813452 14 9
8.8584042 4.8699546 -1.9649512 22 2
29.132126 16.008902 2.9082127 6 10
10.390932 5.7053881 -1.8775268 18 3
31.015373 17.015619 4.3436675 1 11
14.477893 7.9395676 -2.0274186 5 4
30.912285 16.938013 5.5828342 3 12
28.600758 15.639006 -1.7083505 8 6
6.3938241 3.4672289 -1.9489075 9 0
7.5653634 4.0974045 -1.9863179 14 1
29.270216 15.846157 1.7443576 6 9
8.9880514 4.8618484 -1.9863218 18 2
28.76642 15.547475 2.8608 2 10
10.427793 5.6335826 -1.8772138 16 3
30.466667 16.445808 4.2510467 2 11
10.839452 5.846209 -1.5121549 5 4
31.158998 16.798464 5.6066117 3 12
31.517086 16.963112 6.9572778 1 13
29.142746 15.678637 -1.7343091 8 6
6.4008265 3.4134197 -1.9437311 9 0
7.5800219 4.0371633 -1.9827186 12 1
32.094574 17.079376 1.9053431 3 9
8.9948769 4.7826595 -1.9802158 18 2
29.722261 15.796969 2.9448183 4 10
10.438179 5.5430689 -1.8718951 18 3
29.983864 15.909172 4.1676884 4 11
11.015037 5.8420105 -1.5309228 7 4
30.274788 16.043207 5.4267125 2 12
30.100809 15.930833 6.6199274 2 13
29.236536 15.460358 -1.7332623 8 6
6.4073911 3.3596792 -1.9385546 9 0
7.5838532 3.9714897 -1.9764199 14 1
37.621197 19.692989 2.2254298 0 9
8.9976463 4.7058597 -1.9737284 12 2
36.125225 18.877777 3.5660641 0 10
10.649004 5.5624375 -1.9028691 17 3
30.79188 16.07024 4.2646966 4 11
11.191086 5.8356433 -1.5496907 9 4
33.848156 17.642763 6.0455675 1 12
30.242638 15.73663 6.6267972 4 13
6.4404135 3.3213003 -1.9416605 9 0
7.6072459 3.9179914 -1.9755201 14 1
31.439049 16.178303 1.8530071 4 9
8.9621859 4.6079183 -1.9588453 18 2
30.575186 15.713523 3.0075705 3 10
10.532944 5.4085484 -1.8753366 14 3
29.479757 15.124524 4.0682425 5 11
11.375391 5.833612 -1.5696774 2 4
34.360783 17.606003 6.1150236 0 12
29.969803 15.33632 6.5439858 3 13
30.03731 15.357656 -1.7680135 7 6
6.418642 3.2535474 -1.9282019 7 0
7.6361527 3.8656678 -1.97597 21 1
32.677616 16.528139 1.9191598 3 9
9.0221748 4.559402 -1.9649512 21 2
35.151428 17.756275 3.4454408 0 10
10.716816 5.4087553 -1.9013047 18 3
29.577532 14.914788 4.0672679 7 11
13.495153 6.802114 -1.8555828 2 4
31.656473 15.942333 5.6138077 3 12
29.858648 15.017349 6.496665 3 13
30.193771 15.172677 -1.7709442 7 6
6.4308248 3.2034893 -1.9250962 9 0
7.61759 3.7896948 -1.9642726 15 1
9.1452169 4.5417166 -1.9847952 13 2
29.663738 14.725197 2.8974056 2 10
10.773779 5.3434663 -1.9047463 17 3
30.431543 15.079886 4.1701255 6 11
14.568699 7.2161293 -1.99622 2 4
31.257114 15.468607 5.5237017 7 12
29.950439 14.80244 6.4939933 2 13
30.320456 14.972129 -1.7722005 7 6
6.4530311 3.1585188 -1.9250962 9 0
7.6351056 3.7321465 -1.962023 13 1
9.1476908 4.4655867 -1.9786894 15 2
29.751482 14.510772 2.8960109 2 10
10.994564 5.360034 -1.9372847 14 3
33.520981 16.327559 4.5781441 0 11
11.928805 5.8051891 -1.6289058 11 4
31.263983 15.207962 5.5064936 5 12
12.024089 5.8437743 -1.1696301 19 5
30.582878 14.850238 6.6084795 2 13
29.728088 14.428782 -1.7317969 8 6
6.4639368 3.109493 -1.9219903 9 0
7.6357422 3.6682715 -1.9557245 15 1
32.916592 15.799254 1.9135073 3 9
9.0547285 4.3421865 -1.9519762 24 2
35.746174 17.134373 3.4681015 0 10
11.184936 5.3565235 -1.9641914 15 3
33.455078 16.00746 4.5537701 3 11
13.229885 6.3245115 -1.8004979 2 4
35.247787 16.842554 6.1872969 0 12
30.79921 14.690475 6.6329026 3 13
29.449499 14.040389 -1.7098159 8 6
6.4755421 3.0582089 -1.9188845 7 0
7.6424098 3.604394 -1.9507756 16 1
32.006195 15.081445 1.8542631 4 9
9.0599566 4.2671552 -1.9466335 19 2
30.921076 14.550354 2.9897904 3 10
11.283759 5.304924 -1.974829 18 3
14.585455 6.8478551 -1.9784272 15 4
31.336353 14.699037 5.48209 6 12
31.676167 14.838204 6.7992883 1 13
28.88714 13.519436 -1.6715059 9 6
6.4932294 3.0113013 -1.9178492 9 0
7.6620812 3.5484948 -1.9494258 14 1
32.27021 14.931455 1.8634742 3 9
9.1294651 4.2203383 -1.955029 24 2
31.110519 14.375093 2.9983318 3 10
11.424543 5.2740407 -1.9929754 18 3
32.59647 15.034077 4.407527 4 11
14.658146 6.7574978 -1.9818394 12 4
31.294674 14.4138 5.4570608 4 12
31.284918 14.389456 6.6935802 3 13
29.322008 13.47422 -1.6911843 18 6
6.5000267 2.9594955 -1.9137081 7 0
7.6831179 3.4933074 -1.9485261 14 1
31.72267 14.410069 1.8260018 9 9
9.2373667 4.1921983 -1.9718202 21 2
11.49347 5.2088313 -1.998607 17 3
35.836327 16.225941 4.8301702 0 11
14.187731 6.4209161 -1.9121301 7 4
30.741154 13.899562 5.3434892 2 12
31.491962 14.219184 6.7164769 5 13
29.389874 13.257688 -1.689719 9 6
6.5064197 2.9077387 -1.909567 7 0
7.6717272 3.4237003 -1.9395281 14 1
34.135536 15.219533 1.9587257 2 9
9.3363495 4.1587667 -1.9867034 12 2
11.54399 5.1348925 -2.0011098 17 3
33.307495 14.801613 4.475286 2 11
14.642213 6.5038347 -1.9672151 8 4
30.855503 13.692606 5.3466177 2 12
31.50252 13.959993 6.6977777 3 13
29.065317 12.867838 -1.6658536 19 6
6.5159469 2.8575859 -1.9064611 9 0
7.6811624 3.3638005 -1.9359287 12 1
31.881741 13.955312 1.8239083 4 9
9.3680401 4.0966883 -1.9874666 10 2
11.509886 5.0261507 -1.9892209 14 3
33.620358 14.667426 4.5038037 4 11
13.264211 5.7812166 -1.7766114 1 4
32.011036 13.945387 5.530272 5 12
29.027668 12.615579 -1.658736 10 6
6.5104041 2.8024766 -1.8992143 7 0
7.6859775 3.3037469 -1.9314297 14 1
9.3946066 4.0304174 -1.987085 10 2
11.548325 4.9472356 -1.9898466 16 3
34.103355 14.595594 4.5547452 2 11
