# .PCD v0.7 - Point Cloud Data file format
VERSION 0.7
FIELDS x y z intensity ring
SIZE 4 4 4 4 2
TYPE F F F F U
COUNT 1 1 1 1 1
WIDTH 1338
HEIGHT 1
VIEWPOINT 0 0 0 1 0 0 0
POINTS 1338
DATA ascii
1.1598358 6.2701468 -1.009941 33 3
1.2563723 6.7787809 0.84650451 5 11
1.2703609 6.8342857 1.1009859 3 12
1.1629612 6.2443652 -0.55570501 42 5
1.1719468 6.2562094 -0.11110201 42 7
1.0778494 5.6610165 -1.5441145 7 0
1.305097 6.8415718 0.12157347 7 8
1.1406996 5.9740896 -1.4041444 9 1
6.1128612 31.953905 1.705001 26 9
1.2794168 6.675283 -1.3211615 7 2
1.3288628 6.926743 0.61706263 10 10
1.2058216 6.2735357 -1.0118183 33 3
1.5491598 8.044673 1.0059097 0 11
1.8045452 9.362072 -1.1706771 7 4
1.3225371 6.848525 1.1047403 3 12
1.2057669 6.232182 -0.55535638 40 5
1.2155948 6.2478752 -0.11110201 38 7
1.1148583 5.6459684 -1.5420439 8 0
1.5010451 7.5877757 0.13501182 19 8
1.184363 5.9814806 -1.4077437 8 1
1.3162574 6.6354246 0.35452381 7 9
1.3244387 6.664495 -1.3207799 11 2
1.3600476 6.8374176 0.60991585 6 10
1.2492654 6.2690573 -1.0124439 33 3
1.3287313 6.6556935 0.83334261 2 11
1.362174 6.8170309 -0.85357296 6 4
1.2512972 6.2394581 -0.55675089 42 5
1.47931 7.3564386 -0.3932524 13 6
1.2596756 6.2472968 -0.11124164 40 7
1.1561874 5.6475101 -1.5446322 6 0
1.4503255 7.0717101 0.12600638 16 8
1.219826 5.9425225 -1.4005452 9 1
1.3931199 6.774755 0.36247885 7 9
1.3824205 6.7108493 -1.3318468 7 2
1.4741296 7.1497293 0.6386773 7 10
1.2938005 6.2640524 -1.0130697 29 3
1.435094 6.9358993 0.86965966 8 11
1.9439176 9.3868418 -1.1770141 13 4
1.2932048 6.2227669 -0.55605364 42 5
1.3016236 6.2305212 -0.11110201 38 7
1.1943816 5.6336317 -1.5430793 8 0
1.266142 5.9567366 -1.4059441 8 1
1.4894631 6.9953737 0.37483016 7 9
1.4271929 6.6914339 -1.3299388 9 2
1.4158634 6.6326556 0.59335625 2 10
1.3383293 6.2587299 -1.0136955 31 3
1.499696 7.0014129 0.87916553 3 11
2.0227227 9.4351511 -1.1848139 7 4
1.3273953 6.1707358 -0.55221879 21 5
3.9060564 18.112169 -0.97104144 9 6
1.3493119 6.240828 -0.11145107 35 7
1.2320273 5.6176081 -1.5410087 5 0
1.3068601 5.9439449 -1.4050443 9 1
1.5219404 6.9106851 0.37085262 4 9
1.4671065 6.6506329 -1.3238329 9 2
1.448818 6.5622983 0.58795261 5 10
1.3811378 6.2453766 -1.0130697 31 3
1.5742939 7.1070595 0.89378983 2 11
2.0906916 9.4304905 -1.1860325 9 4
1.3816931 6.211884 -0.55675089 42 5
1.3937237 6.2351584 -0.11152088 35 7
1.2695074 5.6013336 -1.538938 8 0
1.2585675 5.5440741 0.099234387 2 8
1.3465979 5.9270759 -1.4032447 9 1
1.5657204 6.8804159 0.3698059 7 9
1.5095711 6.6230016 -1.3203983 7 2
1.8623779 8.1642904 0.73263115 2 10
1.4264621 6.2432861 -1.0143212 31 3
1.6406999 7.1694283 0.90305191 5 11
1.2856411 5.613409 -0.70708597 4 4
1.6015127 6.98138 1.1344628 3 12
1.4285958 6.2176204 -0.55814534 42 5
4.0985041 17.795061 -0.9570154 18 6
1.4363196 6.2213793 -0.11145107 35 7
1.3112195 5.603621 -1.5420439 7 0
1.3915009 5.9327087 -1.4068439 7 1
1.7141994 7.297071 0.39283374 7 9
1.5472282 6.5759907 -1.3131475 9 2
1.6224997 6.8905129 0.61932868 5 10
1.4727342 6.2447109 -1.0161984 29 3
1.8194014 7.7026024 0.97178626 5 11
1.4558629 6.1587381 -0.77703899 6 4
1.8768592 7.9273019 1.2902716 2 12
1.4747236 6.2191286 -0.55919123 32 5
1.8508803 7.7993574 1.5581464 7 13
4.1949182 17.649427 -0.95073503 9 6
1.4815689 6.2189827 -0.11159069 35 7
1.3494043 5.5905747 -1.5410087 7 0
1.4328879 5.9228492 -1.4068439 7 1
1.9005524 7.8439612 0.42297927 9 9
1.5903219 6.5535817 -1.3108579 9 2
1.7185237 7.0765018 0.63710845 5 10
1.5190958 6.2457938 -1.0180756 28 3
1.7340642 7.1188197 0.89963961 3 11
1.4405255 5.909276 -0.74681538 7 4
1.8927974 7.752809 1.2639905 14 12
1.5176321 6.2067461 -0.55901694 39 5
1.9197471 7.8453641 1.5699766 4 13
4.2990165 17.542118 -0.94654816 9 6
1.5297195 6.2279077 -0.11193974 40 7
1.3916656 5.5941405 -1.5446322 6 0
1.4275708 5.7299442 0.10307391 2 8
1.4808024 5.9391732 -1.4131424 8 1
1.9426868 7.7801189 0.42025778 6 9
1.6417512 6.5651746 -1.3154373 18 2
1.7117773 6.8401289 0.61688834 2 10
1.563623 6.2388682 -1.0187013 28 3
1.9253166 7.6706738 0.97105503 6 11
1.5151132 6.0319195 -0.76363337 1 4
2.0355458 8.0918941 1.3215585 2 12
1.5638466 6.2075915 -0.56006277 48 5
1.8153907 7.190187 -0.38864684 12 6
1.5702178 6.2054448 -0.11173031 42 7
1.4369191 5.6086168 -1.5513614 7 0
1.519223 5.9212813 0.10670401 4 8
1.5241683 5.9362407 -1.4149421 7 1
8.2489252 32.080997 1.7359838 6 9
1.689503 6.5611582 -1.3169638 9 2
1.8186486 7.0576062 0.63763142 3 10
1.6071404 6.2277999 -1.0187013 28 3
2.0205436 7.81849 0.99152911 11 11
1.8161383 7.0224857 -0.89062124 2 4
2.0568249 7.9417143 1.2993449 8 12
1.6095632 6.2103038 -0.56128299 42 5
1.6205586 6.2214227 -0.11221898 42 7
1.4849019 5.6320734 -1.5606788 5 0
1.5339886 5.814126 0.10495877 2 8
1.5635797 5.9179192 -1.4131424 8 1
2.0763202 7.8530021 0.42570072 9 9
1.7285935 6.5286298 -1.312766 7 2
1.8990273 7.1622133 0.64826441 5 10
1.6505048 6.2205362 -1.019327 28 3
2.0813618 7.8333325 0.99518514 9 11
1.962613 7.3760395 -0.93717533 15 4
1.8897383 7.0971718 1.1632469 3 12
1.6533935 6.2008405 -0.56145728 35 5
1.6660231 6.2176838 -0.11235859 40 7
1.5136076 5.5864067 -1.5508437 6 0
1.5054203 5.5485268 0.10035134 6 8
1.605871 5.9146614 -1.4149421 8 1
2.1415701 7.8768616 0.42779416 6 9
1.7524692 6.4368429 -1.296738 8 2
1.5853143 5.8188744 0.52764088 6 10
1.7001312 6.2317305 -1.0230815 28 3
2.0517719 7.5103097 0.95594323 11 11
1.7164857 6.278717 -0.79921919 4 4
2.0894554 7.6325245 1.253353 6 12
1.6998007 6.2006764 -0.56250316 39 5
1.6960981 6.1618567 -0.11155578 21 7
1.5551597 5.5850101 -1.553432 9 0
1.6450262 5.8957982 -1.4131424 15 1
8.9671516 32.095127 1.7464511 11 9
1.64503 5.8799415 -1.186832 14 2
1.9304528 6.8955226 0.62647545 1 10
1.7457314 6.2273169 -1.024333 28 3
1.9024264 6.777185 0.86429745 5 11
2.0125895 7.1648102 -0.9137764 15 4
2.2052655 7.8402386 1.2899587 4 12
1.7030776 6.0467434 -0.54960412 15 5
4.9533091 17.551407 -0.95575935 18 6
1.7505045 6.1902738 -0.11228879 28 7
1.5898629 5.5591574 -1.5492908 8 0
1.745147 6.0940809 0.11064825 8 8
1.6899045 5.8972845 -1.4162918 16 1
2.2502384 7.8423524 0.4275848 4 9
1.8492192 6.4362764 -1.301699 9 2
2.2295837 7.7550359 0.70596153 6 10
1.7946253 6.2339611 -1.0274616 33 3
1.8815148 6.5272169 0.83407384 4 11
2.0922656 7.253582 -0.9269383 15 4
1.7790179 6.1514568 -0.56023711 26 5
1.7998114 6.1990261 -0.11267274 30 7
1.6286343 5.5479226 -1.5492908 7 0
1.7837015 6.0683198 0.11040393 7 8
1.7398322 5.9152555 -1.4234902 8 1
1.7068359 5.795598 0.31663257 4 9
1.9057688 6.4627547 -1.309713 7 2
2.2678776 7.6857762 0.7010808 8 10
1.8336252 6.2061248 -1.0249587 29 3
1.9501259 6.5919676 0.8440671 6 11
2.0808733 7.0294194 -0.90012699 12 4
18.46843 62.308483 10.293077 28 12
1.8117132 6.104507 -0.55709946 22 5
1.9880389 6.694335 1.3574153 2 13
2.2548263 7.5830035 -0.4146055 13 6
1.8424709 6.1843944 -0.11263783 38 7
1.6745658 5.5604653 -1.5560201 10 0
1.916083 6.3543887 0.11584908 6 8
1.7692646 5.8637857 -1.4140424 9 1
1.8269646 6.0473847 0.33107728 7 9
1.9536831 6.4586883 -1.3116212 11 2
1.7604455 5.8162003 0.53165001 3 10
1.8814907 6.2082963 -1.0274616 28 3
1.9966755 6.580092 0.84431088 4 11
1.8380668 6.0535917 -0.77679521 4 4
18.878269 62.096764 10.279623 9 12
1.8729385 6.1568427 -0.56302613 22 5
1.8908601 6.1885924 -0.11295197 30 7
1.7264565 5.5910931 -1.5679258 5 0
1.927411 6.2380285 0.11396421 6 8
1.813614 5.8624616 -1.4167417 8 1
1.8716264 6.046258 0.33170533 7 9
1.9685405 6.3514776 -1.2925402 12 2
2.206677 7.1110435 0.651402 6 10
1.9295635 6.214211 -1.0305904 26 3
2.0844393 6.7047272 0.86210382 11 11
2.3074338 7.4128757 -0.95326209 19 4
2.295666 7.3705368 1.2226919 5 12
1.909351 6.122694 -0.56110865 16 5
1.9358115 6.1809659 -0.11305669 28 7
1.759811 5.5644774 -1.5637847 7 0
1.8581824 5.8648429 -1.4203409 7 1
1.9319118 6.0901556 0.33484548 7 9
2.0027316 6.3057704 -1.2860527 14 2
1.8030578 5.6736484 0.52084273 1 10
1.9764936 6.2118831 -1.0324676 26 3
1.9805574 6.2171535 0.80116916 2 11
1.9000913 5.9573631 -0.76777691 10 4
2.0557818 6.4416265 1.0709505 8 12
1.9787313 6.1927214 -0.5687784 40 5
1.9801406 6.1711082 -0.1131265 35 7
1.80435 5.5664439 -1.5679258 9 0
1.8810633 5.7996449 0.10642478 7 8
1.898899 5.8476896 -1.4194412 7 1
1.9914951 6.1255608 0.33756694 2 9
2.0406289 6.2729664 -1.2822365 14 2
1.9707143 6.0508566 0.55675089 3 10
2.0245686 6.2088485 -1.0343448 29 3
2.0263789 6.2107229 0.80214405 3 11
2.3724935 7.2629442 -0.93815029 11 4
2.3676991 7.2397165 1.2064227 2 12
2.0212967 6.1768622 -0.56860405 27 5
2.4602351 7.5093546 1.5360124 5 13
5.7710958 17.594276 -0.97041345 9 6
2.0325353 6.1856308 -0.11365007 54 7
1.8492521 5.5720463 -1.5731021 7 0
1.9622403 5.9055901 0.10862378 10 8
1.9396774 5.83429 -1.4194412 7 1
10.679467 32.084942 1.7722005 16 9
2.0656035 6.1986008 -1.2700247 16 2
2.2410474 6.7211637 0.61985165 1 10
2.072866 6.2095537 -1.0368477 26 3
2.2570164 6.7533526 0.87429076 3 11
2.3671072 7.0786519 -0.91645753 16 4
2.1529112 6.4306521 1.0740792 12 12
2.0724106 6.1830206 -0.57052147 40 5
2.0044651 5.9768438 1.2253754 2 13
2.3795104 7.0869341 -0.39178702 12 6
2.0807698 6.1864533 -0.11392931 52 7
1.8787879 5.5315623 -1.5653377 12 0
2.0105 5.9125738 0.10900773 10 8
1.9753424 5.8058462 -1.4158419 8 1
10.948264 32.141949 1.7795274 16 9
2.1132631 6.1970372 -1.2726961 18 2
2.0395617 5.9774961 0.55256736 1 10
2.1212749 6.2098861 -1.0393507 27 3
2.2283144 6.5157919 0.84552956 11 11
2.1073399 6.1585493 -0.79921919 15 4
2.2201631 6.4808712 1.0850296 3 12
1.8679684 5.446588 -0.50376016 5 5
2.3951843 6.9719262 -0.38634408 12 6
2.1310663 6.1925755 -0.11431326 40 7
1.9256024 5.5420341 -1.572067 9 0
2.0094182 5.7735105 -1.4113429 15 1
2.0785995 5.9655752 0.33107728 2 9
2.1500087 6.1635947 -1.2688799 12 2
2.1600282 6.1888452 0.57348478 2 10
2.1645765 6.1949258 -1.0393507 34 3
2.1358593 6.1024666 -0.79385698 17 4
2.6102521 7.4495368 1.2502245 2 12
2.1403253 6.1049738 -0.56598938 19 5
6.2005277 17.646685 -0.98025256 18 6
2.1768992 6.1850934 -0.11445288 42 7
1.9629525 5.5248146 -1.5710317 9 0
2.4843416 6.98842 0.12946194 13 8
2.0614371 5.7923889 -1.4194412 10 1
2.3013933 6.4630656 0.35954806 7 9
2.1820252 6.121079 -1.2631556 8 2
2.3297472 6.5282679 0.60642964 8 10
2.2146649 6.2023721 -1.0431051 32 3
2.3787429 6.6545525 0.86770982 4 11
2.6780336 7.4835663 -0.9759298 4 4
2.422507 6.7658043 1.1382173 6 12
2.2023902 6.1442733 -0.57104445 23 5
2.4748862 6.8931246 -0.38383192 12 6
2.2295079 6.1960869 -0.11494155 40 7
1.9827138 5.4622965 -1.5570555 11 0
2.5153124 6.92204 0.12855442 21 8
2.0941556 5.7599092 -1.4149421 14 1
2.1278651 5.846262 0.32605305 2 9
2.2455406 6.1628795 -1.2749858 14 2
2.3522928 6.4523592 0.60085171 8 10
2.2538483 6.1756253 -1.0412279 29 3
2.4667003 6.7515197 0.8825779 5 11
1.9812517 5.419889 -0.70854843 3 4
2.2619696 6.1777849 -0.57557648 33 5
2.7004533 7.3594341 -0.41083729 13 6
2.2730083 6.1845217 -0.11501136 37 7
2.0228176 5.4537544 -1.5586084 9 0
2.1004043 5.6599159 0.10537763 6 8
2.1383908 5.7561088 -1.4176416 11 1
2.5127542 6.7602139 0.37797031 9 9
2.2723758 6.1069722 -1.2665902 10 2
2.3041108 6.1823535 -1.0449823 30 3
2.818604 7.5547743 0.99006665 3 11
2.2614346 6.0549345 -0.7936132 11 4
2.3092291 6.1730404 -0.57662237 27 5
6.6579332 17.769606 -0.99448794 18 6
2.3224556 6.1853514 -0.1153255 35 7
2.0694685 5.4651537 -1.5658553 9 0
2.173373 5.7304878 -1.4149421 14 1
2.1203644 5.5848336 0.31307372 2 9
2.3198373 6.1038051 -1.2692615 6 2
2.4651103 6.4826307 0.60677826 2 10
2.3514321 6.1771941 -1.0468596 29 3
2.3333519 6.1232772 0.80458146 3 11
2.1901574 5.7444787 -0.75485879 10 4
2.580811 6.7620182 1.1463519 3 12
2.3544052 6.1623511 -0.57714534 37 5
2.3673666 6.1768684 -0.11546512 32 7
2.1131458 5.4649873 -1.5699965 7 0
2.5444775 6.5736594 0.12303946 11 8
2.1872871 5.6479378 -1.3982958 28 1
2.4783967 6.3929949 0.3593387 7 9
2.3673625 6.1002741 -1.2719328 12 2
2.6624694 6.8571539 0.64355797 1 10
2.413106 6.208498 -1.0549942 43 3
2.2795911 5.8589387 0.77192044 1 11
2.3346252 5.9972801 -0.79020089 12 4
2.4009895 6.155045 -0.57801688 35 5
7.0551028 18.058144 -1.0160503 9 6
2.4155326 6.1732259 -0.11570945 40 7
2.1484125 5.4429126 -1.5679258 9 0
2.6152897 6.6189699 0.12422623 3 8
2.232398 5.6470275 -1.4018949 35 1
2.4832795 6.2752528 0.35368642 2 9
2.4257996 6.1237535 -1.2803285 12 2
2.5172095 6.3512645 0.59771407 5 10
2.4542024 6.1859932 -1.0540556 34 3
2.2896683 5.7653937 0.76168346 2 11
2.4108863 6.0675421 -0.80165666 9 4
2.4579043 6.1733036 -0.58132881 38 5
7.195796 18.045555 -1.0181438 9 6
2.457829 6.154355 -0.11567455 32 7
2.1762509 5.4026952 -1.5606788 9 0
2.2848904 5.6638346 -1.4099932 29 1
2.5300198 6.2651711 0.35410511 4 9
2.4662852 6.1012087 -1.2791836 8 2
2.5084481 6.2023978 0.585338 4 10
2.4965909 6.1668768 -1.0537428 27 3
2.4558613 6.0601883 0.80287528 4 11
3.1214957 7.6988759 -1.0200466 3 4
2.4781992 6.1061239 1.0437309 8 12
2.4911904 6.1319981 -0.57906276 24 5
2.5087769 6.1660266 -0.34887153 11 6
2.4848855 6.0981588 -0.11494155 20 7
2.199964 5.3534198 -1.5508437 10 0
2.8048246 6.8185248 0.12869404 4 8
2.3466229 5.7018085 -1.4234902 20 1
3.2127471 7.7985759 0.44202951 2 9
2.5028348 6.0693207 -1.2761306 8 2
2.9483466 7.1461482 0.67632854 6 10
2.5493848 6.1730318 -1.0578099 39 3
2.454879 5.9383297 0.78898221 6 11
3.6872914 8.9151039 -1.1845701 9 4
2.5484316 6.1494279 -0.58237463 49 5
2.8488207 6.8641019 -0.38948423 12 6
2.5496585 6.1342106 -0.1159538 22 7
2.2477391 5.362875 -1.5580908 12 0
3.2499983 7.7465873 0.14663512 6 8
2.3871262 5.6870842 -1.4239402 14 1
2.6172523 6.2292342 0.35410511 7 9
2.554276 6.0734177 -1.2807101 6 2
2.4727156 5.8766098 0.55779672 1 10
2.6054509 6.1860337 -1.0631288 40 3
2.5834186 6.1277432 0.81652468 10 11
3.7316926 8.8470793 -1.1789641 13 4
2.4448845 5.7906752 0.99554908 4 12
2.6099184 6.1755309 -0.58655816 42 5
2.6119308 6.1622891 -0.11682641 27 7
2.2972686 5.3754764 -1.566373 11 0
3.32288 7.7678337 0.14747284 12 8
2.413734 5.6398253 -1.4162918 16 1
2.5904245 6.0410023 -1.277657 6 2
2.6205106 6.1082215 0.58150309 2 10
2.6392205 6.1459117 -1.0593743 26 3
3.040046 7.0724974 0.94521874 6 11
3.7290578 8.6712742 -1.1589775 12 4
2.6529651 6.1571612 -0.58655816 52 5
2.6580579 6.1512485 -0.11696602 30 7
2.315454 5.3150291 -1.553432 14 0
3.2915037 7.5483141 0.14373802 17 8
2.481883 5.6889234 -1.4329382 14 1
2.651216 6.0712824 0.34719676 2 9
2.6325352 6.0227704 -1.277657 8 2
2.6008236 5.947391 0.5679068 4 10
2.7082021 6.1870537 -1.069699 37 3
2.623316 5.9874363 0.80263156 6 11
3.2945974 7.5159945 -1.0076158 4 4
2.6926808 6.1311927 -0.58586085 38 5
7.7697291 17.666426 -1.0114448 9 6
2.704967 6.1416917 -0.11714055 32 7
2.3540714 5.3022656 -1.5544673 14 0
3.3400605 7.5160141 0.14356351 28 8
2.5302474 5.6910453 -1.4378871 16 1
2.6920898 6.0437012 -1.2860527 6 2
2.7817748 6.2421041 0.59788835 2 10
2.7577677 6.1824284 -1.072202 32 3
3.023576 6.7719693 0.91060776 6 11
3.4692419 7.7664952 -1.0444204 7 4
2.4930539 5.5759034 0.96739089 5 12
2.7506232 6.149097 -0.58934712 43 5
2.8136027 6.2840037 1.3383343 2 13
7.9574032 17.755737 -1.0197139 19 6
2.7584221 6.1463752 -0.11759432 31 7
2.3695328 5.2381783 -1.540491 10 0
2.7158825 6.0010424 0.11497645 9 8
2.543381 5.6146636 -1.4230404 14 1
3.3901048 7.480382 0.43041092 9 9
2.7347906 6.028811 -1.286816 6 2
2.70667 5.9612956 0.57278752 9 10
2.8063223 6.1779017 -1.0747049 31 3
3.0958903 6.8090596 0.91840744 3 11
3.95753 8.6960707 -1.1731144 15 4
2.7910063 6.1243048 -0.58882421 36 5
8.1071005 17.764755 -1.0233774 9 6
2.7937813 6.1106005 -0.11728017 25 7
2.4035144 5.2184196 -1.5394558 10 0
2.6631088 5.7767267 0.11103221 2 8
2.5774567 5.5883746 -1.4207909 21 1
3.0379152 6.5806799 0.37985441 2 9
2.7916329 6.0416522 -1.2936851 8 2
2.701206 5.8432646 0.56320041 6 10
2.8576758 6.1760883 -1.0778337 31 3
2.7646167 5.9694905 0.80775005 4 11
4.0207996 8.6779394 -1.1743331 27 4
2.8555043 6.1516571 -0.59335625 47 5
8.2949066 17.845375 -1.0313325 9 6
2.8572502 6.1385779 -0.1181877 34 7
2.4948568 5.3186941 -1.5741374 9 0
3.1248956 6.6558156 0.128345 4 8
2.615582 5.5684791 -1.4203409 24 1
3.0650849 6.5195479 0.37755162 4 9
2.8270564 6.0078053 -1.2906321 8 2
2.7453256 5.8314762 0.56389767 3 10
2.9083018 6.1720705 -1.0806495 25 3
2.8511035 6.0452023 0.82066822 1 11
3.6772223 7.7933083 -1.0580697 5 4
2.7685952 5.8623023 1.0268359 4 12
2.8634689 6.0577211 -0.58620954 14 5
8.3457928 17.631781 -1.0223306 9 6
2.8743384 6.0642729 -0.11714055 22 7
2.5186036 5.2732568 -1.5658553 13 0
3.2954807 6.8936338 0.13337129 4 8
2.6720479 5.5870032 -1.4297889 19 1
3.2226322 6.7321854 0.39115897 2 9
2.8782637 6.0073962 -1.2948298 6 2
2.8798404 6.0080028 0.5828976 1 10
2.960722 6.171206 -1.0840909 28 3
2.794416 5.8193622 0.79263824 6 11
3.7977333 7.9052219 -1.0768377 9 4
3.3906879 7.0516334 1.239274 23 12
2.9374599 6.1063156 -0.59283334 36 5
8.4669485 17.569489 -1.0221213 9 6
2.9574513 6.1287036 -0.11878107 18 7
2.5722511 5.2902923 -1.576208 9 0
3.1560113 6.4880195 0.12593657 16 8
2.7084281 5.5629563 -1.4284393 24 1
3.5709939 7.3313651 0.42737547 4 9
2.9199457 5.9894309 -1.2952114 6 2
3.3306143 6.8257504 0.66447538 7 10
3.0173881 6.1810884 -1.0894097 24 3
2.8749239 5.8840342 0.80409402 3 11
4.1964235 8.58113 -1.1728706 18 4
3.0201793 6.1731291 1.0884712 15 12
3.0063021 6.1393423 -0.59806269 36 5
2.9613774 6.0289326 -0.11724527 15 7
2.6030622 5.2622714 -1.5731021 14 0
2.8942378 5.845768 0.1138595 12 8
2.7609355 5.5740781 -1.4360875 21 1
2.9800141 6.0058327 -1.3032255 5 2
2.9624035 5.9677253 0.5828976 1 10
3.0639825 6.1669488 -1.0906612 24 3
3.8201411 7.6821561 1.0534387 6 11
3.7622406 7.5624099 -1.0371082 6 4
3.46558 6.9600053 1.2314522 4 12
3.0641973 6.148519 -0.601026 60 5
3.22105 6.4604306 1.4032094 3 13
3.0398841 6.0837674 -0.11871127 15 7
2.6466854 5.2577748 -1.5772433 13 0
2.9772668 5.9093547 0.11550003 12 8
2.7804859 5.5163832 -1.4261897 20 1
3.5452671 7.0275774 0.41251206 2 9
3.0369129 6.0146747 -1.309713 5 2
3.9229789 7.7661796 0.76121825 2 10
3.1096349 6.1506963 -1.0915998 27 3
3.2409129 6.4048042 0.88135916 9 11
3.1559591 6.2342148 -0.85796028 2 4
3.8185327 7.5365195 1.3381406 8 12
3.1178608 6.1483011 -0.60311776 56 5
3.2038968 6.315228 1.3764962 3 13
3.0115921 5.9233589 -0.11598869 15 7
2.6947756 5.2615223 -1.5839727 11 0
2.8998611 5.6570892 0.1109624 5 8
2.8029234 5.4656253 -1.4180914 18 1
2.7278278 5.3146276 0.31307372 7 9
3.0806234 5.9968195 -1.3104763 5 2
3.6200972 7.0439553 0.69288814 4 10
3.1687634 6.1604567 -1.0972315 27 3
3.2566671 6.3232112 -0.87331581 8 4
3.479152 6.7494035 1.2026683 22 12
3.1632915 6.1340189 -0.60381496 56 5
3.1355584 6.0620427 -0.11913013 15 7
2.7109096 5.2031775 -1.572067 13 0
3.1555107 6.053936 0.11916503 13 8
2.8716552 5.5046692 -1.4333881 15 1
3.1177323 5.9687514 -1.3089497 5 2
3.1975017 6.1162558 0.60381496 1 10
3.2216055 6.1597509 -1.1009859 33 3
3.3154719 6.3284554 -0.87721562 12 4
3.5470216 6.7675562 1.2101772 5 12
3.2245483 6.1470733 -0.60730124 60 5
3.1420896 5.9848061 1.3139107 11 13
9.1413765 17.404377 -1.0302857 9 6
3.1684892 6.0223093 -0.11878107 13 7
2.7742982 5.2375245 -1.5881137 10 0
2.9794576 5.6201029 0.11103221 11 8
2.9273219 5.5194254 -1.4423862 18 1
3.5799506 6.7442675 0.40016076 4 9
3.1399834 5.9104314 -1.3009357 9 2
3.6504843 6.8684602 0.68051207 6 10
3.281229 6.1685023 -1.1066176 27 3
3.6717453 6.8968334 0.95935553 10 11
3.5245752 6.6176119 -0.92060113 7 4
3.5272784 6.6171193 1.1876506 5 12
3.265506 6.1208973 -0.60695255 56 5
3.3537738 6.2836995 1.3845102 17 13
3.2584503 6.0922956 -0.12059613 16 7
2.8208709 5.2367387 -1.5938078 9 0
3.2587061 6.0444937 0.11986313 14 8
2.9537547 5.4765582 -1.4365374 26 1
3.2455628 6.0125761 0.35808265 2 9
3.2166328 5.9540019 -1.3154373 9 2
3.5325644 6.5360727 0.65000749 5 10
3.3223362 6.1419678 -1.1059917 36 3
3.5650167 6.5823708 -0.91913867 12 4
3.5903299 6.6235943 1.1932822 8 12
3.3186092 6.1172147 -0.60887003 48 5
3.3769577 6.2221708 1.3761146 9 13
9.3968287 17.299622 -1.0317512 19 6
3.3181417 6.1036329 1.6039009 20 14
3.2703304 6.0131845 -0.11947917 13 7
2.8471529 5.1982799 -1.5881137 10 0
3.3306229 6.0759554 0.12094518 10 8
3.0172162 5.5019383 -1.4486848 15 1
3.3316638 6.0703115 0.36289757 7 9
3.256228 5.9279604 -1.314674 9 2
3.1261704 5.6888313 0.5679068 15 10
3.3822668 6.1497817 -1.1116234 33 3
3.3972297 6.171885 0.86502868 6 11
3.5227869 6.397347 -0.89671469 21 4
3.2503338 5.8977017 1.0665703 8 12
3.3766339 6.1218095 -0.61165899 50 5
3.6384678 6.5937982 1.4638867 13 13
4.0292215 7.2959099 -0.43679595 13 6
3.2251432 5.8327079 -0.11633775 10 7
2.9021711 5.2120328 -1.5984664 10 0
2.9543817 5.3014436 0.1059361 6 8
3.0517576 5.4739318 -1.4468851 19 1
3.3136249 5.9387679 0.35640791 2 9
3.3157203 5.9376512 -1.3219248 5 2
3.1385996 5.6181674 0.56302613 12 10
3.4347577 6.1432605 -1.1147522 30 3
3.419878 6.1116385 0.85991013 18 11
3.5334251 6.3119721 -0.88818389 5 4
3.6419091 6.5004392 1.1801417 11 12
3.4378037 6.1311054 -0.61497092 62 5
3.2473955 5.7891555 1.2902504 21 13
4.4437728 7.9154696 -0.47573388 12 6
3.4755833 6.1858301 1.6380936 16 14
3.402961 6.0540962 -0.12122441 16 7
2.9356301 5.1866026 -1.5969136 22 0
3.2761617 5.7835293 0.1160236 9 8
3.1091142 5.4864011 -1.4558831 21 1
3.7530727 6.6173573 0.39869535 9 9
3.3609686 5.9211879 -1.3234513 5 2
3.1856155 5.6099792 0.56442058 12 10
3.4873223 6.1363058 -1.1178808 28 3
3.9364929 6.9210358 0.97763592 19 11
3.5155559 6.1784534 -0.8728283 21 4
3.471173 6.0954943 1.1109977 10 12
3.4972916 6.1363845 -0.61793417 65 5
3.313015 5.8106866 1.3001726 18 13
3.5149987 6.1599545 -0.37169001 24 6
3.5109527 6.1478777 1.6344943 13 14
3.4451411 6.0301933 -0.12122441 16 7
2.9399815 5.1107202 -1.5798315 16 0
3.4950523 6.070725 0.12227156 18 8
3.1376147 5.4476752 -1.4513842 22 1
3.4101846 5.9161482 0.35787329 7 9
3.3708286 5.843163 -1.3112395 13 2
3.1749084 5.5013208 0.55570501 9 10
3.5439055 6.1357598 -1.1222609 33 3
3.647934 6.3107753 0.8950085 14 11
3.5685441 6.1709418 -0.87526566 35 4
3.5363979 6.1104369 1.1181936 14 12
3.5390477 6.110095 -0.61775988 58 5
3.5749648 6.1696219 1.3860366 25 13
3.5609236 6.1404481 -0.372004 24 6
3.5312917 6.0844498 1.6241466 11 14
3.5072374 6.0405817 -0.12192252 19 7
3.0019894 5.1372938 -1.5943254 14 0
3.5282176 6.0329847 0.12199232 7 8
3.1943021 5.4598336 -1.4603822 16 1
3.3323019 5.691144 0.34562668 9 9
3.4661112 5.914937 -1.3326101 5 2
3.2888601 5.6102123 0.56895268 11 10
3.5995858 6.1353459 -1.1266412 26 3
3.479727 5.9263177 0.84382337 11 11
3.6134791 6.1516452 -0.87599689 8 4
3.4447632 5.8597364 1.0765822 24 12
3.6057541 6.1311417 -0.62229198 44 5
3.7154646 6.3126469 1.4238168 18 13
3.6269686 6.1549163 1.6493411 5 14
3.49545 5.9270005 -0.12010746 13 7
3.0427129 5.1245165 -1.5969136 12 0
3.4629905 5.8300276 0.11836223 10 8
3.2363243 5.4441009 -1.4621819 14 1
3.4311926 5.7696128 0.35180232 7 9
3.4882162 5.8608418 -1.3257409 13 2
3.5736678 5.9996438 0.61096174 5 10
3.6533959 6.1310673 -1.1303955 31 3
3.485419 5.8445253 0.8355363 9 11
3.6115749 6.0512676 -0.8652724 5 4
3.7610264 6.2991781 1.1619954 12 12
3.6566458 6.1195011 -0.62368649 48 5
3.6294613 6.0691957 1.3745881 13 13
4.235827 7.0803561 -0.43239969 13 6
3.6251359 6.0499716 -0.12310927 11 7
3.079519 5.1069956 -1.5979488 13 0
3.4612458 5.7355132 0.11693113 9 8
3.2551773 5.3919163 -1.4540836 18 1
3.3732684 5.5831189 0.34185851 14 9
3.5229554 5.8262649 -1.3234513 13 2
3.4432387 5.6921916 0.58202606 6 10
3.7145267 6.1358285 -1.1360272 33 3
3.553911 5.8682098 0.84236097 9 11
3.6074085 5.9518485 -0.85454792 10 4
3.5006409 5.7711482 1.0690732 16 12
3.7137191 6.1200194 -0.62630117 52 5
4.3992553 7.238358 -0.44391361 13 6
3.6760526 6.0460448 1.6335946 3 14
3.5144691 5.775744 -0.11801317 13 7
3.1212714 5.0974479 -1.6015723 14 0
3.5158818 5.7373943 0.1174547 29 8
3.3009698 5.3845863 -1.4581327 23 1
3.4790859 5.6706829 0.34866217 9 9
3.5594473 5.797132 -1.3223064 9 2
3.582016 5.8315997 0.59875995 12 10
3.7768931 6.1440606 -1.1422846 31 3
3.7684729 6.1279593 0.88330907 15 11
4.1878309 6.8045659 -0.98104829 12 4
3.5595262 5.7791433 1.0750178 12 12
3.7531977 6.0912085 -0.62595254 40 5
3.8838351 6.2982945 1.4383184 18 13
3.7330704 6.0490775 -0.37252739 12 6
3.7007418 5.9943514 1.6263962 13 14
3.1722169 5.102334 -1.6098546 14 0
3.5453429 5.69805 0.11714055 26 8
3.3365154 5.3603387 -1.4576828 22 1
3.4933131 5.6078811 0.34625471 9 9
3.6185615 5.8044224 -1.3295572 13 2
3.5519781 5.6931973 0.58708107 9 10
3.791436 6.0746379 -1.13415 26 3
3.8258824 6.1250739 0.88672143 8 11
3.6438794 5.8291659 -0.8440671 13 4
3.5359359 5.6542916 1.0562457 12 12
3.7871752 6.0513468 -0.62455803 32 5
3.7745204 6.0264416 1.3822205 14 13
3.6267023 5.7859492 -0.35787329 12 6
3.2034886 5.0713372 -1.6072664 13 0
3.6618927 5.7925429 0.11961879 17 8
3.418535 5.4055004 -1.4765787 21 1
3.516263 5.5557375 0.34457996 11 9
3.6715598 5.7966237 -1.3337549 13 2
3.7323637 5.8880787 0.60991585 8 10
3.8750069 6.1107445 -1.146039 27 3
4.3269911 6.8182502 0.99152911 11 11
4.0260587 6.3391647 -0.92206353 7 4
3.4566023 5.4404378 1.0208914 9 12
3.8902469 6.1182442 -0.63431948 41 5
3.7543089 5.8998971 1.3593234 19 13
4.6464353 7.296258 -0.45333412 12 6
3.7474194 5.882268 1.6101997 8 14
3.8453596 6.031363 -0.12485451 5 7
3.2522163 5.0677938 -1.6134779 12 0
3.6178808 5.6332669 0.11686131 9 8
3.4845157 5.4235268 -1.4882761 14 1
3.6844697 5.7303491 0.35703593 7 9
3.7001946 5.7503924 -1.3291756 9 2
3.873672 6.0176821 0.62612689 10 10
3.9239817 6.0911641 -1.1476034 23 3
3.6399374 5.6459155 0.82481176 7 11
3.5645354 5.526835 -0.80750632 8 4
3.583286 5.5516582 1.0465467 8 12
3.9436579 6.1053119 -0.63588828 45 5
3.7538483 5.809236 1.3444403 18 13
3.5346036 5.4657602 -0.34112579 34 6
3.8836482 6.0009069 1.6502409 11 14
3.5026562 5.4101443 -0.11249821 11 7
3.3075564 5.0757179 -1.6233131 6 0
3.8176932 5.8540964 0.12199232 21 8
3.4860916 5.343576 -1.4729795 20 1
3.6927204 5.6559877 0.35400045 11 9
3.7477665 5.7359247 -1.3318468 3 2
3.9548318 6.0505304 0.63240206 15 10
4.0053391 6.1231332 -1.1588666 37 3
3.696661 5.6469402 0.82871157 9 11
3.6160805 5.5217443 -0.81043118 17 4
3.8623376 5.8932886 1.1160036 10 12
3.9610527 6.0393124 -0.63187915 28 5
4.0280242 6.1390862 1.4272513 6 13
3.5891197 5.4659934 -0.34269586 23 6
3.9682522 6.0387931 1.668237 5 14
3.6919312 5.6161523 -0.11731508 5 7
3.350373 5.0637808 -1.6269366 9 0
3.6906593 5.5738692 0.11668679 29 8
3.5222356 5.3174834 -1.4725296 25 1
3.6835589 5.5568237 0.34939486 9 9
3.8115962 5.7456121 -1.3402424 3 2
3.9738405 5.9879107 0.6287415 6 10
4.0676608 6.1246409 -1.1644983 32 3
3.6019375 5.4193006 0.79897547 10 11
3.8194082 5.7443213 -0.84699202 16 4
3.8618028 5.8036871 1.1041147 15 12
3.7382088 5.6158195 -0.59021866 21 5
3.8432999 5.7693286 1.3474932 9 13
3.623868 5.4358182 -0.34238186 11 6
3.8903279 5.8333035 1.6187478 12 14
3.577853 5.3607116 -0.11249821 7 7
3.4028759 5.0659275 -1.6352189 9 0
3.8010123 5.6565022 0.1189556 10 8
3.5483959 5.2765951 -1.4680306 25 1
3.7514012 5.5763636 0.35222104 19 9
3.883507 5.768393 -1.351691 13 2
3.9376185 5.8443584 0.61653972 12 10
3.8796113 5.7560992 -1.0994215 21 3
3.7963693 5.6283493 0.83358634 16 11
5.2687998 7.805439 -1.1562965 5 4
3.6955996 5.4727688 1.045921 39 12
3.8476045 5.6935849 -0.60120028 15 5
3.9428744 5.8301754 1.3681006 30 13
5.0933142 7.5284548 -0.4763619 12 6
4.0992084 6.0545068 1.6880326 5 14
3.6185553 5.340569 -0.11260293 21 7
3.4035516 4.9931612 -1.6191721 10 0
4.2855248 6.2823486 0.132743 13 8
3.5820358 5.2490983 -1.4671308 23 1
3.8330395 5.6127152 0.35619855 7 9
3.9624579 5.7978697 -1.3650476 5 2
3.7715249 5.5164356 0.58464068 1 10
4.1606431 6.081017 -1.1670012 21 3
4.0980039 5.9849834 0.89062124 10 11
3.6649127 5.3504663 -0.79629439 13 4
3.7549374 5.4777923 1.0518655 17 12
3.8117435 5.5565081 -0.58952147 21 5
3.8436091 5.6008592 1.3203983 6 13
3.8115377 5.5499768 -0.35284904 11 6
3.7126009 5.3998551 -0.11438307 15 7
3.4350276 4.9645143 -1.6176192 13 0
4.3668461 6.3065305 0.13389486 14 8
3.6685264 5.2960529 -1.4873765 18 1
3.7481036 5.4069014 0.34478933 16 9
3.9625521 5.7119937 -1.3513094 9 2
4.4494801 6.4115138 0.68277812 10 10
4.2942662 6.1832423 -1.1923436 42 3
4.0388546 5.8111548 0.86892849 6 11
3.7497711 5.3932037 -0.80653143 13 4
3.7998548 5.4611754 1.0537428 21 12
4.2432308 6.093854 -0.64965892 42 5
3.8871028 5.5803347 1.3219248 18 13
3.8250661 5.4871845 -0.35054627 11 6
3.8326082 5.4918723 -0.11689622 7 7
3.476264 4.9498973 -1.6207249 13 0
4.0244255 5.7261748 0.12216685 14 8
3.736793 5.314949 -1.4999737 21 1
3.8834519 5.5194449 0.35368642 4 9
4.0452809 5.7451921 -1.3658109 9 2
3.8194988 5.4225154 0.58028293 8 10
4.4147172 6.2629042 -1.2136188 12 3
4.1743002 5.9174519 0.88915884 8 11
3.7941966 5.3766274 -0.80799377 13 4
4.0179319 5.6894588 1.103176 11 12
4.2960196 6.0787258 -0.65122765 51 5
3.9826341 5.6332154 1.3410057 16 13
5.3744473 7.5962243 -0.48766652 12 6
3.7760775 5.331172 -0.11403403 26 7
3.5331621 4.9569712 -1.6310778 9 0
3.9423718 5.5270033 0.11850184 37 8
3.7851264 5.304595 -1.5044726 18 1
3.9915278 5.5897245 0.35996673 7 9
4.0773015 5.7056293 -1.3631396 7 2
3.7784688 5.2855039 0.56842977 5 10
3.9330795 5.4977236 -1.0706376 16 3
4.1323123 5.7719498 0.87160963 6 11
3.8686271 5.4016519 -0.81579345 16 4
4.1507673 5.7913194 1.1285183 14 12
4.0457201 5.6405997 -0.60730124 18 5
4.0138555 5.5941062 1.3383343 18 13
3.8365455 5.3371563 -0.11473212 15 7
3.574475 4.9415755 -1.6341835 9 0
4.1766801 5.7698588 0.12433095 15 8
3.7786348 5.2180629 -1.4873765 21 1
3.9390388 5.4355764 0.35180232 9 9
4.1377811 5.7056327 -1.3700087 7 2
3.9521632 5.4476819 0.58882421 17 10
3.8262975 5.2703166 -1.0315289 17 3
3.8107941 5.2451105 0.79605067 7 11
3.7101727 5.1047435 -0.77484536 25 4
4.2561626 5.8516626 1.146039 22 12
4.4215088 6.0745335 -0.65732861 43 5
4.844419 6.6531119 1.5997428 4 13
4.1884975 5.7480807 -0.37273672 12 6
3.8195016 5.2359281 -0.1131265 4 7
3.6226044 4.9351883 -1.6403952 9 0
3.9942963 5.4375763 0.11776884 13 8
3.8703613 5.2669325 -1.5089717 20 1
3.9662414 5.3934631 0.3508603 9 9
4.1903129 5.6939998 -1.3742064 8 2
4.0125413 5.4504423 0.59213609 13 10
4.1582594 5.6442509 -1.1103719 16 3
3.8484969 5.2199759 0.79629439 11 11
4.1298361 5.5995288 -0.85430413 15 4
4.4353323 6.0093503 1.1829575 11 12
4.4543395 6.0306964 -0.6559341 30 5
4.8475804 6.5607061 1.5856228 6 13
4.6108851 6.2358079 -0.40644106 13 6
4.0368032 5.4534388 -0.11843203 5 7
3.6373527 4.8834395 -1.6315954 11 0
4.6141562 6.1903715 0.13476749 19 8
3.9221807 5.2600927 -1.5148203 14 1
3.981101 5.3352299 0.34887153 9 9
4.2428842 5.6819115 -1.3784043 5 2
3.7953246 5.0807118 0.55483341 6 10
4.1750898 5.585022 -1.1044275 21 3
3.9335992 5.2581515 0.80628765 13 11
4.1141152 5.4974523 -0.8430922 16 4
4.3836312 5.8533301 1.1582409 18 12
4.5514321 6.0751796 -0.66412675 48 5
5.6707554 7.5582256 -0.4952029 11 6
5.1676326 6.8801351 -0.1501954 8 7
3.6736841 4.861011 -1.6326306 10 0
4.6610122 6.1651983 0.13490711 23 8
3.9811444 5.2621121 -1.5233686 22 1
3.9654987 5.2395258 0.34437063 11 9
4.2933121 5.6685514 -1.3822205 7 2
3.8848617 5.1255426 0.56267744 10 10
4.1521387 5.4761982 -1.0884712 13 3
4.020895 5.2992544 0.81676841 12 11
4.1655993 5.4859867 -0.84577334 12 4
4.5978217 6.053019 1.2039198 13 12
4.2272 5.5610652 -0.61113608 19 5
4.8519387 6.3783197 1.5577648 14 13
4.3045521 5.6566758 -0.37252739 12 6
4.0422525 5.3042955 -0.11640756 5 7
3.7043388 4.8328242 -1.6315954 12 0
4.1879034 5.4597588 0.12010746 10 8
3.9955196 5.2070608 -1.5152704 15 1
4.0640144 5.2925048 0.34970888 4 9
4.3459396 5.6555643 -1.3864182 8 2
3.9148006 5.0926638 0.56198025 12 10
4.2312226 5.500309 -1.0991087 30 3
4.0081453 5.206562 0.80677515 9 11
4.165298 5.4087496 -0.83821738 23 4
4.4373908 5.7579112 1.1513578 19 12
4.5506368 5.9006023 -0.65192497 21 5
5.7744203 7.4793258 -0.4952029 11 6
4.5295019 5.8604922 -0.12928744 30 7
3.7391717 4.808372 -1.632113 13 0
4.2455678 5.4556394 0.12066595 21 8
4.041348 5.1913438 -1.5188695 20 1
4.1929221 5.3821721 0.35755929 21 9
4.3611784 5.5941176 -1.3787858 8 2
4.0519562 5.19561 0.57644808 5 10
4.6693683 5.9829721 -1.2020426 23 3
4.035841 5.1675034 0.80506897 11 11
4.6918144 6.0052481 -0.93571293 6 4
4.5018125 5.7579184 1.1576152 18 12
4.2283111 5.4042153 -0.60032874 7 5
4.0973916 5.2312355 -0.34824347 11 6
4.6258302 5.8995404 -0.13085814 6 7
3.8061521 4.8246183 -1.6466069 9 0
4.3603749 5.5231771 0.12283003 22 8
4.0980244 5.1890016 -1.5265179 13 1
4.2341127 5.3574681 0.35787329 9 9
4.4147382 5.582015 -1.3833653 12 2
4.222878 5.3375063 0.59544802 11 10
4.4167352 5.5785346 -1.1269541 24 3
4.6277947 5.8409219 0.91499513 14 11
4.1146407 5.1913834 -0.81335604 16 4
4.4891162 5.6597996 1.1441618 26 12
4.128448 5.2013407 -0.58098018 21 5
4.2655177 5.3682575 -0.3593387 12 6
4.6942906 5.9015317 -0.13162605 18 7
3.8445699 4.8039618 -1.6486773 9 0
4.3838282 5.4738717 0.12241118 22 8
4.1597381 5.192204 -1.5359658 21 1
4.4638038 5.5677562 0.37399277 7 9
4.4830861 5.5878096 -1.3925241 12 2
4.2937093 5.3498483 0.6001544 12 10
4.4654684 5.559885 -1.129457 20 3
4.6510491 5.7868099 0.91158277 11 11
4.1171966 5.1207623 -0.80677515 11 4
4.7377977 5.8884196 1.1970366 13 12
4.0959358 5.087038 -0.57139301 23 5
4.1853647 5.1869788 -0.11633775 20 7
3.8780141 4.7770047 -1.6486773 9 0
4.3904138 5.4043312 0.12153856 14 8
4.2057199 5.1751332 -1.539565 21 1
4.5239878 5.562799 0.37577221 21 9
4.5368586 5.5746489 -1.3971035 8 2
4.5422783 5.5793195 0.62943876 5 10
4.4941936 5.5163231 -1.1269541 24 3
4.7038817 5.7695813 0.91402018 18 11
4.2067952 5.1580434 -0.81725591 13 4
4.5352306 5.5567784 1.1360272 27 12
4.2094879 5.1539946 -0.58220035 14 5
4.287334 5.2381024 -0.1181528 21 7
3.9161813 4.7557797 -1.6507479 9 0
4.396244 5.3349681 0.12066595 10 8
4.2367859 5.1396327 -1.5377654 20 1
4.5093331 5.4663706 0.37137598 11 9
4.5594158 5.5231595 -1.3921425 7 2
4.3540292 5.27248 0.59823698 4 10
4.3992124 5.3234034 -1.0937898 36 3
4.9274797 5.9584193 0.94936228 12 11
4.432507 5.3579774 -0.85381669 12 4
4.5323415 5.4747701 1.1257026 35 12
4.3801003 5.2871141 -0.60067737 11 5
4.7299924 5.6973071 -0.12925252 15 7
3.9369032 4.7134967 -1.6455716 9 0
4.4141426 5.2811337 0.12014236 10 8
4.2450633 5.0770392 -1.5278676 17 1
4.5012426 5.3796148 0.36760777 14 9
4.6444998 5.5468864 -1.4062624 5 2
4.4163165 5.2725039 0.60172325 2 10
4.4464188 5.3046746 -1.0962929 22 3
4.9472699 5.8980184 0.94521874 14 11
4.3957944 5.2387047 -0.83967984 12 4
4.8549938 5.7818584 1.1957852 16 12
4.3134685 5.1351304 -0.58673245 24 5
4.4651737 5.3081999 -0.36352557 12 6
4.4090004 5.2358537 -0.11947917 13 7
3.9946861 4.7153792 -1.6559243 9 0
4.5236826 5.3379197 0.12213194 21 8
4.3383813 5.1156483 -1.548563 18 1
4.5545559 5.3686481 0.36896852 7 9
4.6973963 5.5331039 -1.4108418 5 2
4.4427009 5.2293949 0.60032874 2 10
4.7075677 5.5392041 -1.1513578 13 3
4.9448624 5.8143053 0.93717533 6 11
4.3782239 5.1443963 -0.8294428 4 4
4.8967977 5.7516851 1.1964109 5 12
4.5288153 5.3156996 -0.61096174 19 5
5.084403 5.953073 -0.13665235 6 7
4.0266929 4.688077 -1.6559243 9 0
4.962307 5.7732878 0.13288262 23 8
4.3527765 5.0623555 -1.5413646 21 1
4.6818099 5.441184 0.37619087 16 9
4.7576847 5.5254688 -1.4173293 7 2
4.8370728 5.6156802 0.64843875 16 10
5.2323413 6.0702939 -1.2693094 9 3
4.9594021 5.7495785 0.93230057 9 11
6.5970116 7.6454163 -1.2398988 14 4
4.3912592 5.0819411 -0.58760399 21 5
4.5327086 5.2400904 -0.36310691 12 6
4.5776367 5.2864337 -0.12206213 5 7
4.0720129 4.674418 -1.6611006 9 0
4.7580805 5.458138 0.12639034 12 8
4.4264359 5.0759053 -1.5548617 16 1
4.9100952 5.6265688 0.3913683 7 9
4.8077688 5.5054259 -1.4207639 12 2
4.9888849 5.7108173 0.6634295 7 10
5.2329912 5.9860239 -1.2592976 11 3
4.7380133 5.4160018 0.88355285 3 11
4.5049515 5.1477766 -0.83992356 6 4
4.4279423 5.0526619 -0.58777833 24 5
5.4351821 6.1889224 -0.14377292 7 7
4.0968704 4.6371913 -1.6579949 7 0
5.0397801 5.7004466 0.13281281 13 8
4.5095301 5.0988922 -1.5715082 26 1
5.0803013 5.7402205 0.40173087 9 9
4.8708181 5.499651 -1.4280145 12 2
5.187181 5.854804 0.68434685 13 10
5.3021741 5.9803848 -1.2658678 13 3
4.9140368 5.5387096 0.90914541 4 11
4.6567373 5.2468529 -0.86137259 20 4
4.6739655 5.2607131 -0.61566812 27 5
4.4248776 4.9733596 -0.34887153 11 6
4.5765219 5.1383805 -0.12010746 18 7
4.1265659 4.6055994 -1.6569597 9 0
4.9970498 5.5751748 0.13068362 30 8
4.4539347 4.9657364 -1.5400149 26 1
5.0205526 5.5954995 0.39398512 14 9
4.9330587 5.4941268 -1.4352653 19 2
5.2146158 5.8036256 0.68260378 6 10
4.7538114 5.2889194 -1.1263282 19 3
5.3751035 5.9759445 0.98689806 10 11
4.699892 5.2215943 -0.86259133 21 4
4.617218 5.1243453 -0.60346633 37 5
4.4586253 4.9431272 -0.34887153 11 6
5.0224423 5.5603967 -0.13078834 15 7
4.1760049 4.5974236 -1.6642065 9 0
4.8704095 5.3581448 0.12639034 16 8
4.5046754 4.9540482 -1.5458636 22 1
4.9600244 5.4509974 0.38623938 16 9
4.9739408 5.4624548 -1.4360286 12 2
5.1399536 5.6427994 0.66778725 5 10
4.8505044 5.3212957 -1.1404074 16 3
4.7219467 5.1748157 -0.86015391 13 4
4.7227674 5.1684685 -0.61253053 7 5
4.4067512 4.8175621 -0.3421725 11 6
5.1411991 5.6145716 -0.13288262 6 7
4.2263227 4.5880499 -1.6714535 9 0
4.8372192 5.2475553 0.12457528 23 8
4.5365095 4.9196138 -1.5449638 22 1
5.1144428 5.5424695 0.3952412 9 9
5.058569 5.4780817 -1.4493852 12 2
5.1102748 5.5321379 0.6588974 6 10
4.8821697 5.2815032 -1.139156 16 3
6.0106897 6.4977779 1.0868309 23 11
5.0491772 5.4564371 -0.91280144 35 4
4.9618707 5.3545799 -0.6386773 8 5
5.2389588 5.6476645 -0.4037196 26 6
5.0823016 5.4730358 -0.13036947 6 7
4.2608886 4.5612564 -1.6724888 9 0
4.9310904 5.2750115 0.12604128 20 8
4.5920405 4.9105964 -1.5521622 21 1
4.8241248 5.1551728 0.37001523 7 9
5.1181607 5.4655614 -1.4554911 13 2
5.7535472 6.1419268 0.73629165 13 10
5.5917115 5.9649925 -1.2949647 9 3
6.1075158 6.510673 1.0960929 24 11
4.6578984 4.9636302 -0.83578002 8 4
4.8954353 5.2094655 -0.62542957 8 5
5.1851997 5.5120325 -0.39660192 13 6
5.1340933 5.4519815 -0.13071853 6 7
4.3019257 4.5412178 -1.6761122 10 0
5.0640988 5.3420453 0.12848462 17 8
4.6530275 4.9067016 -1.5611603 22 1
4.9328628 5.1981525 0.37556285 11 9
5.1629529 5.4368153 -1.4573992 8 2
5.387363 5.6711464 0.68434685 7 10
4.9989882 5.258636 -1.1491677 4 3
6.1555562 6.4707527 1.0965804 22 11
4.9168639 5.1668272 -0.87575316 13 4
4.867084 5.1073718 -0.61723697 23 5
5.091208 5.3369632 -0.38655341 12 6
5.3349943 5.5866575 -0.1348373 6 7
4.3254972 4.5027132 -1.6730064 12 0
5.106813 5.3123274 0.12862423 12 8
4.7425532 4.9316854 -1.5796063 25 1
5.3194132 5.5276875 0.40204483 9 9
5.1939712 5.3935695 -1.4554911 11 2
5.5456996 5.7567978 0.69933766 14 10
5.005415 5.1923237 -1.1422846 12 3
6.1675038 6.393333 1.0907308 15 11
5.4297609 5.6266165 -0.96008676 11 4
4.7619209 4.9293966 -0.59963149 33 5
4.9811444 5.149127 -0.37545818 12 6
5.2458835 5.4171157 -0.13162605 15 7
4.3932228 4.509768 -1.6869825 9 0
4.9684 5.0984282 0.12426113 15 8
4.7605405 4.8817134 -1.5742074 24 1
5.3011265 5.4341674 0.39785796 9 9
5.2854228 5.4142818 -1.4707558 11 2
5.6609335 5.7949052 0.70875043 5 10
5.8179331 5.9535356 -1.3184298 17 3
6.1026201 6.2405047 1.0717192 21 11
5.0037975 5.1132793 -0.8784343 18 4
4.8547797 4.9558077 -0.60695255 11 5
5.074811 5.1749949 -0.37985441 25 6
5.254149 5.3504014 -0.13089305 28 7
4.4346752 4.4907584 -1.6911237 9 0
5.1303773 5.1916285 0.12740256 28 8
4.8799677 4.9365101 -1.6025513 15 1
7.0876813 7.164793 0.52817452 12 9
5.3617635 5.4163198 -1.4814411 13 2
6.2680321 6.3295941 0.77934664 6 10
5.862133 5.9155831 -1.3190556 13 3
6.1907663 6.2428532 1.0795188 17 11
5.1321526 5.1735263 -0.89476484 21 4
4.8555603 4.8878698 -0.60276914 11 5
4.9558997 4.9836559 -0.36834049 12 6
5.8759251 5.9026499 -0.14537854 7 7
4.4823227 4.4760699 -1.6973354 9 0
5.272655 5.2616262 0.13002042 4 8
4.9336295 4.9215865 -1.60885 20 1
7.1219668 7.0996308 0.52702314 6 9
5.3674555 5.3468885 -1.4726639 9 2
6.1624165 6.1366611 0.76086962 9 10
5.9480953 5.9191017 -1.3290673 17 3
6.2482777 6.2134762 1.0819561 24 11
5.2737327 5.2425342 -0.91304523 23 4
4.8584552 4.8229742 -0.59893423 14 5
4.9026423 4.8617449 -0.36185086 12 6
5.8487964 5.7939358 -0.14370312 25 7
4.5354857 4.4663563 -1.7056175 9 0
5.8793821 5.785728 0.14398235 34 8
4.9900937 4.9088917 -1.6160485 16 1
7.0118361 6.8929205 0.51529992 6 9
5.44947 5.3533125 -1.4848757 22 2
6.0558448 5.9469109 0.74256694 13 10
6.04849 5.9355426 -1.3422079 19 3
6.212131 6.0918727 1.0683068 21 11
5.7581577 5.6447115 -0.99006665 20 4
5.4301853 5.3157773 -0.66482401 9 5
4.8022356 4.696137 -0.35201168 23 6
5.8533421 5.7180281 -0.14283049 32 7
4.5610127 4.4292006 -1.703547 9 0
5.9856429 5.8086014 0.14558797 24 8
5.050818 4.8997149 -1.6245965 24 1
6.0602598 5.8748527 0.44234356 9 9
5.5882378 5.4134898 -1.5123522 14 2
6.1544652 5.9599295 0.74953938 12 10
5.7718048 5.5854616 -1.2721251 14 3
5.6389995 5.45123 -0.96301162 18 4
5.9057984 5.7011747 -0.71816331 35 5
4.9556684 4.778955 -0.36080414 12 6
5.819674 5.606267 -0.14105035 28 7
4.5834517 4.3892336 -1.7004411 9 0
6.0448279 5.7846484 0.14604174 42 8
5.066596 4.8468223 -1.6187478 22 1
6.0780234 5.8103218 0.44066879 22 9
5.6060205 5.3553586 -1.5070095 14 2
6.120996 5.8452654 0.74047518 11 10
5.6305943 5.373198 -1.2327038 11 3
6.3712854 6.0757818 1.0809813 24 11
5.6927238 5.426796 -0.96569276 21 4
5.1105118 4.8666759 -0.61741126 11 5
6.080193 5.7819982 -0.43972674 26 6
5.7948794 5.5049024 -0.13951454 16 7
4.6364532 4.3783522 -1.7087234 9 0
6.3094549 5.9561334 0.15145199 13 8
5.1428332 4.8514519 -1.6322449 16 1
6.0287981 5.685226 0.43428379 15 9
5.7452149 5.414022 -1.5344861 15 2
6.335712 5.9662991 0.76139253 18 10
6.2179179 5.8533316 -1.3525326 12 3
6.444303 6.0621963 1.0863434 23 11
6.0023866 5.6425347 -1.0115156 20 4
4.943933 4.642663 -0.59335625 29 5
6.1456261 5.7650766 -0.44161084 13 6
5.798142 5.4315047 -0.13867682 23 7
4.5714426 4.2584653 -1.6740416 12 0
6.4709015 6.0236692 0.15431418 21 8
4.4652877 4.1552134 -1.4081936 6 1
6.110754 5.6824441 0.43731928 15 9
5.7828746 5.3737783 -1.5344861 18 2
6.3659558 5.9135466 0.76017237 9 10
6.2861395 5.8353105 -1.358477 13 3
6.3860488 5.9239063 1.0695254 37 11
6.0523 5.6123447 -1.0134655 9 4
5.3183012 4.9248061 -0.6341452 8 5
4.9614816 4.58956 -0.35420978 23 6
5.7923875 5.3525553 -0.13766459 33 7
4.5541091 4.183322 -1.6569597 14 0
6.4391394 5.9107342 0.15256894 6 8
4.4798274 4.1107655 -1.4036945 2 1
7.7371597 7.0947752 0.55015558 8 9
5.8564353 5.3664336 -1.5440264 10 2
6.352726 5.8191662 0.75372285 7 10
6.0047059 5.4965172 -1.289333 9 3
6.6308455 6.0654192 1.1034052 30 11
6.5586581 5.9972796 -1.0912182 19 4
6.0087514 5.4867439 -0.71188807 34 5
4.9978285 4.5588489 -0.35452381 11 6
5.8251805 5.3079457 -0.13755988 23 7
4.56459 4.1345668 -1.6502303 12 0
6.3038263 5.7059422 0.14841527 25 8
4.5503216 4.1173077 -1.4167417 8 1
6.2028346 5.6086235 0.43826136 27 9
5.8966689 5.3280525 -1.5447898 10 2
6.3665853 5.7506318 0.75058526 13 10
6.3831315 5.7615323 -1.3619186 12 3
6.5904813 5.9445233 1.0897558 32 11
6.0283456 5.4355707 -0.9966476 31 4
5.9728785 5.3780031 -0.70317256 34 5
5.1720896 4.6520686 -0.36457232 12 6
5.8204455 5.2297268 -0.13658254 20 7
4.8152304 4.3007798 -1.7299466 10 0
6.7985306 6.0679231 0.15906124 23 8
6.2343822 5.5585394 0.43773797 20 9
5.1773481 4.6128516 -1.3478748 3 2
6.2815995 5.5947328 0.73594308 13 10
6.0705333 5.4029522 -1.287143 13 3
6.732688 5.9880738 1.1063299 30 11
6.1047153 5.42765 -1.0029848 5 4
82.194527 73.027031 17.414288 33 12
6.0460348 5.3679199 -0.70735598 14 5
5.1476593 4.5654874 -0.36059478 12 6
5.8807621 5.2101822 -0.137141 23 7
4.8581853 4.2785492 -1.7346053 9 0
7.8194742 6.8816781 0.18181917 10 8
4.7024703 4.1370387 -1.4459854 18 1
6.4680371 5.6863136 0.45134532 20 9
6.0176835 5.2866664 -1.5570016 10 2
6.4492478 5.6638117 0.75093383 13 10
6.5253086 5.7265759 -1.375059 12 3
6.7474647 5.9173656 1.1019428 25 11
6.2051516 5.4398594 -1.0132217 19 4
83.145134 72.839325 17.507523 33 12
6.0593753 5.3045859 -0.70456702 34 5
6.2378373 5.4550514 -0.43428379 26 6
6.0103612 5.2505703 -0.13930511 13 7
4.8996062 4.2546616 -1.7387464 9 0
8.0968981 7.0261316 0.1871247 34 8
4.737124 4.1092186 -1.447785 8 1
6.4109902 5.5572939 0.44464633 9 9
5.2709303 4.5658202 -1.3555073 7 2
6.3681378 5.5143108 0.73698896 13 10
6.5561695 5.6731229 -1.3731819 24 3
6.7916117 5.872715 1.1024302 27 11
6.2024317 5.3613534 -1.0066408 21 4
6.0887194 5.2556443 -0.70369548 29 5
7.8458457 6.7651911 -0.54293329 21 6
6.1014156 5.2554641 -0.14056168 14 7
4.9321246 4.2228651 -1.7397816 9 0
7.1581092 6.1244206 0.16443658 17 8
6.4860678 5.5435481 0.44715846 13 9
6.1789904 5.2773576 -1.579517 13 2
6.391324 5.4567842 0.73524588 15 10
6.5490265 5.587471 -1.363483 18 3
6.7931695 5.7916718 1.0960929 28 11
6.3379107 5.4016213 -1.0224838 19 4
6.2047563 5.2825313 -0.71293396 9 5
6.0273237 5.1242127 -0.4146055 40 6
4.9555788 4.1833472 -1.7377111 9 0
6.5730467 5.5467939 0.15012559 6 8
5.49124 4.6306138 -1.6583391 17 1
6.5099096 5.4876814 0.44621637 18 9
6.2357898 5.2528839 -1.5848596 22 2
6.409452 5.3953485 0.73297983 20 10
6.617137 5.5682011 -1.3697404 15 3
6.7777395 5.6993055 1.0873184 33 11
6.4423375 5.4134331 -1.0332084 11 4
6.4123998 5.3825512 -0.73245686 10 5
6.0574698 5.0792203 -0.41429147 27 6
6.3029876 5.2775989 -0.14349368 29 7
4.9676104 4.1359196 -1.7320172 11 0
6.3164639 5.2552123 0.14342389 11 8
5.5525999 4.6180482 -1.6673372 21 1
6.5142698 5.4140153 0.44391361 15 9
6.2994928 5.231802 -1.5917287 13 2
6.4966159 5.3935943 0.7387321 13 10
6.7075386 5.5647521 -1.3803779 17 3
6.6706543 5.5302219 1.0639194 23 11
6.5126619 5.3973236 -1.0385706 6 4
6.3469801 5.2525458 -0.72077799 30 5
6.0111961 4.9693618 -0.40874386 13 6
6.1814914 5.1046963 -0.13993341 7 7
5.0187621 4.119523 -1.7397816 9 0
6.4163866 5.2629852 0.14485498 17 8
5.5877185 4.5816426 -1.668237 21 1
6.5519052 5.3684077 0.44391361 27 9
6.3434615 5.193912 -1.5936368 10 2
6.6235323 5.4213028 0.74884212 18 10
6.5688529 5.372716 -1.344085 30 3
6.6230264 5.413167 1.0502701 30 11
6.4149065 5.2411985 -1.0171217 10 4
6.868237 5.6035995 -0.7755118 10 5
6.061902 4.9351654 -0.13644291 26 7
5.0203657 4.0625138 -1.7304642 9 0
6.2492752 5.0533471 0.14028244 21 8
5.6407833 4.5596747 -1.6745356 15 1
6.5426154 5.2848821 0.44077346 15 9
6.4192872 5.1815605 -1.6035589 10 2
6.4580975 5.2110262 0.72600728 7 10
6.4078317 5.1667752 -1.303725 18 3
6.7580357 5.4452662 1.0656257 17 11
6.4915361 5.228662 -1.0234588 14 4
6.1111331 4.909966 -0.41083729 27 6
6.1024466 4.8977318 -0.13658254 16 7
5.0395436 4.0201373 -1.7273583 9 0
6.1718206 4.9198465 0.1377693 20 8
5.6785746 4.5250411 -1.6763352 21 1
6.5027933 5.1781144 0.43564454 20 9
6.4737377 5.1512914 -1.6081383 12 2
6.3368344 5.040544 0.70840186 16 10
6.7066269 5.3308744 -1.3569127 20 3
6.8534002 5.4436369 1.074644 19 11
6.4874578 5.1511235 -1.0171217 19 4
6.8771157 5.4526882 -0.76784205 10 5
6.1421309 4.8647027 -0.41062793 67 6
6.0204415 4.7631946 -0.13399959 22 7
5.0523033 3.972913 -1.722182 9 0
6.2626195 4.9211221 0.13902587 25 8
5.719224 4.492507 -1.6790346 21 1
6.3361144 4.9735107 0.42214185 24 9
6.5157218 5.1108179 -1.6096648 10 2
6.378139 5.0011024 0.70909911 16 10
6.6115127 5.1803656 -1.3303189 16 3
6.8068371 5.3295703 1.0614821 22 11
6.5295143 5.1106014 -1.0180966 19 4
6.9266257 5.4155712 -0.76923656 10 5
6.2105751 4.8487468 -0.41293073 40 6
6.1197739 4.7727008 -0.13546558 22 7
5.0768604 3.9351797 -1.7211467 9 0
6.3117781 4.8906269 0.13937493 35 8
5.7874265 4.4811058 -1.6898323 16 1
6.5988383 5.1075258 0.43731928 13 9
6.5658884 5.0783596 -1.6134809 10 2
6.3924046 4.9406137 0.70683306 14 10
6.5200028 5.037416 -1.3049763 24 3
6.8398118 5.2806911 1.0609946 24 11
6.6155019 5.0983 -0.73071378 25 5
6.1674724 4.7478766 -0.40790647 26 6
6.0942845 4.6847672 -0.13417409 29 7
5.0881796 3.8888006 -1.7159703 9 0
6.758966 5.162015 0.14845017 25 8
5.8208923 4.4439731 -1.6907321 14 1
6.6248074 5.0540648 0.43669128 9 9
6.6417756 5.0633435 -1.6234031 12 2
6.4338093 4.9030256 0.70770466 16 10
6.4764342 4.9319363 -1.289333 18 3
6.9823523 5.3133535 1.0773251 37 11
6.7048745 5.0929689 -0.73664033 30 5
6.2243328 4.722816 -0.40947655 26 6
6.2264323 4.7192745 -0.1363731 26 7
5.1121173 3.8508615 -1.7149351 9 0
6.5679708 4.9439316 0.14349368 28 8
5.8548875 4.4055738 -1.6916319 16 1
6.6248097 4.9812841 0.43438846 22 9
6.6848106 5.022748 -1.6253111 16 2
6.5825834 4.9441409 0.72025502 16 10
6.3716774 4.7822528 -1.2618005 21 3
6.9652824 5.2239823 1.0690379 18 11
6.7740121 5.0786824 -1.0395457 19 4
