# .PCD v0.7 - Point Cloud Data file format
VERSION 0.7
FIELDS x y z intensity ring
SIZE 4 4 4 4 2
TYPE F F F F U
COUNT 1 1 1 1 1
WIDTH 1292
HEIGHT 1
VIEWPOINT 0 0 0 1 0 0 0
POINTS 1292
DATA ascii
-5.051487 -9.1394386 -2.0298262 15 2
-5.3964329 -9.7514734 -1.7652067 16 3
-5.0480795 -9.1107283 -1.278897 18 4
-5.753675 -10.367103 -1.0373276 14 5
-5.6412416 -10.151986 -0.60866719 27 6
-6.2212191 -11.181921 -0.22335589 35 7
-3.379427 -6.0319328 -1.8526268 9 0
-4.1243339 -7.3524818 -1.9462765 17 1
-5.0132289 -8.9225225 -1.9893748 15 2
-5.2997317 -9.4208794 -1.712019 10 3
-5.175858 -9.1894178 -1.2949837 19 4
-5.720181 -10.13927 -1.018502 14 5
-5.8416405 -10.341906 -0.62248397 26 6
-3.4089384 -5.9886432 -1.8464152 5 0
-4.1781435 -7.3310113 -1.9480762 20 1
-5.0388074 -8.8268108 -1.9756364 19 2
-5.6989679 -9.9711237 -1.8190202 14 3
-5.4601245 -9.5416355 -1.3498249 20 4
-5.6327882 -9.8314238 -0.9913094 21 5
-5.81249 -10.128674 -0.61201674 18 6
-3.4467945 -5.9580097 -1.8443446 5 0
-4.2389889 -7.3185272 -1.9525751 17 1
-5.1598358 -8.8976059 -1.9992968 22 2
-5.4532757 -9.3922777 -1.7201536 14 3
-5.4657302 -9.3986063 -1.3349569 18 4
-5.7895083 -9.9433775 -1.0066488 21 5
-5.6791205 -9.742054 -0.59097767 19 6
-6.183897 -10.590957 -0.21407123 16 7
-3.4843323 -5.9294143 -1.8427917 6 0
-4.3124213 -7.3298154 -1.9633728 16 1
-5.2626929 -8.9307146 -2.0149431 12 2
-5.3932419 -9.1413097 -1.6810449 24 3
-5.5053444 -9.3201656 -1.3291072 18 4
-5.8851609 -9.9473028 -1.0111809 29 5
-5.7469945 -9.7021685 -0.59097767 19 6
-6.3313265 -10.675898 -0.21665418 24 7
-3.5256424 -5.9049449 -1.8427917 6 0
-4.337491 -7.2560406 -1.9516754 20 1
-5.3672676 -8.9645033 -2.0309711 12 2
-5.5391951 -9.240674 -1.7063874 16 3
-5.6877518 -9.4772444 -1.3571371 10 4
-6.0673723 -10.093813 -1.0303552 14 5
-5.8918247 -9.7901573 -0.59882808 18 6
-3.5557599 -5.8620181 -1.8370978 13 0
-4.3769145 -7.2072597 -1.9467264 24 1
-5.6062226 -9.2169952 -2.0969911 18 2
-5.4967175 -9.0263138 -1.673849 16 3
-5.9904146 -9.8254442 -1.4129534 23 4
-6.0110135 -9.8437576 -1.0090892 14 5
-5.8662691 -9.5954218 -0.58940756 19 6
-6.6217432 -10.818416 -0.22140123 17 7
-4.4035926 -7.138382 -1.9363787 20 1
-5.6539226 -9.1509094 -2.0908849 13 2
-5.6655951 -9.1590748 -1.7057616 28 3
-5.939713 -9.5909891 -1.385167 18 4
-5.9703693 -9.6254673 -0.99096078 14 5
-6.3608975 -10.243103 -0.63190436 8 6
-6.5556278 -10.544359 -0.21672398 16 7
-3.6331608 -5.8052492 -1.8350271 38 0
-4.405724 -7.0315018 -1.9156833 15 1
-5.5684409 -8.873415 -2.0363138 12 2
-5.5507498 -8.8349466 -1.6525738 14 3
-5.7782307 -9.1863394 -1.3325195 19 4
-5.9147134 -9.3924084 -0.97108924 20 5
-6.2862811 -9.9670105 -0.61756432 17 6
-6.6397586 -10.515244 -0.21707304 24 7
-3.6798167 -5.7895269 -1.8381329 40 0
-4.4400578 -6.9775572 -1.9093846 15 1
-5.6213269 -8.8237152 -2.0336425 16 2
-5.8019624 -9.0967426 -1.7088903 14 3
-5.9640465 -9.3364868 -1.3603058 34 4
-5.9221749 -9.2602482 -0.96167642 13 5
-6.2452073 -9.7541046 -0.60699248 27 6
-6.8252659 -10.643702 -0.22070314 17 7
-3.7180924 -5.7627215 -1.8376153 15 0
-4.4768758 -6.9308023 -1.9048855 17 1
-5.7265115 -8.8518419 -2.0492887 10 2
-5.9555316 -9.1952887 -1.7351713 17 3
-6.1116991 -9.4255905 -1.3793174 14 4
-6.1451087 -9.4626379 -0.98712587 14 5
-6.490603 -9.9832058 -0.62405401 17 6
-6.7535625 -10.375772 -0.2160957 16 7
-3.7455292 -5.7172327 -1.8314036 6 0
-4.5080528 -6.8733072 -1.8976872 15 1
-5.953083 -9.0627041 -2.1076763 15 2
-6.0391159 -9.1831961 -1.7408029 18 3
-6.2734141 -9.5285978 -1.4007664 31 4
-6.4150186 -9.7288904 -1.0195479 14 5
-6.5810475 -9.9693203 -0.62604278 26 6
-7.1852632 -10.872232 -0.22747466 18 7
-3.7800021 -5.6829023 -1.8288155 4 0
-4.547286 -6.8286905 -1.8940878 19 1
-6.0663161 -9.0960569 -2.1252308 16 2
-6.330956 -9.4713678 -1.3988165 19 4
-6.4295812 -9.6043959 -1.0111809 14 5
-6.4614544 -9.6410856 -0.60824853 27 6
-7.0181031 -10.459805 -0.21986541 17 7
-3.8152585 -5.649971 -1.8267449 5 0
-4.6057634 -6.8129239 -1.898587 15 1
-6.1164622 -9.0339766 -2.1206512 21 2
-6.1922374 -9.1355886 -1.747999 15 3
-6.2308426 -9.1821899 -1.3624994 11 4
-6.4953556 -9.5576277 -1.0110066 14 5
-6.6027555 -9.7047272 -0.61515689 9 6
-7.1337304 -10.47336 -0.22119181 25 7
-3.8677166 -5.6423187 -1.8329566 4 0
-4.6289539 -6.745255 -1.8886892 20 1
-6.1082139 -8.8875046 -2.0962276 22 2
-6.2928157 -9.1458397 -1.7583237 15 3
-6.4558239 -9.372241 -1.397354 19 4
-6.567049 -9.5230341 -1.0120524 14 5
-6.6056514 -9.5647202 -0.60919058 18 6
-7.0929508 -10.258819 -0.21770133 16 7
-3.9003932 -5.6056652 -1.8298507 4 0
-4.6737046 -6.7095766 -1.8877892 16 1
-6.2045012 -8.8972549 -2.1084394 19 2
-6.3617063 -9.1125145 -1.7602009 16 3
-6.3868761 -9.1349697 -1.3685929 16 4
-6.5099821 -9.3006716 -0.99322683 14 5
-6.535358 -9.3265276 -0.59683931 18 6
-7.1873722 -10.241788 -0.21839942 25 7
-3.9273169 -5.5632052 -1.8246742 4 0
-4.7192669 -6.677608 -1.8877892 17 1
-6.2732701 -8.8633375 -2.1107292 19 2
-6.329236 -8.9324894 -1.7339199 17 3
-6.262846 -8.82899 -1.3291072 19 4
-6.5839853 -9.2679901 -0.99462134 14 5
-6.6581869 -9.3620548 -0.60207289 18 6
-7.2754755 -10.218691 -0.21895789 17 7
-3.9638095 -5.5325108 -1.8236392 5 0
-4.7748547 -6.6571679 -1.8913884 14 1
-6.2227473 -8.663063 -2.0733306 18 2
-6.2345967 -8.6699724 -1.6913697 17 3
-6.6061606 -9.1765366 -1.3883356 20 4
-6.7230968 -9.3252354 -1.0057772 14 5
-6.9267664 -9.5971375 -0.62028581 17 6
-7.3934817 -10.232486 -0.22035408 17 7
-4.0068812 -5.5109534 -1.8257096 3 0
-4.8349762 -6.6425776 -1.8967873 14 1
-6.246068 -8.5686417 -2.0611188 15 2
-6.5651217 -8.9964342 -1.7639554 17 3
-6.6478133 -9.0997391 -1.3837045 18 4
-6.971559 -9.5289173 -1.0329698 14 5
-7.096272 -9.6887293 -0.62939227 17 6
-7.4647384 -10.18062 -0.22035408 17 7
-4.0292006 -5.4610825 -1.8184627 4 0
-4.8731279 -6.5976882 -1.8936379 14 1
-6.4516764 -8.722126 -2.1088212 12 2
-6.6254177 -8.9472065 -1.7633295 17 3
-6.7584667 -9.1168966 -1.3934542 14 4
-6.9619055 -9.3776312 -1.021814 14 5
-7.1220407 -9.5828457 -0.62572873 17 6
-7.4878836 -10.064084 -0.21895789 17 7
-4.0718584 -5.4390059 -1.8205333 4 0
-4.9260817 -6.5728631 -1.8963374 15 1
-6.4947329 -8.6533184 -2.1030967 16 2
-6.7067051 -8.9260035 -1.7683355 16 3
-6.7789912 -9.0123796 -1.3846796 19 4
-6.9944124 -9.2886457 -1.0172819 14 5
-7.3354783 -9.7274408 -0.63849872 17 6
-7.6254334 -10.100939 -0.22091258 25 7
-4.1097293 -5.4104471 -1.8205333 4 0
-4.9765673 -6.544517 -1.8981371 14 1
-6.5415921 -8.5932884 -2.0992808 19 2
-6.7313867 -8.8330107 -1.7589493 14 3
-6.9718113 -9.1352625 -1.4110035 15 4
-7.2840705 -9.5340652 -1.0497037 15 5
-7.3736105 -9.6407967 -0.63609123 26 6
-7.579031 -9.8950558 -0.21756171 25 7
-4.1417465 -5.3762269 -1.8184627 3 0
-5.0328984 -6.5259237 -1.9026359 13 1
-6.6710281 -8.6375303 -2.1214147 18 2
-7.0103779 -9.0670967 -1.8152657 18 3
-7.0204659 -9.0703268 -1.4083222 10 4
-7.5172029 -9.7016048 -1.0737587 16 5
-7.4089022 -9.5480585 -0.6333698 26 6
-7.7418938 -9.9664164 -0.22028428 25 7
-4.1720405 -5.338048 -1.8153569 3 0
-5.0783353 -6.4906282 -1.9026359 13 1
-6.7417712 -8.607379 -2.1252308 18 2
-6.9573569 -8.8730478 -1.785856 15 3
-7.1363344 -9.0882292 -1.418803 16 4
-7.205512 -9.1664438 -1.0200708 14 5
-7.6281118 -9.6936016 -0.6464538 17 6
-7.7642484 -9.8524437 -0.21895789 17 7
-4.2178774 -5.3216386 -1.8194979 3 0
-5.1151285 -6.4467525 -1.8999366 10 1
-6.7308593 -8.4709511 -2.1030967 21 2
-7.051105 -8.8644552 -1.7939906 18 3
-7.1794801 -9.0161505 -1.4151469 21 4
-7.4714127 -9.3726921 -1.0486579 15 5
-7.6146045 -9.5386543 -0.63965011 26 6
-8.2680674 -10.346118 -0.23117457 19 7
-4.2476645 -5.2830281 -1.8163921 4 0
-5.1490159 -6.3972216 -1.8958875 7 1
-6.997767 -8.6848269 -2.1679718 19 2
-7.2104955 -8.9392567 -1.8190202 17 3
-7.1886125 -8.8994074 -1.4046662 19 4
-7.4690146 -9.2366438 -1.0392451 14 5
-7.7597814 -9.5859537 -0.64634913 26 6
-8.2141714 -10.132803 -0.2276841 18 7
-4.2658195 -5.228549 -1.80811 3 0
-5.1737037 -6.3345551 -1.888239 6 1
-7.0363822 -8.6029034 -2.1603396 21 2
-6.8928919 -8.4184694 -1.7232823 20 3
-7.3955679 -9.0227594 -1.4324524 34 4
-7.5071144 -9.1490736 -1.0354102 14 5
-7.850132 -9.553503 -0.6480239 26 6
-7.8977437 -9.6011944 -0.21700323 24 7
-4.3243876 -5.22543 -1.8174274 3 0
-5.1904502 -6.2652664 -1.8783413 8 1
-7.0596843 -8.5124979 -2.1496544 21 2
-7.3235273 -8.8212337 -1.8158915 17 3
-7.3517733 -8.8426895 -1.4119784 18 4
-7.6498275 -9.1913891 -1.0462176 15 5
-7.9533305 -9.5458832 -0.651164 26 6
-8.2822895 -9.9266138 -0.22565961 18 7
-4.3399873 -5.1721954 -1.8091452 3 0
-5.222949 -6.217854 -1.8747422 7 1
-7.103775 -8.4449749 -2.1450748 21 2
-7.4561858 -8.8545065 -1.8334121 15 3
-7.5474143 -8.9533262 -1.4378146 15 4
-7.7395124 -9.1682072 -1.0497037 15 5
-8.012044 -9.4809723 -0.650536 26 6
-8.1533556 -9.6379528 -0.22035408 25 7
-4.3684769 -5.1329441 -1.8060393 3 0
-5.2510633 -6.1634402 -1.8693433 7 1
-7.2262716 -8.4698524 -2.1641557 22 2
-7.5819659 -8.8773413 -1.8490556 19 3
-7.5310464 -8.8083801 -1.4229466 20 4
-7.9627113 -9.300108 -1.0711441 15 5
-8.0195475 -9.3565683 -0.64582574 17 6
-4.4143047 -5.1140199 -1.8101805 3 0
-5.2863212 -6.1177821 -1.8666438 7 1
-7.2800851 -8.4132614 -2.1626294 21 2
-7.5506325 -8.716692 -1.826529 17 3
-7.7133012 -8.8950672 -1.4456142 19 4
-7.9762001 -9.1885176 -1.0645202 15 5
-8.5196991 -9.8007936 -0.68057686 17 6
-4.4320841 -5.0627289 -1.8029336 3 0
-5.3263321 -6.0777974 -1.8657441 7 1
-7.3294153 -8.3546562 -2.1603396 19 2
-7.5654721 -8.6146307 -1.8158915 18 3
-7.983655 -9.0780125 -1.4843687 21 4
-8.2429018 -9.3629055 -1.0913641 16 5
-8.4119015 -9.5447874 -0.66676015 17 6
-8.697443 -9.854907 -0.22942933 19 7
-4.4818301 -5.0497813 -1.8091452 3 0
-5.3546362 -6.0268331 -1.8612449 7 1
-7.3719034 -8.2856827 -2.15576 19 2
-7.6648459 -8.605855 -1.8252774 19 3
-7.8325725 -8.7849083 -1.4451268 19 4
-7.8515921 -8.7938786 -1.031401 29 5
-8.3851604 -9.3815908 -0.65943313 17 6
-4.496295 -4.9953966 -1.8008629 3 0
-5.3835363 -5.9748263 -1.8567461 7 1
-7.4374599 -8.2427607 -2.1580498 18 2
-7.7538676 -8.5843868 -1.8321607 20 3
-7.8005128 -8.6269445 -1.4280651 19 4
-7.9154701 -8.7418013 -1.0317496 22 5
-8.5805645 -9.466362 -0.6695863 26 6
-4.5310602 -4.9638848 -1.8008629 3 0
-5.4145989 -5.9255891 -1.8531467 7 1
-7.4855447 -8.1805 -2.1553786 10 2
-7.7949262 -8.509655 -1.8277806 17 3
-8.3751869 -9.120719 -1.0833459 16 5
-8.6221113 -9.3797626 -0.6677022 26 6
-4.5629797 -4.9292955 -1.7998277 3 0
-5.4399414 -5.8704915 -1.847748 6 1
-7.463685 -8.0431328 -2.132863 10 2
-7.9213681 -8.5273905 -1.843424 17 3
-8.2067862 -8.8253736 -1.4797376 12 4
-8.4576635 -9.0824432 -1.0857862 16 5
-8.8467216 -9.4902725 -0.67994881 17 6
-4.5999255 -4.9001369 -1.8008629 3 0
-5.4941378 -5.8465714 -1.852247 7 1
-7.3528185 -7.8135443 -2.0855424 10 2
-8.0105047 -8.5035162 -1.8503071 20 3
-8.1932917 -8.6884336 -1.4663321 27 4
-8.4524708 -8.9507456 -1.0770707 16 5
-8.6273785 -9.1263866 -0.65817702 17 6
-4.59939 -4.8315253 -1.7874043 3 0
-5.5213766 -5.7939649 -1.847748 8 1
-7.2215004 -7.5674381 -2.0332606 10 2
-8.2006683 -8.5845079 -1.8803425 18 3
-8.6886616 -9.0858145 -1.5435972 14 4
-8.3080482 -8.6756716 -1.0509239 15 5
-8.9603968 -9.347084 -0.67858809 26 6
-4.6491094 -4.8159766 -1.7936161 3 0
-7.2878084 -7.5309472 -2.037077 10 2
-8.0734739 -8.3340893 -1.8377923 19 3
-8.4229774 -8.68577 -1.4855874 31 4
-8.75984 -9.0205297 -1.1000798 17 5
-9.2259083 -9.4905205 -0.69366086 26 6
-4.670455 -4.7709775 -1.7889572 2 0
-5.5553598 -5.6689878 -1.8324513 42 1
-7.2494488 -7.387404 -2.0118902 10 2
-8.3003445 -8.4494448 -1.8759624 15 3
-8.4583559 -8.6012774 -1.4812001 16 4
-8.8869066 -9.0244579 -1.1080981 17 5
-9.3396101 -9.4742413 -0.69721967 26 6
-4.7050099 -4.7396269 -1.789475 3 0
-5.6126585 -5.6480355 -1.8382999 33 1
-7.2509913 -7.2865148 -1.9981518 12 2
-8.2866373 -8.3185196 -1.8596932 19 3
-8.4859581 -8.5096912 -1.4755942 4 4
-8.9187174 -8.9311829 -1.1042633 25 5
-9.3914032 -9.3946857 -0.69617295 26 6
-4.7352433 -4.7039409 -1.7884396 3 0
-5.6519523 -5.6087141 -1.8382999 8 1
-7.2849503 -7.2191334 -1.9935726 12 2
-8.279932 -8.196537 -1.8453012 21 3
-9.1506891 -9.0490427 -1.580158 19 4
-9.1821604 -9.0674906 -1.1290154 18 5
-9.3686075 -9.2419262 -0.68968332 26 6
-4.7445059 -4.6477876 -1.7796398 2 0
-5.6798267 -5.558217 -1.8347007 7 1
-7.3295555 -7.1626101 -1.992046 12 2
-8.3058548 -8.1081753 -1.8384181 19 3
-9.2150612 -8.9863234 -1.5804018 20 4
-9.2921896 -9.0520515 -1.1349421 18 5
-9.5016146 -9.2431459 -0.69470751 26 6
-4.800458 -4.6373687 -1.7884396 3 0
-5.7030687 -5.5035424 -1.829752 6 1
-7.3413906 -7.0771265 -1.982124 12 2
-8.4946041 -8.180253 -1.8678278 17 3
-9.2174768 -8.8639812 -1.5701648 21 4
-9.6425238 -9.2630138 -1.1698043 19 5
-9.8597298 -9.46175 -0.7161653 35 6
-4.8207231 -4.5939245 -1.7842987 3 0
-5.7319279 -5.4565349 -1.8270525 7 1
-7.29386 -6.9337225 -1.956174 12 2
-8.7004757 -8.2622185 -1.9003662 19 3
-9.3510456 -8.8707123 -1.5825955 19 4
-9.4350281 -8.937871 -1.1370338 18 5
-9.5976906 -9.0824337 -0.69250941 17 6
-4.8470473 -4.5548649 -1.782228 3 0
-5.7457285 -5.3937116 -1.8194041 5 1
-7.3019814 -6.8450389 -1.9454886 12 2
-8.9107828 -8.3444004 -1.9335302 19 3
-9.119915 -8.5312777 -1.5333602 12 4
-9.9514523 -9.2961311 -1.191419 20 5
-9.6068335 -8.9647923 -0.6886366 17 6
-4.8588891 -4.5025334 -1.774981 3 0
-5.7989736 -5.3680305 -1.8243531 7 1
-7.2890429 -6.7379212 -1.9294606 10 2
-8.9107704 -8.228384 -1.9210155 17 3
-9.3630972 -8.6369934 -1.5640713 14 4
-9.9617519 -9.1795731 -1.1851437 20 5
-9.742671 -8.9651251 -0.69387019 8 6
-4.8959084 -4.4737148 -1.7770516 3 0
-5.8247948 -5.3169036 -1.8207539 7 1
-7.3115273 -6.666986 -1.9233549 10 2
-9.0016212 -8.1994638 -1.9285244 17 3
-9.4231653 -8.5714178 -1.5640713 14 4
-9.9341698 -9.0267344 -1.1743364 19 5
-11.025023 -10.007401 -0.78032917 8 6
-4.920507 -4.435112 -1.774981 3 0
-5.8463678 -5.2640934 -1.8162549 7 1
-7.3666496 -6.6236558 -1.9256444 10 2
-9.1879683 -8.2525816 -1.9560568 17 3
-9.7856607 -8.7801743 -1.6142814 19 4
-10.084401 -9.0386925 -1.1847951 20 5
-11.069317 -9.9075451 -0.77854973 17 6
-4.9484611 -4.398087 -1.7739457 3 0
-5.8800611 -5.2205625 -1.8153551 7 1
-7.4115648 -6.573359 -1.9256444 10 2
-9.5248547 -8.4387426 -2.015502 17 3
-9.9790401 -8.8287106 -1.6359742 28 4
-10.069627 -8.8994608 -1.1757309 19 5
-11.886619 -10.49422 -0.83099043 8 6
-4.9732342 -4.3583384 -1.7718753 3 0
-5.8987689 -5.1639814 -1.8099562 6 1
-7.4746733 -6.5343695 -1.9298422 10 2
-9.5939245 -8.3781643 -2.017379 17 3
-10.113731 -8.8227711 -1.6479174 18 4
-10.157091 -8.8481131 -1.1785198 19 5
-11.229171 -9.7716942 -0.78011984 8 6
-4.9889221 -4.310883 -1.7666988 3 0
-5.918448 -5.1086688 -1.8050072 5 1
-7.5230818 -6.4845924 -1.9306054 10 2
-9.7449903 -8.3908949 -2.036777 11 3
-10.16003 -8.7390051 -1.64548 18 4
-10.155134 -8.7224665 -1.1711988 19 5
-5.0247779 -4.2809601 -1.7687694 3 0
-5.9762301 -5.0861712 -1.8117559 7 1
-7.5651774 -6.4293709 -1.9298422 7 2
-10.002108 -8.491415 -2.0780756 17 3
-10.184457 -8.6370459 -1.6396303 16 4
-5.0604591 -4.2507463 -1.77084 3 0
-5.998157 -5.0330515 -1.8077066 5 1
-7.635848 -6.4004278 -1.9367114 9 2
-10.138432 -8.4890795 -2.0943449 19 3
-10.555175 -8.8254986 -1.689353 16 4
-10.950318 -9.1461525 -1.2482445 22 5
-5.0654736 -4.1964836 -1.7625577 4 0
-6.0307755 -4.9908643 -1.8072568 6 1
-7.630403 -6.3056951 -1.924118 4 2
-10.273617 -8.4809732 -2.1099885 18 3
-10.526173 -8.6801987 -1.6752161 16 4
-10.983143 -9.0441523 -1.2447582 22 5
-5.0976381 -4.1634622 -1.763593 3 0
-6.0594306 -4.9437137 -1.8054571 6 1
-7.6316228 -6.2175474 -1.9134327 4 2
-10.418374 -8.4788666 -2.1275089 18 3
-5.1115332 -4.1156573 -1.7584167 4 0
-6.0801301 -4.8902979 -1.8014081 5 1
-7.6258602 -6.1247787 -1.9012209 4 2
-10.560515 -8.472681 -2.1444039 16 3
-11.69967 -9.3765583 -1.8409585 19 4
-5.1492205 -4.0870781 -1.7615224 5 0
-6.0927444 -4.8307815 -1.7951094 4 1
-7.6396713 -6.0507889 -1.8943518 4 2
-10.712441 -8.4753675 -2.1634889 7 3
-11.556479 -9.1202078 -1.2879876 24 5
-5.1921329 -4.0638418 -1.7666988 4 0
-6.1224136 -4.7867985 -1.7942096 4 1
-7.6739898 -5.9912658 -1.8924437 4 2
-12.061108 -9.4062328 -2.4225445 1 3
-11.516209 -8.9683533 -1.7922107 7 4
-14.542212 -11.300438 -0.9651798 18 6
-5.2119021 -4.0195036 -1.763593 4 0
-6.1379867 -4.7285919 -1.7888107 5 1
-7.6860685 -5.9147959 -1.8851929 4 2
-12.236183 -9.4027367 -2.4441323 8 3
-12.072983 -9.2672777 -1.8687446 3 4
-13.583162 -10.415197 -1.49751 31 5
-14.606845 -11.183945 -0.96413308 27 6
-5.2398357 -3.9830213 -1.763593 4 0
-6.1677437 -4.68327 -1.7879109 3 1
-7.7141166 -5.8489685 -1.8817585 4 2
-11.983441 -9.0761623 -2.3809328 8 3
-13.052403 -9.8750353 -2.0096257 12 4
-14.856743 -11.211636 -0.97543764 9 6
-5.2551465 -3.9370768 -1.759452 4 0
-6.1924877 -4.6342587 -1.7856615 3 1
-7.7264533 -5.7738194 -1.8748893 4 2
-11.775821 -8.7902231 -2.3274322 9 3
-13.159216 -9.8121538 -2.0154753 17 4
-14.711894 -10.94196 -0.96088827 18 6
-5.2607465 -3.8842282 -1.752205 4 0
-6.2043014 -4.5758772 -1.7798127 4 1
-7.7523456 -5.7092619 -1.8714547 4 2
-11.604586 -8.5368967 -2.2817533 9 3
-13.329777 -9.7952738 -2.0310745 18 4
-14.920014 -10.935807 -0.96947134 18 6
-5.3064795 -3.8610468 -1.7584167 3 0
-6.2266374 -4.525579 -1.7771133 4 1
-7.7544885 -5.6298304 -1.8626775 15 2
-11.470532 -8.3185444 -2.2442091 10 3
-13.288502 -9.6228065 -2.0145004 17 4
-14.820888 -10.708836 -0.9582715 27 6
-5.3263588 -3.8203335 -1.7563461 4 0
-6.2414565 -4.4717407 -1.7726144 4 1
-7.7744412 -5.561851 -1.8580981 28 2
-11.460823 -8.1900282 -2.2310686 10 3
-13.376315 -9.5482788 -2.0179126 18 4
-14.952231 -10.645649 -0.96193498 18 6
-5.3655214 -3.7919757 -1.7604873 4 0
-6.2788906 -4.4325538 -1.7744139 4 1
-7.8339415 -5.5221438 -1.8630592 10 2
-11.436962 -8.0529537 -2.2154253 12 3
-13.630996 -9.5871372 -2.0461864 16 4
-15.024553 -10.539857 -0.96183026 18 6
-5.3855205 -3.75001 -1.7584167 4 0
-6.3016825 -4.3830485 -1.7721643 3 1
-7.8626275 -5.4605999 -1.8607695 4 2
-11.450705 -7.9436374 -2.2072906 9 3
-14.425304 -9.9960079 -2.1548939 7 4
-14.26906 -9.8730011 -1.5180787 31 5
-15.204563 -10.508524 -0.96863401 18 6
-5.4115705 -3.7123194 -1.7584167 4 0
-6.3385596 -4.3433523 -1.7739639 3 1
-7.8551898 -5.3745332 -1.8500841 4 2
-10.409929 -7.114491 -1.9970427 1 3
-14.161922 -9.6678543 -2.1054149 10 4
-14.298127 -9.7462111 -1.5138953 31 5
-15.287462 -10.408864 -0.969262 18 6
-5.4245496 -3.665797 -1.7542756 4 0
-6.3574204 -4.2913647 -1.7708147 5 1
-7.8680987 -5.3031034 -1.8443599 4 2
-11.283572 -7.5965462 -2.1544156 8 3
-14.021515 -9.4291725 -2.0747037 18 4
-14.23844 -9.5642281 -1.5006475 31 5
-15.547192 -10.427597 -0.98108989 9 6
-5.4789553 -3.6471066 -1.763593 3 0
-6.3580141 -4.227457 -1.7627165 4 1
-7.8876605 -5.2385631 -1.8405437 4 2
-11.167116 -7.4081802 -2.122503 13 3
-14.242565 -9.4341021 -2.0976152 11 4
-14.278276 -9.4470053 -1.4978585 31 5
-15.491175 -10.237844 -0.97313493 18 6
-5.4842687 -3.5970142 -1.7573814 4 0
-6.3768625 -4.1776724 -1.760017 4 1
-7.9240394 -5.1833715 -1.8405437 4 2
-11.155722 -7.2889819 -2.1106141 14 3
-14.045458 -9.166604 -2.0593483 15 4
-14.353898 -9.3536167 -1.4989043 31 5
-5.4930201 -3.5481558 -1.752205 4 0
-6.4124231 -4.1372771 -1.7618166 5 1
-7.950129 -5.1215467 -1.838254 4 2
-10.993704 -7.0741048 -2.0705669 14 3
-14.129148 -9.0812035 -2.0622733 15 4
-14.751518 -9.4557714 -0.9182868 18 6
-5.5241766 -3.5138698 -1.7542756 3 0
-6.4526625 -4.0997262 -1.7649659 6 1
-7.937614 -5.035419 -1.8271869 3 2
-10.824237 -6.858674 -2.0295811 24 3
-14.688704 -9.2965803 -2.1344197 12 4
-14.702046 -9.2906628 -1.5215648 32 5
-14.823928 -9.3568201 -0.91870546 27 6
-5.5649452 -3.4854724 -1.759452 3 0
-6.4811273 -4.0545778 -1.7649659 7 1
-7.9792342 -4.9840436 -1.8287135 3 2
-10.689176 -6.6689687 -1.9954783 12 3
-14.428092 -8.9911842 -2.0873783 18 4
-14.878203 -9.2572632 -1.5330694 32 5
-14.788804 -9.1909018 -0.91252983 18 6
-5.5957203 -3.4505925 -1.7615224 3 0
-6.5125942 -4.0112767 -1.7658658 7 1
-7.9937668 -4.9158759 -1.8241341 3 2
-10.718642 -6.5838432 -1.9923496 10 3
-14.806923 -9.0843582 -2.1329575 16 4
-14.881304 -9.1157055 -1.5267943 32 5
-15.021269 -9.1906309 -0.92289233 18 6
-5.5833426 -3.3893898 -1.7501343 4 0
-6.5371065 -3.9636915 -1.7649659 7 1
-8.0245333 -4.8579154 -1.8233709 3 2
-10.74237 -6.4955649 -1.9882823 9 3
-14.842793 -8.9643497 -2.1290576 18 4
-14.944582 -9.0115881 -1.5267943 32 5
-16.499989 -9.9377222 -1.009456 18 6
-5.6582775 -3.381047 -1.7661812 2 0
-6.5545783 -3.9119668 -1.7622666 6 1
-8.0346384 -4.7877078 -1.8180283 3 2
-10.750109 -6.3981867 -1.9813992 9 3
-15.174618 -9.0207787 -2.1675684 13 4
-15.178462 -9.008728 -1.5442253 32 5
-16.409184 -9.7275734 -0.99972153 18 6
-5.6517696 -3.3238344 -1.7568637 2 0
-6.5783682 -3.8641376 -1.7613667 7 1
-8.0407724 -4.7156057 -1.8119223 3 2
-10.777472 -6.312994 -1.9782705 9 3
-15.278346 -8.9386778 -2.173418 13 4
-15.206575 -8.8824501 -1.5407393 32 5
-16.757887 -9.7768373 -1.0167831 19 6
-5.6848683 -3.2901025 -1.7599696 2 0
-6.6018105 -3.8161676 -1.7604669 7 1
-8.0870991 -4.6672077 -1.8149751 3 2
-10.812723 -6.2326689 -1.9767061 8 3
-15.411769 -8.8621626 -1.5553813 33 5
-16.870771 -9.6854572 -1.0195045 19 6
-5.700984 -3.2465122 -1.757899 2 0
-6.6215148 -3.7661328 -1.7586673 7 1
-8.0777121 -4.588779 -1.8058165 3 2
-10.758684 -6.1043344 -1.9591854 5 3
-16.39654 -9.2880535 -2.3138115 12 4
-16.875446 -9.5360107 -1.015841 28 6
-5.7381172 -3.2161324 -1.7625577 3 0
-20.638369 -11.558039 0.41288903 44 8
-6.6503973 -3.7228782 -1.7595671 7 1
-8.1026955 -4.5284429 -1.8042899 3 2
-10.688923 -5.9664941 -1.9388491 6 3
-17.329773 -9.6614809 -2.4361684 10 4
-16.378487 -9.1198931 -1.6400968 35 5
-17.175528 -9.5480022 -1.0298671 19 6
-5.7570457 -3.1741302 -1.7615224 3 0
-6.6762271 -3.6763573 -1.7595671 7 1
-8.1505356 -4.482646 -1.8081062 3 2
-10.682541 -5.8679199 -1.9304014 5 3
-17.382874 -9.5326281 -2.4342184 10 4
-16.529125 -9.0531864 -1.6488123 36 5
-16.95801 -9.2765522 -1.0130149 18 6
-5.7343683 -3.1109183 -1.7480639 3 0
-6.7113762 -3.6364002 -1.7622666 7 1
-8.1816301 -4.4256372 -1.8081062 3 2
-10.67632 -5.7678509 -1.921954 6 3
-17.884108 -9.649744 -2.4951532 13 4
-16.765757 -9.0349836 -1.6662434 36 5
-17.233427 -9.2714853 -1.0255755 19 6
-5.7900362 -3.0889943 -1.7584167 3 0
-6.7228408 -3.5821264 -1.7586673 7 1
-8.156105 -4.3403306 -1.7958944 3 2
-10.675214 -5.6737223 -1.9147581 5 3
-17.447773 -9.2576256 -2.4252002 11 4
-17.177864 -9.0913706 -1.0185626 28 6
-5.8040853 -3.0459216 -1.7563461 3 0
-20.736689 -10.873155 0.40870047 43 8
-6.7332587 -3.5290468 -1.7550682 6 1
-21.354065 -11.182622 1.2632854 16 9
-8.1618528 -4.2705436 -1.7905518 3 2
-10.660292 -5.5706959 -1.9050591 6 3
-17.517424 -9.1423216 -2.4261751 11 4
-17.581089 -9.1482372 -1.0386595 19 6
-5.830359 -3.0079844 -1.757899 2 0
-6.7542672 -3.4801683 -1.7541683 6 1
-8.1453447 -4.1915326 -1.7806298 3 2
-10.627686 -5.4618869 -1.8925444 24 3
-17.208149 -8.8286104 -2.3747461 12 4
-17.304417 -8.8665533 -1.7011058 37 5
-17.838531 -9.128438 -1.0501734 19 6
-5.8317471 -2.9586158 -1.752205 3 0
-6.7847519 -3.4376376 -1.7559679 6 1
-8.1936789 -4.1443119 -1.7848274 4 2
-10.695531 -5.4027023 -1.8978633 19 3
-18.157558 -9.1601152 -2.4971032 1 4
-17.939295 -9.0225239 -1.0523715 19 6
-5.8315139 -2.907485 -1.7459934 3 0
-6.8085866 -3.3901856 -1.7559679 6 1
-8.2188959 -4.0852628 -1.7840642 4 2
-10.69406 -5.3085814 -1.89098 6 3
-17.995188 -8.921154 -2.4661481 6 4
-18.155828 -8.9731722 -1.0613732 19 6
-5.8655481 -2.873503 -1.7501343 4 0
-6.8233361 -3.33829 -1.7537185 4 1
-22.18726 -10.845431 1.2942684 16 9
-8.2454529 -4.0269213 -1.7836826 4 2
-10.691802 -5.2147398 -1.884097 5 3
-17.10939 -8.3337202 -2.3367231 2 4
-18.421051 -8.9447832 -1.0732012 19 6
-5.8924294 -2.835835 -1.752205 3 0
-20.934195 -10.070449 0.40548921 43 8
-6.8394499 -3.2871959 -1.7519189 4 1
-21.551254 -10.353395 1.2530276 5 9
-8.2549715 -3.962209 -1.7798663 4 2
-10.684298 -5.1213493 -1.876588 3 3
-17.220869 -8.2397776 -2.3440351 9 4
-18.513954 -8.8346758 -1.0750854 19 6
-5.908103 -2.7940087 -1.7511697 3 0
-6.8616667 -3.2405651 -1.7519189 5 1
-8.2877607 -3.9069939 -1.7810113 4 2
-10.694769 -5.0348577 -1.8722079 4 3
-17.17416 -8.0742273 -2.330142 11 4
-18.833797 -8.8264036 -1.0900534 19 6
-5.9169512 -2.7478137 -1.7480639 3 0
-6.8699789 -3.1860254 -1.7483196 4 1
-8.300581 -3.8424413 -1.7779584 4 2
-10.706349 -4.949296 -1.8681406 4 3
-17.05168 -7.8717613 -2.3060119 8 4
-18.974789 -8.7314444 -1.094659 19 6
-5.9148974 -2.6968217 -1.7418523 4 0
-6.8920546 -3.1379862 -1.7483196 4 1
-8.3129044 -3.7779 -1.7749053 4 2
-10.715458 -4.8630018 -1.8637605 3 3
-17.039322 -7.7222085 -2.2969937 6 4
-19.07715 -8.6176739 -1.0970665 29 6
-5.9406338 -2.6586187 -1.7439228 4 0
-6.9298058 -3.0969498 -1.7523687 3 1
-8.3426628 -3.721375 -1.7756686 4 2
-10.723883 -4.776825 -1.8593802 3 3
-17.061979 -7.5893517 -2.29285 16 4
-5.9590487 -2.6170819 -1.7439228 4 0
-6.9298415 -3.0391033 -1.7469698 3 1
-8.3612452 -3.6598921 -1.7741421 4 2
-10.73525 -4.692348 -1.8556259 3 3
-16.874395 -7.365231 -2.2606766 16 4
-5.9949164 -2.5830591 -1.7490991 3 0
-6.9491 -2.9898796 -1.74652 4 1
-8.4003944 -3.6090941 -1.777195 4 2
-10.723372 -4.6004748 -1.8481169 3 3
-16.638903 -7.1245704 -2.2224095 11 4
-26.22468 -11.196599 -1.494401 11 6
-5.9945669 -2.5346696 -1.7439228 3 0
-6.9836521 -2.9485731 -1.7501192 4 1
-8.432622 -3.553412 -1.7787216 4 2
-10.747944 -4.5224376 -1.8468655 3 3
-15.402269 -6.4713593 -2.0513051 10 4
-23.933037 -10.021226 -1.3597929 11 6
-5.9942698 -2.4853601 -1.7387464 3 0
-6.9950638 -2.8960207 -1.7478697 3 1
-8.4293985 -3.4846799 -1.7729974 3 2
-10.741961 -4.4340997 -1.8406081 3 3
-15.731567 -6.4808717 -2.0890844 8 4
-25.803844 -10.598716 -1.4619528 23 6
-6.0253649 -2.4503226 -1.7428875 5 0
-6.9965587 -2.8410082 -1.7433707 3 1
-8.4462423 -3.4227972 -1.7714708 3 2
-10.754342 -4.3515887 -1.8374794 3 3
-15.498486 -6.2586503 -2.0522799 10 4
-25.829035 -10.398924 -1.4592313 23 6
-6.0283871 -2.4014239 -1.7387464 4 0
-7.025763 -2.7944703 -1.7456201 4 1
-8.477232 -3.3666465 -1.7729974 3 2
-10.744804 -4.258512 -1.8305963 4 3
-15.490121 -6.1298428 -2.0454552 10 4
-25.884205 -10.206503 -1.4581846 23 6
-6.0522032 -2.3620903 -1.740817 5 0
-7.0342059 -2.7411094 -1.7429208 5 1
-8.5102539 -3.3094561 -1.7749053 4 2
-10.715347 -4.1605129 -1.8205845 3 3
-15.451097 -5.989984 -2.0347307 6 4
-25.850496 -9.9852476 -1.452323 23 6
-6.0649371 -2.3184006 -1.7397816 5 0
-7.0659156 -2.6967988 -1.7460701 6 1
-8.498291 -3.2366886 -1.7676547 3 2
-10.747824 -4.0870104 -1.8212101 3 3
-15.217874 -5.7776923 -1.9986575 5 4
-25.803755 -9.7607231 -1.4458333 23 6
-6.0665011 -2.2705858 -1.7356406 5 0
-7.0772686 -2.6446748 -1.7442704 6 1
-8.5501137 -3.1882534 -1.7737606 3 2
-10.731666 -3.9953341 -1.8137014 4 3
-15.142475 -5.6284266 -1.9835457 5 4
-26.676641 -9.8785839 -1.4908422 11 6
-6.0930877 -2.232167 -1.7387464 4 0
-7.0918994 -2.5938632 -1.7433707 6 1
-8.5199795 -3.1111271 -1.7630752 3 2
-10.743765 -3.9167831 -1.8111985 4 3
-15.117972 -5.4995055 -1.9752585 5 4
-26.517948 -9.6150751 -1.4782816 11 6
-6.0644984 -2.1749887 -1.7263231 14 0
-7.0947132 -2.5402744 -1.7397714 6 1
-8.5414915 -3.0515707 -1.7630752 3 2
-10.765265 -3.8396909 -1.8102598 4 3
-15.050332 -5.3591828 -1.9616091 5 4
-6.0904722 -2.1364343 -1.7294289 14 0
-7.1141143 -2.491328 -1.7402214 5 1
-8.5848284 -2.9996388 -1.7676547 3 2
-10.797404 -3.7663963 -1.8111985 4 3
-27.023232 -9.3734827 -1.4990066 11 6
-6.1107202 -2.0957441 -1.7309818 12 0
-7.1350203 -2.4428637 -1.7411212 5 1
-8.6241388 -2.9459786 -1.7714708 3 2
-10.829043 -3.6928368 -1.812137 5 3
-15.016576 -5.112062 -1.947716 6 4
-28.15481 -9.5463181 -1.5580416 12 6
-6.1270347 -2.0536449 -1.7314996 4 0
-7.1445088 -2.3905191 -1.7393216 5 1
-8.6104727 -2.8760118 -1.7646016 3 2
-10.823947 -3.6090429 -1.8071312 4 3
-14.955835 -4.9751458 -1.9352853 4 4
-28.329096 -9.3908958 -1.5641125 24 6
-6.1372004 -2.0106888 -1.7304642 4 0
-7.1661716 -2.3436496 -1.7406713 6 1
-8.6154099 -2.8109601 -1.7615488 3 2
-10.830094 -3.5272748 -1.8040025 5 3
-14.925165 -4.852365 -1.9269981 4 4
-6.1400471 -1.9642637 -1.7273583 4 0
-7.1749325 -2.291194 -1.7388717 7 1
-8.6684952 -2.7614689 -1.768418 3 2
-10.850692 -3.450381 -1.8033768 4 3
-14.90381 -4.7306294 -1.9199297 3 4
-27.688074 -8.7512741 -1.5218251 11 6
-6.1683636 -1.9259565 -1.7314996 4 0
-7.1758695 -2.2364089 -1.7352724 7 1
-8.6500683 -2.6892292 -1.7607856 3 2
-10.891494 -3.3798163 -1.8061925 3 3
-14.872001 -4.6065001 -1.9116427 3 4
-27.50038 -8.4812412 -1.5082177 11 6
-6.1779628 -1.8817204 -1.7304642 4 0
-7.1950369 -2.187391 -1.7361722 7 1
-8.6611156 -2.626498 -1.759259 3 2
-10.903481 -3.300261 -1.8043153 4 3
-14.83919 -4.4830399 -1.9033556 3 4
-27.792259 -8.3592367 -1.5209877 11 6
-6.1761336 -1.8341461 -1.7263231 4 0
-7.2026582 -2.1348934 -1.7343726 7 1
-8.7018337 -2.5726449 -1.7638384 3 2
-10.922465 -3.2229443 -1.8036896 3 3
-14.843466 -4.3714857 -1.8999432 3 4
-27.830776 -8.15938 -1.519941 11 6
-6.2110558 -1.797428 -1.7325348 3 0
-7.2248759 -2.0867202 -1.7361722 7 1
-8.6988297 -2.5058563 -1.7596406 4 2
-10.899136 -3.1335154 -1.7961807 3 3
-14.801114 -4.2469506 -1.8906811 3 4
-28.025333 -8.004385 -1.5274774 11 6
-6.2160153 -1.7519268 -1.7304642 3 0
-7.2242599 -2.0320089 -1.7325729 7 1
-8.7123318 -2.4440031 -1.7588774 4 2
-10.93216 -3.0605414 -1.7980579 4 3
-14.744369 -4.1194744 -1.8797129 2 4
-30.170259 -8.3896484 -1.6411511 10 6
-6.2169161 -1.7054217 -1.7273583 3 0
-7.2269931 -1.9784374 -1.7298737 7 1
-8.7079325 -2.3789544 -1.7546796 3 2
-10.922246 -2.9777467 -1.7930521 3 3
-14.707639 -3.9987352 -1.8714259 2 4
-6.2339807 -1.6645601 -1.7289113 2 0
-7.2553568 -1.9332128 -1.7334728 7 1
-8.7148428 -2.315583 -1.7527716 4 2
-10.961863 -2.9064853 -1.7961807 3 3
-14.663511 -3.8797441 -1.8624074 3 4
-31.329912 -8.2484732 -1.6978832 9 6
-6.2510586 -1.6224556 -1.7304642 3 0
-7.2516971 -1.8781183 -1.7294236 5 1
-8.7494097 -2.2611234 -1.7565877 4 2
-10.969914 -2.8288457 -1.7943035 3 3
-14.655634 -3.7683804 -1.8580201 3 4
-32.174755 -8.2371359 -1.7405895 8 6
-6.2507181 -1.5770327 -1.7273583 3 0
-7.2624235 -1.8282381 -1.7289737 6 1
-8.7459412 -2.1952045 -1.7527716 4 2
-10.981732 -2.7502704 -1.7930521 2 3
-14.688649 -3.6704605 -1.8589951 3 4
-32.134556 -7.9882207 -1.7353557 8 6
-6.2521939 -1.5310601 -1.7247702 2 0
-7.2655449 -1.7751815 -1.7267244 5 1
-8.7477007 -2.1308424 -1.7501003 4 2
-10.996825 -2.6726058 -1.7924262 3 3
-14.677259 -3.5589404 -1.854364 4 4
-38.557945 -9.2996578 -2.0786798 0 6
-6.2664895 -1.4882654 -1.7258054 2 0
-7.2550058 -1.7190219 -1.7213255 4 1
-8.7260599 -2.0611472 -1.7428495 4 2
-11.019061 -2.5966773 -1.7930521 3 3
-14.692084 -3.454119 -1.8531454 3 4
-38.765842 -9.0639038 -2.0864253 0 6
-6.2654305 -1.4418828 -1.7226996 2 0
-7.2915211 -1.6740009 -1.7271742 6 1
-8.7344952 -1.9988614 -1.7417046 3 2
-11.006107 -2.5126491 -1.7880461 3 3
-14.688745 -3.3452899 -1.849733 3 4
-39.381386 -8.9183273 -2.1161523 0 6
-6.2810006 -1.399367 -1.7242525 2 0
-7.3049321 -1.6234784 -1.7276241 5 1
-8.7846556 -1.9459038 -1.7489554 4 2
-11.027239 -2.4366062 -1.788672 3 3
-14.68654 -3.2371104 -1.8465644 4 4
-40.024078 -8.7705765 -2.1473446 0 6
-6.2679553 -1.3506001 -1.7180409 2 0
-7.3084679 -1.5708028 -1.7258245 5 1
-8.8034573 -1.8872982 -1.7501003 4 2
-11.00107 -2.352402 -1.7817887 3 3
-14.697132 -3.132014 -1.845102 2 4
-22.912643 -4.8702307 -2.0493801 31 5
-39.090305 -8.287509 -2.0941713 0 6
-6.2732205 -1.3071175 -1.7170056 2 0
-7.2999105 -1.5170559 -1.7213255 4 1
-8.7625885 -1.8146447 -1.7394148 3 2
-11.023029 -2.2767415 -1.7827275 4 3
-14.712277 -3.0307033 -1.8443708 3 4
-39.252869 -8.036046 -2.0998235 0 6
-6.2973442 -1.266337 -1.7211467 2 0
-7.3236985 -1.4687364 -1.7244748 3 1
-8.7788944 -1.7541956 -1.7401782 3 2
-11.023156 -2.1966422 -1.7802243 4 3
-14.721395 -2.9255965 -1.8429084 3 4
-39.613682 -7.8221707 -2.1161523 0 6
-6.3363767 -1.2282244 -1.7294289 2 0
-7.3299465 -1.4168335 -1.723575 3 1
-8.8140602 -1.6973215 -1.7447575 3 2
-11.040163 -2.1200078 -1.7805374 3 3
-14.714166 -2.8175242 -1.839496 3 4
-40.059746 -7.6200695 -2.1370866 0 6
-6.3030171 -1.1761636 -1.7180409 2 0
-7.3415756 -1.3659847 -1.7240249 3 1
-8.7870874 -1.6285909 -1.7371252 3 2
-11.013902 -2.0353427 -1.773967 4 3
-14.715906 -2.7114975 -1.8373024 2 4
-41.090351 -7.5192623 -2.1892133 0 6
-6.3186808 -1.1334945 -1.7201115 1 0
-7.3547697 -1.3153819 -1.7249247 2 1
-8.8175707 -1.5706487 -1.7409414 3 2
-10.992835 -1.9521846 -1.7683355 4 3
-14.711021 -2.604542 -1.8343775 2 4
-6.3112087 -1.086733 -1.7159703 2 0
-7.3292012 -1.2580713 -1.7168264 1 1
-8.8302574 -1.5093831 -1.741323 4 2
-11.013985 -1.8767198 -1.7695868 5 3
-14.722974 -2.5007787 -1.8336463 3 4
-44.409439 -7.4873829 -2.3602471 0 6
-6.3262668 -1.0439042 -1.7180409 2 0
-7.3685727 -1.2119318 -1.7240249 2 1
-8.8735161 -1.4530952 -1.7478106 3 2
-11.009271 -1.7969207 -1.7667711 4 3
-14.695009 -2.3906047 -1.8280404 2 4
-6.3486657 -1.0021226 -1.722182 1 0
-7.3845539 -1.1616729 -1.7258245 2 1
-8.8366508 -1.3853635 -1.7386516 3 2
-11.019296 -1.7216363 -1.7664583 4 3
-14.685842 -2.2839863 -1.8248718 3 4
-49.960236 -7.7163949 -2.6493509 0 6
-6.3515191 -0.95830894 -1.7211467 2 0
-7.3730192 -1.1084836 -1.7213255 3 1
-8.8732901 -1.3277076 -1.7439942 3 2
-11.005647 -1.6408808 -1.762391 4 3
-14.716756 -2.1863036 -1.8268216 3 4
-50.684704 -7.4663963 -2.6849394 0 6
-6.331284 -0.91009688 -1.7138997 2 0
-7.4114428 -1.0614053 -1.728524 2 1
-8.8512468 -1.2612947 -1.7378885 3 2
-11.02857 -1.5656704 -1.7642682 3 3
-14.712004 -2.0807314 -1.8243842 3 4
-6.3795929 -0.87162739 -1.7252878 2 0
-7.3761916 -1.0038563 -1.718626 2 1
-8.8520536 -1.1984191 -1.736362 3 2
-11.039231 -1.488641 -1.7642682 3 3
-14.669117 -1.9703118 -1.8173158 4 4
-6.3721118 -0.82533115 -1.7216644 2 0
-7.3907509 -0.95333356 -1.7204256 2 1
-8.9342012 -1.1460811 -1.7508634 3 2
-11.049356 -1.4115336 -1.7642682 3 3
-14.639194 -1.8623394 -1.8119535 4 4
-6.3585429 -0.77847928 -1.716488 2 0
-7.377882 -0.89935517 -1.7159266 2 1
-8.8484335 -1.0723454 -1.7325459 3 2
-11.055017 -1.3338894 -1.7636423 3 3
-14.59665 -1.753467 -1.8051288 4 4
-54.16172 -6.4392161 -2.8584857 0 6
-6.3561463 -0.7331838 -1.7144175 2 0
-7.3801093 -0.84738308 -1.7150269 2 1
-8.9493313 -1.0212318 -1.7508634 3 2
-11.040506 -1.2540058 -1.7598881 2 3
-14.647987 -1.6559805 -1.8100036 4 4
-6.3611102 -0.68879169 -1.7144175 2 0
-7.40522 -0.79792732 -1.7195259 2 1
-8.9211054 -0.95496529 -1.7439942 3 2
-11.064706 -1.1785691 -1.762391 2 3
-14.637478 -1.5513766 -1.8073225 3 4
-6.3715291 -0.64494956 -1.7159703 3 0
-7.3873429 -0.74386674 -1.7141271 3 1
-8.9353695 -0.89344442 -1.7455208 3 2
-11.021558 -1.0962137 -1.7542564 2 3
-14.655852 -1.449935 -1.8082974 3 4
-6.3797235 -0.60081452 -1.7170056 3 0
-7.4078779 -0.6937288 -1.7177262 3 1
-8.8710146 -0.82450122 -1.7317824 3 2
-11.044677 -1.0206962 -1.7567593 1 3
-14.653757 -1.3464928 -1.8068351 3 4
-6.3933854 -0.55710101 -1.7195939 2 0
-7.4086576 -0.6416589 -1.7168264 3 1
-8.9351025 -0.76915026 -1.7432311 3 2
-11.047433 -0.94515693 -1.7561336 2 3
-14.674667 -1.2451644 -1.8082974 3 4
-6.3874011 -0.51279509 -1.7170056 3 0
-7.3856578 -0.58904582 -1.7105279 3 1
-8.8697968 -0.70118499 -1.7294928 3 2
-11.061639 -0.86862946 -1.7573849 2 3
-14.684783 -1.1454059 -1.8085413 2 4
-6.4081655 -0.46946201 -1.7216644 2 0
-7.3973646 -0.53803706 -1.7123275 3 1
-8.9097233 -0.64178401 -1.736362 3 2
-11.067434 -0.79138082 -1.7573849 2 3
-14.646879 -1.0396228 -1.8029352 2 4
-6.4035764 -0.4242039 -1.7195939 2 0
-7.4009404 -0.4863824 -1.7123275 4 1
-8.8787222 -0.57727391 -1.7294928 3 2
-11.052976 -0.71282768 -1.7542564 2 3
-14.665667 -0.93810683 -1.8043977 2 4
-6.3928819 -0.37868696 -1.7159703 3 0
-7.4022098 -0.4345862 -1.7118775 3 1
-8.9138956 -0.51709604 -1.7355988 3 2
-11.093182 -0.63768923 -1.7598881 2 3
-14.652039 -0.83456945 -1.8019602 2 4
-6.3991704 -0.3353669 -1.7170056 3 0
-7.3894277 -0.38338479 -1.7082783 3 1
-8.8858376 -0.45480323 -1.7294928 3 2
-11.065699 -0.56056631 -1.754882 2 3
-14.673241 -0.73561525 -1.8039103 2 4
-6.3878465 -0.29007065 -1.7133821 2 0
-7.4113917 -0.33266133 -1.7127774 3 1
-8.8534241 -0.39274257 -1.7226238 3 2
-11.085047 -0.48592347 -1.7573849 3 3
-14.680003 -0.63324094 -1.8041539 2 4
-6.3529949 -0.24516922 -1.703547 3 0
-7.3979058 -0.28161451 -1.7091781 3 1
-8.8951874 -0.33239067 -1.7302561 3 2
-11.088169 -0.40852338 -1.7573849 2 3
-14.646281 -0.531937 -1.7995229 3 4
-6.3545513 -0.20080946 -1.703547 3 0
-7.3919001 -0.22971664 -1.7073785 3 1
-8.9051399 -0.27052087 -1.7317824 3 2
-11.047312 -0.3298066 -1.7505019 2 3
-14.659558 -0.42996469 -1.8007416 2 4
-6.363524 -0.15663311 -1.7056175 3 0
-7.3738422 -0.17763829 -1.7028794 3 1
-8.8597078 -0.20724493 -1.7226238 3 2
-11.076992 -0.25330603 -1.754882 2 3
-14.634419 -0.3269904 -1.7973293 2 4
-6.3760514 -0.11240935 -1.7087234 3 0
-7.3807483 -0.12625484 -1.7042291 3 1
-8.872716 -0.14558071 -1.7249134 3 2
-11.078491 -0.17597052 -1.754882 2 3
-14.600617 -0.22426963 -1.7929419 2 4
-6.3728175 -0.067850731 -1.7076882 3 0
-7.3795009 -0.074704699 -1.7037793 3 1
-8.8735161 -0.083633915 -1.7249134 3 2
-11.051796 -0.098377623 -1.7505019 2 3
-14.617707 -0.12246568 -1.7948918 2 4
-6.3712039 -0.02335286 -1.7071705 2 0
-7.3856888 -0.023204379 -1.705129 4 1
-8.8621006 -0.02320303 -1.7226238 3 2
-11.052209 -0.023150636 -1.7505019 3 3
-14.582474 -0.020361962 -1.7905045 2 4
-6.3828068 0.020051593 -1.7102764 2 0
-7.3876243 0.02707619 -1.7055789 3 1
-8.9052372 0.038857233 -1.7310193 3 2
-11.060003 0.054050144 -1.7517534 3 3
-14.58029 0.078887723 -1.7902608 3 4
-6.3825111 0.064611495 -1.7102764 2 0
-7.3814092 0.078588635 -1.7042291 3 1
-8.8537073 0.10044538 -1.7210972 3 2
-11.055405 0.13121268 -1.7511276 3 3
-14.583354 0.18072113 -1.7907482 3 4
-6.3992887 0.10946561 -1.7149351 2 0
-7.3845778 0.13018738 -1.705129 3 1
-8.8606434 0.16239737 -1.7226238 3 2
-11.05422 0.20839339 -1.7511276 3 3
-14.569829 0.28230047 -1.7892859 3 4
-6.4002995 0.1541834 -1.7154527 2 0
-7.3873858 0.18183242 -1.7060288 3 1
-8.9221363 0.22428496 -1.7348354 3 2
-11.09204 0.28464329 -1.7573849 2 3
-14.615128 0.38526213 -1.7951355 3 4
-6.3701382 0.19685034 -1.7076882 2 0
-7.382081 0.23199198 -1.705129 3 1
-8.8928814 0.28568313 -1.7294928 3 2
-11.042398 0.36052632 -1.7498761 2 3
-14.596295 0.48420891 -1.7931857 3 4
-6.3879132 0.24204898 -1.7128645 2 0
-7.4036493 0.28441891 -1.7105279 1 1
-8.8435888 0.34591857 -1.7203341 3 2
-11.059351 0.43838778 -1.7530048 2 3
-14.586609 0.58585948 -1.7924545 2 4
-6.4053669 0.28750384 -1.7180409 1 0
-7.4326305 0.33751181 -1.7177262 2 1
-8.8841038 0.40963942 -1.7287296 3 2
-11.063914 0.51595408 -1.7542564 2 3
-14.568283 0.68702084 -1.7907482 2 4
-6.3800526 0.33101511 -1.7118292 2 0
-7.4067407 0.38817105 -1.7123275 2 1
-8.8810263 0.47165218 -1.7287296 3 2
-11.032427 0.59170103 -1.7498761 2 3
-14.559167 0.78849518 -1.7902608 2 4
-6.3853002 0.37600091 -1.7138997 2 0
-7.396069 0.43940634 -1.7105279 2 1
-8.8775177 0.53364193 -1.7287296 3 2
-11.031971 0.66894662 -1.7505019 2 3
-14.583028 0.89193588 -1.7939168 2 4
-6.3709536 0.41980591 -1.710794 2 0
-7.400599 0.49154827 -1.7123275 2 1
-8.9127541 0.59823316 -1.736362 3 2
-11.02309 0.74567866 -1.7498761 2 3
-14.612096 0.99614978 -1.7983042 2 4
-6.3678675 0.46427482 -1.710794 2 0
-7.4047608 0.54377139 -1.7141271 3 1
-8.8848648 0.65869951 -1.7317824 3 2
-11.045195 0.82467532 -1.7542564 2 3
-14.563215 1.095015 -1.7931857 2 4
-41.133453 3.1433837 -2.1619985 0 6
-6.3798766 0.50994945 -1.7149351 2 0
-7.3735905 0.59326327 -1.7078284 3 1
-8.8801756 0.71915966 -1.7317824 3 2
-11.055076 0.90111983 -1.7567593 2 3
-14.555216 1.1966552 -1.7931857 2 4
-6.3801069 0.55369824 -1.7159703 2 0
-7.3732638 0.6437791 -1.7087282 3 1
-8.886673 0.78217232 -1.7340722 3 2
-11.056386 0.97897643 -1.7580107 2 3
-14.570461 1.2978153 -1.7961105 2 4
-6.3568521 0.59642172 -1.710794 2 0
-7.3802304 0.69633681 -1.7114276 3 1
-8.8614511 0.84233403 -1.7302561 3 2
-11.065013 1.0576416 -1.7605137 2 3
-14.59859 1.4031098 -1.8007416 2 4
-6.3775206 0.64330685 -1.7175232 2 0
-7.3829441 0.74862993 -1.7132272 3 1
-8.8436356 0.90298361 -1.7279664 3 2
-11.029849 1.1320434 -1.7561336 2 3
-14.586463 1.5047927 -1.8004979 3 4
-21.515621 2.2348053 -1.8924997 35 5
-6.3690333 0.68739861 -1.716488 2 0
-7.3775377 0.80015439 -1.7132272 2 1
-8.8566332 0.96683025 -1.7317824 3 2
-11.029531 1.2098776 -1.7573849 2 3
-14.587441 1.6078901 -1.8019602 3 4
-6.3525634 0.73052186 -1.7133821 2 0
-7.3795156 0.85253268 -1.7150269 3 1
-8.8418674 1.0277289 -1.7302561 3 2
-11.040437 1.2891371 -1.7605137 3 3
-14.558116 1.7076091 -1.7997667 4 4
-6.3607321 0.77649194 -1.7170056 2 0
-7.3463044 0.9007104 -1.7087282 3 1
-8.814991 1.0870309 -1.7264398 3 2
-11.035089 1.3666707 -1.7611394 3 3
-14.53993 1.8084673 -1.7990354 13 4
-6.3570719 0.8211267 -1.7175232 2 0
-7.3668933 0.95548451 -1.7150269 2 1
-8.7955074 1.1470195 -1.7241502 3 2
-11.029196 1.444187 -1.7617651 3 3
-14.523014 1.90941 -1.7985479 19 4
-6.3588419 0.86652935 -1.7195939 2 0
-7.3561816 1.0063635 -1.7141271 2 1
-8.8108358 1.2100675 -1.7287296 3 2
-11.015197 1.5186877 -1.7611394 4 3
-14.587982 2.0216529 -1.8082974 3 4
-6.370007 0.91225749 -1.7242525 3 0
-7.3356586 1.0544695 -1.7109778 3 1
-8.8080025 1.2723913 -1.7298744 4 2
-11.004326 1.5955511 -1.7611394 4 3
-14.547976 2.1197264 -1.8051288 4 4
-6.3270197 0.95235348 -1.7144175 2 0
-7.3202176 1.1057711 -1.7091781 3 1
-8.8047285 1.3347325 -1.7310193 3 2
-10.969193 1.6706836 -1.7573849 29 3
-14.548522 2.2236383 -1.8070788 4 4
-6.3278499 0.99770474 -1.716488 2 0
-7.3508158 1.1629392 -1.7181761 3 1
-8.767808 1.3933896 -1.7256767 3 2
-10.974819 1.7500219 -1.7602009 17 3
-14.536565 2.3257756 -1.8075663 4 4
-40.159435 6.4756298 -2.1318531 0 6
-6.3264489 1.0427997 -1.7180409 2 0
-7.3021421 1.2075523 -1.7087282 4 1
-46.149681 7.640029 2.4515212 0 9
-8.7736139 1.4556086 -1.7287296 3 2
-46.055416 7.6574588 4.084641 1 10
-10.995777 1.8301982 -1.7655195 4 3
-45.9963 7.6723909 5.725666 1 11
-14.543468 2.4311309 -1.8104911 4 4
-45.907459 7.6822786 7.3721318 1 12
-45.86047 7.7073188 9.0393858 2 13
-6.3230119 1.0864927 -1.7190762 3 0
-7.2937536 1.2572286 -1.7087282 4 1
-8.7516308 1.5148132 -1.7264398 3 2
-10.973002 1.9052265 -1.7639554 4 3
-14.739751 2.5671923 -1.8370585 6 4
-39.141739 6.8665252 -2.0826573 0 6
-6.3076663 1.1292459 -1.7170056 3 0
-7.2771273 1.3067385 -1.7069286 5 1
-8.7582312 1.5790114 -1.7298744 27 2
-10.994422 1.9881158 -1.7695868 5 3
-14.869914 2.6969597 -1.8555828 7 4
-38.613449 7.0520654 -2.0571175 0 6
-6.2958302 1.1725466 -1.7159703 3 0
-7.3042235 1.3643088 -1.7154768 6 1
-8.7605028 1.6426477 -1.7325459 4 2
-10.988041 2.0662804 -1.7708384 4 3
-14.753187 2.7823074 -1.8433958 7 4
-38.492638 7.3080544 -2.053349 1 6
-6.291285 1.2172053 -1.7170056 3 0
-7.2906947 1.4145262 -1.714577 6 1
-8.7375555 1.6999909 -1.7302561 3 2
-10.962089 2.1387563 -1.7689612 4 3
-14.618465 2.8627317 -1.8290153 9 4
-38.344017 7.5506024 -2.0481155 1 6
-6.301795 1.2637976 -1.722182 3 0
-7.2598825 1.4598922 -1.709628 11 1
-8.7620401 1.7683264 -1.7375069 4 2
-10.999165 2.2258127 -1.7774086 7 3
-14.550006 2.9522984 -1.8229219 7 4
-37.949879 7.748579 -2.0299027 1 6
-6.2890358 1.3069755 -1.7211467 3 0
-8.745636 1.8286521 -1.7367436 4 2
-11.014292 2.309032 -1.7824146 6 3
-14.525155 3.0529878 -1.8224343 7 4
-37.355534 7.8992929 -2.001013 2 6
-6.2608714 1.3467866 -1.7159703 3 0
-7.2464108 1.5627577 -1.7114276 34 1
-8.7134695 1.8855095 -1.7329274 4 2
-11.10408 2.408901 -1.7996223 8 3
-14.513186 3.156424 -1.823653 9 4
-36.444893 7.9729271 -1.9551668 3 6
-29.048185 6.3813405 7.9690385 4 15
-6.2550883 1.3913019 -1.7170056 4 0
-7.2771688 1.6226395 -1.7213255 6 1
-8.7192526 1.9505811 -1.7367436 4 2
-11.102412 2.4898212 -1.8021252 8 3
-14.448189 3.2480896 -1.8182908 9 4
-34.387653 7.7748146 -1.8476688 11 6
-6.2339258 1.4323411 -1.7138997 22 0
-7.2409763 1.6677183 -1.7154768 7 1
-8.6939449 2.0087535 -1.7344538 4 2
-11.088608 2.5681615 -1.8027509 8 3
-14.42516 3.3488779 -1.8182908 9 4
-6.2237744 1.4758258 -1.7138997 37 0
-7.2329493 1.7191287 -1.7163765 7 1
-8.6701622 2.0671213 -1.7325459 3 2
-11.037747 2.637707 -1.7974323 9 3
-14.438109 3.4582884 -1.8229219 7 4
-32.122349 7.7356124 -1.7315876 16 6
-6.2189493 1.5206164 -1.7154527 10 0
-7.2169852 1.7686546 -1.7154768 6 1
-8.6860228 2.135098 -1.7386516 4 2
-10.948096 2.6972144 -1.785856 8 3
-14.429031 3.562808 -1.8248718 7 4
-30.861855 7.6604047 -1.6664816 9 6
-6.2100549 1.5644677 -1.7159703 4 0
-7.2195773 1.8228118 -1.7190759 7 1
-8.7032595 2.2038789 -1.7451392 4 2
-10.892621 2.7643485 -1.7799115 7 3
-14.423045 3.6683445 -1.827309 7 4
-29.749161 7.6050887 -1.6092261 22 6
-6.1989818 1.6077825 -1.7159703 4 0
-7.1915879 1.8692461 -1.7154768 7 1
-8.8586416 2.309154 -1.7794847 9 2
-10.863502 2.8378296 -1.7783473 8 3
-14.385562 3.7659304 -1.8258467 7 4
-28.797184 7.5762863 -1.5605537 12 6
-6.19134 1.6520181 -1.7170056 4 0
-7.1745968 1.9184023 -1.714577 6 1
-8.8271351 2.366873 -1.7764318 7 2
-10.856779 2.9171901 -1.7805374 9 3
-14.37042 3.8693657 -1.827309 7 4
-21.268215 5.7425857 -1.927362 34 5
-27.527061 7.447989 -1.4945058 46 6
-6.172204 1.6931558 -1.7149351 4 0
-7.1910944 1.976706 -1.7217753 7 1
-8.7574015 2.4138334 -1.7657466 7 2
-10.834243 2.9923875 -1.7802243 8 3
-14.350711 3.9717135 -1.828284 7 4
-6.1527958 1.7341069 -1.7128645 4 0
-7.1696181 2.0247412 -1.7199757 7 1
-8.7422247 2.4754474 -1.7661282 6 2
-10.809289 3.0668709 -1.7795987 8 3
-14.370371 4.085371 -1.8343775 9 4
-6.1519837 1.7791677 -1.7159703 4 0
-7.1444392 2.0702422 -1.7172763 7 1
-8.7119751 2.5310626 -1.7634568 7 2
-10.79575 3.142585 -1.7808502 8 3
-14.367002 4.1903186 -1.8375461 7 4
-20.884293 6.106997 -1.9036556 35 5
-6.1579328 1.8275712 -1.7211467 4 0
-7.16717 2.1311793 -1.7262744 7 1
-8.6940937 2.5918198 -1.7634568 7 2
-10.74137 3.2082636 -1.7755314 9 3
-14.331694 4.288806 -1.8368149 9 4
-31.404932 9.4398537 -1.7186083 8 6
-6.1487207 1.8716408 -1.722182 4 0
-7.2900529 2.2232277 -1.7595671 8 1
-8.675787 2.6524549 -1.7634568 7 2
-10.692268 3.2750778 -1.7711512 9 3
-14.364027 4.4079771 -1.8448583 7 4
-30.620613 9.4376745 -1.6792517 19 6
-6.1244397 1.9110687 -1.7190762 4 0
-7.3003936 2.2822082 -1.7658658 9 1
-8.6462898 2.7079248 -1.7611672 9 2
-10.692346 3.354876 -1.7749057 9 3
-14.399182 4.5289927 -1.8533891 9 4
-20.251287 6.3813157 -1.8576375 36 5
-22.948648 7.2444835 -1.261192 42 6
-6.1149697 1.9538882 -1.7201115 4 0
-7.2438583 2.3187773 -1.7559679 9 1
-8.6683006 2.7814176 -1.7695627 7 2
-10.666783 3.4288359 -1.7745929 8 3
-14.435231 4.6513281 -1.8621637 9 4
-6.1118479 2.0012014 -1.7232174 5 0
-7.2030091 2.3626566 -1.7501192 10 1
-8.6132345 2.8302219 -1.7623119 6 2
-10.675746 3.5162015 -1.7802243 8 3
-14.376016 4.7432804 -1.8587514 9 4
-19.592695 6.4758687 -1.805344 37 5
-6.079411 2.0376821 -1.7180409 4 0
-7.1530862 2.4017205 -1.742021 12 1
-8.6039248 2.895539 -1.7646016 6 2
-10.68276 3.6013718 -1.7855432 9 3
-14.28613 4.824471 -1.8514392 9 4
-21.126038 7.1630983 -1.1690807 10 6
-6.1198578 2.098876 -1.7335701 4 0
-7.1269293 2.4484339 -1.7397714 13 1
-8.571022 2.9495654 -1.7619303 7 2
-10.66547 3.676579 -1.7867948 9 3
-14.272738 4.9312234 -1.8541204 7 4
-18.939285 6.5546141 -1.7533991 38 5
-20.63899 7.1549602 -1.1447968 30 6
-6.1637678 2.1609352 -1.7501343 7 0
-7.1027446 2.4943044 -1.7379718 12 1
-8.531703 3.0028126 -1.7581142 7 2
-10.613461 3.7417531 -1.7824146 9 3
-14.225741 5.0236306 -1.8524141 9 4
-20.095329 7.1240206 -1.1173728 29 6
-6.1630797 2.20913 -1.7542756 7 0
-7.0851569 2.5438316 -1.7379718 13 1
-32.75845 11.774387 1.824327 4 9
-8.5179205 3.0649605 -1.7596406 7 2
-10.590796 3.8170972 -1.7830403 9 3
-14.154847 5.1100154 -1.8477831 7 4
-19.618855 7.1096706 -1.0936123 19 6
-6.158391 2.2560883 -1.7573814 7 0
-7.0672255 2.5932317 -1.7379718 10 1
-8.4944735 3.1236746 -1.759259 6 2
-10.565743 3.8916249 -1.7833531 8 3
-14.061093 5.1874108 -1.8402272 9 4
-18.287004 6.7573118 -1.7056379 37 5
-19.117357 7.0793109 -1.0683863 28 6
-6.1388721 2.2976711 -1.7563461 9 0
-7.0452995 2.6411409 -1.7370721 11 1
-8.4711752 3.1807325 -1.7588774 7 2
-10.520519 3.9564998 -1.7802243 8 3
-13.974382 5.2665448 -1.8336463 11 4
-18.19092 6.8665156 -1.7011058 37 5
-18.426067 6.966301 -1.0323793 47 6
-6.1050444 2.332509 -1.7511697 9 0
-7.0380793 2.6932125 -1.7397714 11 1
-8.4194355 3.2285464 -1.7527716 9 2
-10.523991 4.0418882 -1.7855432 9 3
-14.016026 5.3914766 -1.8438834 11 4
-18.19066 7.02284 -1.021912 28 6
-6.0634146 2.3652461 -1.7439228 7 0
-7.0227356 2.7437003 -1.7406713 11 1
-8.4113169 3.2929702 -1.7558244 9 2
