# .PCD v0.7 - Point Cloud Data file format
VERSION 0.7
FIELDS x y z intensity ring
SIZE 4 4 4 4 2
TYPE F F F F U
COUNT 1 1 1 1 1
WIDTH 1299
HEIGHT 1
VIEWPOINT 0 0 0 1 0 0 0
POINTS 1299
DATA ascii
-8.4276934 -8.890254 -1.5041116 31 4
-8.2727079 -8.717617 -1.0514468 15 5
-8.430933 -8.875041 -0.64153421 17 6
-8.7065353 -9.1523561 -0.2204937 17 7
-4.8488865 -5.0687542 -1.879544 3 0
-5.9546895 -6.2181792 -1.9876676 5 1
-7.8908606 -8.2285118 -2.2160556 15 2
-8.3337955 -8.6812963 -1.9059978 18 3
-8.4274912 -8.7697039 -1.4933871 18 4
-8.2781067 -8.6022253 -1.0444744 15 5
-8.2640553 -8.5786295 -0.62426335 17 6
-8.6381502 -8.9575748 -0.21721266 16 7
-4.8733921 -5.0236869 -1.8754028 3 0
-5.9694476 -6.1470962 -1.9782196 7 1
-8.0849838 -8.3139725 -2.2542176 18 2
-8.2977438 -8.5238256 -1.884097 18 3
-8.3139448 -8.5315256 -1.462676 14 4
-8.282299 -8.4871874 -1.0375019 14 5
-8.8094349 -9.0179129 -0.66068918 35 6
-8.6836967 -8.8798933 -0.21679381 16 7
-4.911056 -4.9922953 -1.8764381 3 0
-5.9876032 -6.0802794 -1.9701214 7 1
-8.1772919 -8.2922735 -2.2637579 12 2
-8.4625177 -8.5725279 -1.9078751 18 3
-8.5491142 -8.6511822 -1.4933871 19 4
-8.6061029 -8.6997366 -1.0706211 15 5
-8.8356285 -8.919301 -0.65796769 17 6
-4.9362373 -4.9483151 -1.8728148 2 0
-6.0161347 -6.0245428 -1.9656224 7 1
-7.9850941 -7.9878855 -2.1954484 18 2
-8.199297 -8.1935749 -1.8359152 10 3
-8.6064911 -8.5884857 -1.4928997 19 4
-8.6496944 -8.6225653 -1.0685294 15 5
-9.4126949 -9.3733521 -0.69617295 26 6
-9.3201294 -9.2682199 -0.22942933 19 7
-4.9546957 -4.8996587 -1.8671206 3 0
-6.0459118 -5.972496 -1.962023 7 1
-8.2223616 -8.1111794 -2.2450588 19 2
-8.6249332 -8.499402 -1.9178867 14 3
-8.8345098 -8.6968164 -1.5221483 16 4
-9.4610977 -9.3038893 -1.1609144 19 5
-8.9107428 -8.7504463 -0.65451354 17 6
-4.9970794 -4.8730412 -1.8702265 3 0
-6.0707097 -5.9138241 -1.9566242 7 1
-8.2267275 -8.0057344 -2.2313204 22 2
-9.0097761 -8.7585678 -1.9901596 24 3
-8.8252153 -8.5671778 -1.510205 24 4
-9.6831512 -9.3901873 -1.1800888 20 5
-10.140671 -9.8235617 -0.7399258 17 6
-5.0226231 -4.8300023 -1.8671206 3 0
-6.100605 -5.860498 -1.953025 7 1
-8.300807 -7.9629693 -2.2358999 15 2
-8.7826967 -8.4164219 -1.9266472 16 3
-9.0095654 -8.6247835 -1.5314103 19 4
-9.4130926 -8.9984932 -1.1392999 18 5
-10.060483 -9.6072931 -0.72903991 17 6
-5.0365953 -4.7762094 -1.8598738 3 0
-6.1187348 -5.7963223 -1.9458266 7 1
-8.3975573 -7.9439521 -2.2469668 10 2
-9.0106573 -8.5149994 -1.9635657 19 3
-8.9309807 -8.4308586 -1.5080113 15 4
-10.432534 -9.8345585 -1.2543454 22 5
-10.131674 -9.5409298 -0.72935396 17 6
-5.0867481 -4.7567658 -1.8660854 3 0
-6.1248732 -5.721539 -1.9350289 8 1
-8.4642944 -7.8958468 -2.2500198 12 2
-9.1883869 -8.562314 -1.9892209 17 3
-9.200304 -8.5644245 -1.5433534 7 4
-9.7930584 -9.1066446 -1.1699786 19 5
-10.745401 -9.9782572 -0.76850128 17 6
-5.0772266 -4.68185 -1.8505563 2 0
-6.1331344 -5.6495929 -1.9251312 15 1
-8.4658356 -7.7901921 -2.2362814 10 2
-8.8188906 -8.1065445 -1.8972374 16 3
-8.9922533 -8.2543287 -1.4987493 13 4
-9.6948633 -8.8899326 -1.1508044 18 5
-11.008951 -10.084311 -0.7824226 26 6
-5.1104054 -4.6484828 -1.8510739 2 0
-8.4487724 -7.666256 -2.2175822 10 2
-8.8664856 -8.0368204 -1.8953601 14 3
-9.2351084 -8.3621464 -1.5297042 16 4
-9.7167311 -8.7889881 -1.1462723 18 5
-11.562265 -10.443644 -0.81654567 26 6
-5.1182866 -4.5907631 -1.8422741 2 0
-6.2148008 -5.5683947 -1.9264808 33 1
-8.5066099 -7.6138053 -2.2191086 9 2
-9.2744102 -8.2922802 -1.9704487 18 3
-9.6057034 -8.5764322 -1.581133 11 4
-10.824633 -9.6545649 -1.2689875 23 5
-11.646506 -10.376657 -0.81748772 17 6
-5.139287 -4.5468578 -1.8386506 2 0
-12.780684 -11.299439 0.29777294 27 8
-6.2437978 -5.5182219 -1.9237814 7 1
-8.4638777 -7.4697943 -2.1943038 10 2
-9.5721169 -8.4389601 -2.0211337 17 3
-9.4552937 -8.3271723 -1.5470096 3 4
-10.263396 -9.0261402 -1.1957767 20 5
-11.45008 -10.059142 -0.79875147 26 6
-5.1840062 -4.5222974 -1.8433093 3 0
-12.753739 -11.117961 0.29532963 27 8
-6.2660093 -5.4604139 -1.9188325 6 1
-8.4121504 -7.3203058 -2.1675904 10 2
-9.8872242 -8.5948315 -2.0749471 12 3
-10.313587 -8.955987 -1.6771661 12 4
-11.048689 -9.5808096 -1.2794462 23 5
-11.209039 -9.7095795 -0.77718902 17 6
-5.1890888 -4.4633207 -1.8339919 3 0
-6.2803278 -5.3962159 -1.911634 6 1
-8.3349123 -7.1514583 -2.1347711 10 2
-10.021976 -8.5898743 -2.0905905 19 3
-10.286892 -8.8075962 -1.6627855 16 4
-10.950124 -9.3655205 -1.2606206 23 5
-10.950028 -9.3522072 -0.75468457 17 6
-5.2245426 -4.4307337 -1.8355448 2 0
-13.131564 -11.132442 0.30049554 27 8
-6.3089261 -5.3446813 -1.9089346 7 1
-8.2440243 -6.9766111 -2.0992808 10 2
-10.131505 -8.5648184 -2.101228 17 3
-10.358747 -8.7445297 -1.6644917 16 4
-11.094442 -9.3556347 -1.2696848 23 5
-11.383092 -9.5888481 -0.78001517 17 6
-11.466417 -9.6453676 -0.26154178 25 7
-5.2353158 -4.3789573 -1.8288155 3 0
-6.3451586 -5.3016152 -1.9089346 7 1
-8.2262001 -6.8635459 -2.0824895 10 2
-10.892104 -9.0781803 -2.2457736 11 3
-10.421082 -8.6763573 -1.6649791 14 4
-11.021601 -9.1633158 -1.2539967 22 5
-11.806216 -9.805192 -0.80429906 17 6
-11.808826 -9.7969189 -0.26782462 26 7
-5.2612863 -4.3386149 -1.8272625 2 0
-6.3549438 -5.2348852 -1.9008365 7 1
-8.1981049 -6.7435913 -2.0634086 10 2
-10.921638 -8.974329 -2.2388902 15 3
-10.361715 -8.5051565 -1.6459675 15 4
-11.356505 -9.3084393 -1.2846756 23 5
-11.851201 -9.7035513 -0.80272895 26 6
-11.607603 -9.4939499 -0.2617512 25 7
-5.2959452 -4.3054328 -1.8288155 3 0
-6.3641047 -5.1682801 -1.8927382 6 1
-8.2266865 -6.6713548 -2.0588293 10 2
-11.042351 -8.9451132 -2.2507794 16 3
-11.153835 -9.0257511 -1.7617433 21 4
-11.560686 -9.341629 -1.3003637 24 5
-11.638912 -9.3947716 -0.78388804 8 6
-5.3228583 -4.2659402 -1.8277801 3 0
-6.4000292 -5.1237259 -1.8927382 6 1
-8.2485247 -6.5941443 -2.0527232 9 2
-11.015002 -8.7963104 -2.2326329 16 3
-11.336063 -9.042984 -1.7805113 14 4
-11.391859 -9.0744886 -1.2742169 23 5
-11.780794 -9.3742275 -0.78901696 17 6
-5.3403845 -4.2190943 -1.8236392 3 0
-12.215652 -9.6438808 0.27166417 24 8
-6.418818 -5.065639 -1.8877892 5 1
-8.2388468 -6.4926543 -2.038985 10 2
-11.041995 -8.692318 -2.2257497 15 3
-11.160173 -8.7758846 -1.7432193 20 4
-11.476872 -9.0119648 -1.2766573 35 5
-11.377645 -8.9244223 -0.75782472 17 6
-5.3392248 -4.1579704 -1.8132863 4 0
-12.866594 -10.012766 0.28457895 25 8
-6.4263382 -4.999167 -1.8796909 4 1
-8.2653685 -6.4205232 -2.0344057 9 2
-11.230385 -8.7143183 -2.2514052 18 3
-11.180375 -8.6661377 -1.7368821 20 4
-11.202333 -8.6706467 -1.2393546 22 5
-11.284825 -8.7250509 -0.74756688 35 6
-5.3773155 -4.1276526 -1.8163921 3 0
-6.4641762 -4.9565535 -1.8805909 5 1
-8.3006372 -6.3555045 -2.0321159 7 2
-11.008515 -8.419692 -2.1950886 17 3
-11.393611 -8.7047758 -1.7605247 16 4
-11.46852 -8.7493296 -1.2620151 23 5
-11.747368 -8.9523363 -0.77404886 26 6
-12.367834 -9.4149446 -0.2713151 27 7
-5.396759 -4.0830169 -1.8132863 3 0
-13.368832 -10.1071 0.29253724 26 8
-6.4830742 -4.8995538 -1.8760917 5 1
-8.3604736 -6.3092279 -2.0359321 9 2
-11.126968 -8.3878193 -2.2069776 13 3
-11.303457 -8.5115786 -1.7373695 20 4
-11.503842 -8.6498966 -1.2592262 23 5
-12.061899 -9.0596256 -0.79058707 17 6
-12.215723 -9.1651621 -0.26656806 26 7
-5.4313259 -4.0498614 -1.8153569 3 0
-12.961215 -9.6574764 0.28213561 25 8
-6.4921155 -4.8355508 -1.8688934 4 1
-8.3743877 -6.2284446 -2.0286815 6 2
-11.175742 -8.302865 -2.2051005 16 3
-11.294056 -8.3815918 -1.7268888 18 4
-11.379989 -8.4361286 -1.2393546 22 5
-12.148932 -8.993022 -0.79215711 17 6
-12.224744 -9.0392303 -0.26538128 25 7
-5.4563541 -4.0095558 -1.8143215 4 0
-13.229715 -9.718194 0.28653362 26 8
-6.5257163 -4.7901082 -1.8688934 5 1
-8.3057613 -6.0900345 -2.0019681 3 2
-11.496543 -8.4203606 -2.2570367 17 3
-11.268973 -8.2416067 -1.7142143 19 4
-11.438605 -8.3564787 -1.2393546 22 5
-12.340545 -9.0054855 -0.80063552 26 6
-12.077451 -8.8005733 -0.26084366 25 7
-5.449101 -3.9473906 -1.8029336 4 0
-13.174129 -9.5364838 0.28388086 25 8
-6.5329089 -4.7273002 -1.8616948 4 1
-8.300334 -5.9974084 -1.9905195 4 2
-11.593489 -8.3676434 -2.2645457 17 3
-11.32159 -8.1623878 -1.7137268 16 4
-12.111116 -8.7187557 -1.305593 24 5
-12.130699 -8.7232132 -0.78305066 26 6
-5.498539 -3.9249661 -1.8101805 4 0
-6.5689259 -4.6838398 -1.8625948 5 1
-8.3452005 -5.9415927 -1.9912828 4 2
-11.429473 -8.1285105 -2.2213697 17 3
-11.585442 -8.2303038 -1.7449254 19 4
-12.051434 -8.5486917 -1.292694 24 5
-12.069077 -8.551712 -0.77520025 17 6
-5.522645 -3.8842616 -1.8091452 4 0
-6.5727634 -4.6177015 -1.8544965 2 1
-8.3414745 -5.8516183 -1.9805974 4 2
-11.929203 -8.3591251 -2.3070958 10 3
-11.684902 -8.1788187 -1.7512627 18 4
-12.401509 -8.6675091 -1.3237214 25 5
-12.6509 -8.831955 -0.80859059 17 6
-5.5369248 -3.8368094 -1.8050041 4 0
-15.36682 -10.640489 0.32625529 30 8
-6.6048398 -4.5717039 -1.8544965 2 1
-8.3578959 -5.7764997 -1.9748732 4 2
-11.766185 -8.1230135 -2.2645457 13 3
-12.231975 -8.4351234 -1.8243842 19 4
-12.556893 -8.6462574 -1.3338314 25 5
-12.402876 -8.5306368 -0.78891224 26 6
-5.5635757 -3.7980609 -1.8050041 4 0
-6.6172748 -4.5123072 -1.8490976 2 1
-8.3542042 -5.6881762 -1.9645696 4 2
-11.999015 -8.1606483 -2.2983353 17 3
-12.500746 -8.4923067 -1.8555828 18 4
-12.592375 -8.5449228 -1.3313911 25 5
-12.63574 -8.5614777 -0.7999028 17 6
-5.5867491 -3.7569709 -1.8039688 3 0
-6.6130266 -4.4420948 -1.8391999 2 1
-8.3372993 -5.5939884 -1.9515946 4 2
-12.261043 -8.2173538 -2.3377569 14 3
-12.53663 -8.3893757 -1.8521705 19 4
-12.396632 -8.2862968 -1.3045471 24 5
-12.695386 -8.4763765 -0.80000746 8 6
-5.6089721 -3.716722 -1.8029336 4 0
-6.6366096 -4.3926754 -1.8374002 3 1
-8.3515806 -5.519412 -1.9458703 27 2
-12.222492 -8.0684385 -2.3196106 14 3
-12.611466 -8.3125725 -1.8546078 16 4
-12.963396 -8.5348072 -1.3578864 26 5
-13.106359 -8.6190977 -0.82209331 17 6
-5.6451316 -3.6828244 -1.8060393 4 0
-6.6417508 -4.3280501 -1.8302019 3 1
-8.396492 -5.4652538 -1.9473966 28 2
-12.303106 -7.9958372 -2.3239908 13 3
-12.479379 -8.1011076 -1.8268216 16 4
-13.079503 -8.4809532 -1.363813 26 5
-13.212966 -8.5543966 -0.82491946 26 6
-5.6837077 -3.6516781 -1.8101805 3 0
-6.6685224 -4.2794724 -1.8293018 3 1
-8.4205074 -5.3954997 -1.9439622 4 2
-12.328677 -7.8905854 -2.3183591 14 3
-12.535631 -8.0137873 -1.8268216 13 4
-13.344781 -8.5081129 -0.82942033 17 6
-14.794165 -9.4212942 -0.30615014 32 7
-5.6992664 -3.6057138 -1.8070747 3 0
-6.6834087 -4.2234454 -1.8252529 3 1
-8.3939505 -5.2982373 -1.9294606 3 2
-12.368736 -7.7980533 -2.3158562 10 3
-12.932302 -8.1407557 -1.8763006 25 4
-13.913177 -8.7378778 -0.86103129 17 6
-5.7154799 -3.5617278 -1.8044864 2 0
-6.6954584 -4.1675577 -1.8207539 3 1
-8.4257326 -5.2363992 -1.9283159 4 2
-12.322174 -7.6490073 -2.2970841 14 3
-13.485114 -8.3611259 -1.9482036 20 4
-13.483179 -8.3501558 -1.3875195 27 5
-14.495354 -8.9629993 -0.89316547 17 6
-5.7369142 -3.5197172 -1.8034512 2 0
-6.7243915 -4.1207113 -1.8207539 6 1
-8.4176445 -5.1522775 -1.9183939 4 2
-12.296428 -7.5175591 -2.282692 10 3
-13.810865 -8.4301929 -1.9867141 18 4
-13.84735 -8.4425154 -1.4188955 28 5
-13.955567 -8.4984655 -0.85632104 17 6
-5.7640452 -3.4825854 -1.8044864 2 0
-6.7456093 -4.0708179 -1.8189542 6 1
-8.4416361 -5.0862951 -1.9157225 4 2
-11.871319 -7.1442952 -2.194463 13 3
-14.046575 -8.4433737 -2.0123067 13 4
-13.597028 -8.1634588 -1.3875195 27 5
-14.072801 -8.4357471 -0.85987979 17 6
-5.7882175 -3.44226 -1.8044864 2 0
-6.7671628 -4.0196452 -1.8171545 7 1
-8.4777508 -5.0297184 -1.9161041 4 2
-11.654565 -6.9062266 -2.1456554 13 3
-14.163265 -8.3794708 -2.0205939 22 4
-14.10309 -8.3339043 -1.4331889 29 5
-15.112021 -8.9194326 -0.91964751 18 6
-5.7948422 -3.3930211 -1.79931 2 0
-6.7809081 -3.9656203 -1.8135554 6 1
-8.4787493 -4.9506116 -1.9084717 4 2
-11.58646 -6.7570238 -2.1243804 12 3
-14.465265 -8.4257469 -2.0554485 15 4
-14.90968 -8.6602335 -0.9036327 27 6
-5.7983036 -3.3409078 -1.7930984 2 0
-6.8151855 -3.9220707 -1.8153551 7 1
-8.4986334 -4.8849568 -1.9054186 4 2
-11.436888 -6.5658813 -2.0887132 13 3
-14.379064 -8.2416391 -2.0349743 18 4
-15.131265 -8.6517353 -0.91347188 27 6
-5.8057857 -3.2927864 -1.7884396 2 0
-6.8383322 -3.8736708 -1.8144552 7 1
-8.4915152 -4.8023133 -1.8962599 4 2
-11.351729 -6.4120436 -2.0649352 12 3
-14.538567 -8.2020969 -2.0495987 20 4
-15.346221 -8.6330414 -0.92278761 18 6
-5.8286319 -3.2521741 -1.7884396 2 0
-6.848186 -3.8163495 -1.8099562 6 1
-8.5248346 -4.7429142 -1.8962599 4 2
-11.320244 -6.2904172 -2.0511689 13 3
-14.255279 -7.9115882 -2.001826 16 4
-15.026005 -8.3256254 -1.5029136 31 5
-16.578699 -9.1746035 -0.99302256 18 6
-5.8630486 -3.2179112 -1.7920631 2 0
-6.8814974 -3.7721961 -1.8117559 7 1
-8.5250168 -4.6653762 -1.8890091 3 2
-11.325748 -6.1903934 -2.0442858 16 3
-16.500818 -8.9927988 -1.6441058 35 5
-17.326496 -9.4310246 -1.0338446 19 6
-5.9295707 -3.2007599 -1.8055217 2 0
-6.8973722 -3.7185135 -1.8090565 7 1
-8.5262604 -4.5890007 -1.88214 3 2
-11.354769 -6.1036944 -2.0417829 11 3
-14.952006 -8.0272827 -2.0837224 15 4
-16.370029 -8.7738552 -1.6249317 35 5
-5.9005809 -3.1321127 -1.7899926 2 0
-6.9300508 -3.6739209 -1.810856 7 1
-8.5164471 -4.5073223 -1.8729813 3 2
-11.386627 -6.018733 -2.0399058 8 3
-15.267496 -8.0598555 -2.1197956 12 4
-17.604942 -9.2663374 -1.042637 19 6
-5.9360046 -3.0979934 -1.7941337 2 0
-6.9589877 -3.6272523 -1.8117559 7 1
-8.5469284 -4.4492502 -1.8729813 3 2
-11.287117 -5.8681931 -2.0148761 5 3
-16.312555 -8.4556284 -1.6075004 34 5
-5.9328933 -3.0451663 -1.7868867 2 0
-6.9731116 -3.574466 -1.8090565 7 1
-8.5533133 -4.3769517 -1.8676385 3 2
-11.275041 -5.7622824 -2.0054901 5 3
-16.46632 -8.4044962 -2.2699387 20 4
-16.344883 -8.3317289 -1.6050601 34 5
-5.9626307 -3.0080247 -1.789475 3 0
-7.0013752 -3.5274527 -1.8099562 7 1
-8.5478325 -4.300983 -1.8600061 3 2
-11.259284 -5.6579089 -1.9957911 6 3
-16.276184 -8.1647224 -2.235815 19 4
-17.026121 -8.5297642 -1.6660691 36 5
-5.9812365 -2.9665101 -1.7889572 2 0
-7.0112538 -3.4727943 -1.806357 6 1
-8.6022892 -4.2533827 -1.8653487 3 2
-11.261314 -5.5607967 -1.9892209 5 3
-16.253046 -8.0151138 -2.2250907 16 4
-24.238152 -11.916149 -1.4154785 11 6
-5.9931178 -2.9204512 -1.7863692 3 0
-7.019557 -3.4160869 -1.8023077 4 1
-8.5674734 -4.1638384 -1.8516105 3 2
-11.201162 -5.4365778 -1.9720131 9 3
-16.47296 -7.9810839 -2.2475147 23 4
-24.176632 -11.68224 -1.4072093 22 6
-6.0128589 -2.8795884 -1.7863692 3 0
-7.0426474 -3.3682272 -1.8023077 4 1
-8.5431824 -4.0785499 -1.8401619 3 2
-16.899706 -8.0462694 -2.2982123 19 4
-24.235952 -11.50289 -1.4059533 22 6
-6.0328145 -2.8375418 -1.7863692 3 0
-7.0518785 -3.3123519 -1.7987086 4 1
-8.5458622 -4.0086336 -1.8348193 3 2
-11.276844 -5.2824626 -1.972326 5 3
-17.385241 -8.1290464 -2.3564658 5 4
-24.246712 -11.306429 -1.4020804 11 6
-6.0660186 -2.8028941 -1.7905102 3 0
-7.0742617 -3.2642746 -1.7987086 3 1
-8.5825548 -3.952981 -1.8367275 4 2
-11.236279 -5.1681094 -1.9588726 4 3
-18.868864 -8.6667395 -2.5495067 13 4
-23.956409 -10.968101 -1.380832 22 6
-6.0819197 -2.7588828 -1.789475 3 0
-7.1039786 -3.2180254 -1.8005083 2 1
-8.5938435 -3.8856881 -1.833293 4 2
-11.237877 -5.0740972 -1.9529281 5 3
-18.282866 -8.2435112 -2.4624922 10 4
-23.717428 -10.67397 -2.2754622 26 5
-23.970459 -10.77275 -1.3772732 22 6
-6.0904436 -2.7116399 -1.7863692 3 0
-7.1262722 -3.1683505 -1.8005083 2 1
-8.62076 -3.825599 -1.833293 4 2
-11.24413 -4.9827166 -1.9479222 4 3
-18.23105 -8.0674782 -2.4478679 13 4
-23.743557 -10.47216 -1.3600023 22 6
-6.1056852 -2.6675091 -1.7853339 4 0
-7.1482167 -3.1185241 -1.8005083 2 1
-8.6598587 -3.7708058 -1.8359643 4 2
-11.258717 -4.8954291 -1.9444805 3 3
-18.044754 -7.8348508 -2.4154506 11 4
-23.966393 -10.371186 -1.3685853 22 6
-6.1348124 -2.6293845 -1.7884396 3 0
-7.1375656 -3.0547423 -1.79241 3 1
-8.6227818 -3.6832666 -1.8226075 3 2
-11.24901 -4.7981114 -1.9369718 3 3
-17.901764 -7.6246777 -2.3891268 11 4
-24.093369 -10.227029 -1.3717256 22 6
-6.1245251 -2.5745132 -1.7801574 4 0
-7.1766868 -3.0123806 -1.796909 3 1
-8.663949 -3.6313181 -1.8260422 4 2
-11.234032 -4.701602 -1.9288372 4 3
-17.793369 -7.4321814 -2.3676779 11 4
-23.820585 -9.9350672 -2.2580309 26 5
-24.184547 -10.072007 -1.3729815 22 6
-6.1454787 -2.5342395 -1.7811928 4 0
-7.2006283 -2.9649463 -1.7978089 2 1
-8.6672974 -3.5617886 -1.8214628 4 2
-11.270236 -4.6245589 -1.9294629 3 3
-17.672714 -7.2409039 -2.34501 12 4
-24.052723 -9.8206358 -1.3615724 22 6
-6.1486926 -2.4854825 -1.7770516 3 0
-7.2157307 -2.912416 -1.7964592 3 1
-8.6919527 -3.5011926 -1.8214628 4 2
-11.276588 -4.5354457 -1.9250828 3 3
-17.540468 -7.0441113 -2.3208799 11 4
-24.068781 -9.6316938 -1.3586415 22 6
-6.147934 -2.4353809 -1.7718753 4 0
-7.2304506 -2.8598197 -1.7951094 2 1
-8.7380972 -3.4490781 -1.8260422 4 2
-11.27857 -4.4450231 -1.9200768 3 3
-16.6693 -6.559495 -2.1994979 6 4
-23.652521 -9.2883759 -2.2231686 27 5
-24.187498 -9.4838476 -1.3615724 22 6
-6.1683888 -2.3937991 -1.7729106 4 0
-7.2284346 -2.8008227 -1.7897105 3 1
-8.7106915 -3.3681657 -1.815357 4 2
-11.254045 -4.3448324 -1.9106908 3 3
-16.110853 -6.2102036 -2.1200392 10 4
-24.07972 -9.2481661 -1.3518379 22 6
-6.1849508 -2.3506773 -1.7729106 4 0
-7.2478118 -2.7502906 -1.7897105 3 1
-8.7248125 -3.3037949 -1.8134488 3 2
-11.26193 -4.2577758 -1.9069364 3 3
-16.148245 -6.0954742 -2.1193082 12 4
-24.108181 -9.0664701 -1.3498491 22 6
-6.2084522 -2.310137 -1.774981 4 0
-7.2613549 -2.6975901 -1.7883608 3 1
-8.747098 -3.2443323 -1.8134488 3 2
-11.235075 -4.1604424 -1.8975502 3 3
-16.134544 -5.9619484 -2.1119957 8 4
-23.840319 -8.7951603 -2.2231686 27 5
-24.176828 -8.9049263 -1.3502678 22 6
-6.2349234 -2.2717919 -1.7780869 3 0
-7.2630668 -2.6421053 -1.7843118 3 1
-8.7658453 -3.1818452 -1.8126855 3 2
-11.237848 -4.0724807 -1.8931701 3 3
-16.148619 -5.8425298 -2.1085835 8 4
-24.106882 -8.6885195 -1.3429408 22 6
-6.2251558 -2.2191286 -1.77084 4 0
-7.2739911 -2.5887218 -1.7825122 4 1
-8.7804441 -3.117945 -1.8111591 3 2
-11.226906 -3.980068 -1.8865999 4 3
-16.18527 -5.7283287 -2.1080961 7 4
-24.163185 -8.5186815 -1.3427315 22 6
-6.2404971 -2.1756132 -1.77084 4 0
-7.3047695 -2.5423603 -1.7856615 6 1
-8.8131237 -3.0604362 -1.8134488 3 2
-11.218956 -3.8893018 -1.8806553 4 3
-16.110439 -5.5755882 -2.0932281 5 4
-23.829519 -8.2330809 -2.2057374 27 5
-24.284378 -8.3712692 -1.3461857 22 6
-6.2409043 -2.1270094 -1.7666988 4 0
-7.3223405 -2.4913032 -1.7856615 6 1
-8.8002901 -2.989011 -1.8065797 3 2
-11.233946 -3.8090405 -1.8787781 4 3
-16.043665 -5.4273605 -2.0795786 5 4
-24.410824 -8.2293835 -1.3500584 22 6
-6.2882276 -2.0954731 -1.7760164 3 0
-7.3298831 -2.4383283 -1.783412 5 1
-8.8283978 -2.9299724 -1.8081062 3 2
-11.243388 -3.7249262 -1.8759624 3 3
-15.982234 -5.2856174 -2.0669043 5 4
-24.131353 -7.9620032 -2.2231686 27 5
-24.917269 -8.2068481 -1.3748657 22 6
-6.2696381 -2.0407588 -1.7666988 4 0
-7.3559933 -2.3901076 -1.7856615 6 1
-8.8336954 -2.8634257 -1.8050531 3 2
-11.267239 -3.6457367 -1.8756495 3 3
-24.186352 -7.793335 -2.2231686 27 5
-25.015789 -8.0461407 -1.3771685 22 6
-6.2910957 -1.9992806 -1.7687694 4 0
-7.3724999 -2.3386965 -1.7856615 7 1
-8.8684454 -2.8064239 -1.8081062 3 2
-11.249092 -3.5533025 -1.8684534 4 3
-15.925735 -5.0213661 -2.0503302 5 4
-24.620287 -7.7438574 -2.2580309 26 5
-25.073256 -7.8719063 -1.3772732 22 6
-6.3122811 -1.9576007 -1.77084 3 0
-7.3849254 -2.2860155 -1.7847617 7 1
-8.8878222 -2.7444425 -1.8081062 3 2
-11.283064 -3.4775918 -1.8700178 4 3
-15.84087 -4.8732882 -2.0349743 3 4
-25.014933 -7.6621523 -1.3710976 22 6
-6.3036041 -1.9067729 -1.7646283 3 0
-7.3857789 -2.2298989 -1.7811624 7 1
-8.8917246 -2.6777995 -1.8050531 3 2
-11.329767 -3.4055629 -1.8737723 3 3
-15.794648 -4.7386208 -2.0247374 3 4
-25.515621 -7.621088 -1.3955907 11 6
-6.3278809 -1.8659976 -1.7677342 4 0
-7.3936887 -2.1760814 -1.7793628 7 1
-8.9059782 -2.6161065 -1.8042899 3 2
-11.348895 -3.3272502 -1.8731465 2 3
-15.732079 -4.6003842 -2.0125504 3 4
-25.035912 -7.3067908 -2.2817373 25 5
-25.658949 -7.4740429 -1.400615 22 6
-6.3255816 -1.8186128 -1.763593 4 0
-7.404583 -2.1246307 -1.778463 7 1
-8.9164762 -2.5517068 -1.8027636 3 2
-11.356651 -3.2436013 -1.8706435 3 3
-15.682848 -4.4703379 -2.0023134 3 4
-6.334404 -1.7733647 -1.7625577 4 0
-7.4267435 -2.0749807 -1.7802627 7 1
-8.9487677 -2.4951737 -1.8058165 3 2
-11.351824 -3.1588099 -1.8662634 3 3
-15.702198 -4.3575611 -2.0008512 3 4
-6.3425999 -1.7291917 -1.7615224 4 0
-7.4294124 -2.0213127 -1.7775632 7 1
-8.9545994 -2.4295561 -1.8035268 3 2
-11.362158 -3.0763874 -1.8643861 3 3
-15.618428 -4.2200284 -1.9864705 2 4
-6.3694563 -1.6888309 -1.7656636 3 0
-7.4471107 -1.9703932 -1.778463 7 1
-9.0031986 -2.3770676 -1.8100141 4 2
-11.367554 -2.9949503 -1.8618832 3 3
-15.549593 -4.0851603 -1.9740397 2 4
-6.3770623 -1.6444727 -1.7646283 3 0
-7.4678988 -1.9216008 -1.7802627 7 1
-8.9701319 -2.3014698 -1.8000921 4 2
-11.384359 -2.9145372 -1.8612576 3 3
-15.54819 -3.9718564 -1.9703838 2 4
-6.3808918 -1.5980337 -1.7625577 3 0
-7.481133 -1.8694165 -1.7802627 7 1
-9.0012207 -2.2425897 -1.8031452 4 2
-11.435101 -2.8426127 -1.8662634 3 3
-15.48691 -3.8412299 -1.9591717 2 4
-45.206398 -11.153971 -2.4402165 0 6
-6.3956466 -1.5543616 -1.763593 3 0
-7.4523358 -1.8070416 -1.7703648 7 1
-9.0223818 -2.1810763 -1.8042899 4 2
-11.400898 -2.7497432 -1.8575031 3 3
-15.441939 -3.7158339 -1.9501534 3 4
-6.3875384 -1.5052441 -1.7584167 3 0
-7.4799452 -1.75854 -1.7739639 6 1
-9.0316553 -2.1166935 -1.8031452 4 2
-11.419817 -2.6700857 -1.8575031 3 3
-15.432706 -3.5998251 -1.9457661 3 4
-44.439404 -10.308674 -2.3908114 0 6
-6.394125 -1.4597526 -1.7573814 3 0
-7.4844403 -1.7045447 -1.7721643 7 1
-9.0615292 -2.0570662 -1.8061981 4 2
-11.438179 -2.5902953 -1.8575031 3 3
-15.441972 -3.4884973 -1.9438162 3 4
-44.502491 -9.9964361 -2.3903928 0 6
-6.4343419 -1.4217482 -1.7656636 3 0
-7.4714179 -1.6468008 -1.7663157 5 1
-9.038888 -1.9873306 -1.7989473 3 2
-11.443968 -2.5098414 -1.8556259 3 3
-15.427163 -3.372129 -1.9389415 3 4
-44.280659 -9.6304655 -2.3749013 0 6
-6.4117541 -1.3710506 -1.7568637 2 0
-7.5072303 -1.6011907 -1.7721643 7 1
-9.0813475 -1.9302993 -1.8046715 4 2
-11.426428 -2.4225092 -1.8499942 3 3
-15.430337 -3.2629344 -1.936504 3 4
-44.123993 -9.274271 -2.3629687 0 6
-6.4173865 -1.3254732 -1.7558285 2 0
-7.4895964 -1.5428436 -1.7654159 5 1
-9.1292181 -1.8739605 -1.8115407 4 2
-11.423709 -2.3387194 -1.8468655 3 3
-15.446906 -3.1539431 -1.9357728 4 4
-44.148521 -8.9580479 -2.3608751 0 6
-6.437851 -1.2829044 -1.7589344 2 0
-7.4848933 -1.4874799 -1.7618166 4 1
-9.1093388 -1.8036981 -1.8050531 3 2
-11.432007 -2.2573793 -1.845614 3 3
-15.454915 -3.0433419 -1.9340667 3 4
-6.4618278 -1.2408445 -1.7630754 2 0
-7.5180635 -1.4395872 -1.7672155 5 1
-9.1194773 -1.7412828 -1.8046715 4 2
-11.433523 -2.1769254 -1.843424 4 3
-15.444578 -2.9294529 -1.9301667 3 4
-44.676064 -8.4254847 -2.3826468 0 6
-6.4416304 -1.1915605 -1.7553109 2 0
-7.5296044 -1.3887334 -1.7676654 3 1
-9.0850687 -1.6690627 -1.7955128 4 2
-11.450385 -2.0974097 -1.8437368 4 3
-15.448538 -2.8214078 -1.9282169 3 4
-44.56086 -8.082016 -2.373436 0 6
-6.4459877 -1.1458842 -1.7542756 2 0
-7.5256844 -1.3337544 -1.7645161 2 1
-9.1235666 -1.610374 -1.8008554 4 2
-11.44724 -2.014339 -1.840921 4 3
-15.440487 -2.7086821 -1.9248046 3 4
-6.4595432 -1.1018308 -1.7558285 2 0
-7.5271273 -1.2798778 -1.7627165 3 1
-9.1191015 -1.5440181 -1.7978026 4 2
-11.410379 -1.9258255 -1.8327864 4 3
-15.425742 -2.595226 -1.9206611 2 4
-44.980618 -7.5110426 -2.3899739 0 6
-6.4575448 -1.0551485 -1.7532402 2 0
-7.5089517 -1.2229102 -1.7564179 2 1
-9.104207 -1.4778211 -1.7928416 3 2
-11.419325 -1.847482 -1.8321607 4 3
-15.439564 -2.4868393 -1.9201735 2 4
-44.908428 -7.1851206 -2.3834844 0 6
-6.4760294 -1.0129619 -1.7563461 2 0
-7.5248036 -1.1729722 -1.7582175 2 1
-9.1414633 -1.4184425 -1.7981842 3 2
-11.453417 -1.7710382 -1.8356022 4 3
-15.385918 -2.3681192 -1.911399 2 4
-6.4640045 -0.9637472 -1.7511697 2 0
-7.5330048 -1.1190941 -1.7582175 2 1
-9.1317215 -1.3517114 -1.7943679 3 2
-11.473614 -1.6901854 -1.8368537 4 3
-15.411896 -2.2620926 -1.9126177 3 4
-6.4514484 -0.91587961 -1.7459934 2 0
-7.5367746 -1.0659325 -1.7573177 2 1
-9.1528244 -1.2879754 -1.7966576 3 2
-11.473396 -1.608398 -1.8349764 3 3
-15.42338 -2.1538892 -1.9121301 3 4
-6.488318 -0.87495005 -1.7542756 2 0
-7.5556207 -1.0148482 -1.760017 2 1
-9.145812 -1.2235636 -1.7936047 3 2
-11.464499 -1.5276546 -1.8318479 4 3
-15.402617 -2.0414701 -1.9077429 3 4
-48.022259 -6.3137307 -2.5383987 0 6
-6.4711285 -0.82782346 -1.7480639 2 0
-7.5507545 -0.96191764 -1.7573177 2 1
-9.1424456 -1.1582012 -1.791315 3 2
-11.455286 -1.4451077 -1.8287191 4 3
-15.412219 -1.9360856 -1.9072554 3 4
-48.624088 -6.0478244 -2.5679162 0 6
-6.4767499 -0.78262621 -1.7480639 2 0
-7.5766339 -0.91150761 -1.7618166 2 1
-9.1737013 -1.0971467 -1.7958944 3 2
-11.484711 -1.3674378 -1.8318479 4 3
-15.409589 -1.8265752 -1.9053055 3 4
-6.4647808 -0.73542577 -1.7434052 2 0
-7.5595765 -0.85595953 -1.7564179 2 1
-9.146019 -1.0291239 -1.7890252 3 2
-11.47042 -1.2845877 -1.8280934 4 3
-15.35686 -1.711691 -1.8972621 4 4
-6.4659152 -0.68986523 -1.7423699 2 0
-7.5808711 -0.80480868 -1.760017 3 1
-9.1764107 -0.96771842 -1.7936047 3 2
-11.490895 -1.2057147 -1.8299706 3 3
-15.360538 -1.6036173 -1.8962871 18 4
-6.4896836 -0.64775574 -1.7475463 2 0
-7.5512681 -0.74972302 -1.7519189 2 1
-9.159339 -0.9029249 -1.7890252 3 2
-11.475245 -1.1251601 -1.8262162 3 3
-15.418515 -1.5036485 -1.9021369 4 4
-6.4671178 -0.59993672 -1.7402993 2 0
-7.5563178 -0.69698876 -1.7519189 3 1
-9.1652727 -0.84055823 -1.7890252 3 2
-11.521982 -1.050612 -1.8324735 2 3
-15.385143 -1.392035 -1.8967746 4 4
-6.4749012 -0.55623323 -1.7413346 2 0
-7.5492368 -0.64454359 -1.7492194 2 1
-9.1709175 -0.77654988 -1.7890252 3 2
-11.466046 -0.96484452 -1.8224617 2 3
-15.38437 -1.2864521 -1.895556 3 4
-6.4747748 -0.51071405 -1.7402993 2 0
-7.5574379 -0.59213048 -1.7501192 2 1
-9.1447983 -0.71007639 -1.7829194 3 2
-11.480381 -0.88538325 -1.8237133 2 3
-15.396935 -1.1793245 -1.8960434 3 4
-6.4993782 -0.46702215 -1.7459934 3 0
-7.5575004 -0.53907794 -1.7492194 2 1
-9.1534491 -0.64649516 -1.7836826 3 2
-11.494164 -0.80576879 -1.8249646 2 3
-15.396872 -1.0712574 -1.8950685 3 4
-6.4947691 -0.42113656 -1.7439228 3 0
-7.5649691 -0.48655361 -1.7501192 2 1
-9.1107168 -0.57958269 -1.7745237 3 2
-11.483738 -0.72450697 -1.8224617 2 3
-15.405957 -0.96386117 -1.8953122 2 4
-6.5014076 -0.37600735 -1.744958 3 0
-7.572072 -0.43395132 -1.751019 3 1
-9.189024 -0.52018243 -1.7890252 3 2
-11.496407 -0.64476293 -1.8237133 2 3
-15.390507 -0.85507613 -1.8926311 2 4
-6.5038743 -0.3306098 -1.744958 3 0
-7.5515623 -0.37990275 -1.7456201 3 1
-9.1139994 -0.45212737 -1.7737606 3 2
-11.488789 -0.56390613 -1.821836 2 3
-15.38817 -0.74722421 -1.891656 2 4
-6.4944448 -0.28469011 -1.7418523 3 0
-7.5540299 -0.32717547 -1.7456201 4 1
-9.1051645 -0.38798714 -1.7714708 3 2
-11.468762 -0.48268872 -1.8180816 2 3
-15.402929 -0.64018846 -1.8928748 2 4
-6.5155787 -0.24005464 -1.7470287 3 0
-7.5658674 -0.27478406 -1.7478697 3 1
-9.1311378 -0.326846 -1.7760502 3 2
-11.455988 -0.40405771 -1.8155787 2 3
-15.357426 -0.53092915 -1.8867813 2 4
-6.4823041 -0.19465512 -1.7377111 3 0
-7.5500312 -0.22276114 -1.7438205 4 1
-9.0860987 -0.26173398 -1.7668914 3 2
-11.482224 -0.32474011 -1.819333 3 3
-15.352746 -0.42616165 -1.8858064 2 4
-6.4873681 -0.14948593 -1.7387464 3 0
-7.5630922 -0.17031159 -1.74652 3 1
-9.1387014 -0.20100528 -1.7768134 3 2
-11.45652 -0.24598449 -1.8149529 2 3
-15.34344 -0.3187215 -1.884344 2 4
-6.5191407 -0.10582595 -1.7470287 3 0
-7.5445914 -0.11852109 -1.742021 4 1
-9.1241789 -0.13696232 -1.7737606 3 2
-11.46586 -0.16610865 -1.8162043 2 3
-15.341284 -0.21421902 -1.8838565 2 4
-6.4849486 -0.059989527 -1.7377111 3 0
-7.5530295 -0.065915056 -1.7438205 4 1
-9.1327534 -0.074919298 -1.775287 3 2
-11.450922 -0.087937653 -1.8137014 3 3
-15.35233 -0.1071844 -1.8850751 2 4
-6.4813433 -0.015836965 -1.7366759 3 0
-7.5416107 -0.014479136 -1.7411212 5 1
-9.1094942 -0.011130056 -1.7707076 3 2
-11.459158 -0.0080012502 -1.8149529 3 3
-15.352704 -0.0026817089 -1.8850751 2 4
-6.5122046 0.029550437 -1.744958 3 0
-7.5415277 0.038169786 -1.7411212 5 1
-9.097579 0.050808724 -1.768418 3 2
-11.453021 0.069962904 -1.8140143 3 3
-15.348378 0.10447341 -1.8845876 2 4
-6.5041261 0.073789358 -1.7428875 3 0
-7.5371962 0.089456312 -1.7402214 4 1
-9.1127071 0.1145201 -1.7714708 3 2
-11.468056 0.15012522 -1.8165172 3 3
-15.347311 0.20894429 -1.8845876 2 4
-6.5111785 0.11933652 -1.744958 3 0
-7.5285945 0.14192855 -1.7384217 4 1
-9.1038342 0.17798033 -1.7699443 3 2
-11.443028 0.2297052 -1.8127627 3 3
-15.335555 0.31587556 -1.883369 3 4
-6.5063248 0.16469245 -1.7439228 3 0
-7.5507975 0.19508678 -1.7438205 3 1
-9.0945206 0.24132442 -1.768418 3 2
-11.460892 0.31012404 -1.8158915 3 3
-15.303211 0.42211291 -1.8797129 2 4
-6.4953618 0.20979777 -1.7413346 2 0
-7.5550942 0.24798651 -1.7451702 3 1
-9.0926132 0.30481026 -1.768418 3 2
-11.434756 0.38931927 -1.812137 2 3
-15.323699 0.52975851 -1.8826377 2 4
-6.513042 0.2558988 -1.746511 2 0
-7.570704 0.3014245 -1.7492194 3 1
-9.1216507 0.36955068 -1.7745237 3 2
-11.44755 0.46978471 -1.81464 2 3
-15.331529 0.63721621 -1.8841002 2 4
-6.4917998 0.30046743 -1.7413346 2 0
-7.5450559 0.3531754 -1.7438205 3 1
-9.0953903 0.43051741 -1.7699443 3 2
-11.45198 0.5480727 -1.8158915 2 3
-15.281101 0.74202412 -1.8784941 2 4
-6.4722419 0.34372681 -1.7366759 2 0
-7.5463691 0.40473366 -1.7447205 2 1
-9.1470537 0.4969871 -1.7806298 3 2
-11.43604 0.62735999 -1.8140143 2 3
-15.331194 0.8490923 -1.8853189 2 4
-6.4619703 0.38843948 -1.7346053 2 0
-7.5667014 0.45882276 -1.7501192 2 1
-9.1277809 0.55827886 -1.7775766 3 2
-11.419675 0.70445853 -1.812137 2 3
-15.30508 0.95486748 -1.8828815 2 4
-6.4668121 0.43405908 -1.7366759 2 0
-7.5594254 0.51137227 -1.7492194 2 1
-9.10005 0.62197286 -1.7729974 3 2
-11.402517 0.78534335 -1.8102598 2 3
-15.329727 1.0638927 -1.8867813 2 4
-6.5060081 0.48233762 -1.7480639 2 0
-7.5712175 0.56529528 -1.7528186 2 1
-9.1150618 0.68696344 -1.7768134 3 2
-11.428271 0.86732054 -1.8152657 2 3
-15.337761 1.1720986 -1.8887312 2 4
-6.4485674 0.52337062 -1.7335701 2 0
-7.5476637 0.616552 -1.7483196 2 1
-9.1726561 0.7557404 -1.7890252 3 2
-11.437688 0.94838703 -1.8177687 2 3
-15.321291 1.2784839 -1.8877563 2 4
-6.4986396 0.57312787 -1.7480639 2 0
-7.5431757 0.66922784 -1.7483196 2 1
-9.1515141 0.81836039 -1.7859724 3 2
-11.418983 1.0271522 -1.8158915 2 3
-15.351533 1.388993 -1.8926311 2 4
-6.479095 0.6170193 -1.7439228 2 0
-7.5344405 0.72150308 -1.7474198 3 1
-9.1221266 0.87996793 -1.7813929 3 2
-11.411533 1.1068466 -1.8158915 2 3
-15.367146 1.4986378 -1.8957996 2 4
-6.436193 0.65830398 -1.7335701 2 0
-7.5408506 0.77527976 -1.7501192 2 1
-9.0962324 0.94160718 -1.7775766 3 2
-11.407458 1.1868961 -1.8165172 2 3
-15.332618 1.6034067 -1.8928748 2 4
-22.949022 2.4160881 -2.0188756 32 5
-6.4602466 0.70636922 -1.7413346 2 0
-7.5197577 0.82620335 -1.74652 2 1
-9.0660219 1.0024987 -1.7729974 3 2
-11.402821 1.2669398 -1.817143 2 3
-15.364452 1.7152512 -1.8982371 2 4
-6.4743462 0.75368834 -1.746511 2 0
-7.5060644 0.87777561 -1.7447205 2 1
-9.1055975 1.0712724 -1.7821561 3 2
-86.477173 10.189331 7.6181092 54 10
-11.397621 1.3469793 -1.8177687 3 3
-15.354074 1.8227074 -1.8984808 3 4
-6.4324989 0.79436928 -1.7366759 2 0
-7.5152249 0.93207347 -1.7483196 2 1
-9.0589333 1.1299554 -1.7745237 3 2
-11.37226 1.4245526 -1.8152657 3 3
-15.325218 1.9278724 -1.8965309 3 4
-6.4478674 0.84201038 -1.7423699 2 0
-7.5046706 0.98401207 -1.7474198 2 1
-9.0469322 1.1926558 -1.7737606 3 2
-11.381621 1.5065007 -1.8183944 3 3
-6.4207807 0.88410425 -1.7366759 2 0
-7.5092001 1.0379796 -1.7501192 2 1
-9.0033817 1.2509229 -1.7668914 3 2
-11.378653 1.5870168 -1.819646 3 3
-15.357751 2.1501923 -1.9040867 3 4
-6.3723903 0.92281544 -1.7252878 2 0
-7.4979138 1.0898161 -1.7492194 2 1
-9.0373993 1.3184133 -1.775287 3 2
-11.344131 1.660998 -1.8158915 3 3
-15.371825 2.2616878 -1.9077429 3 4
-6.4060702 0.97225708 -1.7361581 2 0
-7.46913 1.1375999 -1.7442704 3 1
-9.043499 1.3838496 -1.77834 3 2
-11.320544 1.7383529 -1.8140143 9 3
-15.367846 2.3680825 -1.9092052 3 4
-6.4220214 1.0205947 -1.7423699 2 0
-7.4379134 1.1860343 -1.7388717 3 1
-9.018362 1.4428916 -1.775287 3 2
-11.304548 1.8147432 -1.8133886 24 3
-15.325463 2.4712007 -1.9060366 4 4
-42.861408 6.9573846 -2.2756722 0 6
-6.4187379 1.064917 -1.7434052 2 0
-7.4661918 1.2427144 -1.7474198 3 1
-8.9654675 1.498695 -1.7668914 3 2
-11.326671 1.8994974 -1.8190202 4 3
-15.427699 2.5955544 -1.9209048 6 4
-42.287994 7.1676621 -2.2478294 0 6
-6.4244714 1.1120069 -1.7470287 3 0
-7.4438939 1.2924725 -1.7442704 3 1
-8.9625225 1.5625982 -1.768418 3 2
-11.313133 1.9785264 -1.8190202 4 3
-15.397471 2.7011352 -1.9194423 7 4
-41.851433 7.3945918 -2.2273138 0 6
-6.3804288 1.1503202 -1.7371935 2 0
-7.4327712 1.3440642 -1.7438205 4 1
-8.9456005 1.624078 -1.7672729 22 2
-11.302934 2.0581667 -1.819646 4 3
-15.241543 2.7835989 -1.9023806 7 4
-40.753773 7.4944167 -2.1716285 0 6
-6.3817363 1.1966145 -1.7397816 3 0
-7.4117165 1.3937593 -1.7411212 5 1
-8.9729233 1.6922059 -1.7749053 27 2
-11.282839 2.1339514 -1.8187072 4 3
-15.132027 2.8729048 -1.8911686 7 4
-40.317295 7.698225 -2.1511126 0 6
-6.3810287 1.2415018 -1.7418523 3 0
-7.409708 1.4456698 -1.7429208 5 1
-8.9801579 1.7585828 -1.7787216 4 2
-11.269604 2.2130518 -1.8190202 4 3
-15.029803 2.9623499 -1.8809316 7 4
-39.216381 7.7721558 -2.0952177 0 6
-6.3719816 1.2871317 -1.7418523 3 0
-7.4068131 1.5002029 -1.7447205 5 1
-8.9484215 1.8173236 -1.7749053 4 2
-11.294127 2.3019207 -1.8255905 5 3
-15.012644 3.0680041 -1.8814191 7 4
-38.866314 7.9922485 -2.0795171 0 6
-6.3439322 1.3276265 -1.7366759 3 0
-8.9121342 1.8764566 -1.770326 4 2
-11.289377 2.3831604 -1.8274676 4 3
-14.979207 3.1702673 -1.8799566 6 4
-6.3647175 1.3784269 -1.744958 4 0
-7.3641968 1.5989244 -1.7397714 42 1
-8.9298487 1.9437573 -1.7764318 4 2
-11.377113 2.482692 -1.8443626 8 3
-14.93732 3.2705157 -1.8775192 7 4
-6.3476467 1.4200299 -1.7428875 3 0
-7.3892722 1.6571144 -1.7483196 6 1
-8.9179764 2.0064807 -1.7768134 4 2
-11.313255 2.551625 -1.8368537 8 3
-14.841136 3.35548 -1.8682572 7 4
-29.262304 6.6804624 8.0425434 4 15
-6.3225203 1.460831 -1.7387464 3 0
-7.3566394 1.7038242 -1.7433707 6 1
-8.8964643 2.0653615 -1.775287 4 2
-11.235983 2.6146939 -1.8271548 9 3
-14.817348 3.4590125 -1.8682572 7 4
-33.699944 7.9042516 -1.8140692 6 6
-29.231197 6.8830328 8.0466843 4 15
-6.3046513 1.5031414 -1.7366759 25 0
-7.355938 1.7578595 -1.7460701 6 1
-8.8890924 2.1308005 -1.7768134 4 2
-11.167046 2.6830311 -1.8190202 9 3
-14.788979 3.5614398 -1.8677697 7 4
-29.234846 7.0510492 4.7631173 31 12
-29.202522 7.0594339 5.8399005 18 13
-29.147728 7.0623431 6.9239931 26 14
-29.154917 7.0856361 8.0394373 18 15
-6.2771196 1.5429692 -1.7320172 20 0
-29.466911 7.2486706 0.52968055 61 8
-7.3510551 1.8110336 -1.7478697 7 1
-29.339951 7.2337317 1.5836862 61 9
-8.8820066 2.19314 -1.77834 4 2
-29.284645 7.2417936 2.63925 32 10
-11.110174 2.74949 -1.8127627 9 3
-29.241045 7.2472596 3.6989787 33 11
-14.723295 3.6545565 -1.8626511 9 4
-29.274361 7.2717872 4.7775092 3 12
-29.408119 7.3322649 -1.5883964 23 6
-6.2889452 1.5913473 -1.7382288 3 0
-7.3385572 1.8610287 -1.7478697 7 1
-8.8817015 2.2589641 -1.7813929 4 2
-11.065824 2.8206437 -1.8086954 8 3
-14.682691 3.7507598 -1.8607013 9 4
-30.412457 7.8085904 -1.6455473 10 6
-6.2982473 1.6405687 -1.7439228 3 0
-7.3178444 1.9102455 -1.7460701 7 1
-8.9325962 2.3367577 -1.7947495 7 2
-11.027259 2.8908918 -1.8055668 8 3
-14.63119 3.8466077 -1.8575326 7 4
-29.226988 7.716639 -1.5842096 35 6
-6.2757373 1.6804035 -1.740817 4 0
-7.297143 1.9579923 -1.7442704 7 1
-9.0089598 2.4240577 -1.8134488 6 2
-10.989644 2.9631753 -1.8027509 9 3
-14.591255 3.942486 -1.8558265 9 4
-28.439957 7.7216382 -1.5444343 11 6
-6.2713032 1.7262278 -1.7428875 4 0
-7.2795386 2.0078537 -1.7433707 7 1
-8.9218063 2.4675274 -1.7993289 7 2
-10.961076 3.0377126 -1.8014996 9 3
-14.544249 4.0389409 -1.8533891 9 4
-6.2330742 1.7626066 -1.7356406 4 0
-7.2728438 2.0607488 -1.7451702 8 1
-8.8439283 2.5125861 -1.7871171 7 2
-10.918701 3.1082144 -1.7980579 8 3
-14.502335 4.1365728 -1.851683 7 4
-6.2428799 1.8125426 -1.7418523 4 0
-7.2582803 2.1114726 -1.7451702 8 1
-8.7884789 2.5632713 -1.7794847 7 2
-10.883465 3.1804845 -1.7958679 9 3
-14.476913 4.2388291 -1.8521705 7 4
-6.2078562 1.8494627 -1.7356406 4 0
-7.1910772 2.1464868 -1.7325729 9 1
-8.7233486 2.6104906 -1.7699443 6 2
-10.826936 3.246176 -1.7902362 9 3
-14.443165 4.338655 -1.851683 7 4
-24.629965 7.431529 -1.348279 33 6
-6.2095737 1.8972712 -1.7397816 5 0
-7.1759167 2.196636 -1.7325729 9 1
-8.6974039 2.6690257 -1.768418 6 2
-10.788905 3.317039 -1.7877333 9 3
-14.363198 4.4241848 -1.8453459 7 4
-6.1888027 1.9382664 -1.7377111 5 0
-7.1641254 2.2478466 -1.7334728 9 1
-8.6261206 2.7131844 -1.7577326 6 2
-10.725921 3.3798091 -1.7811631 8 3
-14.347107 4.5291286 -1.8472956 7 4
-20.81144 6.5857887 -1.9097565 34 5
-25.74609 8.1621933 -1.4154785 11 6
-6.1935153 1.9873276 -1.7428875 4 0
-7.151969 2.2989995 -1.7343726 8 1
-8.6275225 2.7799652 -1.7619303 7 2
-10.700183 3.4540038 -1.7808502 9 3
-14.337803 4.6365128 -1.8502206 7 4
-6.1648078 2.0256937 -1.7387464 4 0
-7.1061277 2.3391247 -1.7271742 9 1
-8.5668888 2.8265936 -1.7535348 7 2
-10.642049 3.5174596 -1.7752185 9 3
-14.252319 4.7190218 -1.8433958 7 4
-22.331863 7.4244943 -1.2333493 21 6
-6.1651645 2.0736082 -1.7428875 5 0
-7.0970116 2.391165 -1.7289737 8 1
-8.5400095 2.8823299 -1.7520082 7 2
-10.606631 3.5860205 -1.7733413 9 3
-14.177666 4.8043904 -1.8380336 7 4
-19.915518 6.7604051 -1.8400321 36 5
-29.246992 9.9450932 -1.6189606 11 6
-6.147254 2.1142685 -1.7418523 7 0
-7.0989962 2.445765 -1.7334728 8 1
-8.508544 2.9380355 -1.7497185 10 2
-10.566402 3.6548152 -1.7708384 9 3
-14.1165 4.891036 -1.8343775 9 4
-19.679621 6.8339176 -1.8226008 37 5
-6.1396332 2.1596956 -1.7439228 7 0
-7.0780725 2.493969 -1.7325729 8 1
-8.4582081 2.9869032 -1.7436126 7 2
-10.546218 3.7304673 -1.7717769 9 3
-14.031491 4.9715648 -1.8277966 7 4
-20.616634 7.3331456 -1.1467856 20 6
-6.1425843 2.2090447 -1.7490991 9 0
-7.0494881 2.5393617 -1.7298737 8 1
-8.4814682 3.0618792 -1.7527716 7 2
-10.497626 3.7959423 -1.7680227 9 3
-13.981509 5.0639939 -1.8258467 7 4
-18.905521 6.8586369 -1.7595001 38 5
-20.052504 7.2905893 -1.1182102 49 6
-6.1270132 2.2518728 -1.7490991 9 0
-7.0279312 2.5871665 -1.7289737 9 1
-8.4438515 3.113425 -1.749337 6 2
-10.441896 3.8563573 -1.7630166 9 3
-13.891827 5.1414981 -1.8187783 7 4
-19.588623 7.2732677 -1.0950776 19 6
-6.1043081 2.2908108 -1.7470287 9 0
-7.0138068 2.6363153 -1.7298737 8 1
-8.4053745 3.1660719 -1.7459024 7 2
-10.425808 3.9333477 -1.7648939 9 3
-13.858364 5.236639 -1.8190219 9 4
-19.122793 7.2526102 -1.0718405 19 6
-6.0773435 2.3292229 -1.7439228 7 0
-6.9952307 2.6852167 -1.7298737 8 1
-33.532619 12.878678 1.8825245 3 9
-8.3726349 3.2189834 -1.7436126 7 2
-10.413541 4.0098991 -1.7673968 9 3
-13.815913 5.3311143 -1.8182908 7 4
-18.646452 7.217504 -1.0478706 28 6
-6.03616 2.3606853 -1.7366759 7 0
-6.9622746 2.7270837 -1.7262744 9 1
-33.590652 13.170785 1.8908982 3 9
-8.3207178 3.2658801 -1.7375069 9 2
-10.381617 4.0810561 -1.7667711 9 3
-13.760835 5.4177608 -1.8158534 7 4
-18.085199 7.134892 -1.7009314 37 5
-18.216673 7.1977844 -1.0265175 28 6
-6.0195327 2.4027667 -1.7366759 9 0
-6.9358292 2.772728 -1.7244748 9 1
-33.616558 13.452471 1.8975973 3 9
-8.2977152 3.32389 -1.7375069 9 2
-10.316205 4.1387239 -1.7605137 9 3
-13.704257 5.5062966 -1.813416 7 4
-17.683786 7.1195922 -1.6678123 36 5
-17.71586 7.1432858 -1.0010822 65 6
-5.9882979 2.4389031 -1.7325348 9 0
-6.9181066 2.8218195 -1.7249247 10 1
-8.2415972 3.3683665 -1.7306377 9 2
-10.272435 4.2046576 -1.7580107 9 3
-13.650786 5.5958123 -1.811466 7 4
-17.615223 7.2353053 -1.6660691 36 5
-17.421743 7.1664977 -0.98726553 18 6
-5.9604216 2.4762027 -1.7294289 7 0
-6.8766484 2.8610637 -1.7195259 11 1
-8.2251272 3.4288428 -1.732164 9 2
-10.246477 4.2777896 -1.7586365 9 3
-13.541793 5.6618791 -1.802204 13 4
-17.0674 7.1604567 -0.96999466 9 6
-5.9607773 2.5252883 -1.7346053 9 0
-6.8457432 2.9044335 -1.7168264 10 1
-8.1865358 3.4800372 -1.7291112 9 2
-10.190918 4.338387 -1.7542564 9 3
-13.450807 5.734479 -1.7953793 14 4
-23.093315 9.8787231 -1.316354 21 6
-5.9500961 2.5699067 -1.7366759 9 0
-6.836031 2.9567986 -1.7195259 10 1
-8.1734676 3.5403628 -1.7314008 7 2
-10.152089 4.4037232 -1.752692 8 3
-13.333981 5.795011 -1.7851423 14 4
-22.053322 9.6119528 -1.2607733 21 6
-5.9360023 2.6119027 -1.7377111 9 0
-6.8157463 3.0032616 -1.7195259 10 1
-8.1341848 3.5909932 -1.728348 7 2
-10.083158 4.4577155 -1.7461218 9 3
-13.217992 5.8518844 -1.7749053 19 4
-22.109802 9.8208055 -1.267891 10 6
-5.8894186 2.6406343 -1.7294289 9 0
-6.7839475 3.0459802 -1.7168264 10 1
-8.1202965 3.6511083 -1.7306377 7 2
-10.043576 4.5221906 -1.7445574 8 3
-13.086337 5.9032102 -1.7627183 16 4
-15.400411 6.9664993 -0.88583845 44 6
-5.8502212 2.6710317 -1.7232174 9 0
-6.7453341 3.0839837 -1.7123275 13 1
-8.06248 3.6929932 -1.7237686 7 2
-10.031511 4.6012573 -1.747999 9 3
-13.042248 5.99049 -1.7622309 19 4
-15.384633 7.079391 -1.4816475 46 5
-20.945602 9.651618 -1.2086468 20 6
-5.82092 2.7069225 -1.7201115 9 0
-6.7148061 3.1268864 -1.7100779 14 1
-8.0436182 3.7525101 -1.7252951 7 2
-10.013462 4.6778674 -1.7505019 9 3
-12.814905 5.9947591 -1.7371258 21 4
-15.168857 7.1088428 -1.4656109 30 5
-20.53237 9.6355524 -1.1886544 20 6
-5.7948971 2.7441857 -1.7180409 9 0
-6.6910529 3.1728518 -1.709628 16 1
-8.0065851 3.8035171 -1.7230054 7 2
-9.9948311 4.7544484 -1.7530048 9 3
-12.742274 6.0695648 -1.7329822 19 4
-14.849138 7.085856 -1.4394642 29 5
-20.307821 9.7037401 -1.1795479 20 6
-5.7547154 2.774507 -1.7118292 9 0
-6.6669841 3.2186399 -1.7091781 15 1
-21.347878 10.315368 1.2425604 5 9
-7.9727674 3.8559017 -1.7214788 7 2
-9.9738407 4.8301339 -1.7551949 9 3
-12.544196 6.0830164 -1.711777 21 4
-14.494649 7.0413451 -1.4098313 28 5
-19.989929 9.7238398 -1.1649984 20 6
-5.7317371 2.8129125 -1.710794 9 0
-6.6373549 3.2616677 -1.7073785 14 1
-7.9491758 3.9132023 -1.722242 9 2
-9.9451933 4.9022675 -1.7561336 8 3
-12.528124 6.1836224 -1.715433 19 4
-14.252249 7.0469966 -1.3910056 27 5
-19.984205 9.8941755 -1.1686621 10 6
-5.7085037 2.8511312 -1.7097588 9 0
-6.6074519 3.3044374 -1.7055789 14 1
-7.9216633 3.9686024 -1.722242 7 2
-9.9107265 4.9715786 -1.7561336 8 3
-12.544961 6.3012285 -1.7237202 23 4
-13.971334 7.029902 -1.3683451 27 5
-19.240419 9.6937551 -1.129096 20 6
-5.6884589 2.8909161 -1.7097588 9 0
-6.5807471 3.3487196 -1.7046791 14 1
-7.8745255 4.0140004 -1.7180443 6 2
-9.8687391 5.037055 -1.754882 8 3
-13.748113 7.0382915 -1.3512626 26 5
-18.951883 9.7148676 -1.1161166 19 6
-5.6612749 2.9270082 -1.7076882 9 0
-6.5537477 3.392787 -1.7037793 14 1
-7.8463106 4.0688772 -1.7180443 6 2
-9.8210611 5.0994573 -1.752692 9 3
-11.541656 6.0005269 -1.5972198 3 4
-13.316945 6.9353166 -1.3136113 25 5
-13.128025 6.8456693 -0.77593297 43 6
-5.6372833 2.9646604 -1.7066529 9 0
-6.5471458 3.4475362 -1.7082783 14 1
-7.8020844 4.1153116 -1.7146096 7 2
-9.7520342 5.1503663 -1.7467474 8 3
-12.313731 6.5115294 -1.7103145 14 4
-13.149695 6.9624019 -1.3017582 49 5
-18.094496 9.5967226 -1.0734105 19 6
-5.6300759 3.0112338 -1.710794 9 0
-6.5126095 3.4876416 -1.7055789 12 1
-7.7929244 4.1785288 -1.7188075 6 2
-9.701088 5.2082181 -1.7439317 9 3
-12.138597 6.5277629 -1.6922778 11 4
-13.774403 7.416749 -1.3686937 27 5
-17.52947 9.4504919 -1.0436838 9 6
-5.5992661 3.0439496 -1.7076882 9 0
-6.4716029 3.5225739 -1.7010798 12 1
-7.7514977 4.2262516 -1.7161362 7 2
-9.6523552 5.2691898 -1.7417415 8 3
-11.947565 6.5302596 -1.6718037 19 4
-13.267907 7.2639661 -1.3233728 25 5
-17.363239 9.5179129 -1.0377175 19 6
-5.577879 3.0829656 -1.7076882 9 0
-6.4400339 3.5638928 -1.6992803 14 1
-7.7303886 4.2850251 -1.7180443 6 2
-9.5997877 5.3278222 -1.7389257 9 3
-11.714282 6.5093789 -1.64548 18 4
-13.178574 7.3350959 -1.3195379 25 5
-17.212627 9.592227 -1.0326931 19 6
-5.5528512 3.1199389 -1.7066529 9 0
-6.4183931 3.6106768 -1.7001802 13 1
-7.6883135 4.3321409 -1.715373 7 2
-9.5520363 5.3888855 -1.7370484 9 3
-11.616701 6.5617094 -1.6381679 16 4
-12.986132 7.3442049 -1.3052443 24 5
-16.940178 9.5960045 -1.0203419 19 6
-5.5275793 3.156713 -1.7056175 9 0
-6.3591948 3.6360517 -1.691182 12 1
-7.6637583 4.3872991 -1.7165178 6 2
-9.5048523 5.447886 -1.7351713 9 3
-11.446657 6.5714884 -1.6206186 19 4
-12.703074 7.3016429 -1.2818867 23 5
-16.633848 9.5726166 -1.0057925 28 6
-5.4992809 3.1903858 -1.703547 9 0
-6.3376689 3.6812093 -1.6920818 14 1
-7.5990033 4.4209504 -1.7088854 6 2
-9.4665871 5.5141096 -1.7351713 9 3
-11.32621 6.6052494 -1.6098942 15 4
-12.734369 7.4383817 -1.2902536 24 5
-16.278696 9.5201235 -0.9883123 18 6
-5.4802027 3.2306626 -1.7045823 9 0
-6.3084579 3.7233839 -1.691182 12 1
-7.5679555 4.4738917 -1.7088854 6 2
-18.516138 10.95041 1.8820411 7 10
-9.4040623 5.5659757 -1.7307911 11 3
-11.375458 6.7408285 -1.6235435 13 4
-12.452542 7.3908381 -1.2668958 23 5
-16.064177 9.5457945 -0.97931057 18 6
-5.4641438 3.2728136 -1.7066529 9 0
-6.2990232 3.7773566 -1.6956811 10 1
-7.5550504 4.5377364 -1.7130833 7 2
-9.3886757 5.6457453 -1.7351713 10 3
-11.295807 6.8006268 -1.6189125 9 4
-12.288032 7.4096899 -1.2553912 22 5
-15.696212 9.4760342 -0.96088827 18 6
-5.4345617 3.3068626 -1.7045823 9 0
-6.2625141 3.8151557 -1.6929817 12 1
-15.745098 9.5995359 0.96643591 5 9
-7.5131311 4.5842347 -1.7107936 7 2
-9.3625183 5.7193909 -1.7376742 9 3
-11.097336 6.7871408 -1.5972198 11 4
-12.232606 7.4932117 -1.2550427 22 5
-10.979933 6.7337818 -0.67502922 8 6
-5.3981957 3.3365979 -1.7004411 9 0
-6.2456689 3.8649371 -1.6956811 13 1
-7.4859514 4.6396756 -1.7119384 6 2
-9.3005409 5.7710748 -1.7336069 13 3
-10.874317 6.755506 -1.5718709 19 4
-10.879105 6.769011 -1.1209971 53 5
-10.881797 6.7785916 -0.67188907 43 6
-5.3682265 3.3700933 -1.6983706 9 0
-6.2053351 3.9001484 -1.6920818 12 1
-7.4650068 4.6991467 -1.7146096 7 2
-9.1814785 5.7863626 -1.7189021 12 3
-10.820174 6.8270216 -1.5708959 16 4
-13.022827 8.2295084 -1.3477764 26 5
-13.382838 8.4668179 -0.82994366 8 6
-5.3510847 3.4116411 -1.7004411 7 0
-6.1615305 3.9328887 -1.6875829 12 1
-7.4353285 4.7532616 -1.715373 7 2
-9.1558332 5.8599024 -1.721718 14 3
-12.906139 8.2792301 -1.3415012 26 5
-14.681116 9.4323473 -0.91451859 18 6
-5.330379 3.4510169 -1.7014765 9 0
-6.1339226 3.9758098 -1.6875829 11 1
-7.3978605 4.8005557 -1.714228 4 2
-9.0726652 5.8941078 -1.7135834 14 3
-10.594016 6.8929839 -1.5518843 10 4
-12.978239 8.4539547 -1.3550974 26 5
-14.583112 9.5102396 -0.9124251 18 6
-14.68466 9.5910807 -0.30615014 32 7
-5.3067651 3.4872198 -1.7014765 9 0
-6.1197419 4.0260382 -1.691182 11 1
-7.354331 4.845603 -1.7119384 6 2
-8.9554453 5.9072676 -1.6991913 13 3
-10.37292 6.8500748 -1.5262917 9 4
-14.271567 9.4497242 -0.8970384 18 6
-5.2758632 3.5198929 -1.6994059 9 0
-6.0785227 4.0600038 -1.6875829 11 1
-7.3105307 4.8902798 -1.7096486 6 2
-15.535075 10.395897 1.6353903 2 10
-8.8745937 5.9432659 -1.6916825 14 3
-10.328144 6.9245358 -1.5267793 9 4
-14.107455 9.4833841 -0.89086276 26 6
-5.2447634 3.5523062 -1.6973354 9 0
-6.0597081 4.1089029 -1.6902822 11 1
-7.2615967 4.9312701 -1.7062141 7 2
-8.7316036 5.9362178 -1.6722846 13 3
-10.163036 6.9171667 -1.5094738 13 4
-13.514451 9.2085638 -1.4307486 29 5
-13.870978 9.4656878 -0.88008147 17 6
-5.2230191 3.5910242 -1.6983706 9 0
-6.0244541 4.146688 -1.6884826 11 1
-7.2100787 4.9683294 -1.7020162 6 2
-8.4796143 5.8496928 -1.6316116 17 3
-9.9887381 6.9010668 -1.490706 9 4
-9.7717485 6.7662797 -0.62290263 8 6
-5.1952872 3.6242812 -1.6973354 9 0
-5.9928942 4.1853657 -1.6875829 11 1
-7.2009592 5.0365491 -1.7081223 6 2
-8.4903488 5.9450059 -1.6416235 16 3
-9.8244991 6.8868556 -1.4731567 9 4
-9.7232618 6.8234854 -1.0392451 14 5
-9.6131592 6.7562389 -0.61578494 27 6
-13.690336 9.6324396 -0.2921882 30 7
-5.1603985 3.653765 -1.6942296 9 0
-5.953989 4.2203422 -1.6848834 13 1
-7.1520991 5.0752215 -1.7046876 7 2
-8.4110365 5.9752035 -1.6341145 19 3
-9.7858849 6.9621806 -1.4746192 9 4
-9.5293322 6.7871728 -1.0235571 29 5
-9.4482346 6.7368712 -0.60814387 36 6
-5.1291323 3.6842976 -1.6921589 9 0
-5.9282889 4.2630458 -1.6857833 12 1
-7.106936 5.118144 -1.7023981 7 2
-8.3787317 6.0407071 -1.6359918 19 3
-9.4324398 6.8078938 -1.4283088 16 4
