# .PCD v0.7 - Point Cloud Data file format
VERSION 0.7
FIELDS x y z intensity ring
SIZE 4 4 4 4 2
TYPE F F F F U
COUNT 1 1 1 1 1
WIDTH 1306
HEIGHT 1
VIEWPOINT 0 0 0 1 0 0 0
POINTS 1306
DATA ascii
-19.440947 -17.93959 -3.2480619 11 4
-17.520596 -16.133604 -1.2482127 10 6
-5.0454688 -4.6136103 -1.8319213 3 0
-6.15099 -5.6185956 -1.9233315 7 1
-8.3401947 -7.6076417 -2.1943038 12 2
-10.905649 -9.9373026 -2.3368182 9 3
-12.068452 -10.985296 -2.0037761 3 4
-17.662376 -16.037748 -1.2503061 10 6
-5.0832925 -4.5834494 -1.8339919 3 0
-6.1611047 -5.5494337 -1.9143335 7 1
-8.3303366 -7.4927754 -2.1778939 13 2
-10.951246 -9.8398037 -2.3318124 9 3
-12.245303 -10.990944 -2.0203502 3 4
-17.83938 -15.972671 -1.2549117 10 6
-5.1050625 -4.5388637 -1.8303684 2 0
-6.1763859 -5.48558 -1.9071351 7 1
-8.3750982 -7.4279222 -2.1759858 12 2
-11.072903 -9.8102674 -2.3430758 9 3
-12.372276 -10.949919 -2.0286372 3 4
-18.094191 -15.974638 -1.2649603 10 6
-5.1177397 -4.4865584 -1.8236392 4 0
-9.2114944 -8.0555382 -2.3786252 7 2
-11.191702 -9.7769108 -2.3537133 9 3
-19.449629 -16.972973 -3.1695781 10 4
-18.301682 -15.931858 -1.2716591 10 6
-5.1693993 -4.4684057 -1.830886 3 0
-6.2317257 -5.3809781 -1.9008365 47 1
-46.391029 -40.029549 3.2112298 3 9
-9.112874 -7.8577013 -2.3389368 7 2
-11.286623 -9.7217484 -2.359345 10 3
-19.287762 -16.595959 -3.1242428 12 4
-18.497334 -15.876548 -1.2775209 10 6
-5.1651802 -4.4021349 -1.8184627 3 0
-6.2602358 -5.3297629 -1.8981371 12 1
-8.6232691 -7.3337889 -2.2004094 6 2
-11.393183 -9.6792288 -2.3677924 8 3
-19.179125 -16.270834 -3.0881696 12 4
-18.665947 -15.80189 -1.2817078 10 6
-5.195025 -4.3668747 -1.8184627 3 0
-6.3038311 -5.293293 -1.9003865 7 1
-8.3974514 -7.0413055 -2.1301918 6 2
-11.549824 -9.6742916 -2.3862517 9 3
-19.021482 -15.915708 -3.0452714 9 4
-18.834076 -15.719831 -1.2856853 10 6
-5.2045593 -4.3132429 -1.8112158 3 0
-6.303103 -5.2180891 -1.8891391 8 1
-8.3286905 -6.8876433 -2.1008072 9 2
-11.673279 -9.6432571 -2.3981407 9 3
-19.144377 -15.792634 -3.0472214 9 4
-19.033159 -15.667426 -1.2919655 10 6
-5.2547398 -4.2948327 -1.8184627 3 0
-6.3294201 -5.1676683 -1.8864396 7 1
-46.257648 -37.740273 3.1287484 0 9
-8.3096189 -6.7747474 -2.0840161 9 2
-11.844469 -9.6463556 -2.4194157 9 3
-19.343822 -15.737123 -3.0618455 10 4
-19.266142 -15.634851 -1.3003392 10 6
-5.2665434 -4.2434978 -1.812251 4 0
-6.3501601 -5.1111369 -1.8819405 7 1
-46.675636 -37.541592 3.1392157 0 9
-8.2955027 -6.6673737 -2.0687513 9 2
-11.997785 -9.6326857 -2.4369364 9 3
-19.394371 -15.554498 -3.0525835 10 4
-19.530787 -15.624735 -1.3108065 10 6
-5.2567086 -4.1753879 -1.7987925 3 0
-6.3734741 -5.0569911 -1.8783413 7 1
-47.033615 -37.291752 3.1457052 0 9
-8.2772188 -6.5580912 -2.0527232 9 2
-12.188657 -9.6467648 -2.461966 9 3
-19.641079 -15.528297 -3.0742764 7 4
-19.796213 -15.611685 -1.3212737 10 6
-5.2978997 -4.1481137 -1.8029336 3 0
-6.3963447 -5.0027671 -1.8747422 6 1
-8.2918549 -6.4759765 -2.0450909 10 2
-12.305545 -9.600318 -2.4719777 9 3
-13.932187 -10.857633 -2.168787 5 4
-5.3144941 -4.1015854 -1.7987925 4 0
-6.4033337 -4.9365749 -1.8666438 6 1
-47.771217 -36.802067 3.1603594 0 9
-8.2964163 -6.3867931 -2.0351689 9 2
-12.416114 -9.5478926 -2.4807382 9 3
-19.6954 -15.129204 -3.0494149 7 4
-20.329336 -15.576714 -1.3422081 11 6
-5.3522234 -4.0714021 -1.8018982 4 0
-6.4314356 -4.887033 -1.8648442 7 1
-8.2907524 -6.2907448 -2.0229571 9 2
-12.573774 -9.5301886 -2.4988844 10 3
-19.760973 -14.961383 -3.0433216 11 4
-20.539591 -15.511441 -1.3489071 11 6
-5.371244 -4.0269833 -1.7987925 4 0
-6.4529171 -4.8326707 -1.8612449 7 1
-8.2998791 -6.2068448 -2.0145614 9 2
-12.744451 -9.5201998 -2.5195339 10 3
-20.03359 -14.948896 -3.0691578 10 4
-20.746714 -15.441603 -1.3553967 11 6
-5.3930101 -3.9847956 -1.7967219 4 0
-6.4770894 -4.780561 -1.8585455 6 1
-8.3398485 -6.14642 -2.0137982 7 2
-12.902869 -9.4989195 -2.5376801 10 3
-20.220619 -14.86983 -3.0818324 12 4
-21.134232 -15.501937 -1.3736097 11 6
-5.4206991 -3.947047 -1.7967219 4 0
-6.504004 -4.7306395 -1.8567461 7 1
-8.3777876 -6.0845871 -2.0126534 6 2
-13.045616 -9.4642916 -2.5526979 10 3
-20.148727 -14.601337 -3.0552647 7 4
-5.435565 -3.9000988 -1.7925807 4 0
-6.5099435 -4.6658201 -1.8490976 5 1
-8.3679276 -5.990849 -2.0004416 6 2
-13.177219 -9.4235344 -2.5658383 10 3
-15.041835 -10.741123 -2.2694511 9 4
-21.508619 -15.324965 -1.3840768 11 6
-5.4746037 -3.8719335 -1.7967219 4 0
-6.5224524 -4.6079068 -1.8436987 4 1
-8.367837 -5.9028602 -1.9905195 6 2
-13.333117 -9.3950253 -2.583359 10 3
-15.044797 -10.589356 -2.2589705 11 4
-21.778547 -15.289197 -1.394544 11 6
-5.4951611 -3.8292027 -1.7946514 5 0
-6.5464659 -4.5566936 -1.8414494 3 1
-8.3755836 -5.8233509 -1.9828871 6 2
-13.490859 -9.3694096 -2.6015055 10 3
-15.115093 -10.481809 -2.2584829 11 4
-30.422756 -21.050014 -1.938838 3 6
-5.52176 -3.7907457 -1.7946514 4 0
-6.554009 -4.494349 -1.8347007 4 1
-8.4008408 -5.7521777 -1.979071 4 2
-11.358021 -7.768271 -2.1794453 5 3
-15.201014 -10.384987 -2.2604327 11 4
-30.589111 -20.843019 -1.9398848 7 6
-5.54809 -3.7521045 -1.7946514 5 0
-6.5787673 -4.4441209 -1.8329012 4 1
-8.4137611 -5.6772914 -1.972965 4 2
-11.394256 -7.6797357 -2.1763165 8 3
-15.459242 -10.403852 -2.2879751 12 4
-30.574413 -20.529665 -1.9300456 7 6
-5.5702848 -3.7121115 -1.7936161 3 0
-6.5601978 -4.3668437 -1.8194041 4 1
-8.4204893 -5.5966792 -1.9653327 6 2
-13.898062 -9.22686 -2.6421785 10 3
-15.657085 -10.382862 -2.3067431 11 4
-30.763636 -20.346565 -1.9329764 7 6
-5.5734553 -3.6582909 -1.7863692 5 0
-6.5937843 -4.3230739 -1.8203038 4 1
-8.3837976 -5.4882936 -1.9477782 4 2
-13.580225 -8.8798828 -2.5699058 9 3
-15.833896 -10.34169 -2.3220987 9 4
-5.5988584 -3.619293 -1.7863692 4 0
-6.6008835 -4.2621379 -1.8140053 4 1
-8.3889065 -5.4083533 -1.940146 6 2
-14.226492 -9.1613207 -2.6800354 10 3
-15.999203 -10.291034 -2.335748 9 4
-5.614212 -3.5738914 -1.7832633 4 0
-6.6173234 -4.2075849 -1.8104061 5 1
-8.3883381 -5.3254566 -1.9313688 19 2
-14.248395 -9.0353346 -2.6722138 11 3
-16.149475 -10.229015 -2.3472037 11 4
-31.436281 -19.857838 -1.9486772 3 6
-5.6226559 -3.5243509 -1.7780869 4 0
-6.6547942 -4.1664567 -1.8126557 6 1
-8.4086647 -5.2563586 -1.9275526 27 2
-13.039364 -8.1415691 -2.4347463 5 3
-16.267658 -10.14543 -2.3540282 11 4
-32.696888 -20.336187 -2.0179701 1 6
-5.6536989 -3.4890714 -1.7801574 4 0
-6.657176 -4.1035366 -1.8054571 6 1
-8.4191713 -5.1835637 -1.9218283 4 2
-13.185341 -8.1085043 -2.4516413 8 3
-16.453121 -10.102248 -2.3706028 11 4
-5.6806188 -3.4525137 -1.7811928 4 0
-6.6749587 -4.0520597 -1.8027576 7 1
-8.435008 -5.1124468 -1.9172488 4 2
-13.106441 -7.9344163 -2.4266117 8 3
-16.560574 -10.013645 -2.3762088 9 4
-5.6880054 -3.4028533 -1.7760164 4 0
-6.6830106 -3.9933662 -1.7973589 6 1
-8.4334011 -5.0313082 -1.9088533 4 2
-12.817031 -7.6374559 -2.3630993 7 3
-16.77166 -9.9820576 -2.3964391 11 4
-5.7016349 -3.3571796 -1.7729106 4 0
-6.7090468 -3.9456246 -1.796909 5 1
-8.439539 -4.95541 -1.9023658 4 2
-11.694306 -6.858263 -2.1472197 6 3
-16.894039 -9.8958244 -2.403995 9 4
-5.7349625 -3.3231041 -1.7760164 4 0
-6.7448621 -3.9035709 -1.7991585 7 1
-8.4390793 -4.8781986 -1.8947334 4 2
-11.593594 -6.6935654 -2.1203129 9 3
-17.108898 -9.8619089 -2.4247127 11 4
-5.767518 -3.2897334 -1.7791222 4 0
-6.7611175 -3.8517821 -1.7964592 7 1
-8.4260178 -4.7944279 -1.8844297 3 2
-11.588513 -6.5831914 -2.1109269 9 3
-17.267136 -9.7971439 -2.4376309 10 4
-5.7729301 -3.240943 -1.7739457 4 0
-6.7769794 -3.7999544 -1.7937597 7 1
-8.458457 -4.7369623 -1.8844297 3 2
-11.552615 -6.4618301 -2.096535 9 3
-17.430513 -9.7375917 -2.451524 12 4
-5.7976789 -3.2044542 -1.774981 4 0
-6.8122683 -3.7605762 -1.7964592 7 1
-8.4526758 -4.658432 -1.8760341 3 2
-11.53057 -6.3468499 -2.0846457 9 3
-17.605932 -9.6749449 -2.4666357 12 4
-5.8136716 -3.1591957 -1.7729106 3 0
-6.8218765 -3.7024369 -1.7919601 7 1
-8.4832668 -4.5983725 -1.8756526 4 2
-11.49925 -6.2228107 -2.0708797 9 3
-17.755123 -9.5961571 -2.4780915 10 4
-5.8219547 -3.1112473 -1.7687694 3 0
-6.847559 -3.6547196 -1.7919601 7 1
-8.5228853 -4.5412426 -1.8771789 4 2
-11.467428 -6.1024752 -2.0574262 8 3
-17.942635 -9.5362511 -2.4949093 12 4
-30.564274 -16.196606 -1.8128129 6 6
-5.843533 -3.0705264 -1.7687694 3 0
-6.8556504 -3.5977716 -1.7874612 6 1
-8.5004683 -4.4533887 -1.8653487 3 2
-11.455492 -5.9938817 -2.0477273 9 3
-18.066832 -9.4410954 -2.5029526 10 4
-5.8716917 -3.0332041 -1.77084 3 0
-6.873673 -3.5462482 -1.7856615 7 1
-8.4755011 -4.365171 -1.8531371 3 2
-11.425037 -5.8767157 -2.0348997 8 3
-17.570799 -9.0262909 -2.4254439 2 4
-31.281618 -16.021402 -1.8419118 5 6
-5.8789454 -2.9851396 -1.7666988 4 0
-6.898263 -3.4981747 -1.7856615 7 1
-8.466485 -4.2878642 -1.8447415 3 2
-11.406605 -5.7693896 -2.024575 7 3
-17.736162 -8.9552975 -2.4395807 10 4
-31.140215 -15.682337 -1.8272578 6 6
-5.881844 -2.9364247 -1.7615224 4 0
-6.9079628 -3.4441824 -1.7820623 7 1
-8.4733648 -4.2172823 -1.8397803 4 2
-11.389997 -5.6614823 -2.0145633 7 3
-17.606453 -8.7399254 -2.4135008 2 4
-31.25252 -15.466327 -1.8274672 6 6
-5.9195442 -2.9037995 -1.7666988 4 0
-6.9248385 -3.3924441 -1.7802627 7 1
-8.483202 -4.1485353 -1.8355827 3 2
-11.374221 -5.5549517 -2.0048645 5 3
-17.633142 -8.6002569 -2.4088695 1 4
-5.943152 -2.8640814 -1.7677342 3 0
-6.92377 -3.3321857 -1.7739639 8 1
-8.4801025 -4.0739093 -1.8287135 3 2
-11.329017 -5.4352522 -1.9901596 6 3
-19.090914 -9.1468372 -2.5992296 14 4
-5.9699874 -2.8258252 -1.7698047 3 0
-6.9186749 -3.2704427 -1.7667656 9 1
-8.4799271 -4.0012054 -1.8226075 3 2
-11.320224 -5.3341384 -1.982025 7 3
-19.368053 -9.1139107 -2.6282346 12 4
-5.9680624 -2.7753494 -1.763593 3 0
-6.9460778 -3.2257369 -1.7681153 10 1
-8.4980602 -3.9392633 -1.8206996 4 2
-11.255884 -5.2104874 -1.9645042 7 3
-19.553965 -9.0393429 -2.6450524 14 4
-5.9837785 -2.732012 -1.7625577 3 0
-6.9737477 -3.1795907 -1.769465 9 1
-8.4996634 -3.8699384 -1.815357 4 2
-11.237144 -5.1092219 -1.9551181 24 3
-19.802784 -8.9871092 -2.6701577 13 4
-5.9863701 -2.6841063 -1.757899 2 0
-7.0130138 -3.1400132 -1.7739639 7 1
-8.5157185 -3.8056989 -1.8130672 4 2
-11.234655 -5.0137444 -1.9485478 6 3
-18.89888 -8.4222326 -2.5404885 11 4
-6.0138054 -2.6461372 -1.7604873 3 0
-7.0240607 -3.0862718 -1.7712647 7 1
-8.5324373 -3.7437019 -1.8111591 4 2
-11.217861 -4.9149599 -1.9397876 5 3
-20.339495 -8.8945656 -2.7257299 5 4
-6.0139422 -2.5974829 -1.7553109 3 0
-7.0305901 -3.0322146 -1.7676654 6 1
-8.576396 -3.6918073 -1.8149751 4 2
-31.834116 -13.696764 3.0319738 3 10
-11.208344 -4.8178048 -1.9322786 4 3
-20.558268 -8.8240347 -2.7469351 8 4
-6.0319295 -2.5554342 -1.7553109 3 0
-7.0623555 -2.9876153 -1.7703648 6 1
-8.5802584 -3.6226776 -1.810396 4 2
-31.725201 -13.388206 3.0126255 3 10
-11.1871 -4.7164145 -1.9228927 4 3
-18.475105 -7.7776036 -2.4612734 12 4
-6.0246463 -2.5028849 -1.7480639 3 0
-7.0830407 -2.9382377 -1.7703648 6 1
-8.5926409 -3.5574322 -1.8077245 4 2
-31.341078 -12.969088 2.9674785 6 10
-11.164987 -4.615561 -1.9135066 4 3
-28.848255 -11.913965 3.8323038 10 11
-18.464727 -7.6219277 -2.4527426 9 4
-6.0419726 -2.4607639 -1.7480639 4 0
-7.0889397 -2.8828444 -1.7667656 7 1
-8.6027145 -3.4914515 -1.8046715 4 2
-31.412394 -12.74248 2.9657354 6 10
-11.15483 -4.5204387 -1.9063107 4 3
-28.996969 -11.739094 3.8410783 6 11
-18.090572 -7.3200884 -2.3961952 8 4
-6.0482388 -2.4142272 -1.744958 4 0
-7.1016512 -2.8303998 -1.7649659 7 1
-65.355713 -26.021423 3.6866498 25 9
-8.6068125 -3.4233267 -1.8004738 6 2
-31.396904 -12.48166 2.9559741 6 10
-11.145727 -4.4264126 -1.8994274 4 3
-29.207378 -11.587614 3.85814 6 11
-17.257332 -6.8431163 -2.2794445 5 4
-31.882193 -12.629493 5.4314051 2 12
-6.0649457 -2.3719437 -1.744958 4 0
-7.1103468 -2.776499 -1.7622666 7 1
-8.6140375 -3.3567426 -1.7970392 4 2
-31.596531 -12.306266 2.9666071 8 10
-11.121129 -4.3270073 -1.8900415 4 3
-29.243155 -11.366173 3.8522902 9 11
-16.714417 -6.4931688 -2.2016916 8 4
-31.895927 -12.378019 5.418891 4 12
-30.14509 -11.680408 6.2841039 3 13
-6.0741415 -2.3267806 -1.7428875 4 0
-7.1240969 -2.7247033 -1.7609169 5 1
-65.126823 -24.882547 3.6537828 24 9
-8.6335945 -3.2951236 -1.796276 4 2
-31.389408 -11.973901 2.9392402 6 10
-11.106764 -4.2323799 -1.8825326 3 3
-29.375597 -11.182213 3.8593585 13 11
-16.406826 -6.2421989 -2.1553814 8 4
-31.667656 -12.035737 5.3657031 9 12
-30.134127 -11.434846 6.2650232 3 13
-31.504269 -11.942196 -1.7657107 7 6
-6.075767 -2.2788908 -1.7387464 4 0
-7.1246953 -2.6680675 -1.7564179 5 1
-65.747902 -24.595234 3.6789043 25 9
-8.6196079 -3.221025 -1.7886436 4 2
-28.765867 -10.743683 2.6864886 6 10
-11.095325 -4.1395459 -1.8756495 2 3
-29.785904 -11.100958 3.902988 18 11
-16.265839 -6.0589099 -2.1312513 10 4
-31.773123 -11.822636 5.3694572 2 12
-31.010151 -11.507933 -1.7334718 8 6
-6.1024094 -2.2404146 -1.7418523 5 0
-7.1321697 -2.6142402 -1.7537185 4 1
-31.307636 -11.463162 1.7472885 5 9
-8.6566353 -3.1661654 -1.7916965 4 2
-29.094669 -10.635622 2.7101948 3 10
-11.071999 -4.0430136 -1.8668892 3 3
-29.651945 -10.815876 3.8754454 19 11
-16.167868 -5.8942118 -2.1129708 8 4
-30.098989 -10.961088 5.0734835 6 12
-30.211164 -10.97209 -1.6844852 9 6
-6.1015387 -2.191879 -1.7371935 6 0
-7.1319036 -2.5578058 -1.7492194 5 1
-65.892754 -23.618986 3.6684368 24 9
-8.6742897 -3.1058443 -1.7909334 4 2
-29.258257 -10.464458 2.7185619 5 10
-11.062059 -3.9542568 -1.8606318 3 3
-30.031475 -10.723273 3.9154186 12 11
-16.122612 -5.7505178 -2.1017587 8 4
-30.738548 -10.957604 5.1685953 8 12
-30.232456 -10.747461 -1.6815544 9 6
-6.1017356 -2.1451719 -1.7330524 6 0
-7.1362772 -2.5046818 -1.7460701 3 1
-8.6698189 -3.0361285 -1.7855908 4 2
-29.20093 -10.220304 2.7067087 6 10
-11.014807 -3.8508587 -1.8481169 4 3
-29.901329 -10.442009 3.8888512 3 11
-16.073294 -5.6099014 -2.0903032 6 4
-30.357307 -10.583414 5.0919428 9 12
-6.1202178 -2.103776 -1.7340877 6 0
-7.1480598 -2.4529045 -1.7447205 5 1
-31.506826 -10.805641 1.7456136 6 9
-8.6939983 -2.978317 -1.7863539 4 2
-29.83144 -10.20777 2.7584791 5 10
-11.02955 -3.7719588 -1.8462398 4 3
-29.934139 -10.225408 3.8839762 9 11
-15.98807 -5.4552388 -2.0742164 6 4
-30.581951 -10.428821 5.1175976 18 12
-30.774862 -10.46463 -1.7035357 9 6
-6.1252403 -2.0589919 -1.7314996 5 0
-7.1627421 -2.4035721 -1.7442704 6 1
-31.384554 -10.5194 1.7347277 18 9
-8.669898 -2.9025922 -1.777195 4 2
-30.939417 -10.352183 2.8543503 9 10
-11.033131 -3.687355 -1.8424854 4 3
-30.048105 -10.030636 3.8895824 12 11
-15.893017 -5.3023124 -2.0571547 6 4
-31.739096 -10.576655 5.298749 10 12
-30.786512 -10.229379 -1.700186 9 6
-6.1229463 -2.0107548 -1.7268407 6 0
-7.179347 -2.3535099 -1.7442704 6 1
-31.658428 -10.365925 1.745823 18 9
-8.6899509 -2.8419919 -1.777195 4 2
-30.980635 -10.126039 2.8515615 4 10
-11.041703 -3.6047192 -1.8396695 5 3
-30.385395 -9.9080029 3.9241931 12 11
-15.771105 -5.1395626 -2.0366805 5 4
-31.156609 -10.141435 5.1895571 13 12
-30.644405 -9.9451561 -1.6884627 9 6
-6.1147599 -1.9608806 -1.7206291 19 0
-7.1918912 -2.3021429 -1.7433707 7 1
-32.548054 -10.406193 1.7908319 5 9
-8.703969 -2.7794659 -1.7760502 4 2
-31.042984 -9.9070759 2.8508644 11 10
-11.055307 -3.5239487 -1.8377923 5 3
-30.565424 -9.7311697 3.9385736 6 11
-15.64392 -4.9775767 -2.0157192 5 4
-31.040272 -9.8644514 5.1585836 2 12
-32.552231 -10.326184 6.6382451 6 13
-31.09008 -9.8504114 -1.7091877 8 6
-6.131988 -1.9192979 -1.7216644 19 0
-32.776508 -10.246411 0.59942037 36 8
-7.1966271 -2.2483914 -1.7406713 7 1
-32.799129 -10.234634 1.8006711 15 9
-8.6894236 -2.7081184 -1.7691811 3 2
-30.647238 -9.5455532 2.8083322 10 10
-11.041915 -3.4349468 -1.8315349 5 3
-30.391865 -9.4427443 3.9076192 18 11
-30.327276 -9.4052687 5.0290561 12 12
-31.393232 -9.7178259 6.3879037 9 13
-31.780144 -9.825449 -1.7433108 8 6
-6.1821899 -1.8877268 -1.7320172 6 0
-7.200964 -2.1946857 -1.7379718 7 1
-8.7306595 -2.6542413 -1.7737606 3 2
-30.619715 -9.302989 2.7997909 2 10
-11.039164 -3.3497458 -1.8271548 4 3
-30.225273 -9.1600971 3.877883 13 11
-15.525705 -4.7022753 -1.9918326 5 4
-30.276857 -9.1584263 5.0099707 13 12
-31.324991 -9.4575758 6.3604279 3 13
-6.1526327 -1.8318419 -1.7201115 4 0
-7.2011662 -2.1399209 -1.7343726 7 1
-41.568203 -12.344643 2.272532 0 9
-8.7372293 -2.5914047 -1.7714708 3 2
-31.625719 -9.3679628 2.8857265 4 10
-11.057919 -3.2734082 -1.826529 5 3
-30.27931 -8.9518967 3.8769081 13 11
-15.419176 -4.5527353 -1.9740397 3 4
-30.264608 -8.9303236 4.9977689 9 12
-31.861095 -9.3772326 6.4558325 2 13
-6.179801 -1.7942288 -1.7242525 7 0
-7.2193084 -2.0919392 -1.7352724 7 1
-41.365593 -11.97086 2.2568314 0 9
-8.7136145 -2.5183518 -1.7630752 3 2
-31.66387 -9.1452971 2.8834608 4 10
-11.019768 -3.1786079 -1.8165172 4 3
-30.196095 -8.698535 3.8583837 13 11
-15.392579 -4.4312 -1.9667276 3 4
-29.963606 -8.6145754 4.9380112 10 12
-36.355114 -10.431537 7.351871 0 13
-6.1884584 -1.7499923 -1.7232174 5 0
-7.1962271 -2.0309038 -1.7262744 7 1
-34.402908 -9.7026253 1.8733134 7 9
-8.7192163 -2.4557905 -1.7607856 3 2
-31.606106 -8.8900309 2.8724787 4 10
-11.046854 -3.1051285 -1.8174559 4 3
-29.962189 -8.4107103 3.8210919 10 11
-15.304631 -4.2904129 -1.9516157 3 4
-30.133776 -8.4418592 4.95647 13 12
-36.005615 -10.052956 -1.9591444 3 6
-6.1893501 -1.7036682 -1.7201115 5 0
-36.193775 -9.9490471 0.65519828 16 8
-7.1989555 -1.9775164 -1.723575 7 1
-34.540802 -9.4752169 1.8770815 3 9
-8.7252045 -2.3902221 -1.7584958 3 2
-32.983757 -9.0295229 2.9918823 1 10
-11.028774 -3.0150626 -1.8108855 4 3
-29.858829 -8.1516514 3.800374 14 11
-15.238457 -4.1573386 -1.9394289 3 4
-30.075245 -8.1938162 4.9370723 10 12
-36.269379 -9.8473797 -1.9696116 2 6
-6.19736 -1.6594192 -1.7190762 4 0
-7.1937585 -1.922181 -1.7190759 8 1
-8.7431688 -2.3312817 -1.7588774 4 2
-11.050952 -2.9404333 -1.8111985 4 3
-29.892519 -7.9426117 3.7976928 10 11
-15.190361 -4.030489 -1.9296793 3 4
-35.55302 -9.426713 5.8256202 2 12
-6.189817 -1.612327 -1.7138997 4 0
-8.7402277 -2.2652586 -1.7550613 4 2
-33.340424 -8.6348419 3.0131483 3 10
-11.071211 -2.8632088 -1.8111985 3 3
-31.423365 -8.1149387 3.9848843 2 11
-15.082896 -3.8922768 -1.9126177 3 4
-32.631943 -8.4088192 5.3372316 7 12
-6.2346334 -1.5776048 -1.7232174 4 0
-7.2157989 -1.8218583 -1.7181761 24 1
-34.275444 -8.6475658 1.8525884 4 9
-8.7478285 -2.2037966 -1.7535348 4 2
-36.65757 -9.2213526 3.3070374 1 10
-11.034884 -2.7738199 -1.8021252 4 3
-36.553146 -9.1747293 4.6273794 0 11
-15.032679 -3.7675831 -1.902868 3 4
-36.105007 -9.0421553 5.8950772 0 12
-6.2264676 -1.530519 -1.7180409 4 0
-7.2431736 -1.7764131 -1.7217753 7 1
-34.730728 -8.5049877 1.8739415 3 9
-8.755372 -2.1408064 -1.7520082 4 2
-34.232422 -8.363966 3.0830472 7 10
-11.055901 -2.6971827 -1.8024381 4 3
-36.338577 -8.8516731 4.5922813 1 11
-14.996255 -3.6501486 -1.8950685 3 4
-35.959946 -8.739501 5.8612871 2 12
-40.487106 -9.8023376 -2.1831422 0 6
-6.2482748 -1.4897022 -1.7211467 4 0
-7.240232 -1.7221971 -1.7181761 7 1
-34.783928 -8.2674618 1.8737321 3 9
-8.7678299 -2.0807095 -1.7516266 4 2
-34.204681 -8.1045551 3.0753777 6 10
-11.035558 -2.6127653 -1.7961807 4 3
-36.046387 -8.5210037 4.5479202 2 11
-14.899655 -3.5166383 -1.8797129 4 4
-6.250742 -1.4453961 -1.7190762 4 0
-7.2517867 -1.6728742 -1.7181761 7 1
-8.7343111 -2.0084465 -1.7420862 4 2
-34.09206 -7.8331814 3.0603867 8 10
-11.040052 -2.5325646 -1.7939906 4 3
-36.410725 -8.3391752 4.5864315 2 11
-14.885139 -3.403687 -1.8748381 4 4
-6.2345314 -1.3947253 -1.7118292 4 0
-7.2502584 -1.6179678 -1.7150269 4 1
-42.157124 -9.3923388 2.2635305 0 9
-8.7155418 -1.9401706 -1.7355988 4 2
-33.92746 -7.5401793 3.0406895 4 10
-11.048249 -2.4513621 -1.7924262 3 3
-36.336269 -8.0555611 4.5698571 2 11
-14.865899 -3.2902489 -1.869476 4 4
-6.2705503 -1.3568877 -1.7190762 4 0
-7.28233 -1.5718364 -1.7199757 7 1
-40.538654 -8.7351475 2.1733031 0 9
-8.7042503 -1.8723867 -1.7306377 4 2
-39.791828 -8.5524244 3.5608351 0 10
-11.014876 -2.3633964 -1.7842916 3 3
-40.688557 -8.715436 5.109251 0 11
-14.865213 -3.1813998 -1.866551 4 4
-44.831825 -9.5374842 -2.4021161 0 6
-6.2760887 -1.3122858 -1.7180409 3 0
-7.2664189 -1.5153863 -1.7136772 7 1
-39.889366 -8.3115349 2.135412 0 9
-8.7033386 -1.8102965 -1.7279664 12 2
-38.090954 -7.9090681 3.4036059 0 10
-11.015236 -2.2851555 -1.7817887 4 3
-36.349953 -7.5277133 4.5579138 2 11
-14.82874 -3.0654905 -1.8592389 4 4
-6.3151736 -1.2756568 -1.7263231 1 0
-7.3033099 -1.4712797 -1.7199757 7 1
-40.357613 -8.1155386 2.157393 0 9
-8.7138395 -1.7491075 -1.7275848 18 2
-38.020844 -7.624917 3.3926244 0 10
-11.03092 -2.2082016 -1.7817887 3 3
-49.186958 -9.8285208 6.1587896 0 11
-14.796703 -2.9539905 -1.8526579 3 4
-6.3087549 -1.2285832 -1.722182 3 0
-7.3019257 -1.4180282 -1.7172763 7 1
-40.123096 -7.7773423 2.1419015 1 9
-8.727766 -1.6886014 -1.7279664 3 2
-37.957733 -7.3369961 3.38234 0 10
-11.011153 -2.1243987 -1.776157 4 3
-49.59745 -9.5509691 6.2016878 0 11
-14.783828 -2.844239 -1.8485144 4 4
-6.2943926 -1.180239 -1.7159703 3 0
-7.3078165 -1.3663003 -1.7163765 6 1
-39.363579 -7.3453722 2.0985675 1 9
-8.7702227 -1.6333824 -1.7340722 6 2
-40.058861 -7.4534125 3.5648439 1 10
-10.982989 -2.0395429 -1.769274 4 3
-50.12746 -9.2905788 6.2596974 1 11
-14.746716 -2.7304814 -1.8414459 3 4
-6.3195901 -1.139352 -1.7206291 2 0
-7.3171763 -1.3152506 -1.7163765 6 1
-40.458481 -7.2650576 2.1542528 0 9
-8.7637463 -1.5705308 -1.7306377 4 2
-45.713268 -8.1757021 4.0628519 1 10
-10.979116 -1.9616098 -1.7664583 5 3
-49.994106 -8.9143095 6.2353234 0 11
-14.741967 -2.6232903 -1.838521 3 4
-6.3233924 -1.09565 -1.7195939 2 0
-7.3009958 -1.2611016 -1.7105279 5 1
-42.43708 -7.3148966 2.2568314 0 9
-8.7899742 -1.5119745 -1.7336906 4 2
-46.162544 -7.9321709 4.0978885 1 10
-10.961391 -1.8795744 -1.7614522 5 3
-49.695095 -8.5034742 6.1904755 1 11
-14.724261 -2.5168633 -1.8341339 3 4
-51.147758 -8.6785469 -2.718853 0 6
-6.3308873 -1.0514791 -1.7195939 2 0
-7.3096223 -1.2101021 -1.7105279 4 1
-45.563805 -7.5348706 2.4203289 1 9
-8.7903776 -1.4505097 -1.7317824 3 2
-46.100807 -7.5906157 4.087604 1 10
-10.919354 -1.7959398 -1.752692 5 3
-49.728321 -8.1611557 6.187551 0 11
-14.686621 -2.4050286 -1.827309 3 4
-6.3340816 -1.0077546 -1.7185585 2 0
-7.3138399 -1.1597085 -1.709628 4 1
-45.686314 -7.2278275 2.4240971 0 9
-8.7789583 -1.385739 -1.7275848 4 2
-53.885948 -8.4961376 4.7726483 0 10
-10.904306 -1.7153695 -1.7483118 5 3
-49.897831 -7.8316407 6.2016878 0 11
-14.675196 -2.3006997 -1.8238968 3 4
-6.2932148 -0.95625293 -1.7056175 2 0
-7.3159776 -1.107743 -1.7082783 3 1
-45.636917 -6.8937845 2.4188635 0 9
-8.774828 -1.3223705 -1.7249134 3 2
-53.147991 -7.999927 4.7022266 0 10
-10.916016 -1.6392038 -1.7483118 4 3
-14.647708 -2.1917322 -1.8185345 3 4
-6.3590064 -0.92087924 -1.7216644 2 0
-7.3389621 -1.0588689 -1.7118775 3 1
-45.387402 -6.5323434 2.4031627 0 9
-8.7916203 -1.2621924 -1.7264398 3 2
-53.092102 -7.6128654 4.6924653 0 10
-10.931106 -1.5635126 -1.7489375 5 3
-14.611556 -2.0821338 -1.8121973 3 4
-6.3365731 -0.87250978 -1.7138997 3 0
-7.3403845 -1.0068132 -1.7105279 3 1
-62.828247 -8.6064024 3.3234382 8 9
-8.8194599 -1.2049801 -1.7302561 3 2
-53.120266 -7.2387986 4.6903734 0 10
-10.94541 -1.4896059 -1.7495633 4 3
-14.57459 -1.9731542 -1.80586 3 4
-6.3596053 -0.83161223 -1.7185585 2 0
-7.349 -0.95707691 -1.7109778 3 1
-64.273232 -8.3476496 3.3967085 12 9
-8.8042936 -1.1403532 -1.7256767 3 2
-53.120884 -6.8709311 4.6861897 0 10
-10.951624 -1.4126508 -1.7489375 4 3
-14.548631 -1.8663013 -1.8009853 3 4
-6.3558064 -0.78490019 -1.7159703 3 0
-7.3421211 -0.90280116 -1.7078284 4 1
-8.7964506 -1.0769534 -1.7226238 3 2
-10.951647 -1.3330531 -1.7473731 4 3
-14.521893 -1.7599143 -1.7961105 3 4
-6.3688073 -0.7414028 -1.7180409 3 0
-7.3501801 -0.85174578 -1.7082783 3 1
-8.7844276 -1.0117334 -1.7188075 3 2
-65.900314 -7.5783014 5.8035269 15 10
-10.974424 -1.2581414 -1.7495633 4 3
-14.469028 -1.6485373 -1.7880672 4 4
-6.37779 -0.69623047 -1.7190762 3 0
-7.3560872 -0.79912728 -1.7082783 3 1
-8.8303137 -0.95459998 -1.7264398 3 2
-10.98511 -1.1797889 -1.7498761 4 3
-14.424915 -1.5415813 -1.7812425 4 4
-6.3976421 -0.65549117 -1.7232174 3 0
-7.3554091 -0.749731 -1.7069286 4 1
-8.8483267 -0.89566016 -1.7287296 3 2
-10.965178 -1.104136 -1.745496 4 3
-14.407168 -1.4431072 -1.7778301 4 4
-6.3328304 -0.60420436 -1.7045823 4 0
-7.3527045 -0.69762427 -1.705129 5 1
-8.8582726 -0.83423346 -1.7294928 3 2
-10.988353 -1.029031 -1.747999 3 3
-14.420846 -1.3428593 -1.7783177 4 4
-6.3638349 -0.56236035 -1.7118292 3 0
-7.3709841 -0.64747113 -1.7082783 3 1
-8.7934713 -0.7662375 -1.7157546 3 2
-11.00314 -0.95297468 -1.7492503 3 3
-14.433825 -1.2424905 -1.7788051 4 4
-6.3714566 -0.51823342 -1.7128645 3 0
-7.3675547 -0.59537005 -1.7064787 3 1
-8.8728476 -0.71233243 -1.7302561 3 2
-11.009372 -0.87805641 -1.7492503 3 3
-14.430273 -1.1407579 -1.7773427 4 4
-6.3979545 -0.47657421 -1.7190762 3 0
-7.3656063 -0.54477561 -1.705129 4 1
-8.8384447 -0.64750421 -1.7226238 3 2
-11.019175 -0.80146438 -1.7498761 2 3
-14.481262 -1.0456527 -1.7827048 4 4
-6.3818507 -0.43059447 -1.7138997 3 0
-7.359508 -0.49268806 -1.7028794 3 1
-8.8074875 -0.58345062 -1.7157546 3 2
-10.992963 -0.7224465 -1.7448702 3 3
-14.498114 -0.94517827 -1.7839236 2 4
-6.3885584 -0.38626495 -1.7149351 3 0
-7.3530426 -0.44071585 -1.7006299 4 1
-8.8270254 -0.52287519 -1.7188075 3 2
-11.001683 -0.64591247 -1.745496 3 3
-14.466705 -0.84174496 -1.7792926 2 4
-6.3949571 -0.34186122 -1.7159703 3 0
-7.3695617 -0.39009222 -1.7037793 3 1
-8.8343 -0.46298689 -1.7195706 3 2
-11.01766 -0.57162797 -1.7473731 3 3
-14.496021 -0.7419489 -1.7822174 2 4
-6.3816981 -0.29760423 -1.7118292 3 0
-7.3817806 -0.34036887 -1.7060288 4 1
-8.8294725 -0.40094432 -1.7180443 3 2
-11.017435 -0.49451908 -1.7467474 3 3
-14.47892 -0.6422925 -1.7795362 2 4
-6.3874812 -0.25319886 -1.7128645 3 0
-7.3839765 -0.28882781 -1.7060288 5 1
-8.851675 -0.34004688 -1.7218604 3 2
-11.000881 -0.41684294 -1.7436188 3 3
-14.510824 -0.54223275 -1.7829487 2 4
-6.3890929 -0.20859967 -1.7128645 3 0
-7.381917 -0.23714575 -1.705129 2 1
-8.8459835 -0.2779977 -1.7203341 3 2
-10.995625 -0.33978805 -1.7423673 3 3
-14.51227 -0.44085458 -1.7827048 2 4
-6.3710818 -0.16349472 -1.7076882 3 0
-7.3794966 -0.18550652 -1.7042291 4 1
-8.8515968 -0.21787506 -1.7210972 3 2
-11.005583 -0.26512814 -1.7436188 3 3
-14.554686 -0.34046099 -1.7875797 2 4
-6.3488688 -0.11968733 -1.7014765 4 0
-7.3533106 -0.13477154 -1.6979306 5 1
-8.8450499 -0.15593763 -1.7195706 3 2
-11.015064 -0.18842334 -1.7448702 3 3
-14.544758 -0.24118137 -1.7861173 2 4
-6.357276 -0.075454168 -1.703547 3 0
-7.3579698 -0.083478443 -1.6988304 4 1
-8.8773174 -0.096067466 -1.7256767 3 2
-11.016091 -0.11344429 -1.7448702 3 3
-14.538147 -0.13956119 -1.7851423 2 4
-6.3769608 -0.03227751 -1.7087234 4 0
-7.3583674 -0.033392295 -1.6988304 4 1
-8.8502855 -0.033982113 -1.7203341 3 2
-11.020568 -0.03654518 -1.745496 3 3
-14.552656 -0.040638532 -1.7868484 2 4
-38.181553 -0.059986744 -2.001013 2 6
-6.3770304 0.012242854 -1.7087234 3 0
-7.3701134 0.018008178 -1.7015297 5 1
-8.862092 0.026293624 -1.7226238 3 2
-11.008709 0.038426444 -1.7436188 2 3
-14.552585 0.060955673 -1.7868484 1 4
-6.3729362 0.055616014 -1.7076882 4 0
-7.3620253 0.068102531 -1.6997302 5 1
-8.8185024 0.08773236 -1.714228 3 2
-11.00422 0.1152394 -1.742993 2 3
-14.549848 0.15998894 -1.7866048 2 4
-6.3723927 0.10010462 -1.7076882 4 0
-7.3613706 0.11949573 -1.6997302 5 1
-8.7941446 0.14735928 -1.7096486 3 2
-11.022933 0.19047891 -1.7461218 2 3
-14.590055 0.26231149 -1.7917233 3 4
-6.3638382 0.14330393 -1.7056175 3 0
-7.3779206 0.17000435 -1.7037793 6 1
-8.8517838 0.21015039 -1.7210972 3 2
-10.989737 0.26666477 -1.7411157 2 3
-14.576026 0.36132181 -1.7902608 3 4
-6.3665447 0.18784235 -1.7066529 3 0
-7.3551278 0.22086442 -1.6988304 4 1
-8.8187027 0.2709755 -1.7149915 3 2
-11.003404 0.34387216 -1.7436188 2 3
-14.535451 0.46187153 -1.7856297 2 4
-6.3419108 0.23143917 -1.7004411 4 0
-7.3339329 0.27148661 -1.6943314 4 1
-8.8322916 0.33312494 -1.7180443 3 2
-10.977047 0.41977614 -1.7398643 2 3
-14.555675 0.56426305 -1.7885547 2 4
-6.3594413 0.27654621 -1.7056175 4 0
-7.3649545 0.32413533 -1.7019798 6 1
-8.7787571 0.39249998 -1.7081223 3 2
-10.969903 0.49622163 -1.7392386 3 3
-14.513703 0.66413945 -1.7839236 2 4
-6.3727908 0.32171595 -1.7097588 4 0
-7.3430505 0.3745518 -1.6974807 6 1
-8.7993307 0.4549922 -1.7127017 3 2
-10.966171 0.57279128 -1.7392386 4 3
-14.542414 0.76722258 -1.7880672 2 4
-6.3549604 0.36531162 -1.7056175 3 0
-7.3383112 0.42569399 -1.6970307 4 1
-8.7645817 0.51457298 -1.7065957 3 2
-10.950073 0.64863741 -1.7373614 3 3
-14.518868 0.86766666 -1.7858734 3 4
-6.3522549 0.40966874 -1.7056175 3 0
-7.3273821 0.47640896 -1.6952311 4 1
-8.8469734 0.58141148 -1.723387 3 2
-10.94922 0.72532606 -1.7379872 3 3
-14.542169 0.97098672 -1.7895297 2 4
-6.3569484 0.45455548 -1.7076882 3 0
-7.3335962 0.5282504 -1.6974807 3 1
-8.776124 0.63831651 -1.710412 3 2
-10.928129 0.80059373 -1.7354842 3 3
-14.511278 1.0707335 -1.7866048 2 4
-6.3613234 0.49952918 -1.7097588 3 0
-7.3297296 0.57943571 -1.6974807 3 1
-8.8027658 0.70206922 -1.7165178 3 2
-10.914396 0.87623459 -1.7342327 2 3
-14.509384 1.1724949 -1.7873359 2 4
-6.3576808 0.54392737 -1.7097588 3 0
-7.3352132 0.63142836 -1.6997302 3 1
-8.8095188 0.76298594 -1.7188075 3 2
-10.908179 0.95050377 -1.7342327 2 3
-14.540396 1.2772316 -1.7922107 2 4
-6.3557549 0.58736807 -1.7102764 2 0
-7.3423882 0.68242514 -1.7024295 2 1
-8.7883396 0.82300502 -1.7157546 3 2
-10.928812 1.029227 -1.7386128 2 3
-14.531364 1.3761755 -1.7922107 2 4
-6.3457322 0.63115013 -1.7087234 2 0
-7.3238711 0.73230904 -1.6992803 3 1
-8.7667542 0.88276565 -1.7127017 3 2
-10.933152 1.106693 -1.7404901 2 3
-14.529303 1.4783938 -1.7931857 2 4
-6.3315668 0.67441481 -1.7061353 2 0
-7.312767 0.78280097 -1.6979306 2 1
-8.7681837 0.94478673 -1.714228 3 2
-10.909449 1.18129 -1.7379872 2 3
-14.554151 1.5836532 -1.797573 2 4
-6.3228655 0.71816349 -1.7050999 2 0
-7.295507 0.83250725 -1.6952311 2 1
-8.773077 1.0073229 -1.7165178 3 2
-10.912709 1.2587843 -1.7398643 3 3
-14.552599 1.6863678 -1.7987916 2 4
-6.3387947 0.76483196 -1.710794 3 0
-7.3049946 0.88529313 -1.6988304 3 1
-8.8009109 1.0728201 -1.723387 3 2
-10.876206 1.3315755 -1.7354842 3 3
-14.568055 1.7913113 -1.802204 2 4
-6.3064723 0.8056407 -1.703547 3 0
-7.2967024 0.93602377 -1.6983805 3 1
-8.7893124 1.1337315 -1.7226238 3 2
-10.894071 1.4110229 -1.7398643 3 3
-14.584723 1.8968085 -1.80586 3 4
-6.2930365 0.84861434 -1.7014765 2 0
-7.2919216 0.98720127 -1.6988304 3 1
-8.7150421 1.1860654 -1.7096486 3 2
-10.891783 1.4881155 -1.7411157 3 3
-14.563257 1.9975072 -1.8048851 3 4
-6.3099113 0.89578581 -1.7076882 3 0
-7.271347 1.03616 -1.6956811 3 1
-8.7220974 1.2491037 -1.7127017 3 2
-10.869398 1.5624294 -1.7392386 3 3
-55.97118 8.0655718 6.9433846 0 11
-14.550921 2.0994093 -1.8051288 9 4
-6.3111463 0.94095492 -1.7097588 3 0
-7.2620087 1.0866098 -1.6952311 3 1
-8.7131643 1.309967 -1.7127017 3 2
-56.493385 8.5034781 4.9982076 0 10
-10.877757 1.6412237 -1.7423673 3 3
-56.419903 8.5326996 7.006269 1 11
-14.486843 2.1935167 -1.7990354 19 4
-6.2796106 0.98111385 -1.7030294 2 0
-7.2600212 1.1381856 -1.6965809 3 1
-8.6962881 1.3680229 -1.7111752 3 2
-10.854627 1.713378 -1.7404901 4 3
-14.553523 2.3076539 -1.8092724 3 4
-6.3109193 1.0300591 -1.7133821 2 0
-7.2771063 1.1916724 -1.7024295 3 1
-8.7020226 1.4312499 -1.714228 3 2
-10.850198 1.7904022 -1.7417415 4 3
-14.588396 2.4150929 -1.8156096 3 4
-6.2978611 1.073119 -1.7118292 3 0
-7.2647681 1.2417887 -1.7015297 2 1
-8.7172346 1.4947611 -1.719189 4 2
-10.822185 1.8615342 -1.7392386 7 3
-14.59661 2.5212727 -1.8187783 4 4
-38.503117 6.6921725 -2.0481155 1 6
-6.2694874 1.1122504 -1.7061353 2 0
-7.2331243 1.287113 -1.696131 4 1
-8.7065868 1.5555824 -1.719189 4 2
-10.808926 1.937042 -1.7392386 24 3
-14.614279 2.6268921 -1.8231655 4 4
-37.299847 6.7516351 -1.9865683 2 6
-6.2862663 1.1605506 -1.7128645 3 0
-7.2277946 1.3382862 -1.6970307 4 1
-8.6935844 1.6159692 -1.7188075 3 2
-10.789312 2.0113692 -1.7383 5 3
-14.615095 2.7324994 -1.8256029 4 4
-6.2855997 1.2058661 -1.7149351 3 0
-7.2297573 1.3909237 -1.6997302 4 1
-8.6724539 1.6747591 -1.7168994 4 2
-10.806037 2.0926502 -1.7433058 4 3
-14.597613 2.8348403 -1.8258467 6 4
-37.47245 7.3246346 -2.001013 2 6
-6.2637658 1.2470765 -1.7113116 2 0
-7.2275147 1.4428874 -1.7015297 5 1
-8.639678 1.7295132 -1.7127017 10 2
-10.843835 2.1766527 -1.7517534 3 3
-14.530763 2.9272768 -1.819997 6 4
-38.302601 7.7579484 -2.0481155 1 6
-6.2494555 1.2885134 -1.7097588 3 0
-7.198442 1.4881049 -1.6970307 5 1
-8.6216249 1.7885907 -1.7115568 21 2
-10.839978 2.25472 -1.7536306 4 3
-14.47552 3.018822 -1.8156096 7 4
-6.2327509 1.3304983 -1.7076882 3 0
-7.2088394 1.5428095 -1.7019798 6 1
-8.6146879 1.8499743 -1.7127017 3 2
-10.802732 2.3257663 -1.7501891 4 3
-14.450212 3.1189654 -1.8151222 7 4
-35.895252 7.7936258 -1.9250213 3 6
-6.2459474 1.3789749 -1.7138997 3 0
-7.2093091 1.5956241 -1.7046791 7 1
-8.6283941 1.9160272 -1.7180443 3 2
-10.793943 2.402844 -1.7514404 4 3
-14.400962 3.2137179 -1.8117099 7 4
-6.2286348 1.4208277 -1.7118292 3 0
-7.2055926 1.6476532 -1.7064787 15 1
-8.6301155 1.9797318 -1.7210972 3 2
-10.780756 2.4790268 -1.7520663 5 3
-14.374306 3.3132858 -1.8112223 7 4
-34.596077 8.0189381 -1.8611714 16 6
-6.2072806 1.4616205 -1.7087234 3 0
-7.1427059 1.6858312 -1.6943314 25 1
-8.6122637 2.0390265 -1.7203341 3 2
-10.868896 2.5793138 -1.769274 7 3
-14.343101 3.4117157 -1.8102474 7 4
-33.428154 7.9945436 -1.8012992 6 6
-6.2006807 1.5058302 -1.7097588 4 0
-7.1440167 1.73888 -1.6974807 30 1
-8.6344242 2.106442 -1.7275848 4 2
-10.828062 2.6476061 -1.7655195 9 3
-14.315076 3.5108204 -1.8097599 7 4
-6.2127762 1.5536259 -1.7159703 3 0
-7.1943946 1.8031014 -1.7123275 7 1
-8.6042757 2.1628411 -1.7245318 4 2
-10.774836 2.7144496 -1.7598881 9 3
-14.273525 3.6038053 -1.8075663 9 4
-6.164362 1.5873282 -1.7056175 16 0
-7.1646481 1.8489031 -1.7082783 7 1
-8.585165 2.2218719 -1.7237686 4 2
-10.717381 2.779685 -1.7536306 6 3
-14.196146 3.6898792 -1.8009853 7 4
-37.63763 9.8319292 -2.0386951 1 6
-6.1549983 1.6308182 -1.7061353 20 0
-7.151566 1.898875 -1.7082783 6 1
-8.5732393 2.282764 -1.7245318 4 2
-10.693895 2.8534226 -1.7530048 7 3
-14.18538 3.7930026 -1.8029352 7 4
-36.584362 9.8301296 -1.9853123 2 6
-6.1397352 1.6727315 -1.7050999 19 0
-7.1531749 1.9528602 -1.7118775 7 1
-8.5854969 2.3503363 -1.7302561 4 2
-10.67181 2.9274855 -1.752692 8 3
-14.175781 3.8966744 -1.8051288 9 4
-27.928551 7.7137871 -1.5184757 35 6
-6.1297674 1.7160764 -1.7056175 5 0
-7.146872 2.0048585 -1.7136772 7 1
-8.6369171 2.4293523 -1.7439942 6 2
-10.620692 2.9933412 -1.7476861 8 3
-14.111937 3.9852915 -1.8004979 7 4
-6.1547709 1.7695025 -1.7159703 4 0
-7.1252112 2.0525446 -1.7118775 7 1
-8.6291761 2.492316 -1.7459024 7 2
-10.599536 3.0674171 -1.7476861 8 3
-14.076142 4.0815063 -1.7995229 7 4
-20.769505 6.0380287 -1.8923255 35 5
-26.203539 7.6326718 -1.4303418 11 6
-6.1459737 1.8135215 -1.7170056 4 0
-7.1069708 2.1011329 -1.7109778 7 1
-8.5776854 2.5424538 -1.7390332 10 2
-10.577864 3.1413386 -1.7476861 8 3
-14.028279 4.1740122 -1.7970854 7 4
-25.353546 7.577497 -1.3867983 22 6
-6.1146731 1.8507876 -1.7118292 4 0
-7.107048 2.1552219 -1.714577 7 1
-8.5376387 2.5939324 -1.7344538 9 2
-10.537338 3.2075145 -1.7445574 8 3
-13.994999 4.2706909 -1.796598 7 4
-24.585251 7.5305448 -1.3475463 22 6
-6.109314 1.8946534 -1.7138997 4 0
-7.1182675 2.2116416 -1.7208756 7 1
-8.4949541 2.6458836 -1.7294928 6 2
-10.526003 3.2845314 -1.7464346 8 3
-13.980763 4.3705883 -1.7985479 7 4
-23.849894 7.4878163 -1.3100739 21 6
-6.1069851 1.9407691 -1.7170056 4 0
-7.1175089 2.266012 -1.7244748 7 1
-8.4818869 2.7069159 -1.7306377 7 2
-10.497171 3.356132 -1.745496 7 3
-13.931006 4.4620309 -1.7961105 7 4
-23.184807 7.4572182 -1.2763693 21 6
-6.093287 1.9833566 -1.7170056 4 0
-7.1348648 2.3265207 -1.7325729 7 1
-8.4515867 2.762403 -1.728348 9 2
-10.4641 3.4262583 -1.7439317 8 3
-13.901403 4.5597944 -1.7963543 9 4
-6.0939546 2.0307317 -1.7211467 5 0
-7.1369338 2.3824453 -1.7370721 9 1
-8.417201 2.8163552 -1.7252951 9 2
-10.436178 3.4979722 -1.7433058 8 3
-13.871112 4.6573648 -1.796598 7 4
-27.645287 9.3197784 -1.5289427 11 6
-6.0832853 2.0744746 -1.722182 5 0
-7.1109066 2.4290628 -1.7348225 11 1
-8.4029055 2.8769574 -1.7264398 6 2
-10.418978 3.5733089 -1.7445574 8 3
-13.849524 4.7579598 -1.7980604 7 4
-21.005167 7.244966 -1.1644752 20 6
-6.0613589 2.114347 -1.7201115 5 0
-7.0625014 2.4677176 -1.7271742 9 1
-8.3775702 2.9321401 -1.7252951 7 2
-10.383229 3.6402223 -1.7426801 8 3
-13.786005 4.8440032 -1.7941607 7 4
-27.468954 9.6841211 -1.5264307 23 6
-6.0468264 2.1555562 -1.7201115 5 0
-7.0381999 2.5131123 -1.7253746 9 1
-8.3735313 2.9965105 -1.7287296 6 2
-10.374299 3.7186239 -1.745496 7 3
-13.793817 4.952487 -1.7995229 7 4
-26.991066 9.7280254 -1.5036122 11 6
-6.0461521 2.2030082 -1.7242525 4 0
-6.994854 2.5528333 -1.7190759 9 1
-8.3653154 3.0596147 -1.7314008 9 2
-10.338812 3.7875593 -1.7439317 8 3
-13.747725 5.0445585 -1.7980604 7 4
-25.824228 9.5117025 -1.4422743 11 6
-6.0704546 2.2599945 -1.7356406 5 0
-6.9750361 2.6009238 -1.718626 10 1
-8.3474283 3.1193128 -1.732164 7 2
-10.308417 3.8582578 -1.7433058 8 3
-13.697301 5.1348424 -1.7961105 7 4
-25.570265 9.6214151 -1.4318073 22 6
-6.0653634 2.3064375 -1.7387464 7 0
-6.9567084 2.6495535 -1.718626 10 1
-8.3278389 3.17676 -1.7325459 6 2
-10.292989 3.9325662 -1.745183 8 3
-13.651851 5.22679 -1.7948918 9 4
-18.759317 7.1935139 -1.7577569 38 5
-18.642906 7.1600728 -1.0466145 57 6
-6.0423198 2.3448744 -1.7366759 9 0
-6.9276142 2.6926093 -1.7159266 10 1
-8.3017979 3.2333965 -1.7317824 6 2
-10.252399 3.999306 -1.742993 7 3
-13.636296 5.3275404 -1.797573 10 4
-18.624567 7.287641 -1.7497386 38 5
-23.400963 9.1754408 -1.3172961 10 6
-6.0042496 2.3784628 -1.7304642 7 0
-6.9086475 2.7409074 -1.7159266 10 1
-8.2668257 3.2847559 -1.7291112 7 2
-10.212092 4.0638843 -1.7408029 8 3
-13.521327 5.3917246 -1.7873359 12 4
-18.147673 7.2475271 -1.7096471 38 5
-23.779316 9.5110483 -1.3422081 11 6
-5.9950848 2.4221718 -1.7325348 9 0
-6.8717661 2.78056 -1.7114276 10 1
-8.2218599 3.333535 -1.7245318 10 2
-10.187134 4.1365657 -1.7414287 8 3
-13.616711 5.5374789 -1.8048851 13 4
-17.706732 7.2115655 -1.672693 36 5
-23.201958 9.4685392 -1.3133186 10 6
-5.9780293 2.4639649 -1.7325348 9 0
-6.8629951 2.832926 -1.7141271 10 1
-8.2171221 3.3969228 -1.728348 7 2
-10.158742 4.2058091 -1.7414287 8 3
-13.520881 5.6088276 -1.7973293 16 4
-17.26589 7.1729569 -1.635739 35 5
-22.49156 9.3577251 -1.2766834 21 6
-5.9264102 2.4924502 -1.7226996 6 0
-6.8389554 2.8804512 -1.7132272 10 1
-8.1594419 3.443326 -1.7214788 7 2
-10.145834 4.2878528 -1.7445574 8 3
-13.460288 5.6969256 -1.7946482 16 4
-16.953632 7.1859159 -1.6109867 34 5
-22.216467 9.434906 -1.2649603 21 6
-5.9248452 2.5406141 -1.7273583 9 0
-6.833005 2.9342773 -1.7168264 10 1
-8.1556549 3.507318 -1.7256767 6 2
-10.134555 4.3646302 -1.7476861 8 3
-13.361865 5.7655873 -1.7868484 19 4
-16.412899 7.0922904 -1.5642712 66 5
-16.421793 7.1063399 -0.93775576 27 6
-5.8897119 2.5731502 -1.722182 7 0
-6.8093033 2.9791565 -1.7159266 10 1
-8.1291723 3.5633814 -1.7252951 7 2
-10.103839 4.4352741 -1.7476861 8 3
-12.931601 5.6846519 -1.7344446 10 4
-16.090359 7.0966949 -0.92163628 18 6
-5.8892517 2.6220646 -1.7273583 9 0
-6.7776589 3.0218618 -1.7132272 10 1
-8.1154852 3.623435 -1.7275848 7 2
-10.077021 4.5055585 -1.7483118 8 3
-12.650653 5.6668572 -1.7020274 12 4
-15.739245 7.0701985 -0.90426069 27 6
-15.087484 6.7932458 4.4335704 2 15
-5.8677497 2.6604941 -1.7263231 9 0
-6.7320919 3.0566454 -1.7069286 10 1
-8.0792694 3.6751242 -1.7252951 9 2
-10.036332 4.571703 -1.7467474 7 3
-13.4787 6.1482768 -1.8190219 11 4
-15.427984 7.060225 -0.88918805 26 6
-5.8595557 2.7062538 -1.7294289 9 0
-6.7105885 3.10357 -1.7069286 10 1
-8.0462894 3.7281368 -1.7237686 9 2
-10.018507 4.6483097 -1.7492503 9 3
-13.514659 6.2790322 -1.8297465 15 4
-15.114018 7.0445671 -0.87390584 26 6
-5.8230381 2.7388728 -1.7242525 9 0
-6.681706 3.1470218 -1.705129 10 1
-8.0129633 3.7808683 -1.722242 7 2
-9.9822397 4.7164512 -1.7486247 9 3
-13.384364 6.3324757 -1.818047 15 4
-19.094957 9.0506239 -1.8487476 36 5
-14.797426 7.0231709 -0.85841441 26 6
-5.8002915 2.7777886 -1.7232174 9 0
-6.6437593 3.1860065 -1.7010798 9 1
-7.9686785 3.8282144 -1.7184259 9 2
-9.9383879 4.7808871 -1.7467474 9 3
-13.200333 6.3585663 -1.7990354 18 4
-14.514254 7.0133371 -0.84480709 26 6
-5.7877035 2.8216007 -1.7252878 9 0
-6.637116 3.2400053 -1.705129 10 1
-7.9452853 3.8854778 -1.719189 7 2
-9.9118652 4.8536286 -1.747999 11 3
-12.120066 5.9428062 -1.6574231 10 4
-14.160988 6.9527264 -1.3801982 41 5
-14.135171 6.9523015 -0.82554746 43 6
-5.7817082 2.8688071 -1.7294289 9 0
-6.6108441 3.2845278 -1.7042291 10 1
-7.9256845 3.9429674 -1.7207156 9 2
-9.8096418 4.886631 -1.735797 13 3
-12.126241 6.0512042 -1.6640041 3 4
-13.930338 6.9697127 -0.81633633 26 6
-5.7620468 2.9080954 -1.7294289 9 0
-6.5918126 3.3312082 -1.705129 10 1
-19.150314 9.6861086 1.1246998 3 9
-7.897965 3.9982011 -1.7207156 9 2
-9.7929077 4.9639268 -1.7389257 13 3
-12.605194 6.3977447 -1.7356633 11 4
-17.863218 9.0821342 -1.7532248 38 5
-13.681995 6.9653068 -0.80461305 26 6
-5.720983 2.9376607 -1.7232174 9 0
-6.5735955 3.3798182 -1.7064787 9 1
-7.8663678 4.051446 -1.7199525 9 2
-9.7720594 5.0394168 -1.7414287 14 3
-11.856454 6.1221929 -1.6384115 4 4
-13.411345 6.9458404 -0.79152906 17 6
-5.686635 2.9703748 -1.7190762 7 0
-6.5584731 3.4301453 -1.7087282 13 1
-7.8500667 4.1126409 -1.7226238 6 2
-9.7156496 5.0965023 -1.7376742 14 3
-12.813403 6.7300358 -1.7770989 10 4
-16.676723 8.7740488 -1.648638 36 5
-13.176986 6.9415579 -0.7805385 26 6
-5.6623478 3.0081887 -1.7180409 7 0
-6.5292053 3.4731014 -1.7073785 13 1
-7.8263612 4.170114 -1.7237686 7 2
-9.723403 5.1874537 -1.745496 20 3
-12.626029 6.7445049 -1.7575998 11 4
-12.999735 6.9557939 -1.289905 24 5
-12.966235 6.9466076 -0.77090871 26 6
-5.6582065 3.0568273 -1.7232174 9 0
-6.5048003 3.5185976 -1.7073785 13 1
-7.7987838 4.2255859 -1.7241502 6 2
-9.6817427 5.2523808 -1.7445574 18 3
-12.550727 6.8173232 -1.7537 2 4
-12.794561 6.9584479 -1.2742169 23 5
-12.717479 6.9280376 -0.7589761 26 6
-5.6265674 3.0906751 -1.7201115 7 0
-6.4732466 3.5601692 -1.7055789 11 1
-7.7750001 4.2814136 -1.7252951 7 2
-9.6665239 5.3296061 -1.7483118 20 3
-14.237065 7.8625193 -1.9969513 2 4
-12.553873 6.9415522 -1.2550427 22 5
-12.481313 6.9099655 -0.74767154 17 6
-5.6020269 3.1270177 -1.7190762 9 0
-6.4556684 3.60795 -1.7073785 14 1
-7.7140861 4.3183255 -1.7184259 9 2
-9.6256361 5.3950276 -1.7476861 19 3
-14.119163 7.9233003 -1.9879328 2 4
-12.334899 6.9333501 -1.2379601 22 5
-15.858177 8.9246855 -0.95366585 9 6
-5.5834203 3.1679578 -1.7201115 9 0
-6.4269342 3.6510062 -1.7064787 15 1
-7.7076387 4.3856678 -1.7237686 7 2
-9.6701241 5.5090313 -1.7627038 19 3
-11.933285 6.8176675 -1.2024006 41 5
-11.915528 6.8158011 -0.71941012 35 6
-5.551126 3.2010701 -1.7170056 9 0
-6.3877869 3.6879904 -1.7028794 14 1
-7.6836324 4.4433017 -1.7252951 7 2
-9.6109133 5.5645294 -1.7589493 18 3
-11.889599 6.8921576 -1.6874031 15 4
-11.90728 6.9107385 -1.2044923 41 5
-15.635325 9.0890226 -0.94780427 18 6
-5.5286441 3.2397449 -1.7170056 7 0
-6.368609 3.736439 -1.7046791 14 1
-7.636282 4.4855537 -1.7214788 7 2
-9.6341152 5.6658683 -1.7702127 16 3
-11.678704 6.879282 -1.664248 20 4
-11.687126 6.892487 -1.1870612 20 5
-15.36672 9.0733757 -0.93524361 18 6
-5.5131035 3.2812541 -1.7190762 7 0
-6.3363318 3.7757123 -1.7028794 11 1
-7.6182661 4.5468068 -1.7245318 9 2
-9.5671911 5.7167788 -1.7652067 18 3
-11.471477 6.8628182 -1.6413364 20 4
-11.484907 6.8817444 -1.1713731 29 5
-15.015266 9.0078192 -0.91765875 18 6
-5.4768376 3.3116648 -1.7149351 7 0
-6.3164854 3.8238945 -1.7046791 12 1
-7.5863385 4.5998797 -1.7245318 7 2
-9.5439358 5.7936797 -1.7683355 14 3
-11.272311 6.850976 -1.6196437 15 4
-11.249378 6.8477993 -1.1521989 18 5
-14.876974 9.0666933 -0.91305321 9 6
-5.4535837 3.3498211 -1.7149351 7 0
-6.2995963 3.8740218 -1.7073785 14 1
-7.5189366 4.6311092 -1.7165178 12 2
-9.5066175 5.8622413 -1.7689612 18 3
-11.067118 6.8325257 -1.596976 20 4
-11.150461 6.8947306 -1.1469696 18 5
-14.56538 9.0168428 -0.89777112 18 6
-5.4398999 3.3939469 -1.7180409 7 0
-6.2558699 3.9075816 -1.7028794 12 1
-7.4930801 4.6876531 -1.7180443 12 2
-9.532424 5.9704084 -1.7814759 14 3
-10.871152 6.8168159 -1.575527 20 4
-14.439421 9.068368 -1.4917578 31 5
-14.302561 8.9928617 -0.88541979 17 6
-5.4264636 3.4370985 -1.7211467 9 0
-6.2357097 3.9542482 -1.7046791 12 1
-7.4825435 4.7522316 -1.7230054 16 2
-9.4615593 6.0160775 -1.7758442 16 3
-10.692695 6.8093705 -1.5565153 21 4
-14.293363 9.1128855 -1.4830421 30 5
-14.113069 9.0083351 -0.87746471 8 6
-5.4049783 3.4779322 -1.722182 9 0
-6.226913 4.0114326 -1.7100779 14 1
-7.4392858 4.7979674 -1.7207156 15 2
-9.3485765 6.0386128 -1.7627038 17 3
-10.521544 6.8040876 -1.5384787 21 4
-14.062143 9.1041737 -1.4656109 30 5
-21.921158 14.214018 -1.3692133 11 6
-5.3708639 3.5092402 -1.7190762 9 0
-6.1987562 4.0548072 -1.7100779 12 1
-7.4523859 4.8822789 -1.7317824 12 2
-9.3028889 6.1015615 -1.762078 18 3
-10.355972 6.8000135 -1.5211732 15 4
-13.684036 9.0092592 -0.85862374 17 6
-5.333354 3.5381079 -1.7149351 7 0
-6.1702971 4.0979838 -1.7100779 12 1
-7.4385996 4.9459372 -1.736362 12 2
-15.852515 10.548345 1.6658947 2 10
-9.1855001 6.1143918 -1.7476861 17 3
-12.523172 8.3487635 -1.8480269 9 4
-13.572392 9.0585089 -1.4276111 29 5
-21.377678 14.28411 -1.3474417 11 6
-5.3347888 3.5915902 -1.7232174 9 0
-6.1390295 4.1377091 -1.7091781 12 1
-7.4185352 5.0076313 -1.7397964 16 2
-9.2702532 6.2646384 -1.7720897 16 3
-12.227653 8.2725191 -1.8126848 14 4
-13.211925 8.9518709 -1.396235 28 5
-13.118855 8.8988371 -0.83078104 26 6
-5.300015 3.6222062 -1.7201115 9 0
-6.1164265 4.1848683 -1.7109778 13 1
-12.829412 8.7844801 0.81487089 2 9
-7.3947306 5.0670686 -1.7424678 12 2
-9.0862036 6.2331047 -1.745183 19 3
-9.6888819 6.654006 -1.443177 14 4
-9.7083435 6.6773472 -1.0308782 29 5
-13.132083 9.0423079 -0.83559597 8 6
-5.268249 3.6547146 -1.7180409 9 0
-6.0838604 4.225244 -1.7100779 12 1
-7.4236455 5.1634111 -1.7577326 12 2
-8.9225054 6.2128558 -1.7220308 8 3
-9.6479626 6.7330132 -1.0293093 44 5
-16.483536 11.520472 -1.0539416 9 6
-5.2426071 3.6914032 -1.7180409 9 0
-6.073329 4.281086 -1.7154768 11 1
-7.3867235 5.2126889 -1.7573509 15 2
-8.9655199 6.3338528 -1.7386128 10 3
-10.121698 7.1612577 -1.5223919 7 4
-12.616698 8.9364243 -1.3526571 26 5
-12.593966 8.9302282 -0.80911398 17 6
-5.2299342 3.7359862 -1.722182 9 0
-6.0440474 4.3223267 -1.7154768 14 1
-7.2926917 5.22298 -1.7436126 21 2
-8.6610098 6.2098246 -1.6879282 11 3
-11.877293 8.5252733 -1.7951355 12 4
-12.51194 8.9940519 -1.348125 26 5
-12.30922 8.8581076 -0.79477394 17 6
-5.2068534 3.7746751 -1.7232174 9 0
-6.0137239 4.364418 -1.7154768 13 1
-24.510199 17.801161 1.5875591 8 9
-7.2687559 5.2829971 -1.7466656 18 2
-8.7021055 6.3317337 -1.7045102 8 3
-11.753307 8.5612326 -1.785386 14 4
-12.349049 9.0083828 -1.3373177 25 5
-12.327725 9.0027199 -0.80000746 17 6
-5.1834865 3.8132234 -1.7242525 9 0
-5.9736938 4.3993602 -1.7127774 13 1
-7.2443366 5.342936 -1.7497185 15 2
-12.790723 9.437026 1.3906569 2 10
-8.4590435 6.245666 -1.6654016 9 3
-11.549578 8.5368843 -1.7634495 13 4
-12.268225 9.0780096 -1.3352259 25 5
-11.8955 8.8150606 -0.77593297 17 6
-5.1505466 3.8446941 -1.722182 9 0
-5.9428363 4.4409561 -1.7127774 14 1
-7.1857939 5.3756576 -1.7443758 13 2
-8.9918661 6.7341204 -1.7792858 7 3
-11.418238 8.5637083 -1.7524813 18 4
-11.886312 8.9342279 -0.77928245 8 6
-5.1180968 3.8749995 -1.7201115 9 0
-5.9093633 4.4789505 -1.7118775 14 1
-7.2512975 5.5040345 -1.7695627 15 2
-8.9949646 6.8349762 -1.7892977 9 3
-11.249174 8.5602646 -1.7356633 15 4
-11.585571 8.8258343 -1.2742169 23 5
-14.876038 11.344822 -0.9804619 9 6
-5.0994282 3.9185874 -1.7232174 9 0
-5.8895187 4.5306277 -1.7154768 14 1
-7.1846991 5.5329614 -1.7626936 15 2
-9.2445917 7.1295815 -1.8490556 14 3
-10.067238 7.7724295 -1.5616339 5 4
-11.331347 8.7578592 -1.2529509 22 5
-11.398713 8.8226433 -0.75541729 26 6
-5.0780411 3.9588435 -1.7252878 9 0
-5.8439193 4.5608435 -1.7114276 23 1
-7.1139855 5.5600529 -1.7550613 16 2
-9.1090279 7.126997 -1.8318479 6 3
-10.948837 8.5757284 -1.7076334 18 4
-11.248873 8.8329325 -0.74955565 26 6
-5.0472488 3.9918015 -1.7242525 9 0
