# .PCD v0.7 - Point Cloud Data file format
VERSION 0.7
FIELDS x y z intensity ring
SIZE 4 4 4 4 2
TYPE F F F F U
COUNT 1 1 1 1 1
WIDTH 1339
HEIGHT 1
VIEWPOINT 0 0 0 1 0 0 0
POINTS 1339
DATA ascii
2.7372735 6.6642237 -0.6303103 52 5
2.7471063 6.6749001 -0.37828431 25 6
2.7394776 6.6464748 -0.12548281 51 7
2.0331047 4.8914361 -1.4193637 10 0
2.7756999 6.6747642 0.1261809 48 8
2.1028883 5.0518641 -1.2633251 20 1
2.7573793 6.6209288 0.37587687 28 9
2.2209303 5.3275776 -1.1219569 14 2
2.3729146 5.6837773 -0.97552538 16 3
2.6566896 6.3510303 -0.84528583 12 4
2.7760301 6.6265759 -0.62856722 52 5
2.770839 6.6044793 -0.37535352 25 6
2.7788377 6.6105962 -0.12516867 40 7
2.0399745 4.8152266 -1.4012463 11 0
2.8206692 6.6515412 0.12611109 52 8
2.1197183 4.9961729 -1.2529774 24 1
2.8011928 6.5960021 0.37556285 21 9
2.2626779 5.3227839 -1.1242466 17 2
2.4372971 5.725234 -0.98553723 15 3
2.6970725 6.3231978 -0.8440671 11 4
2.8457074 6.6619997 -0.63379657 28 5
2.8341641 6.6253715 -0.37765631 12 6
2.8446145 6.6369848 -0.12604128 31 7
2.0797436 4.8129196 -1.4048699 13 0
2.8971949 6.7014351 0.12743747 24 8
2.1855998 5.0506272 -1.2705235 16 1
2.8935704 6.680254 0.38152915 4 9
2.2872901 5.2780366 -1.1181407 17 2
2.4955115 5.7475095 -0.99242038 15 3
2.7427342 6.3078551 -0.8445546 11 4
3.1371372 7.2046022 -0.6874845 19 5
6.5760207 15.073425 -0.86186862 17 6
2.1055067 4.7806034 -1.3996935 13 0
2.2208064 5.0352454 -1.2705235 15 1
2.3226197 5.2561464 -1.1169959 14 2
2.5347741 5.7281427 -0.99210751 14 3
2.7955511 6.308517 -0.84723574 13 4
3.1889746 7.1861672 -0.68783307 9 5
6.6973214 15.063649 -0.86396205 17 6
2.1451583 4.7798872 -1.4038346 14 0
2.2447214 4.9947338 -1.264225 20 1
2.3655949 5.2563276 -1.1204305 17 2
2.5680239 5.6981492 -0.9899174 15 3
2.8460569 6.3033223 -0.84918565 15 4
3.1881697 7.0511732 -0.67702579 13 5
6.6893044 14.773911 -0.84993607 8 6
2.1937034 4.8003159 -1.4141873 10 0
2.2859657 4.9952869 -1.2682741 24 1
2.394872 5.2236218 -1.1169959 14 2
2.6118655 5.6890574 -0.99148178 14 3
2.9021666 6.3126607 -0.85308552 12 4
3.2673244 7.0938916 -0.68330097 13 5
6.7236905 14.578131 -0.84135288 17 6
2.2271626 4.7848845 -1.4141873 10 0
2.3051417 4.9456463 -1.2597259 34 1
2.4370935 5.2192287 -1.1196673 14 2
2.6506796 5.6688962 -0.99116892 15 3
2.9495306 6.299438 -0.85406041 13 4
3.3116965 7.0600843 -0.68225515 9 5
6.8287048 14.538064 -0.84177166 17 6
2.2588558 4.765729 -1.413152 10 0
2.3613353 4.9752073 -1.2714233 29 1
2.4776862 5.2109528 -1.1215754 14 2
2.6816998 5.6324177 -0.98804021 12 3
3.0019798 6.2966113 -0.85649782 13 4
3.6597238 7.6624455 -0.74291551 20 5
6.9610476 14.554903 -0.84553975 17 6
2.2836759 4.7324438 -1.4079756 11 0
2.3960135 4.9585996 -1.2714233 24 1
2.5037379 5.1723242 -1.1169959 14 2
2.738188 5.6491098 -0.99429762 15 3
3.0614672 6.3076453 -0.86088508 13 4
3.453506 7.1027498 -0.69097072 14 5
7.1027083 14.588555 -0.85035473 17 6
2.3132546 4.7094488 -1.4059051 16 0
2.4340129 4.9487462 -1.2732229 25 1
2.5371835 5.149435 -1.115851 14 2
2.7653208 5.6050558 -0.9899174 15 3
3.107187 6.2896786 -0.86137259 15 4
3.471195 7.0141816 -0.68469548 9 5
7.2238932 14.577986 -0.85265756 17 6
2.3633523 4.7277441 -1.4162579 10 0
2.4545462 4.9037509 -1.2660246 24 1
2.5994735 5.1842451 -1.1272997 14 2
2.7937508 5.5644283 -0.98616302 17 3
3.1510215 6.2678332 -0.86137259 13 4
3.5272441 7.004014 -0.68608999 9 5
7.3686481 14.612802 -0.85768169 17 6
2.3936708 4.7059646 -1.4147049 13 0
2.5072908 4.9229627 -1.2754724 14 1
2.642741 5.1799617 -1.1303525 14 2
2.8379216 5.5553432 -0.98804021 15 3
3.2145901 6.2845626 -0.86673486 11 4
3.9849074 7.7771463 -0.76453012 10 5
7.4869032 14.592987 -0.85956585 17 6
2.417588 4.6719818 -1.4095285 15 0
2.5407023 4.9036083 -1.2750225 15 1
2.6598444 5.124794 -1.1223387 12 2
2.8766336 5.5353971 -0.98804021 15 3
3.2565508 6.2584476 -0.86624736 11 4
3.9801664 7.6360617 -0.75337422 10 5
7.6181693 14.597022 -0.86291534 26 6
2.4664235 4.6879015 -1.4193637 16 0
2.5831039 4.9034424 -1.2795216 14 1
2.7175744 5.1499772 -1.131879 17 2
2.9160933 5.5191798 -0.98866594 15 3
3.3037198 6.2449074 -0.86746609 10 4
4.000329 7.5489388 -0.74744761 15 5
7.7351313 14.578354 -0.86490411 17 6
2.4990911 4.670568 -1.4193637 16 0
2.60623 4.8646765 -1.2741227 21 1
2.7441761 5.1135817 -1.1280628 14 2
2.9723153 5.5317497 -0.99461043 14 3
3.3519361 6.2304335 -0.86868477 8 4
4.041594 7.4997773 -0.74535584 15 5
7.8594875 14.566178 -0.86741626 17 6
2.5334835 4.6564012 -1.4203991 14 0
2.6354671 4.8378062 -1.2718732 24 1
2.7854514 5.1046395 -1.1303525 17 2
2.9928668 5.4779282 -0.98866594 15 3
3.3648653 6.1511502 -0.86088508 12 4
4.2144833 7.6915398 -0.7673192 10 5
7.9571371 14.503953 -0.86699748 17 6
2.5706031 4.6470547 -1.4229871 11 0
2.6691749 4.8192906 -1.2718732 26 1
2.8305445 5.1022367 -1.1341687 17 2
3.0444658 5.4810767 -0.99304616 15 3
3.4019377 6.1171007 -0.85942268 12 4
4.5337415 8.1388416 -0.81508046 11 5
8.1194897 14.55794 -0.8735919 8 6
2.6067724 4.6357288 -1.4250576 11 0
2.7056255 4.8056321 -1.2732229 15 1
2.8622358 5.0755124 -1.1326423 17 2
3.0884812 5.4700103 -0.99492329 15 3
3.4445574 6.0932035 -0.85942268 12 4
4.570817 8.0723171 -0.81159425 16 5
8.2386551 14.532173 -0.87547594 17 6
2.638114 4.6157403 -1.42454 10 0
2.7352376 4.7798605 -1.2714233 21 1
2.9034603 5.0656252 -1.134932 17 2
3.1315126 5.456881 -0.99648768 14 3
3.4662471 6.0328598 -0.85430413 10 4
4.712523 8.1887217 -0.82658505 11 5
8.373805 14.533147 -0.87903482 17 6
2.6644497 4.5871887 -1.4214342 10 0
2.7665789 4.7572803 -1.2705235 18 1
2.9397421 5.0469279 -1.1353136 23 2
3.1794841 5.4519496 -0.99961638 14 3
3.4782515 5.9570856 -0.84699202 11 4
4.8284874 8.259655 -0.8370437 11 5
8.5245171 14.558781 -0.88416374 17 6
2.7003372 4.5751305 -1.4235048 11 0
2.7997236 4.7378502 -1.2705235 18 1
2.9730253 5.0251126 -1.134932 17 2
3.235646 5.4624753 -1.0055609 15 3
3.5065851 5.9104652 -0.84382337 16 4
3.6538377 6.1513233 -0.62595254 20 5
3.6445577 6.1283903 -0.37367877 12 6
3.6604521 6.1453414 -0.12485451 5 7
2.7314167 4.556644 -1.4235048 11 0
3.6447628 6.0755095 0.12366775 34 8
2.8309057 4.7170124 -1.2700737 25 1
3.6095624 6.0096989 0.36739844 14 9
3.0232065 5.0294743 -1.1406562 21 2
3.2920368 5.4702182 -1.0111924 12 3
3.5610805 5.9102626 -0.84723574 15 4
3.646251 6.042079 -0.61741126 50 5
3.6190851 5.9899721 -0.36677042 24 6
3.64113 6.0193353 -0.12279513 35 7
2.7711997 4.5506639 -1.4276459 10 0
3.6641941 6.0123496 0.12289985 52 8
2.8455074 4.6671839 -1.2619754 30 1
3.6472692 5.9775338 0.36697978 23 9
3.0490365 4.993166 -1.1372217 14 2
3.3280854 5.4437318 -1.0105668 12 3
3.6063979 5.8920317 -0.84821075 17 4
3.6914675 6.0215716 -0.61793417 46 5
3.6754417 5.9883909 -0.36823583 12 6
3.6924891 6.0091004 -0.12310927 41 7
2.7917228 4.513134 -1.4219519 12 0
3.7239695 6.0155282 0.12349322 26 8
2.8934116 4.6720567 -1.268724 27 1
3.7067955 5.9807863 0.36875919 7 9
3.0941696 4.9884419 -1.1410379 14 2
2.8157754 4.5343108 -0.84537196 1 3
3.6254337 5.8313084 -0.8430922 22 4
3.7987144 6.1005125 -0.6287415 48 5
9.0382605 14.497994 -0.89536369 17 6
2.7275815 4.3414059 -1.3738115 10 0
2.9384069 4.6715388 -1.2741227 21 1
3.1215949 4.9550905 -1.1383665 12 2
3.4058752 5.4000745 -1.0111924 12 3
3.6914921 5.846139 -0.84894192 12 4
3.8571827 6.0991044 -0.63135618 52 5
5.053617 7.9816928 -0.49509817 11 6
2.8035452 4.3939161 -1.3965876 11 0
2.9772456 4.6607633 -1.2768222 18 1
3.1635158 4.9447551 -1.1410379 17 2
3.4307041 5.3562059 -1.0074381 12 3
3.7407856 5.8335953 -0.85089183 11 4
3.9093695 6.0894761 -0.63309932 53 5
5.1092167 7.9462171 -0.49509817 11 6
2.8194475 4.3515368 -1.3893406 9 0
3.0160744 4.6496739 -1.2795216 15 1
3.197103 4.9231057 -1.1410379 17 2
3.483237 5.3575702 -1.0121311 14 3
3.7478445 5.7557669 -0.84333593 12 4
3.7722616 5.7866383 -0.60433793 22 5
3.7834268 5.7971277 -0.36279288 12 6
3.8106921 5.8300095 -0.12157347 13 7
2.8978281 4.4064941 -1.413152 11 0
3.8509774 5.8514156 0.12227156 30 8
3.0540814 4.638804 -1.282221 15 1
3.8515422 5.8456073 0.36687508 7 9
3.2281504 4.89575 -1.1398931 14 2
3.5172877 5.3281784 -1.0111924 15 3
3.773802 5.7102494 -0.84041107 23 4
3.8092694 5.7551775 -0.60381496 7 5
3.8039477 5.7406049 -0.36090881 12 6
3.8115969 5.7456131 -0.1203518 34 7
2.9735749 4.4536362 -1.4348928 10 0
3.8550694 5.7695217 0.12111971 43 8
3.0950551 4.6303301 -1.2858201 15 1
3.8489468 5.7538347 0.36279288 16 9
3.2567894 4.8649368 -1.1379849 14 2
3.8558733 5.7576585 0.60625535 16 10
3.5565989 5.3067746 -1.0118183 15 3
3.8546011 5.747077 0.84967309 11 11
3.7991939 5.6623363 -0.83724248 11 4
3.8508422 5.7349801 1.0941027 23 12
3.849355 5.7284436 -0.60381496 7 5
3.9681997 5.9030771 1.3826021 2 13
3.8292747 5.6856909 -0.1196537 23 7
3.0035107 4.431169 -1.4343752 13 0
3.8795381 5.7192984 0.12063103 42 8
3.1273079 4.6086082 -1.2858201 15 1
3.8834119 5.7185626 0.36226952 16 9
3.2895701 4.8404579 -1.1376033 14 2
3.8735697 5.697648 0.60276914 17 10
3.5991163 5.2899814 -1.0133826 14 3
3.8756366 5.692132 0.84552956 19 11
3.8252218 5.6159868 -0.83431756 11 4
3.8696465 5.6769433 1.0881582 27 12
3.8667955 5.6685143 -0.60032874 15 5
3.8953316 5.7082005 1.3432955 18 13
3.855567 5.6457019 -0.35829198 24 6
3.8968778 5.7019129 1.5944531 12 14
3.8993444 5.7033916 -0.12059613 8 7
3.0486088 4.4307823 -1.4411045 9 0
3.9023612 5.6673703 0.12010746 14 8
3.1616147 4.5898743 -1.28672 14 1
3.9198399 5.686379 0.36195552 21 9
3.3377779 4.8383813 -1.1425643 14 2
3.9019356 5.654068 0.601026 17 10
3.6528008 5.2891059 -1.0180756 15 3
3.9017344 5.6453424 0.84260476 18 11
3.8733699 5.6022058 -0.83626753 11 4
3.9069345 5.646543 1.0875325 34 12
3.9244227 5.6675892 -0.60311776 15 5
3.9283772 5.6711855 1.3410057 21 13
3.9119554 5.6432691 -0.35986209 12 6
3.9265926 5.6601582 1.5904039 18 14
3.9413471 5.6793156 -0.12066595 13 7
3.9340701 5.6646018 1.8479681 29 15
3.0584505 4.3792982 -1.4312694 15 0
3.9544299 5.6580195 0.12049142 14 8
3.1891143 4.5613022 -1.2849205 16 1
3.9582949 5.6572399 0.36185086 16 9
3.3703463 4.8133545 -1.1421827 14 2
3.9573138 5.649538 0.60346633 22 10
3.7055082 5.2861233 -1.0224558 15 3
3.9467511 5.6260905 0.84382337 31 11
3.9158046 5.579905 -0.83699876 9 4
3.9462595 5.6191297 1.0875325 38 12
4.1586547 5.9171634 -0.63275069 8 5
4.0018287 5.6876907 -0.36446762 12 6
3.9592779 5.6230488 1.5877045 24 14
4.0085402 5.690896 -0.12150366 11 7
3.9601612 5.6180525 1.8417563 26 15
3.1157589 4.3956661 -1.4436927 11 0
4.0285454 5.6792035 0.12153856 18 8
3.2231338 4.5421066 -1.2858201 18 1
4.0312324 5.6766901 0.36488631 9 9
3.403868 4.7897077 -1.1421827 14 2
4.022059 5.657496 0.60730124 17 10
3.7217095 5.2311521 -1.0168241 12 3
4.0020509 5.6210394 0.84723574 21 11
3.9684832 5.5718336 -0.83992356 9 4
3.9762199 5.5785742 1.0850296 23 12
4.3039889 6.0339718 -0.64843875 38 5
4.0117383 5.6221762 1.3425322 46 13
3.9916399 5.5857577 1.5850052 28 14
3.9925423 5.5808415 1.8386506 28 15
3.1542678 4.3847852 -1.4473162 10 0
3.2729862 4.544796 -1.2930186 16 1
3.4418168 4.7721968 -1.1437092 10 2
3.7789536 5.2338705 -1.0224558 15 3
4.0584526 5.6147814 -0.85064811 9 4
4.0567474 5.6082988 1.0962929 11 12
4.3670378 6.0328279 -0.65157634 42 5
4.0727687 5.6242437 1.3497829 16 13
5.5317655 7.633419 -0.49405149 11 6
4.0637164 5.6035047 1.5980524 16 14
4.0495658 5.5778446 1.8469328 27 15
3.1324079 4.2908812 -1.4235048 11 0
3.3069372 4.524981 -1.2939185 15 1
3.4866421 4.7638969 -1.1475254 14 2
3.8130634 5.2041759 -1.0218301 15 3
4.1139865 5.6087222 -0.85406041 13 4
4.434998 6.037519 -0.65541118 35 5
5.5825558 7.5913963 -0.49384215 11 6
3.1898856 4.3061638 -1.4359281 9 0
3.3314822 4.4923921 -1.291219 15 1
3.5221589 4.7425895 -1.1482886 12 2
3.8716984 5.2075462 -1.0277746 14 3
4.2383814 5.6945171 -0.87160963 15 4
4.4841814 6.0159969 -0.65645707 30 5
5.6401916 7.5586424 -0.49426082 11 6
3.2454047 4.3177648 -1.4473162 16 0
3.3815086 4.4939404 -1.2984174 15 1
3.5764499 4.7461076 -1.1551577 10 2
3.9115283 5.1851211 -1.0287131 14 3
4.2947822 5.6869664 -0.87502193 16 4
4.5429001 6.0067897 -0.6588974 39 5
3.2630091 4.2802091 -1.4421397 15 0
3.4167511 4.4770136 -1.300217 18 1
3.5800586 4.6842189 -1.145999 14 2
3.9251232 5.1301384 -1.0230815 19 3
4.3454604 5.6733623 -0.87745935 16 4
4.6127815 6.0136709 -0.66308087 35 5
5.8436179 7.6100559 -0.50284392 11 6
3.3034465 4.2710791 -1.4467984 11 0
3.4550793 4.4622979 -1.3029165 15 1
3.6126735 4.6591115 -1.145999 14 2
4.0008168 5.1541028 -1.0334063 13 3
4.4093261 5.6742339 -0.88233411 17 4
4.661994 5.9907556 -0.66412675 39 5
3.3391464 4.2555118 -1.4493867 14 0
3.4873512 4.4396005 -1.3033664 14 1
3.6475396 4.6368623 -1.1467621 14 2
4.0501428 5.1431198 -1.0368477 14 3
4.4694819 5.6674781 -0.88623393 17 4
4.7259259 5.9862108 -0.66726434 40 5
3.2600036 4.0939841 -1.4022816 8 0
3.5214608 4.4175797 -1.3042662 14 1
3.7214572 4.6634588 -1.1597371 10 2
4.0930085 5.1217222 -1.0384121 13 3
4.5238209 5.6547384 -0.88915884 15 4
4.7800574 5.9686236 -0.66900748 45 5
3.2775805 4.0576005 -1.3976228 9 0
3.5718205 4.4171324 -1.3114647 14 1
3.7633817 4.6473899 -1.1624085 8 2
4.1348848 5.1006947 -1.0399765 14 3
4.5631876 5.6230187 -0.88915884 18 4
4.8502922 5.9682789 -0.67284232 31 5
6.1509218 7.5606112 -0.51079899 11 6
3.3290889 4.0630131 -1.4074581 8 0
3.6000969 4.3890772 -1.3105649 14 1
3.8206575 4.6513448 -1.1700408 8 2
4.1528292 5.050343 -1.0355963 17 3
4.645227 5.6431336 -0.89744592 15 4
4.9197187 5.9680967 -0.67667717 32 5
6.2340608 7.5544596 -0.51331109 11 6
3.409234 4.1020727 -1.4291989 13 0
3.651839 4.3893042 -1.3182131 17 1
3.8492649 4.6200347 -1.168896 10 2
4.1892486 5.0227461 -1.0359092 21 3
4.5242014 5.4185719 -0.86673486 7 4
4.9602251 5.9344735 -0.67667717 32 5
11.519541 13.762568 -0.94058186 9 6
3.3967016 4.0294271 -1.4121168 11 0
3.6849091 4.3666792 -1.319113 16 1
3.8958285 4.6117215 -1.1734754 10 2
4.2348223 5.0076876 -1.038725 17 3
4.6671157 5.5110736 -0.88672143 13 4
5.0479174 5.9544115 -0.6829524 32 5
11.561259 13.622926 -0.93639499 18 6
3.5734112 4.1809726 -1.4737157 13 0
3.7132776 4.3400164 -1.3186631 15 1
3.9304824 4.5873952 -1.1742386 10 2
4.2722492 4.9810019 -1.0393507 17 3
4.7963352 5.5861111 -0.90402687 10 4
5.0958614 5.9265761 -0.68382394 27 5
5.0345526 5.8490753 -0.40445229 13 6
3.6265547 4.1836586 -1.4835509 10 0
3.7588124 4.3316493 -1.3240619 14 1
3.9649878 4.5628071 -1.1750019 12 2
4.3276625 4.9749002 -1.0443566 16 3
4.6996379 5.3967991 -0.87867808 10 4
5.1855636 5.9464159 -0.69027346 33 5
5.0910263 5.8318405 -0.40570837 13 6
3.6607761 4.1640425 -1.4856213 10 0
3.8095608 4.3287086 -1.3312603 12 1
3.9993415 4.5379605 -1.175765 12 2
4.3649025 4.9475293 -1.0449823 16 3
4.8304982 5.4694977 -0.89598346 12 4
5.2454271 5.9309659 -0.69271386 33 5
11.989651 13.542315 -0.94790894 9 6
3.6627593 4.1081033 -1.474751 12 0
3.8448784 4.3078227 -1.3330599 14 1
4.0570893 4.539207 -1.1833974 14 2
4.4204135 4.9404879 -1.0499883 14 3
4.9639254 5.5421042 -0.91353267 12 4
5.307991 5.9179325 -0.69550282 33 5
12.177306 13.562308 -0.95523596 18 6
3.6835761 4.0738349 -1.4716451 13 0
3.8918598 4.2996578 -1.3389087 17 1
4.1176896 4.5427723 -1.1917931 12 2
4.4468298 4.900732 -1.0481111 16 3
4.9971547 5.5014396 -0.91255772 12 4
5.3669147 5.9023023 -0.69794315 34 5
12.263632 13.4681 -0.95460796 9 6
3.7223699 4.0594115 -1.4757862 13 0
5.434021 5.9239621 0.14031734 5 8
3.9296873 4.2809982 -1.341608 16 1
4.1378865 4.5030761 -1.1887401 12 2
4.5857329 4.9852052 -1.0728277 19 3
5.0381298 5.4693389 -0.91304523 11 4
5.4228477 5.8808026 -0.69986063 29 5
7.1393566 7.734139 -0.55162108 10 6
3.7670162 4.052372 -1.4825156 17 0
5.4902253 5.9019899 0.14070129 16 8
3.9640481 4.2598553 -1.3434076 17 1
4.1665463 4.4712057 -1.1879768 14 2
4.6082969 4.9400687 -1.0700119 17 3
5.0734801 5.4311314 -0.91255772 12 4
5.5222869 5.905375 -0.70735598 39 5
7.1604185 7.6491146 -0.54910892 10 6
3.8065209 4.0365562 -1.4866567 14 0
5.5628557 5.8969731 0.14150412 21 8
4.0104818 4.248385 -1.3488065 21 1
4.2246304 4.4705453 -1.1956092 14 2
4.7141323 4.981575 -1.0862811 13 3
5.1085401 5.3926992 -0.91207021 12 4
5.5962806 5.9013786 -0.71153951 43 5
7.1379523 7.5165758 -0.54324728 10 6
3.8265977 4.0015063 -1.4835509 13 0
5.64224 5.8960238 0.14244655 44 8
4.0386963 4.2188754 -1.3483566 23 1
4.2565107 4.4402018 -1.1956092 12 2
4.4355855 4.6221538 -1.0146341 8 3
5.1859474 5.3984165 -0.91913867 9 4
5.6539187 5.879396 -0.71363121 34 5
7.1237512 7.3975091 -0.53822303 10 6
3.8853705 4.0065932 -1.4954566 11 0
5.7142692 5.8904901 0.14324935 39 8
4.0992684 4.2227387 -1.3587044 15 1
4.2975812 4.4223895 -1.1986622 12 2
4.7685952 4.9019451 -1.0831524 10 3
5.2484426 5.3876748 -0.92352599 18 4
5.7129097 5.8583241 -0.71589726 30 5
7.0623298 7.2345099 -0.52984929 11 6
3.9233849 3.9910767 -1.4995975 11 0
5.7762856 5.8718395 0.14377292 46 8
4.1197138 4.1864066 -1.356005 19 1
4.3228388 4.3866854 -1.1971357 14 2
4.7943773 4.8600965 -1.0812751 13 3
5.2891755 5.3560653 -0.92425722 18 4
5.791492 5.8565512 -0.7206037 40 5
7.0564561 7.1282568 -0.52566242 22 6
3.945699 3.9581146 -1.497527 11 0
5.8637438 5.8780899 0.14492479 52 8
4.1736197 4.1823707 -1.3641032 17 1
4.4005418 4.403616 -1.2101108 14 2
4.4970908 4.4955225 -1.0071251 14 3
5.3657689 5.358284 -0.93108183 13 4
5.8844361 5.8680291 -0.72705317 30 5
7.0692596 7.0421715 -0.52294093 11 6
3.9828494 3.9399819 -1.5011505 10 0
5.937346 5.8693438 0.14572759 48 8
4.2138052 4.1640897 -1.3677025 21 1
4.4255877 4.3672709 -1.2085842 14 2
4.8899035 4.8204179 -1.0875325 13 3
5.3917313 5.3095508 -0.92913198 16 4
5.9569106 5.8599758 -0.73106235 35 5
7.1324983 7.0066428 -0.52398765 11 6
4.0005789 3.902638 -1.497527 12 0
6.0115199 5.8623004 0.14656532 49 8
4.2651038 4.1563311 -1.3749009 15 1
4.4974151 4.3781295 -1.2200328 14 2
4.9226022 4.7870216 -1.0875325 15 3
5.5112648 5.3519907 -0.94326878 11 4
6.0162668 5.8362803 -0.7333284 30 5
7.2287917 7.0051885 -0.52754653 22 6
4.0702019 3.9168422 -1.5135738 11 0
6.0768032 5.8437524 0.14715868 61 8
4.3017254 4.1353059 -1.3776002 18 1
4.5349503 4.3534245 -1.2219409 14 2
4.9131269 4.7115235 -1.0781465 16 3
5.5604663 5.3267145 -0.94546247 21 4
6.0673666 5.8062167 -0.73472291 25 5
6.0516052 5.7830405 -0.43867999 26 6
6.102519 5.8255849 -0.14726341 19 7
4.1268759 3.9162571 -1.5244442 8 0
6.119338 5.8050094 0.14722851 43 8
4.3418045 4.1158991 -1.3811995 16 1
4.5787349 4.3359523 -1.225757 14 2
5.0340571 4.762135 -1.0975443 16 3
5.5614448 5.2536831 -0.93936896 15 4
6.0918164 5.7486725 -0.73280543 35 5
6.0719357 5.7239046 -0.43731928 39 6
6.1008124 5.7430921 -0.14625116 34 7
4.1766829 3.9084725 -1.5327265 8 0
6.1417336 5.7433157 0.14677474 49 8
4.3917851 4.1054506 -1.3879479 14 1
4.6139503 4.307096 -1.2269019 14 2
5.0145516 4.6761436 -1.0859681 25 3
5.627037 5.2417898 -0.94424373 11 4
6.1999021 5.7673564 -0.74082375 35 5
7.4792552 6.9501524 -0.53508288 21 6
6.1803308 5.7370901 -0.1471936 11 7
4.205287 3.8805287 -1.5332441 9 0
6.336041 5.8426332 0.15043975 46 8
4.4275036 4.0812945 -1.3901975 17 1
4.6655722 4.2947264 -1.2326262 14 2
5.1517658 4.7372942 -1.1084948 18 3
5.7175837 5.252068 -0.95326209 9 4
6.3207684 5.7980065 -0.75041097 31 5
7.5923853 6.9571381 -0.53968841 21 6
4.1736927 3.7977693 -1.5120209 13 0
6.4180999 5.8359289 0.15141708 47 8
4.4703088 4.0633926 -1.3946966 20 1
4.7375979 4.3003154 -1.2436931 14 2
5.2081265 4.7224431 -1.1135007 16 3
5.7732368 5.2293487 -0.95643073 11 4
6.4191799 5.8083229 -0.75738341 31 5
7.6970797 6.9548497 -0.54366595 10 6
4.2202349 3.7866008 -1.5192679 13 0
6.4993563 5.8294926 0.15239441 48 8
4.481154 4.0164771 -1.3892977 21 1
4.7609091 4.2627301 -1.2421666 14 2
5.2637081 4.7079535 -1.1185066 13 3
5.8303313 5.2074294 -0.95984304 10 4
6.5041728 5.8031597 -0.7626127 31 5
7.791954 6.9448214 -0.54701549 10 6
4.2936511 3.8000381 -1.5363499 10 0
6.5788379 5.8184233 0.15330194 49 8
4.5434289 4.0168605 -1.4000953 21 1
4.8170447 4.2527771 -1.2490358 10 2
5.3097816 4.6828504 -1.1213224 12 3
5.863564 5.1639748 -0.95935553 12 4
6.5894074 5.7970881 -0.76784205 32 5
7.8792577 6.92453 -0.54973698 10 6
4.3090873 3.7590561 -1.5322088 10 0
6.6660218 5.8130922 0.15438399 49 8
4.5603032 3.9740031 -1.3964962 19 1
4.85254 4.2242002 -1.2505622 12 2
5.3252654 4.6291833 -1.117568 12 3
5.9264522 5.1463418 -0.96374285 13 4
6.6838975 5.7979474 -0.77411723 32 5
7.9587994 6.894124 -0.55183041 21 6
4.3762326 3.7641568 -1.5467027 9 0
6.752943 5.8043466 0.15543112 50 8
4.5820217 3.9369917 -1.3946966 22 1
4.9154229 4.2174935 -1.2589579 12 2
5.39045 4.6201744 -1.124451 12 3
6.0135045 5.1487379 -0.97202998 15 4
6.73733 5.7603288 -0.7755118 32 5
8.0857058 6.9058471 -0.55727333 10 6
4.4024048 3.7335131 -1.5467027 11 0
6.8421187 5.7984324 0.15654808 51 8
4.6718454 3.9578123 -1.4135925 17 1
4.9372506 4.1767368 -1.2570497 14 2
5.4708524 4.6232328 -1.1344628 13 3
6.113009 5.1604142 -0.98226702 16 4
6.8505015 5.7747917 -0.78387874 27 5
8.1978855 6.9032612 -0.56166953 10 6
4.458005 3.7274692 -1.5570555 10 0
6.9207935 5.7825813 0.15742071 37 8
4.7053466 3.930095 -1.415392 17 1
5.0431809 4.2062988 -1.2765123 12 2
5.5212073 4.6000996 -1.1382173 12 3
6.1794028 5.1430087 -0.98714179 16 4
6.9325447 5.7636948 -0.78875941 33 5
15.234748 12.648131 -1.0377175 28 6
4.4943519 3.7048593 -1.5606788 9 0
7.0186367 5.7836633 0.15874709 46 8
4.7326674 3.8971519 -1.415392 15 1
5.0762439 4.1756148 -1.277657 14 2
5.5493407 4.5599003 -1.1375916 12 3
6.2397127 5.1198874 -0.99104154 12 4
7.0311718 5.7631483 -0.79538327 27 5
15.318941 12.542872 -1.0376127 19 6
4.5209651 3.6754 -1.5611964 12 0
7.10075 5.7685671 0.15968952 39 8
4.7681613 3.8722181 -1.4180914 18 1
5.1296697 4.1598592 -1.2837629 14 2
5.5871773 4.5260239 -1.1388431 13 3
6.2651577 5.0698075 -0.9895792 15 4
7.0944796 5.7327042 -0.79799795 22 5
15.500938 12.512145 -1.0439978 19 6
4.5736465 3.6654971 -1.5705141 12 0
7.2064037 5.7713542 0.16115552 40 8
4.8285484 3.8656275 -1.4279894 15 1
5.1769876 4.1386571 -1.2883424 14 2
5.6371617 4.5016999 -1.1425974 12 3
6.3066053 5.0308962 -0.99055409 15 4
7.1935453 5.7302113 -0.80462182 22 5
9.6365566 7.668015 -0.64540708 17 6
4.5733571 3.6131165 -1.5617142 14 0
7.3061619 5.7679892 0.1624819 49 8
4.8554163 3.831826 -1.4279894 17 1
5.2088366 4.104847 -1.2891057 14 2
5.6746583 4.4671254 -1.1438489 12 3
6.3821483 5.0186458 -0.99689132 14 4
7.3117256 5.7413754 -0.81333739 23 5
9.6662827 7.5820627 -0.64383703 17 6
4.6167603 3.5953441 -1.5679258 13 0
7.3999062 5.7586012 0.16366866 50 8
4.9281936 3.8337319 -1.4414864 14 1
5.2854323 4.1057153 -1.3009357 13 2
5.783741 4.4879475 -1.1594924 12 3
6.4546814 5.0031571 -1.0027411 15 4
7.4178038 5.7414083 -0.82065845 17 5
4.5697222 3.5077412 -1.5435969 16 0
7.5002217 5.7530484 0.16499506 42 8
4.933187 3.7826321 -1.4351877 20 1
7.8175097 5.9899249 0.51613724 4 9
5.3233194 4.0758772 -1.3032255 13 2
7.8284764 5.9918199 0.86249328 1 10
5.821208 4.45226 -1.160744 15 3
6.5888295 5.0338974 -1.0180966 10 4
7.4925537 5.7160683 -0.82449329 17 5
7.8315773 5.9682255 -0.51603258 11 6
7.8232021 5.9575276 2.270206 4 14
7.8363028 5.965343 -0.1719062 21 7
4.631074 3.503727 -1.5560201 14 0
7.6008215 5.7463698 0.16632144 35 8
4.9843478 3.7669013 -1.4423862 19 1
7.8814526 5.9520493 0.51760262 4 9
5.4049263 4.0788231 -1.3162005 13 2
7.8319421 5.9082232 0.85830975 13 10
5.9057803 4.451941 -1.1713815 11 3
6.6507707 5.0080762 -1.0222402 13 4
7.8022046 5.8708539 1.5465113 16 12
7.6023455 5.7163062 -0.83216298 17 5
7.8609591 5.9086146 1.9115247 16 13
7.8412242 5.8852191 2.2634575 2 14
4.71737 3.5175025 -1.5767257 15 0
7.733758 5.762464 0.16834593 36 8
4.9839573 3.7122204 -1.4347378 14 1
8.1343021 6.0542908 0.53141934 2 9
5.4427199 4.0480223 -1.3184903 11 2
8.0073071 5.9532571 0.87295192 2 10
5.9367146 4.410605 -1.1713815 12 3
6.727015 4.9922843 -1.0285773 12 4
7.9635921 5.905663 1.5702893 3 12
7.6516719 5.6702104 -0.83320886 17 5
7.9777408 5.9096847 1.9298422 1 13
7.938519 5.8720574 2.279654 6 14
4.7075653 3.4593136 -1.5653377 15 0
7.8253732 5.7462082 0.16946286 36 8
5.049026 3.7061641 -1.4459854 22 1
8.2343454 6.039886 0.53518754 2 9
5.5151854 4.0424237 -1.3291756 13 2
8.1708136 5.9867086 0.88619953 1 10
6.0056143 4.397058 -1.1788902 11 3
8.1706867 5.9778476 1.2430674 2 11
6.8482304 5.0084758 -1.0417392 10 4
8.1194572 5.9338431 1.5928159 1 12
7.8133535 5.7059598 -0.84645659 12 5
8.0758886 5.8955178 1.9435806 1 13
4.7941871 3.4716892 -1.5860431 14 0
7.9463005 5.7500515 0.17120811 37 8
5.1347756 3.7142284 -1.4630816 18 1
8.3799067 6.0571322 0.54188651 2 9
5.556006 4.0130157 -1.3322284 13 2
8.2770243 5.9761715 0.89317203 1 10
6.0489831 4.3642673 -1.1813933 12 3
8.2412024 5.9415598 1.2474546 1 11
6.9490566 5.0081296 -1.0517325 9 4
8.2215948 5.9208846 1.604705 1 12
7.8627014 5.6582561 -0.84750247 18 5
8.2252197 5.9169574 1.9695306 1 13
4.8403225 3.4538441 -1.5932901 15 0
8.0416088 5.7339082 0.17239487 38 8
5.1954923 3.7031744 -1.4729795 14 1
8.5033293 6.0564156 0.54712015 2 9
5.6158748 3.9968998 -1.3398608 13 2
8.4094601 5.9829183 0.90293348 1 10
6.1469207 4.3700061 -1.1945337 13 3
8.3633966 5.9413633 1.2596416 1 11
6.9984159 4.9698424 -1.0539262 13 4
8.3303919 5.911356 1.6178455 1 12
7.8922634 5.5963082 -0.84645659 12 5
8.38165 5.9411335 1.997007 1 13
4.8706388 3.424413 -1.5953608 15 0
8.1518021 5.7270584 0.17389578 39 8
5.2116499 3.6600928 -1.4702801 21 1
8.6271467 6.0542684 0.55235374 2 9
5.6950793 3.9936669 -1.3520726 11 2
8.5293312 5.9789615 0.91130042 1 10
6.2161102 4.3541861 -1.2020426 13 3
8.4924908 5.9443002 1.2728035 1 11
7.0589652 4.9390717 -1.0578259 11 4
8.4912577 5.9368153 1.6409978 3 12
8.0030012 5.5912838 -0.85412621 12 5
8.500185 5.9364276 2.0153246 2 13
4.9198341 3.4079287 -1.6036428 15 0
8.2688656 5.7234988 0.1755363 49 8
5.2386775 3.624728 -1.4707299 23 1
8.7119179 6.0234251 0.55507523 2 9
5.7276673 3.9571581 -1.3532175 15 2
8.6462774 5.9713526 0.91931874 1 10
6.2723699 4.3286352 -1.2070485 11 3
8.6154938 5.9412141 1.2849904 0 11
6.8383079 4.713912 -1.0198027 12 4
8.6463728 5.9558306 1.6628985 1 12
8.0746641 5.557869 -0.85761249 12 5
8.6174364 5.9292483 2.0332606 2 13
4.9626565 3.3865635 -1.6098546 14 0
8.3879242 5.7197084 0.17721173 40 8
5.2815685 3.6001408 -1.4756789 17 1
8.8759098 6.0456591 0.56282091 2 9
5.7551522 3.9170778 -1.3532175 13 2
8.7635298 5.9623995 0.92733705 1 10
6.3155031 4.2936277 -1.2095515 11 3
8.7717037 5.9590068 1.3020523 1 11
7.2126336 4.8980217 -1.0705004 11 4
8.7629318 5.9463444 1.6772904 1 12
8.1825285 5.5483251 -0.86493361 12 5
8.7545023 5.9339328 2.0557761 2 13
4.973352 3.3432133 -1.6057135 16 0
8.5289049 5.7290306 0.17934093 72 8
5.3259878 3.5762167 -1.4810777 20 1
8.9809217 6.0258374 0.56679851 2 9
5.8590012 3.9281855 -1.3711535 9 2
8.8876925 5.9565392 0.93605268 1 10
6.3584566 4.2582231 -1.2120544 12 3
8.935174 5.97932 1.3200889 1 11
7.1938529 4.8122292 -1.0627007 13 4
8.9553213 5.9860158 1.7060745 3 12
8.24757 5.5087748 -0.86772257 12 5
8.8593931 5.9151864 2.0706592 2 13
8.5148487 5.6808529 -0.53644365 43 6
8.534874 5.6877456 -0.17902678 40 7
5.0030122 3.3126795 -1.607784 14 0
8.5603552 5.6638317 0.17916641 62 8
5.4012103 3.5722752 -1.4950247 24 1
9.1260767 6.0312657 0.57328814 2 9
5.8862824 3.8871861 -1.3711535 13 2
9.0587597 5.9799581 0.94964898 1 10
6.406168 4.2256937 -1.2154959 15 3
9.0894032 5.991087 1.336663 1 11
7.3068395 4.8143139 -1.0744002 10 4
9.0958853 5.9885302 1.7248467 3 12
8.9857674 5.9092898 2.0905035 2 13
8.5693254 5.6311364 -0.53738564 32 6
8.5576534 5.617054 -0.17867775 34 7
5.0373445 3.2850583 -1.6114074 13 0
8.6315231 5.6246705 0.1798296 42 8
5.419486 3.5302258 -1.4932251 25 1
9.167964 5.967402 0.57328814 2 9
5.9297328 3.8567042 -1.3749697 12 2
9.1737823 5.9643536 0.9573186 1 10
6.452076 4.1916318 -1.2186246 14 3
9.1942778 5.9685578 1.3459252 1 11
7.3635826 4.7783175 -1.0778127 14 4
9.2302866 5.9850664 1.7423673 3 12
8.5209913 5.5209184 -0.8882913 18 5
9.132268 5.9147134 2.1149271 2 13
5.0861635 3.2665138 -1.6196897 12 0
8.8960934 5.7090011 0.18450685 33 8
5.4653249 3.505981 -1.4990739 20 1
9.3607311 6.0002618 0.5827086 2 9
5.9763517 3.8279202 -1.3795491 12 2
9.3225832 5.9689245 0.96847457 1 10
6.4795184 4.1454215 -1.2183118 21 3
9.3762188 5.9940348 1.3663993 1 11
7.366653 4.707552 -1.0734253 14 4
9.3983822 6.0012741 1.7661453 3 12
8.5550117 5.4606495 -0.88794273 25 5
9.2527885 5.9014888 2.1332448 4 13
5.0272069 3.1792977 -1.5938078 13 0
9.0277109 5.7070837 0.18642659 34 8
5.4797812 3.4614987 -1.4963745 22 1
9.587121 6.0537047 0.59422249 2 9
5.9889855 3.7787704 -1.3764962 10 2
9.441555 5.9525743 0.97649294 1 10
6.559392 4.1338701 -1.2280107 15 3
9.5511799 6.0147023 1.3858984 1 11
7.4699068 4.7004089 -1.0836623 12 4
9.5058947 5.9792366 1.7786602 3 12
8.6064234 5.4092693 -0.88933718 18 5
9.3852062 5.8941765 2.1542337 5 13
5.0880847 3.1695194 -1.6062311 13 0
9.1301479 5.6830182 0.18771808 34 8
5.5578179 3.4580922 -1.5112212 26 1
9.6732492 6.0140448 0.59694397 2 9
6.0369 3.7503352 -1.3814572 14 2
9.6037197 5.9638472 0.98904335 1 10
6.5780206 4.081727 -1.2261335 16 3
9.6975384 6.0127311 1.40101 1 11
7.5379763 4.6700988 -1.0887808 18 4
9.6616049 5.9834509 1.7999352 3 12
8.820178 5.4580894 -0.90746558 12 5
9.4962549 5.871881 2.1702616 7 13
5.0612254 3.1027381 -1.5907019 13 0
9.2701979 5.6807852 0.18977746 35 8
5.6123357 3.4365499 -1.5193194 23 1
9.8761806 6.0426593 0.60678315 2 9
6.1098313 3.7367802 -1.3921425 12 2
9.737956 5.9510703 0.99845618 1 10
6.7014709 4.0922022 -1.2436541 12 3
9.8511105 6.0131392 1.4170969 1 11
7.5348048 4.5956569 -1.0836623 18 4
9.7952614 5.9696732 1.81683 3 12
8.9533491 5.4544315 -0.91722697 13 5
9.6242208 5.8585248 2.1901057 1 13
5.1472683 3.1062593 -1.6108898 11 0
9.4133577 5.67626 0.19187176 36 8
5.6979423 3.43451 -1.5359658 15 1
10.055001 6.0559945 0.61515689 2 9
6.1660428 3.7122641 -1.3990116 12 2
9.8885279 5.9486775 1.0096121 1 10
6.8009849 4.0880604 -1.2567947 11 3
10.035778 6.0301046 1.4375709 1 11
7.7300887 4.6410351 -1.1070613 11 4
9.9339066 5.9618182 1.8349764 3 12
9.008297 5.4020391 -0.91897017 13 5
5.1616502 3.0672007 -1.6088192 15 0
9.5333195 5.6627264 0.19354719 36 8
5.7547054 3.4155352 -1.5449638 22 1
10.180829 6.0401278 0.62039047 2 9
6.2333913 3.6952329 -1.4085521 12 2
10.127639 5.9990225 1.0298322 1 10
6.8755412 4.0710444 -1.2655549 15 3
10.189347 6.0283709 1.4536576 1 11
7.7538648 4.5856233 -1.1060863 14 4
10.123914 5.9824972 1.8625089 3 12
9.0723085 5.3568039 -0.92175907 13 5
5.2919197 3.0973051 -1.6429834 14 0
9.6993809 5.6724076 0.19613016 25 8
5.7755489 3.3763096 -1.5445139 24 1
10.342427 6.0412102 0.62771749 1 9
6.3092647 3.6824098 -1.4200007 12 2
10.281833 5.9961872 1.0413368 1 10
6.9269829 4.0380807 -1.2699351 15 3
10.353652 6.030808 1.4712068 1 11
7.8182869 4.5503516 -1.1107173 10 4
10.239529 5.9571552 1.8762752 2 12
9.1292324 5.3069429 -0.92385083 13 5
5.3239932 3.0651407 -1.6460892 15 0
9.8229246 5.6507173 0.19780558 25 8
5.8147659 3.3436375 -1.548563 21 1
10.454665 6.0068421 0.63190436 2 9
6.3695064 3.6567171 -1.4276329 10 2
10.452367 5.9958196 1.0542358 1 10
7.007112 4.0178881 -1.2793212 12 3
10.530891 6.0335379 1.4902185 1 11
7.8902721 4.5169721 -1.1163234 11 4
10.424198 5.9651632 1.9022434 3 12
9.2223215 5.2731261 -0.92942882 13 5
5.3861346 3.0498126 -1.6585126 15 0
9.9744997 5.6432977 0.20003949 13 8
5.8555045 3.3115382 -1.5530621 21 1
10.622579 6.0026226 0.63944077 2 9
6.2826786 3.5473371 -1.4024462 10 2
10.594607 5.9795008 1.064346 2 10
7.0150352 3.9559991 -1.2755668 11 3
10.681022 6.0184445 1.5053302 1 11
7.9112349 4.4559364 -1.1148609 12 4
10.547527 5.9359512 1.9169482 3 12
9.1903534 5.1679358 -0.92245638 13 5
5.4241734 3.0215344 -1.6636889 16 0
10.174401 5.6630015 0.20325074 13 8
5.9091349 3.2876296 -1.5611603 22 1
10.779436 5.9923697 0.64634913 2 9
6.437727 3.57584 -1.4314492 12 2
10.79983 5.9963074 1.0807312 1 10
7.1461244 3.9644256 -1.2943389 16 3
10.830422 6.0033984 1.5204421 1 11
8.0671682 4.4698672 -1.13241 10 4
10.692404 5.9195776 1.9357203 3 12
9.4354162 5.2193823 -0.94337374 13 5
5.4519105 2.9873087 -1.6657594 16 0
10.322437 5.6513715 0.20541482 13 8
5.9404883 3.2509763 -1.5634098 25 1
10.996247 6.0127907 0.6568163 2 9
6.4952707 3.5486908 -1.4387 12 2
10.960335 5.9857016 1.0925844 1 10
7.2187138 3.9390376 -1.3024734 12 3
10.983612 5.9884629 1.5360414 1 11
7.8994718 4.3051414 -1.1046238 19 4
10.842762 5.9043069 1.9554311 3 12
9.6116333 5.2295604 -0.9573186 13 5
5.4828372 2.9546733 -1.6688653 15 0
5.9904957 3.2242019 -1.5706083 30 1
11.125908 5.9831738 0.66204989 2 9
6.5631204 3.5264928 -1.4482403 15 2
11.117702 5.9712586 1.1040889 1 10
7.3121781 3.9240439 -1.3143625 9 3
11.189602 5.9998145 1.5589528 1 11
8.163785 4.3755507 -1.1372849 12 4
11.014321 5.8984075 1.9788963 3 12
9.7252064 5.2036853 -0.96498835 13 5
5.5067449 2.9181328 -1.6699005 16 0
6.0386953 3.1959753 -1.5773568 24 1
11.255688 5.9520369 0.66728354 2 9
6.5997314 3.4870079 -1.4509118 11 2
11.247208 5.9400196 1.1128045 1 10
7.3481302 3.8775094 -1.3159269 9 3
11.354133 5.9863572 1.5760144 1 11
8.0852518 4.2610679 -1.122173 13 4
11.174087 5.8839545 2.0001712 3 12
9.7013464 5.1041274 -0.9590618 13 5
5.5749531 2.9046135 -1.6843945 15 0
6.0885177 3.1681347 -1.5845551 27 1
11.385571 5.9193773 0.67251712 2 9
6.6343675 3.4462781 -1.4532013 13 2
11.458153 5.9494953 1.1295384 1 10
7.4381447 3.8588634 -1.3271902 11 3
11.519017 5.9708924 1.5930762 2 11
8.3157349 4.3086271 -1.1499593 16 4
11.400842 5.9020653 2.0333354 3 12
9.7367439 5.0362749 -0.9590618 13 5
5.6226082 2.8797102 -1.6926767 14 0
6.1313081 3.136198 -1.589954 30 1
11.565338 5.9106421 0.68068153 2 9
6.653018 3.3972023 -1.4520565 11 2
11.655574 5.9490647 1.1448778 1 10
7.5317731 3.8409469 -1.3390791 11 3
11.691306 5.9570184 1.6111128 1 11
8.4128265 4.2847052 -1.1592213 13 4
11.515711 5.8599558 2.0464759 3 12
9.7574587 4.9609532 -0.95766729 13 5
10.957479 5.563858 -0.64404637 35 6
11.059367 5.6083126 -0.21644475 49 7
5.6391239 2.8386495 -1.6916413 15 0
11.020736 5.5428576 0.21532778 45 8
6.1669817 3.1003194 -1.5935532 25 1
11.73482 5.8943086 0.68821788 2 9
6.7660637 3.3955801 -1.471519 13 2
11.835729 5.9372354 1.1584741 1 10
7.653769 3.8360636 -1.3559741 10 3
11.871058 5.9445825 1.6301244 1 11
8.5224171 4.2658482 -1.1701895 10 4
11.697681 5.8501034 2.0715053 3 12
10.002161 4.9978027 -0.97823608 14 5
11.122936 5.5505471 -0.65147805 8 6
11.123304 5.5434594 -0.21693341 24 7
5.658803 2.7992144 -1.6916413 14 0
6.1849809 3.0554669 -1.5926535 26 1
11.954781 5.9006391 0.69868505 2 9
6.8565145 3.3812573 -1.4860206 13 2
12.009133 5.9196486 1.1713731 1 10
7.7370715 3.8104653 -1.3659859 12 3
12.076132 5.9421992 1.6525484 1 11
8.6321497 4.2456722 -1.1811578 11 4
11.862337 5.8292866 2.0934062 3 12
9.9903107 4.9050174 -0.97370398 13 5
5.6973195 2.7689292 -1.6973354 13 0
6.2412238 3.0292313 -1.6016515 27 1
12.121485 5.8780322 0.70601213 2 9
6.9258885 3.355567 -1.4959426 11 2
12.086033 5.8530269 1.1748594 1 10
7.806159 3.77701 -1.3734949 11 3
12.217406 5.9061298 1.6661978 1 11
8.6651525 4.1870365 -1.1816452 11 4
12.078856 5.8313518 2.1243804 3 12
5.7304583 2.7357454 -1.7014765 13 0
6.2692556 2.9889402 -1.6034511 25 1
12.396632 5.9049277 0.71961951 2 9
6.9899182 3.3265374 -1.5047197 14 2
12.277731 5.8404064 1.1895015 1 10
7.8965659 3.7529459 -1.384758 11 3
12.387455 5.8819928 1.6837471 0 11
8.7766666 4.1655936 -1.1928571 13 4
12.288837 5.8272834 2.1541028 3 12
10.55477 5.0004945 -1.021814 14 5
5.7564144 2.6989527 -1.703547 13 0
6.3111482 2.9550159 -1.60885 22 1
12.513536 5.8537831 0.72401571 2 9
7.0147505 3.2784891 -1.5051014 11 2
12.448174 5.8152652 1.202052 1 10
7.9476337 3.7094226 -1.3891382 11 3
12.53616 5.8457108 1.6983713 0 11
8.7911396 4.0975103 -1.1909074 13 4
12.454569 5.7997274 2.1760037 3 12
10.499099 4.8846641 -1.0130984 14 5
5.7856455 2.663547 -1.7066529 12 0
6.3847423 2.9353039 -1.622347 17 1
12.659367 5.8146305 0.73008668 2 9
7.0517426 3.2359874 -1.5081544 13 2
12.698542 5.8245754 1.2222722 1 10
8.0236197 3.6768899 -1.3978986 9 3
12.66691 5.7993665 1.7105582 0 11
8.5469666 3.9113047 -1.1541028 9 4
12.654645 5.7857385 2.2038488 3 12
10.754043 4.9122405 -1.0343643 14 5
5.8393078 2.6390028 -1.7170056 13 0
6.4406033 2.9066908 -1.631345 20 1
12.881723 5.8082108 0.74055386 2 9
7.1063828 3.2011924 -1.5150236 11 2
12.866064 5.7930465 1.2344739 1 10
8.0526962 3.6224053 -1.3985243 9 3
12.87729 5.7872853 1.7334697 0 11
9.0177069 4.0508275 -1.2138187 19 4
12.815476 5.7514424 2.2248113 3 12
10.715355 4.8044324 -1.0273918 14 5
5.8964386 2.6154075 -1.7283937 12 0
6.4928098 2.875865 -1.6394434 15 1
13.104603 5.7989531 0.75102103 2 9
7.1788349 3.1737297 -1.5257088 11 2
13.055633 5.7691112 1.2487675 1 10
8.0633335 3.5597165 -1.3960214 12 3
13.080841 5.7693462 1.7554061 0 11
9.0730143 3.9997852 -1.2174748 10 4
13.068636 5.7557917 2.26173 1 12
10.94559 4.8161759 -1.0462176 15 5
5.9216394 2.5772626 -1.7304642 12 0
6.5055795 2.8273594 -1.6376437 19 1
13.26568 5.7598233 0.75792938 2 9
7.2314343 3.1368198 -1.5321964 10 2
13.240001 5.7404366 1.2625381 2 10
8.1786175 3.542598 -1.4116647 10 3
13.224648 5.722816 1.7692993 3 11
9.211854 3.984422 -1.232343 11 4
13.231809 5.7176919 2.2830048 3 12
11.161867 4.8186116 -1.0636487 15 5
13.040446 5.6215019 -0.74421734 8 6
5.9554796 2.5426834 -1.735123 11 0
13.259966 5.6558595 0.25162879 20 8
6.5753551 2.8032689 -1.6502409 15 1
7.2838678 3.0993259 -1.5386838 12 2
13.446595 5.7188296 1.2784004 1 10
8.2449665 3.5031815 -1.4188608 13 3
13.441525 5.7055879 1.7929419 1 11
9.345438 3.9649827 -1.2464797 13 4
13.43509 5.6945567 2.3111632 3 12
11.253945 4.76543 -1.0692266 15 5
13.112487 5.5443263 -0.74610144 8 6
5.9855576 2.5062699 -1.7387464 9 0
6.6199346 2.767823 -1.6565396 21 1
13.776057 5.7541804 0.7824226 2 9
7.3669314 3.0741014 -1.5516587 12 2
13.773055 5.7444592 1.305593 1 10
8.2728701 3.4470506 -1.4194865 13 3
13.865888 5.7718101 1.8441271 1 11
9.2299347 3.8401597 -1.2274681 11 4
11.518785 4.7830238 -1.0911899 16 5
13.315073 5.5207367 -0.75541729 17 6
6.010057 2.4673564 -1.740817 9 0
6.5868053 2.7001045 -1.6434923 25 1
14.048776 5.7532353 0.79561126 2 9
7.4082012 3.0307732 -1.5558566 15 2
14.063631 5.7507224 1.3292993 1 10
8.3314791 3.4034047 -1.425431 10 3
14.225643 5.8053823 1.8865376 0 11
9.3190126 3.8011196 -1.2357552 7 4
11.565839 4.7105131 -1.0925844 16 5
13.442105 5.463738 -0.76044154 35 6
13.494719 5.4768925 -0.25421175 59 7
6.0396814 2.4303865 -1.7444404 6 0
13.500725 5.429996 0.25400233 21 8
6.7356882 2.7063651 -1.6758853 23 1
7.4632783 2.9941695 -1.5631074 12 2
14.484411 5.8050795 1.3652076 1 10
8.4424696 3.3818777 -1.4404486 9 3
14.456505 5.7851124 1.9118865 1 11
9.6125937 3.8428199 -1.2710973 16 4
13.816652 5.506701 -0.77949184 17 6
6.0488968 2.3863835 -1.7423699 6 0
6.7847776 2.6725955 -1.6835337 20 1
14.569098 5.733048 0.8205232 2 9
7.5461211 2.9664173 -1.5760823 12 2
14.890759 5.8506222 1.3997213 1 10
8.4658756 3.3228517 -1.4404486 12 3
14.733096 5.7768064 1.9430851 2 11
9.7426949 3.8161614 -1.2847468 7 4
12.172296 4.7604733 -1.1434834 18 5
14.059408 5.4900208 -0.79100567 17 6
6.0712247 2.3451257 -1.7439228 7 0
6.8110018 2.6267815 -1.6853334 18 1
14.863216 5.7262998 0.83475858 2 9
7.6197791 2.9341187 -1.5871494 13 2
15.185143 5.841198 1.4234276 1 10
14.973201 5.7506742 1.9694086 2 11
9.6504841 3.702543 -1.2691474 9 4
12.156858 4.656848 -1.1389512 18 5
14.329669 5.477704 -0.803985 17 6
6.1091313 2.3108852 -1.7501343 4 0
6.8474045 2.5860529 -1.6898323 21 1
15.183134 5.7281451 0.85045934 2 9
7.6883454 2.8975189 -1.5970714 18 2
15.538788 5.8530307 1.4527119 1 10
8.667304 3.2612793 -1.4667298 9 3
15.251816 5.7327819 2.0006073 3 11
9.9195337 3.7265325 -1.3010772 12 4
12.286078 4.6082482 -1.1480155 18 5
14.595767 5.462944 -0.816755 17 6
6.1631598 2.2822673 -1.7610049 2 0
6.8744302 2.5415647 -1.6920818 24 1
7.7226243 2.8505576 -1.6001244 13 2
15.848457 5.8436704 1.4778128 1 10
8.7282257 3.2165513 -1.4733 14 3
15.495398 5.7042756 2.0274186 3 11
10.032874 3.6893911 -1.3125329 16 4
12.269322 4.5045099 -1.1434834 18 5
14.913902 5.4665709 -0.83245581 17 6
6.1876326 2.2435555 -1.763593 2 0
6.8989005 2.497366 -1.6938814 23 1
7.7515678 2.7999125 -1.6020325 12 2
16.109003 5.8154812 1.4983815 1 10
7.8194871 2.819818 -1.3165526 2 3
15.701063 5.6558256 2.0491114 4 11
9.7850637 3.5228446 -1.2769471 7 4
12.27422 4.4093137 -1.1410429 18 5
15.207384 5.4540176 -0.84669119 17 6
6.2049656 2.200949 -1.7641107 2 0
6.8592219 2.4289763 -1.6799345 21 1
7.7912884 2.7529228 -1.6062301 13 2
16.468584 5.8156695 1.5280145 1 10
8.884057 3.1337986 -1.4920721 14 3
15.989177 5.6338134 2.0815284 3 11
10.328072 3.6370869 -1.3444628 13 4
12.755836 4.482038 -1.1828777 20 5
15.499516 5.4369736 -0.86082184 26 6
6.2183533 2.1569462 -1.763593 1 0
6.9441447 2.4046276 -1.6965809 26 1
7.8622756 2.7164097 -1.6169155 15 2
16.727242 5.7759895 1.5482345 1 10
8.9505377 3.0871584 -1.499581 17 3
10.270625 3.5364583 -1.3337382 7 4
12.873493 4.4226542 -1.190896 20 5
15.818594 5.425169 -0.87641799 17 6
6.224113 2.1103799 -1.7610049 2 0
6.9866052 2.3648367 -1.7028794 24 1
16.977346 5.7399049 0.9392212 2 9
7.8922076 2.6652272 -1.6192051 18 2
17.099409 5.7711992 1.5789135 1 10
9.065464 3.0561533 -1.5152245 12 3
10.5848 3.5621819 -1.371274 12 4
13.028715 4.3745213 -1.2024006 20 5
15.929939 5.3393569 -0.88050026 17 6
15.927516 5.3292704 -0.2931655 30 7
6.2111864 2.0577626 -1.7532402 2 0
7.0917535 2.3453741 -1.7244748 24 1
7.9777398 2.6322093 -1.6329435 13 2
17.324711 5.7128363 1.5959959 1 10
9.1203499 3.0039129 -1.520856 15 3
10.85079 3.5675609 -1.4024725 10 4
13.134662 4.3083024 -1.209373 21 5
16.477415 5.3952055 -0.90865701 18 6
6.2364297 2.0179186 -1.7563461 2 0
7.0857015 2.2886198 -1.7190759 23 1
8.0314255 2.5878904 -1.6401943 12 2
17.709333 5.702899 1.6277206 1 10
9.1335773 2.9377484 -1.5196046 12 3
10.947255 3.514781 -1.4117346 14 4
13.137856 4.2079916 -1.2069327 21 5
16.866619 5.3925619 -0.92802125 18 6
6.272471 1.9813137 -1.7625577 2 0
7.1702728 2.2607782 -1.7357224 20 1
8.0830069 2.5423641 -1.6470633 10 2
17.999609 5.6579914 1.6507297 1 10
9.150095 2.8727291 -1.5189787 16 3
11.119278 3.4845717 -1.4307462 13 4
13.482584 4.2148533 -1.2358683 22 5
17.231791 5.377008 -0.94602478 18 6
6.2750731 1.9340611 -1.759452 1 0
7.2566595 2.2324395 -1.7528186 19 1
18.276495 5.6156101 1.0020244 2 9
8.1624956 2.5048749 -1.6596566 21 2
18.244387 5.5952926 1.6695553 1 10
9.3096962 2.8515909 -1.5421312 9 3
11.200284 3.4242711 -1.4380584 15 4
13.64508 4.161314 -1.2480702 22 5
17.635767 5.368237 -0.96612185 18 6
6.3383741 1.9052237 -1.7734282 2 0
7.3317966 2.1996474 -1.7672155 17 1
8.2550192 2.4703431 -1.6749215 15 2
18.550247 5.5476995 1.693959 1 10
9.4031944 2.8085754 -1.5543331 10 3
11.216308 3.3437266 -1.4370835 14 4
13.6738 4.0659456 -1.2480702 22 5
18.019375 5.3478475 -0.98506743 18 6
6.3274198 1.8538659 -1.7666988 3 0
7.4049568 2.1653633 -1.7811624 13 1
8.2777157 2.414305 -1.6760663 12 2
18.883095 5.5039182 1.720803 1 10
9.439641 2.747834 -1.5571488 13 3
11.285127 3.2786376 -1.4429331 18 4
18.217436 5.268528 -0.99385995 18 6
6.3476391 1.8117646 -1.7687694 3 0
7.4273915 2.1157465 -1.7829621 11 1
8.3566914 2.3741624 -1.6886597 16 2
19.289051 5.4764428 1.7542707 1 10
9.5821257 2.7168913 -1.5774853 10 3
11.525491 3.26139 -1.4707193 16 4
14.399649 4.0665536 -1.3090792 24 5
18.451786 5.1969886 -1.0046412 18 6
6.3712997 1.770512 -1.7718753 3 0
7.4682698 2.0711362 -1.7892607 14 1
19.603201 5.4327683 1.0660836 3 9
8.4824018 2.3475978 -1.7107936 13 2
19.515013 5.393662 1.7713534 3 10
9.7032156 2.6800032 -1.5943803 9 3
11.590085 3.1924391 -1.4760816 14 4
14.592906 4.0113349 -1.32407 25 5
18.644674 5.1145968 -1.0132242 18 6
6.3757448 1.7250848 -1.7698047 3 0
7.4897203 2.0222852 -1.7910603 15 1
20.385008 5.4964843 1.1064868 3 9
8.5061665 2.290364 -1.71232 16 2
20.309315 5.4646697 1.8400321 1 10
9.8056288 2.6347511 -1.6081465 10 3
11.611545 3.1134791 -1.4760816 19 4
14.873929 3.9798975 -1.3470792 26 5
18.79957 5.016232 -1.0197139 28 6
18.881172 5.0274177 -0.34105495 38 7
6.3652124 1.6746362 -1.763593 1 0
7.5413527 1.9798481 -1.8000585 14 1
8.5291567 2.2344012 -1.7138464 19 2
20.886679 5.4639378 1.8888392 1 10
9.8156939 2.565942 -1.606895 12 3
11.767462 3.0673897 -1.4931433 19 4
15.225294 3.9602208 -1.3763635 27 5
19.683887 5.1089354 -1.0657694 19 6
6.3583155 1.6242634 -1.7584167 2 0
7.5591035 1.9267955 -1.8009582 14 1
8.6290283 2.1930981 -1.7306377 15 2
21.396427 5.4340019 1.9313713 1 10
10.050605 2.5487955 -1.6422491 8 3
11.919971 3.0162184 -1.5097176 19 4
19.976469 5.0288682 -1.0795861 19 6
6.3504753 1.5762892 -1.7532402 2 0
7.5569119 1.871546 -1.7973589 12 1
8.7161846 2.152195 -1.7451392 16 2
21.831398 5.3865647 1.9672793 1 10
10.111837 2.4911923 -1.6494452 9 3
12.102155 2.9748149 -1.5301917 12 4
15.499698 3.8013563 -1.396235 28 5
20.19261 4.9373679 -1.0894254 9 6
6.3535447 1.5312188 -1.7511697 3 0
7.5808444 1.8228016 -1.8000585 12 1
8.7497225 2.0973964 -1.7489554 15 2
22.305454 5.3427143 2.0066738 4 10
10.186194 2.4360943 -1.6588312 9 3
12.103317 2.8856494 -1.5277542 13 4
20.633839 4.8966508 -1.1114064 9 6
6.3681016 1.486593 -1.752205 2 0
7.5898972 1.7676235 -1.7991585 10 1
8.7163429 2.0251529 -1.7394148 10 2
22.770103 5.282012 2.0450222 4 10
10.232234 2.3698218 -1.6635244 13 3
12.370738 2.8582838 -1.5589528 15 4
15.842486 3.6517017 -1.4223818 28 5
21.135519 4.8562126 -1.1365278 10 6
6.4178953 1.4510456 -1.7630754 2 0
7.6096568 1.7163081 -1.8009582 12 1
8.7593441 1.9691876 -1.7451392 13 2
10.27744 2.3048184 -1.6682173 12 3
12.429134 2.7805233 -1.5638275 19 4
16.156017 3.6024158 -1.4481798 29 5
21.457451 4.7727208 -1.1520191 10 6
6.420321 1.4045504 -1.7610049 2 0
7.5986071 1.6581515 -1.7955593 15 1
8.8553705 1.9259288 -1.7615488 10 2
10.463161 2.2698662 -1.6957498 9 3
12.719868 2.752461 -1.5979509 13 4
16.398903 3.5365877 -1.4677026 30 5
21.904194 4.7118587 -1.1742096 20 6
23.401735 5.0211802 -0.41777572 34 7
6.4261889 1.3588976 -1.7599696 2 0
7.5394464 1.5901861 -1.7789129 7 1
8.9108686 1.8729395 -1.7699443 12 2
10.509688 2.2032442 -1.7007557 12 3
12.836397 2.6816669 -1.6101379 18 4
16.594837 3.4577804 -1.4830421 30 5
22.112549 4.5953989 -1.1836301 20 6
6.4300699 1.3117195 -1.7584167 2 0
7.4742475 1.5206537 -1.7609169 5 1
25.384256 5.155262 1.3574902 6 9
8.9660549 1.8192775 -1.77834 12 2
10.540675 2.1311138 -1.7032586 12 3
13.103886 2.6422033 -1.6413364 15 4
16.71624 3.3614738 -1.4917578 31 5
22.861618 4.5806589 -1.22194 10 6
6.4201155 1.2630681 -1.7532402 2 0
7.4712954 1.4658104 -1.7577676 6 1
9.0096731 1.7610973 -1.7844458 12 2
10.638667 2.0737305 -1.7167121 14 3
13.235031 2.5726316 -1.6554734 14 4
16.935467 3.2796569 -1.5091888 31 5
23.065611 4.454257 -1.2311511 10 6
6.449656 1.2221729 -1.7589344 2 0
7.4775167 1.4128915 -1.7568678 6 1
9.0063133 1.6952498 -1.7813929 10 2
10.742193 2.0161698 -1.731104 13 3
13.38535 2.505002 -1.6720475 11 4
23.347486 4.3398514 -1.2445492 10 6
6.4447274 1.1746943 -1.7553109 3 0
7.4871979 1.3606578 -1.7568678 6 1
9.0758848 1.6428231 -1.7928416 10 2
10.822103 1.9530544 -1.7417415 13 3
13.595931 2.4462948 -1.6961776 10 4
23.683931 4.2315493 -1.260878 10 6
6.4489655 1.1290036 -1.7542756 3 0
7.4965148 1.3083506 -1.7568678 7 1
9.0813284 1.5784172 -1.7916965 10 2
10.821847 1.8750985 -1.7395515 12 3
13.614635 2.3516624 -1.6964215 16 4
17.589504 3.0255909 -1.5614822 33 5
24.051483 4.1241598 -1.2788815 10 6
6.4833632 1.0884316 -1.7615224 3 0
7.5016222 1.2553399 -1.7559679 6 1
9.0959997 1.5156244 -1.7924597 7 2
10.936007 1.8163269 -1.7558208 20 3
13.791312 2.2831361 -1.716408 15 4
24.422613 4.0125003 -1.2970945 10 6
6.45647 1.0376282 -1.752205 2 0
7.4986572 1.2010924 -1.7532685 6 1
9.1567678 1.460119 -1.8023818 4 2
11.106443 1.7650478 -1.7811631 16 3
13.979453 2.2141263 -1.737857 14 4
24.891996 3.9113355 -1.3205409 10 6
6.4921985 0.99692637 -1.7599696 2 0
7.5184178 1.1504811 -1.7559679 7 1
32.018585 4.8880863 1.6974646 6 9
9.122097 1.3893625 -1.7936047 3 2
11.223957 1.7034787 -1.7980579 15 3
14.041677 2.1236084 -1.7437067 15 4
18.436604 2.7784069 -1.6312069 35 5
25.610003 3.8411481 -1.3571762 11 6
6.4837089 0.94933897 -1.7558285 2 0
7.5146966 1.0962769 -1.7532685 6 1
9.1177435 1.3252614 -1.7909334 4 2
11.305672 1.6372322 -1.8093213 10 3
13.987391 2.0156176 -1.7351758 20 4
26.15752 3.7414079 -1.3848095 11 6
6.4900208 0.90518373 -1.7558285 2 0
7.5335655 1.0467094 -1.7559679 7 1
9.1189938 1.2605 -1.7894068 4 2
11.391188 1.5685029 -1.8212101 11 3
14.030287 1.9244077 -1.7388319 11 4
26.958794 3.6641457 -1.425841 11 6
6.4866056 0.85858524 -1.7532402 2 0
7.5059133 0.98950523 -1.7478697 6 1
