# .PCD v0.7 - Point Cloud Data file format
VERSION 0.7
FIELDS x y z intensity ring
SIZE 4 4 4 4 2
TYPE F F F F U
COUNT 1 1 1 1 1
WIDTH 1323
HEIGHT 1
VIEWPOINT 0 0 0 1 0 0 0
POINTS 1323
DATA ascii
28.513815 4.0530367 6.6491032 45 14
28.528942 4.0399489 7.7205725 30 15
6.4713588 0.89912707 -1.7506521 6 0
7.5341129 1.0427649 -1.7559679 7 1
8.98351 1.2369791 -1.7626936 4 2
11.092579 1.5214689 -1.7733413 7 3
14.450227 1.9742926 -1.7907482 7 4
27.037897 3.6604805 -1.4299231 22 6
28.629208 3.8504663 7.740243 5 15
6.5081229 0.85796642 -1.7589344 2 0
7.5257521 0.98811209 -1.7523687 7 1
8.9977655 1.1749948 -1.7638384 4 2
11.12056 1.4462837 -1.776157 5 3
14.495154 1.8774494 -1.7946482 7 4
27.340139 3.5071959 -1.4445772 11 6
6.5407915 0.81586093 -1.7661812 2 0
9.0369253 1.1159999 -1.7699443 4 2
11.126465 1.3681302 -1.7755314 4 3
14.539434 1.780068 -1.7985479 7 4
27.760508 3.3643117 -1.4655116 11 6
6.5194674 0.7670176 -1.7589344 2 0
7.5233302 0.88112551 -1.7487694 42 1
9.0072622 1.0501419 -1.7626936 4 2
11.147518 1.2917892 -1.7774086 5 3
14.579116 1.6817119 -1.8019602 7 4
28.124069 3.2142813 -1.4835151 11 6
6.5418177 0.72453701 -1.763593 2 0
7.5698309 0.83438259 -1.7582175 7 1
9.0434742 0.99202234 -1.768418 4 2
11.157804 1.2180415 -1.7777214 7 3
14.629419 1.5892631 -1.8068351 7 4
28.637785 3.0756645 -1.5094738 11 6
6.544558 0.68093401 -1.7630754 2 0
7.5616293 0.78275436 -1.7550682 7 1
9.0578289 0.93124104 -1.7699443 4 2
11.183524 1.1438682 -1.7805374 5 3
14.644107 1.4875001 -1.8073225 7 4
28.984472 2.9083631 -1.5266401 11 6
6.5646462 0.63557416 -1.7672166 2 0
7.5631576 0.72825104 -1.7541683 7 1
9.0388536 0.86397678 -1.7649832 27 2
11.216987 1.0662415 -1.7846047 6 3
14.682044 1.3852816 -1.8107349 7 4
29.700571 2.7656941 -1.5632751 12 6
6.544013 0.58633804 -1.7604873 2 0
7.5720577 0.67445385 -1.7550682 7 1
9.0213375 0.79720038 -1.760404 25 2
11.269588 0.98992825 -1.7918006 5 3
14.691358 1.2827479 -1.8107349 6 4
30.300207 2.6083105 -1.5938394 11 6
6.5575728 0.54143584 -1.7630754 2 0
7.5882344 0.62253416 -1.7577676 7 1
9.067647 0.73912495 -1.768418 4 2
11.315444 0.91638464 -1.7980579 4 3
14.725678 1.1822098 -1.8139035 4 4
30.966331 2.4534128 -1.6279624 10 6
6.5803695 0.49824893 -1.7682518 2 0
7.600069 0.57145619 -1.7595671 7 1
9.0882483 0.67696953 -1.7714708 4 2
11.315657 0.83692843 -1.7971194 4 3
14.757141 1.0836993 -1.8168284 4 4
31.405025 2.2676768 -1.6501528 10 6
6.5509229 0.45004624 -1.759452 2 0
7.5902643 0.51745236 -1.7564179 5 1
9.09863 0.61390162 -1.7726158 4 2
11.281804 0.75527096 -1.7908621 27 3
14.768309 0.98091173 -1.8173158 5 4
32.065834 2.090471 -1.6840665 9 6
6.5539055 0.4042981 -1.759452 2 0
7.5742407 0.46326008 -1.7519189 5 1
9.1007338 0.55025208 -1.772234 4 2
11.308492 0.67779613 -1.7943035 13 3
14.76687 0.87731463 -1.8163408 4 4
32.235168 1.8756074 -1.6922308 9 6
6.5642843 0.35895529 -1.7615224 2 0
7.5909109 0.41110829 -1.7550682 6 1
9.1023932 0.48659441 -1.7718524 4 2
11.31492 0.59893048 -1.7946163 4 3
14.732987 0.77212328 -1.811466 4 4
33.324585 1.7056632 -1.7487538 8 6
6.6071529 0.31505463 -1.772393 2 0
7.6033292 0.35856634 -1.7573177 5 1
9.0839968 0.42203364 -1.7676547 3 2
11.344479 0.52110118 -1.7986836 4 3
14.734053 0.66906869 -1.8109785 4 4
33.830517 1.4948208 -1.7747123 7 6
6.5840983 0.2678993 -1.7656636 2 0
7.595911 0.30508533 -1.7550682 6 1
9.1259565 0.36015788 -1.775287 3 2
11.345866 0.44181761 -1.7983708 4 3
14.653069 0.56291956 -1.8004979 19 4
34.850044 1.2961644 -1.8276764 6 6
6.5722928 0.22147165 -1.76204 2 0
7.6114898 0.25249711 -1.7582175 5 1
9.1321716 0.29656532 -1.7760502 3 2
11.352624 0.36272398 -1.7989967 3 3
14.716245 0.45991042 -1.8078099 3 4
35.588913 1.0749191 -1.8659865 5 6
6.5930214 0.17494822 -1.7672166 2 0
7.5741401 0.19701424 -1.7492194 4 1
9.1300955 0.23270349 -1.775287 3 2
11.350979 0.28137928 -1.7983708 3 3
14.746881 0.35783464 -1.8112223 3 4
35.879227 0.82675666 -1.8808498 4 6
6.5940824 0.12891598 -1.7672166 2 0
7.6104016 0.14479925 -1.7573177 5 1
9.1354513 0.167436 -1.7760502 3 2
84.076935 1.5262973 7.3569903 51 10
11.321065 0.20156501 -1.793365 3 3
14.838335 0.25641674 -1.8221905 4 4
37.070343 0.59530145 -1.943025 3 6
6.5967526 0.082901746 -1.7677342 2 0
7.6151242 0.091712043 -1.7582175 4 1
9.120676 0.10506806 -1.7729974 3 2
11.337977 0.12467391 -1.7958679 2 3
14.843733 0.15286024 -1.822678 4 4
38.112061 0.35254624 -1.9974543 2 6
6.5817094 0.037911184 -1.763593 1 0
7.6077776 0.039838117 -1.7564179 4 1
9.1683035 0.041604988 -1.7821561 3 2
11.378078 0.04567546 -1.8021252 2 3
14.848401 0.05183227 -1.8231655 4 4
6.6204505 -0.0080884099 -1.7739457 1 0
7.615665 -0.013291855 -1.7582175 4 1
9.1919298 -0.022460168 -1.7867355 3 2
11.346515 -0.033665884 -1.7971194 2 3
14.876192 -0.051927917 -1.8265779 3 4
6.5931883 -0.054085445 -1.7666988 1 0
7.6329246 -0.066611521 -1.7622666 3 1
9.2033272 -0.08674188 -1.7890252 3 2
11.377607 -0.11319245 -1.8021252 3 3
14.879436 -0.15582277 -1.8270653 3 4
6.5926499 -0.10011289 -1.7666988 2 0
7.6264281 -0.1198055 -1.7609169 3 1
9.1239786 -0.1497023 -1.7737606 3 2
11.376539 -0.19261973 -1.8021252 2 3
14.89188 -0.25993872 -1.8287715 2 4
120.80133 -2.3195043 -2.1089838 2 7
6.5879278 -0.14604981 -1.7656636 1 0
7.6331992 -0.17322151 -1.7627165 2 1
9.1815929 -0.21477284 -1.7852092 3 2
11.359119 -0.27165982 -1.7996223 2 3
14.901608 -0.36418748 -1.8302339 2 4
6.5867472 -0.19203828 -1.7656636 2 0
7.6356993 -0.22662225 -1.7636162 2 1
9.1602459 -0.27827057 -1.7813929 3 2
11.364843 -0.3511982 -1.8008738 2 3
14.918545 -0.46883413 -1.8326714 2 4
6.5929689 -0.23829654 -1.7677342 2 0
7.637826 -0.28006634 -1.7645161 1 1
9.1266909 -0.34104091 -1.775287 3 2
11.385802 -0.4314281 -1.8046281 2 3
14.906973 -0.57266814 -1.8316964 2 4
6.5795641 -0.28381842 -1.7646283 2 0
7.6317906 -0.33321118 -1.7636162 1 1
9.1593904 -0.40631446 -1.7821561 3 2
11.358832 -0.50984198 -1.8008738 2 3
14.926409 -0.67780423 -1.8346213 2 4
6.6043763 -0.332252 -1.7718753 1 0
7.6175342 -0.3872205 -1.7609169 2 1
9.1287985 -0.47043219 -1.7768134 3 2
11.362783 -0.59152108 -1.8021252 2 3
14.919195 -0.78449291 -1.8343775 3 4
6.6018953 -0.37835079 -1.7718753 1 0
7.6302085 -0.44129124 -1.7645161 3 1
9.133132 -0.53461015 -1.77834 3 2
11.358377 -0.67083317 -1.8021252 2 3
14.903446 -0.88803816 -1.8331589 2 4
6.5798149 -0.42319116 -1.7666988 2 0
7.6269422 -0.49454895 -1.7645161 3 1
9.1017513 -0.59656036 -1.7729974 3 2
11.396781 -0.75297767 -1.8090084 2 3
14.904806 -0.992589 -1.8341339 2 4
6.5497227 -0.46719196 -1.759452 2 0
7.6116414 -0.54694456 -1.7618166 3 1
9.1209764 -0.66020036 -1.7775766 3 2
11.371691 -0.82909864 -1.8058797 3 3
14.899494 -1.0967649 -1.8343775 2 4
6.598392 -0.51582855 -1.7734282 2 0
7.5883145 -0.59721333 -1.7573177 4 1
9.1318026 -0.72510344 -1.7806298 3 2
11.345935 -0.90689319 -1.8027509 3 3
14.935214 -1.2016588 -1.8397398 2 4
6.5638318 -0.55925697 -1.7651459 2 0
7.5917268 -0.65084058 -1.7591172 4 1
9.1108694 -0.78748477 -1.7775766 3 2
11.370814 -0.98881829 -1.8077569 3 3
14.979855 -1.3105674 -1.8463207 2 4
6.5578442 -0.60488969 -1.7646283 3 0
7.5831175 -0.70346451 -1.7582175 4 1
9.1266527 -0.85308081 -1.7817745 4 2
11.391168 -1.0707649 -1.812137 3 3
14.978245 -1.415861 -1.8472956 2 4
6.5669184 -0.6519931 -1.7682518 2 0
7.5993514 -0.75851613 -1.7631663 3 1
9.1108665 -0.91420364 -1.7798663 3 2
11.387547 -1.1486733 -1.8127627 4 3
14.96207 -1.5197916 -1.8465644 2 4
6.5584865 -0.69626939 -1.7672166 2 0
7.6114521 -0.81208599 -1.7672155 4 1
9.1784401 -0.98575318 -1.7943679 3 2
11.406744 -1.2311122 -1.817143 3 3
15.0244 -1.629519 -1.8555828 2 4
6.5438676 -0.74095213 -1.7646283 2 0
7.6094704 -0.86564422 -1.7681153 4 1
9.15378 -1.0477968 -1.7909334 4 2
11.413573 -1.3125212 -1.819646 4 3
15.061957 -1.7400638 -1.8616763 2 4
6.5711417 -0.79054117 -1.7734282 2 0
7.6167841 -0.92038327 -1.7712647 3 1
9.1520882 -1.1123868 -1.7920781 3 2
11.415896 -1.3936065 -1.8215232 3 3
15.062911 -1.849493 -1.8633825 2 4
6.5461535 -0.83509803 -1.7682518 2 0
7.6216002 -0.97634941 -1.7739639 3 1
9.1557827 -1.1777558 -1.7943679 3 2
11.460485 -1.4823555 -1.8302835 3 3
15.073256 -1.9576739 -1.8663074 2 4
6.543993 -0.88129365 -1.7692871 2 0
7.6049428 -1.0282286 -1.7717146 5 1
9.17241 -1.2466795 -1.7993289 4 2
11.422455 -1.5585892 -1.8259033 2 3
15.114289 -2.0704 -1.873132 1 4
6.524292 -0.9250592 -1.7656636 3 0
7.6072254 -1.0826683 -1.7739639 3 1
9.1306725 -1.3043652 -1.7928416 3 2
11.395938 -1.6340594 -1.8234003 2 3
15.107327 -2.1769991 -1.8741069 2 4
6.542685 -0.97314161 -1.772393 2 0
7.5938978 -1.1335607 -1.7726144 4 1
9.1912384 -1.3785602 -1.8065797 3 2
11.419414 -1.7188702 -1.8290319 2 3
15.103934 -2.281559 -1.8755693 2 4
6.5452757 -1.0202817 -1.774981 3 0
7.5780978 -1.1853434 -1.7708147 4 1
9.1816425 -1.4410906 -1.8065797 3 2
11.423059 -1.7990178 -1.8315349 2 3
15.111166 -2.3906703 -1.8784941 2 4
6.5458059 -1.0660522 -1.7770516 3 0
7.5948558 -1.2409831 -1.7766634 3 1
9.1364861 -1.4994318 -1.7997105 3 2
11.445307 -1.884498 -1.8371665 2 3
15.147425 -2.502208 -1.8850751 2 4
6.5382042 -1.1117241 -1.7770516 3 0
7.6148224 -1.2988898 -1.783412 3 1
9.1528854 -1.5678198 -1.8050531 3 2
11.45134 -1.9677001 -1.8402953 3 3
15.168712 -2.6146388 -1.8899499 2 4
45.974121 -7.9824319 -2.4454501 0 6
6.532186 -1.1576792 -1.7775693 2 0
7.609406 -1.3527014 -1.7843118 2 1
9.141717 -1.6316805 -1.8050531 3 2
11.460657 -2.051774 -1.8440496 2 3
15.19112 -2.7278397 -1.8950685 2 4
6.5239449 -1.2032539 -1.7775693 2 0
7.5921121 -1.4043738 -1.7825122 3 1
9.1381207 -1.6953005 -1.8065797 3 2
11.45031 -2.1304591 -1.8446754 3 3
15.228295 -2.8443964 -1.9021369 2 4
6.5307827 -1.2505393 -1.7817104 2 0
7.5976872 -1.4589587 -1.7861114 2 1
9.1260624 -1.7590545 -1.8065797 3 2
11.458432 -2.2148433 -1.8484299 2 3
15.185195 -2.9434521 -1.899212 4 4
6.4953661 -1.2908301 -1.7744634 2 0
7.5987835 -1.5142494 -1.7888107 2 1
9.1520624 -1.8304236 -1.814212 3 2
11.469806 -2.3002217 -1.85281 2 3
15.232389 -3.0630896 -1.9077429 3 4
6.474843 -1.3338057 -1.7713577 2 0
7.6338301 -1.5767221 -1.7996083 1 1
9.1467514 -1.8958659 -1.8157386 3 2
11.449598 -2.3794351 -1.8521842 2 3
15.296144 -3.1871731 -1.9184674 3 4
6.4785991 -1.3817967 -1.774981 2 0
7.60358 -1.6259025 -1.7951094 1 1
9.1908789 -1.9720316 -1.8271869 3 2
11.452021 -2.4634643 -1.8553129 2 3
15.341436 -3.3085287 -1.9269981 4 4
6.4763403 -1.4286563 -1.7770516 2 0
7.5730162 -1.6747376 -1.7906104 2 1
9.1232214 -2.02424 -1.8165017 3 2
11.41526 -2.5390646 -1.8521842 2 3
15.36834 -3.4267831 -1.9333354 4 4
6.4210038 -1.4635311 -1.7646283 2 0
7.5725389 -1.7301704 -1.7933098 1 1
9.1356583 -2.0940235 -1.8218443 3 2
11.455013 -2.6319661 -1.8615704 3 3
15.415618 -3.5504746 -1.9423537 3 4
6.493372 -1.5277901 -1.7874043 2 0
7.575449 -1.7865726 -1.796909 1 1
9.1208172 -2.1577508 -1.8218443 3 2
11.43636 -2.7118726 -1.8615704 4 3
15.448395 -3.6717799 -1.9496659 3 4
6.4525108 -1.5657957 -1.7791222 2 0
7.5552177 -1.8375732 -1.7951094 1 1
9.1322327 -2.2278872 -1.8271869 3 2
11.440175 -2.7972767 -1.8653249 4 3
15.513001 -3.8017471 -1.9611217 2 4
6.4339247 -1.6089294 -1.7770516 2 0
7.538424 -1.8893256 -1.7942096 2 1
9.1316891 -2.2954161 -1.8302399 3 2
11.447185 -2.8838313 -1.869705 4 3
15.630435 -3.9464009 -1.9794021 1 4
6.4300199 -1.6557343 -1.7791222 2 0
7.521277 -1.9409335 -1.7933098 2 1
9.1116409 -2.3581271 -1.8294767 3 2
11.453543 -2.9706199 -1.8740851 3 3
15.594818 -4.0534272 -1.9784272 2 4
6.466856 -1.7134478 -1.7925807 1 0
7.5339117 -2.0003955 -1.7996083 2 1
9.1291056 -2.4307733 -1.8363459 3 2
11.476423 -3.0622208 -1.8812811 4 3
15.637095 -4.1811724 -1.9874454 2 4
6.3950915 -1.742303 -1.7760164 2 0
7.4934444 -2.0457575 -1.7933098 2 1
9.1005516 -2.4913361 -1.8340561 3 2
11.47953 -3.1490595 -1.8853484 4 3
15.64389 -4.3002343 -1.9920764 2 4
6.341845 -1.7754483 -1.7646283 1 0
7.4939899 -2.1022322 -1.796909 3 1
9.0564775 -2.5473666 -1.8287135 3 2
11.49339 -3.239306 -1.8912928 4 3
15.71856 -4.4390163 -2.0054822 2 4
6.4072747 -1.8420982 -1.7863692 1 0
7.4978571 -2.1598928 -1.8014081 2 1
9.0724249 -2.6203361 -1.8355827 3 2
11.502753 -3.3288004 -1.8966117 4 3
15.755822 -4.5685449 -2.0142565 2 4
6.3757296 -1.8813171 -1.7811928 2 0
7.4713831 -2.2088697 -1.7987086 3 1
9.0689678 -2.6880727 -1.8386356 3 2
11.501958 -3.4157715 -1.9003662 4 3
15.773013 -4.6931486 -2.0205939 2 4
6.3772326 -1.930259 -1.7853339 1 0
7.4539151 -2.2604101 -1.7982588 3 1
9.0612516 -2.7547462 -1.8409253 3 2
11.564755 -3.5224626 -1.9147581 3 3
15.785433 -4.8170543 -2.0264435 2 4
6.3488407 -1.9701526 -1.7811928 2 0
7.4286485 -2.3095 -1.7960092 4 1
9.0736618 -2.8278685 -1.8474127 4 2
11.566281 -3.6113555 -1.9191382 2 3
15.878357 -4.966846 -2.0427742 2 4
6.3349319 -2.0144274 -1.7811928 2 0
7.4271984 -2.3660371 -1.7996083 5 1
9.0630512 -2.8941314 -1.8493209 4 2
11.578418 -3.7040524 -1.9253956 2 3
15.964278 -5.1163502 -2.0583735 3 4
6.34092 -2.0651851 -1.7868867 2 0
7.4271736 -2.4232709 -1.8036577 6 1
9.0594187 -2.9628246 -1.8527553 4 2
11.58231 -3.7946339 -1.9304014 2 3
16.041336 -5.2648177 -2.0729976 3 4
6.3373437 -2.1130688 -1.7899926 2 0
7.4156199 -2.4769149 -1.8050072 5 1
9.0589924 -3.0328548 -1.8569533 3 2
11.57052 -3.8804259 -1.9329045 1 3
16.113333 -5.4133449 -2.0871346 3 4
6.3370643 -2.1622505 -1.7941337 2 0
7.4147439 -2.5342972 -1.8090565 6 1
9.0728874 -3.1081131 -1.8642039 4 2
11.595464 -3.9790606 -1.9416648 1 3
16.202803 -5.5695844 -2.1037087 1 4
6.3199911 -2.205802 -1.7936161 3 0
7.4189448 -2.5937176 -1.8144552 6 1
9.0515213 -3.1697974 -1.8642039 4 2
11.545743 -4.0500493 -1.9379103 1 3
16.272142 -5.7207503 -2.1178455 2 4
36.395111 -12.838166 -2.0225756 1 6
6.3011904 -2.2474713 -1.7925807 3 0
7.4047885 -2.6454675 -1.8153551 6 1
9.0421095 -3.2375436 -1.8668753 3 2
11.602719 -4.1612301 -1.9523023 2 3
16.357998 -5.8763442 -2.1341763 2 4
45.424431 -16.380672 -2.5306532 0 6
6.2926068 -2.2940536 -1.7946514 3 0
7.3971229 -2.7011082 -1.8180546 7 1
9.0414114 -3.3086867 -1.8714547 3 2
11.565967 -4.2394104 -1.9510508 1 3
16.51783 -6.0642886 -2.1604998 2 4
45.458893 -16.752644 -2.539027 0 6
6.269197 -2.3352308 -1.7925807 3 0
7.3707819 -2.7499585 -1.8162549 6 1
9.0364819 -3.378602 -1.8752708 3 2
11.565687 -4.3311367 -1.9560568 1 3
16.607054 -6.2289529 -2.1778054 3 4
6.2707973 -2.3858104 -1.7977571 4 0
7.3732562 -2.8096759 -1.8216537 7 1
9.0420198 -3.4528117 -1.8813769 3 2
11.579451 -4.4287105 -1.9635657 2 3
16.73 -6.4086475 -2.1997418 4 4
6.2503867 -2.4281311 -1.7967219 3 0
7.3752551 -2.8695619 -1.8270525 7 1
9.0176945 -3.515852 -1.8813769 3 2
11.57769 -4.5209379 -1.9685715 2 3
16.9067 -6.612051 -2.2289906 12 4
6.2225084 -2.4674349 -1.7936161 3 0
7.3532314 -2.9202611 -1.8266027 5 1
9.0294123 -3.5932393 -1.8890091 3 2
11.604568 -4.6250577 -1.9785833 4 3
16.987339 -6.7806983 -2.2458086 5 4
6.2342238 -2.5213218 -1.8018982 4 0
7.3367953 -2.9717081 -1.8275024 5 1
9.0411272 -3.669383 -1.8966415 3 2
11.614905 -4.7210479 -1.9857793 5 3
17.163877 -6.9904752 -2.2755446 5 4
6.1910224 -2.5555484 -1.7946514 4 0
7.322546 -3.0271103 -1.8293018 4 1
9.0298023 -3.73842 -1.8996944 3 2
11.635565 -4.8267479 -1.9951655 5 3
17.336477 -7.202282 -2.305037 4 4
6.2122016 -2.6151974 -1.8060393 3 0
7.3156009 -3.0842137 -1.8329012 4 1
8.9847345 -3.7953005 -1.8958783 3 2
11.628874 -4.9194055 -1.9998584 6 3
17.79208 -7.5376344 -2.3725526 5 4
54.787586 -23.289812 -3.119956 0 6
6.1653891 -2.6463113 -1.7977571 4 0
7.3082132 -3.1413674 -1.8365004 4 1
8.9803305 -3.8656833 -1.9004576 3 2
11.662237 -5.0273795 -2.0114346 5 3
17.788229 -7.6829143 -2.3791335 8 4
53.051655 -22.979488 -3.029938 0 6
6.1790938 -2.7021487 -1.8070747 4 0
7.2938013 -3.1941662 -1.8382999 4 1
8.9603167 -3.9314387 -1.9019842 3 2
11.663026 -5.1245666 -2.0176921 4 3
17.739155 -7.8054152 -2.379621 9 4
52.699913 -23.265409 -3.0190523 0 6
6.160079 -2.7452204 -1.8070747 3 0
7.2944589 -3.2553327 -1.8441486 3 1
8.9577436 -4.0051165 -1.9073268 3 2
11.681052 -5.2300811 -2.0270779 4 3
17.742193 -7.9550552 -2.3874207 9 4
6.1513176 -2.7929509 -1.8101805 4 0
7.2697811 -3.3053713 -1.8436987 2 1
8.9402847 -4.0724382 -1.9096165 3 2
11.717942 -5.3451142 -2.0399058 4 3
17.780117 -8.1216125 -2.400095 9 4
6.1492038 -2.8439362 -1.8153569 4 0
7.2677479 -3.3658707 -1.8490976 2 1
8.9223213 -4.1397109 -1.9119062 3 2
11.766331 -5.466742 -2.0549233 4 3
17.802179 -8.2823868 -2.4108195 9 4
6.1291995 -2.886796 -1.8153569 4 0
7.249361 -3.4190207 -1.8504474 3 1
8.8932037 -4.2018991 -1.9119062 3 2
11.802876 -5.5842347 -2.0680637 4 3
17.808504 -8.4370632 -2.419594 9 4
6.1228323 -2.9361978 -1.8194979 3 0
7.2516656 -3.4822004 -1.857196 5 1
8.9103994 -4.2844553 -1.9218283 3 2
11.850023 -5.7055779 -2.0830817 4 3
17.831417 -8.6008539 -2.4308062 9 4
35.9226 -17.373398 -2.0912402 0 6
6.1200662 -2.9862783 -1.8246742 3 0
7.2242937 -3.5297685 -1.8562962 4 1
8.8732176 -4.3431044 -1.9203018 3 2
11.882627 -5.8238106 -2.0959091 4 3
17.718998 -8.6957922 -2.4234941 13 4
20.436785 -10.047285 -1.9923801 32 5
34.97258 -17.216225 -2.0428817 1 6
6.0956087 -3.0272129 -1.8236392 3 0
7.1872597 -3.5740428 -1.8531467 3 1
8.8743114 -4.4207015 -1.927171 3 2
11.944204 -5.9577641 -2.1140556 5 3
17.757309 -8.8689518 -2.4371433 15 4
6.077775 -3.0714364 -1.8246742 3 0
7.202126 -3.6443689 -1.8634945 2 1
8.9518042 -4.537581 -1.9508314 3 2
11.972781 -6.076766 -2.1265705 4 3
17.650923 -8.9742002 -2.4312935 13 4
29.305145 -14.938161 -1.7238418 8 6
6.0522051 -3.1130819 -1.8236392 3 0
7.1758637 -3.6958127 -1.8634945 2 1
8.8762856 -4.5774698 -1.9412909 4 2
12.016742 -6.2076163 -2.1422138 5 3
17.672476 -9.1409836 -2.4429932 10 4
28.995394 -15.042627 -1.7119094 8 6
6.0371709 -3.1588404 -1.8257096 4 0
7.1567922 -3.7494366 -1.8652942 3 1
8.8659029 -4.652729 -1.9462519 4 2
12.051802 -6.332705 -2.1562929 7 3
17.833096 -9.3824453 -2.4741914 10 4
29.052179 -15.330439 -1.7215391 17 6
6.0320249 -3.209986 -1.830886 4 0
7.1510797 -3.8103046 -1.8706928 2 1
8.8990202 -4.7496386 -1.9607532 4 2
11.965487 -6.3943424 -2.1487842 24 3
17.765409 -9.5057774 -2.473948 12 4
29.078197 -15.604663 -1.7294942 16 6
6.0196624 -3.2575355 -1.8339919 3 0
7.1140246 -3.8545654 -1.8679937 2 1
8.8742723 -4.8163314 -1.9626614 4 2
12.022958 -6.5333676 -2.1672435 5 3
17.627123 -9.5906734 -2.4639544 16 4
28.684525 -15.652301 -1.7125373 8 6
6.0052366 -3.3041372 -1.83658 2 0
7.1005974 -3.9116592 -1.8715929 2 1
8.8825417 -4.8993816 -1.9718202 4 2
12.069856 -6.6656671 -2.1838255 4 3
16.458454 -9.1043034 -2.3094242 1 4
28.234972 -15.657343 -1.6920216 9 6
6.0315065 -3.372277 -1.8515915 2 0
7.0891109 -3.9684672 -1.8756418 3 1
8.8532591 -4.9641542 -1.972965 3 2
12.13499 -6.812623 -2.2041619 4 3
17.534744 -9.856143 -2.4698043 10 4
6.0094967 -3.4152563 -1.8521091 2 0
7.0764756 -4.026535 -1.8796909 2 1
8.9070816 -5.0763898 -1.9928092 3 2
12.169487 -6.9441676 -2.2191796 4 3
16.838108 -9.619873 -2.3810833 9 4
28.283955 -16.204929 -1.7083505 8 6
5.9721251 -3.449398 -1.8479681 2 0
7.0718122 -4.0894976 -1.8859898 2 1
8.8748236 -5.1404176 -1.9935726 3 2
12.44368 -7.2162504 -2.278312 6 3
16.672689 -9.680377 -2.3671904 20 4
5.9428997 -3.4880729 -1.8464152 4 0
7.026288 -4.1288948 -1.8814906 5 1
8.8633184 -5.2146449 -1.9989152 3 2
12.474268 -7.3479056 -2.2930167 8 3
24.677952 -14.559638 -3.5181246 13 4
32.066837 -18.964273 -1.9524455 3 6
5.9422507 -3.5422926 -1.853662 3 0
7.0314879 -4.1965995 -1.8904886 3 1
8.8587151 -5.2955337 -2.006166 4 2
12.429446 -7.4388704 -2.2942681 8 3
24.966515 -14.95991 -3.5736969 6 4
5.9305964 -3.5916967 -1.8578032 3 0
6.9886889 -4.2375026 -1.8868895 5 1
8.8409252 -5.3669162 -2.0103636 3 2
12.439295 -7.560236 -2.3055315 8 3
25.251465 -15.371245 -3.6297569 6 4
30.646362 -18.699276 -1.8814777 4 6
5.8866448 -3.6229043 -1.8521091 2 0
6.9747777 -4.297627 -1.8913884 5 1
8.8648329 -5.4707584 -2.0248652 3 2
12.41547 -7.6709447 -2.311476 7 3
14.96767 -9.2586622 -2.1609874 5 4
30.606911 -18.984486 -1.8875488 4 6
5.8694 -3.6690328 -1.8546973 2 0
6.9594722 -4.3555198 -1.8954376 7 1
8.8739729 -5.5601597 -2.0355504 3 2
12.388069 -7.7710204 -2.316169 8 3
14.680793 -9.2235317 -2.1288137 5 4
32.393517 -20.399286 -2.0062468 2 6
5.8181925 -3.6923366 -1.8464152 1 0
6.9296641 -4.4027901 -1.8954376 7 1
8.8829737 -5.6525412 -2.0466175 4 2
12.361837 -7.87536 -2.3214879 9 3
14.447022 -9.2179546 -2.1041963 8 4
33.465149 -21.401854 -2.08182 0 6
5.820848 -3.7527184 -1.8557327 2 0
6.9192662 -4.4660029 -1.9012864 5 1
8.8845196 -5.7410564 -2.0561578 3 2
12.35326 -7.9947405 -2.3305609 8 3
14.235713 -9.2235994 -2.0827472 8 4
33.250851 -21.601604 -2.0780516 0 6
5.8042045 -3.7996118 -1.8588384 2 0
6.9172578 -4.5334263 -1.9093846 3 1
8.9006538 -5.8421898 -2.0695145 4 2
12.316957 -8.0938053 -2.3343153 8 3
14.054886 -9.2463865 -2.0656855 8 4
5.780755 -3.8421791 -1.8598738 1 0
6.9000411 -4.5913234 -1.9134337 6 1
8.8743544 -5.9139843 -2.0729489 3 2
12.306161 -8.2102928 -2.3430758 8 3
13.85133 -9.2516651 -2.0452116 8 4
5.7441826 -3.8759587 -1.8567679 2 0
6.8904266 -4.654654 -1.9197323 7 1
8.923912 -6.0374007 -2.0943196 4 2
12.268169 -8.3092995 -2.3468301 8 3
13.628675 -9.24119 -2.0218124 7 4
5.7329216 -3.9268835 -1.8619443 2 0
6.8674073 -4.7092571 -1.9224317 7 1
8.9133635 -6.1191149 -2.1015704 4 2
12.265049 -8.4295349 -2.3571548 9 3
13.411758 -9.2314377 -1.9991449 5 4
5.7187505 -3.9746346 -1.8660854 2 0
6.8511891 -4.7670217 -1.9269307 8 1
8.9187489 -6.2148647 -2.113019 24 2
12.19942 -8.5104342 -2.3559034 11 3
13.153313 -9.186121 -1.9698963 5 4
5.6845484 -4.0100079 -1.8640147 2 0
6.8432117 -4.8327227 -1.9341292 7 1
8.8783493 -6.2792454 -2.1137822 21 2
12.168729 -8.6159401 -2.3615351 9 3
12.881564 -9.130785 -1.9386977 4 4
5.6658401 -4.0563426 -1.8671206 2 0
6.8346491 -4.8985429 -1.9413276 7 1
8.9220181 -6.4040384 -2.1347711 4 2
12.201324 -8.7675409 -2.3796813 10 3
12.68859 -9.1277542 -1.9191986 5 4
13.09259 -9.4287863 -1.4115744 57 5
5.6717672 -4.12078 -1.8785087 3 0
6.8128924 -4.955308 -1.944927 7 1
8.9480524 -6.5154681 -2.1515625 4 2
12.107841 -8.8259535 -2.3731112 8 3
12.486671 -9.1154556 -1.8982371 5 4
13.036098 -9.5270109 -1.4126202 57 5
5.6062636 -4.1317835 -1.8660854 2 0
6.7946863 -5.0131369 -1.9494258 7 1
8.9118214 -6.5847778 -2.153852 4 2
12.234918 -9.0500584 -2.4103425 7 3
12.311069 -9.1163635 -1.8809316 6 4
5.6144123 -4.1985888 -1.8785087 2 0
6.7688823 -5.0674572 -1.9521253 7 1
8.9190416 -6.6868749 -2.1668272 4 2
12.477936 -9.3652945 -2.4710391 6 3
12.150315 -9.1293478 -1.8660635 5 4
5.5757303 -4.2306757 -1.8754028 2 0
6.7767916 -5.1475935 -1.9647225 7 1
8.9533949 -6.8107853 -2.1866713 4 2
13.52492 -10.299498 -2.6925502 3 3
12.013646 -9.161891 -1.8550954 3 4
5.5483747 -4.2728238 -1.8764381 2 0
6.7552166 -5.2078538 -1.9692216 6 1
9.1340981 -7.0494523 -2.242769 9 2
11.66128 -9.0128613 -2.3343153 8 3
30.943445 -23.941704 -4.8038464 0 4
5.5458117 -4.3328629 -1.8857557 4 0
6.7340441 -5.266892 -1.9737206 6 1
9.1112404 -7.1364245 -2.2496383 7 2
11.65559 -9.1391497 -2.3458915 4 3
5.5229979 -4.3774738 -1.8883438 6 0
6.7047439 -5.3198333 -1.97597 5 1
9.0962734 -7.2251396 -2.2580338 7 2
12.387838 -9.8502016 -2.506706 2 3
26.37915 -21.005484 -4.1403894 2 4
5.5096369 -4.4282784 -1.8940378 9 0
6.6835608 -5.377563 -1.9804692 2 1
9.0150366 -7.2638321 -2.2504015 7 2
11.84982 -9.5581856 -2.4112811 4 3
29.670416 -23.958113 -4.6824641 0 4
5.5025444 -4.4861665 -1.90232 7 0
6.6911478 -5.4610572 -1.9939661 2 1
9.006669 -7.3613787 -2.2610867 7 2
11.539717 -9.4417868 -2.3615351 3 3
29.364222 -24.051458 -4.6605277 0 4
5.4576921 -4.5133915 -1.8976613 6 0
6.658865 -5.5126076 -1.9957658 2 1
8.9671488 -7.4341016 -2.2641397 9 2
20.663891 -17.149399 -4.2531409 3 3
31.101152 -25.83902 -4.9647141 0 4
5.4600921 -4.5799375 -1.909567 9 0
6.6411099 -5.5765047 -2.0020645 4 1
8.9871569 -7.5571718 -2.2824574 9 2
11.062203 -9.3119411 -2.2902007 18 3
30.566313 -25.757465 -4.9079227 1 4
5.4309282 -4.6204481 -1.9106023 9 0
6.6109195 -5.6303134 -2.0047638 5 1
8.9491167 -7.6324692 -2.2862735 6 2
11.013451 -9.4030514 -2.2936423 17 3
30.252953 -25.856731 -4.8864737 1 4
5.3985391 -4.6582503 -1.9106023 7 0
6.5891485 -5.6916151 -2.0101628 5 1
8.9550076 -7.7461352 -2.3015382 7 2
18.794941 -16.274948 -3.9377687 8 3
18.17382 -15.753762 -2.9531381 9 4
5.3717027 -4.7009144 -1.9126729 7 0
6.5712399 -5.7567377 -2.0169113 6 1
8.9184217 -7.8239994 -2.3061175 7 2
14.967251 -13.144423 -3.1549706 14 3
17.474501 -15.362536 -2.8568614 19 4
5.3589816 -4.7562537 -1.9199197 7 0
6.5512857 -5.8205943 -2.0232098 6 1
8.8987846 -7.9173918 -2.3152766 7 2
14.993131 -13.353699 -3.1800003 11 3
16.430403 -14.649245 -2.7028186 13 4
5.3285184 -4.7961354 -1.9209551 7 0
6.5365505 -5.8896689 -2.0313082 7 1
8.8811932 -8.0135174 -2.3251987 7 2
15.008018 -13.556027 -3.2031527 14 3
16.395464 -14.824836 -2.7140305 16 4
22.92378 -20.778727 -1.6214728 21 6
5.3177342 -4.8540568 -1.9292372 7 0
6.5096598 -5.9483047 -2.0358069 7 1
9.0683613 -8.2979832 -2.3893104 10 2
9.8919983 -9.0611706 -2.1246932 4 3
16.27401 -14.922836 -2.7111056 22 4
22.919321 -21.068016 -1.6315212 10 6
5.286552 -4.8936877 -1.9302725 7 0
6.4794097 -6.0042014 -2.0394061 7 1
9.1656322 -8.5053148 -2.4305251 10 2
9.722847 -9.0318651 -2.1018538 6 3
15.904863 -14.790058 -2.6667452 21 4
21.903883 -20.418554 -1.5693462 12 6
5.2635279 -4.9410524 -1.9344137 9 0
6.4628968 -6.0733099 -2.0475044 15 1
9.110321 -8.5731306 -2.43167 10 2
9.56178 -9.0074167 -2.0805786 7 3
10.719007 -10.108148 -1.8090287 16 4
21.891428 -20.694458 -1.5787667 11 6
5.2359004 -4.9843388 -1.9370018 6 0
6.4076433 -6.1061821 -2.0434554 25 1
9.0303631 -8.6175489 -2.4263272 10 2
9.4286747 -9.0070896 -2.065248 8 3
10.296683 -9.8466015 -1.7493128 19 4
10.376851 -9.9336739 -1.2567859 22 5
22.017475 -21.106625 -1.5984449 22 6
5.2023664 -5.0221114 -1.9375196 5 0
6.4068985 -6.1913929 -2.0569522 12 1
8.9249315 -8.6337709 -2.413734 10 2
9.2919388 -8.9982271 -2.048666 9 3
10.266167 -9.9555588 -1.7558937 23 4
10.149996 -9.853219 -1.2376115 22 5
22.446234 -21.812769 -1.6403136 10 6
5.2011991 -5.0898347 -1.9499428 4 0
6.3924484 -6.2621336 -2.0659504 5 1
8.8840599 -8.7151146 -2.4190764 7 2
9.1809731 -9.0158195 -2.0380285 9 3
10.114642 -9.9431009 -1.7415131 19 4
10.123556 -9.9657707 -1.2428409 22 5
11.017959 -10.8576 -0.81068403 17 6
5.1792517 -5.1396294 -1.9551191 5 0
6.3513398 -6.3093553 -2.0668504 5 1
8.7617598 -8.7160034 -2.4022853 10 2
9.0632181 -9.0253325 -2.0258267 8 3
10.212279 -10.180247 -1.7705179 9 4
10.036815 -10.019313 -1.2407491 22 5
10.718674 -10.711193 -0.79414588 26 6
5.1527758 -5.1852536 -1.9587426 6 0
6.3661733 -6.4130106 -2.0861959 7 1
8.6730537 -8.7490721 -2.3946528 9 2
8.9624605 -9.0504885 -2.017379 9 3
10.16888 -10.279517 -1.7753928 18 4
9.864749 -9.9825277 -1.2278501 21 5
10.747448 -10.890961 -0.80189157 26 6
5.1137466 -5.2183404 -1.9577073 6 0
6.3266993 -6.4628692 -2.0879958 7 1
8.6009474 -8.7952728 -2.3912184 10 2
8.8481941 -9.0575876 -2.0054901 9 3
10.178653 -10.434095 -1.7897733 18 4
10.045114 -10.307997 -1.2592262 23 5
10.544895 -10.8322 -0.79226178 26 6
5.0861645 -5.2613611 -1.9608132 6 0
6.320466 -6.5450339 -2.1005929 7 1
8.5584154 -8.8748884 -2.3965611 12 2
8.7244444 -9.0565424 -1.9917238 9 3
9.6435251 -10.021107 -1.7076334 20 4
10.188267 -10.601979 -1.2864187 24 5
10.485613 -10.922842 -0.79351783 17 6
10.343197 -10.785786 -0.26084366 25 7
5.0559745 -5.3037324 -1.9634014 5 0
6.2773066 -6.5918207 -2.1014926 7 1
8.5016603 -8.9401121 -2.3980875 10 2
8.6174688 -9.0713997 -1.981712 9 3
10.178666 -10.726076 -1.8156096 12 4
10.634779 -11.222398 -1.3526571 26 5
10.223742 -10.799971 -0.77938718 17 6
5.036026 -5.3571987 -1.9701307 6 0
6.2498116 -6.6553731 -2.1077914 7 1
8.4390402 -8.9992466 -2.3980875 10 2
8.4945087 -9.0679073 -1.9679458 7 3
9.4263105 -10.0767 -1.6942277 14 4
10.225779 -10.9543 -0.78535342 17 6
5.0211968 -5.4186044 -1.9794481 6 0
6.2841024 -6.788589 -2.1356852 7 1
8.2613773 -8.9339781 -2.3652685 12 2
8.3838377 -9.0791178 -1.9573083 9 3
9.2292128 -10.005105 -1.6713163 19 4
9.3348389 -10.130249 -1.2051896 20 5
9.9794321 -10.844951 -0.77237409 17 6
10.004865 -10.884021 -0.25805128 24 7
4.9871554 -5.4578052 -1.981001 7 0
6.409976 -7.0222807 -2.1950724 9 1
8.2131071 -9.0102777 -2.369848 12 2
8.2604017 -9.0717001 -1.9432292 8 3
8.9387436 -9.8269958 -1.6310995 9 4
9.2263727 -10.153882 -1.2003088 20 5
10.024268 -11.047475 -0.78179461 8 6
9.9017773 -10.923969 -0.25735319 24 7
4.9553976 -5.4996648 -1.9835893 6 0
6.3477597 -7.0523753 -2.1905735 8 1
8.2172194 -9.1389675 -2.3889287 6 2
8.1298218 -9.0512962 -1.92696 4 3
8.7890682 -9.799017 -1.6162314 7 4
9.7854652 -10.921409 -1.2829325 23 5
9.8742466 -11.032112 -0.77593297 17 6
4.9242649 -5.5404873 -1.9861774 4 0
6.2763195 -7.0691886 -2.1824751 7 1
8.1323786 -9.1726084 -2.382823 6 2
7.9930916 -9.0250196 -1.9094393 4 3
9.1892366 -10.401163 -1.2142538 21 5
10.550296 -11.954339 -0.83559597 8 6
9.9168453 -11.248453 -0.2617512 25 7
4.9122038 -5.6052399 -1.9970479 6 0
6.2191129 -7.1040359 -2.1797757 9 1
8.1456728 -9.3178434 -2.40572 3 2
7.8597264 -9.0002556 -1.8925444 5 3
8.9793653 -10.293239 -1.6771661 14 4
9.022172 -10.356896 -1.2017034 20 5
9.1476078 -10.511996 -0.73029602 26 6
4.8678999 -5.6335502 -1.9949772 6 0
6.1948328 -7.1767836 -2.1887739 9 1
8.4470158 -9.7997847 -2.5148625 4 2
7.7464337 -8.9965267 -1.8803425 7 3
10.089143 -11.72971 -1.8996994 24 4
8.775692 -10.217102 -1.1783456 19 5
8.9257345 -10.402803 -0.7183634 8 6
9.6443071 -11.252206 -0.25867957 24 7
4.844739 -5.6865134 -2.0017066 7 0
6.1256342 -7.1975956 -2.1820252 11 1
7.7249064 -9.0895824 -2.318711 6 2
7.6425276 -9.0021992 -1.8703307 7 3
8.5523071 -10.084536 -1.6235435 6 4
8.6886978 -10.259872 -1.1762538 19 5
8.7290564 -10.31848 -0.7083149 26 6
9.51647 -11.261221 -0.25735319 24 7
4.8098922 -5.7261143 -2.0037773 7 0
6.0940261 -7.2625771 -2.1887739 9 1
8.3156719 -9.9242926 -2.5167708 15 2
7.5313144 -8.9977732 -1.8584416 9 3
9.1985855 -11.001384 -1.7607684 2 4
8.810956 -10.552747 -1.2027491 20 5
8.7757807 -10.521811 -0.71804935 17 6
9.4376192 -11.327384 -0.25735319 24 7
4.7771921 -5.7684813 -2.0068829 5 0
6.0307536 -7.2899275 -2.1842747 8 1
8.1861668 -9.9094524 -2.4984531 15 2
7.4230533 -8.9952812 -1.8471783 9 3
8.3828936 -10.169262 -1.6181813 7 4
8.7674599 -10.65092 -1.2069327 21 5
8.8353062 -10.744802 -0.72903991 8 6
9.4852381 -11.547518 -0.26084366 25 7
4.7378173 -5.8008642 -2.0068829 3 0
6.0056319 -7.3610082 -2.1932726 15 1
8.2611303 -10.139981 -2.5423391 4 2
7.31427 -8.987381 -1.8352894 9 3
8.3723335 -10.298481 -1.629637 5 4
8.5440693 -10.524729 -1.1860154 20 5
8.5896187 -10.592168 -0.71469992 17 6
9.2805452 -11.456429 -0.25735319 24 7
4.7383976 -5.8849597 -2.0244827 2 0
5.9931788 -7.4513478 -2.2076695 10 1
8.3671703 -10.417826 -2.5972922 3 2
7.2365146 -9.0197344 -1.8315349 9 3
8.1363649 -10.15221 -1.5974635 18 4
8.4853249 -10.602789 -1.1881071 20 5
8.6339407 -10.800077 -0.72464371 26 6
9.2003384 -11.52094 -0.25735319 24 7
4.6851873 -5.9027648 -2.0193064 2 0
5.9531212 -7.5082769 -2.2121687 12 1
7.3107734 -9.2338285 -2.2893264 19 2
7.1366081 -9.0235538 -1.8221489 7 3
8.0812883 -10.229013 -1.6006321 5 4
8.465394 -10.730594 -1.1957767 20 5
8.4359465 -10.704789 -0.7142812 17 6
9.1196842 -11.584889 -0.25735319 24 7
4.6629114 -5.9596734 -2.0275886 3 0
5.9281602 -7.5849686 -2.2225163 9 1
7.2388844 -9.2753563 -2.2870369 17 2
7.039432 -9.0295362 -1.8133886 7 3
8.3731518 -10.767412 -1.1933364 20 5
8.3230257 -10.714526 -0.71103638 17 6
4.6141129 -5.982903 -2.0244827 7 0
8.9681711 -11.637001 0.25644565 21 8
5.8738728 -7.6246262 -2.2220664 8 1
7.2721124 -9.4532661 -2.3183293 9 2
6.9521499 -9.0471334 -1.8071312 7 3
7.8186564 -10.189471 -1.5769894 13 4
8.3511086 -10.895183 -1.2010062 20 5
8.2577362 -10.785056 -0.71187371 17 6
8.4691744 -11.077219 -0.24339128 21 7
4.5735197 -6.0188432 -2.0255179 22 0
9.0512123 -11.915893 0.26119271 22 8
5.8356571 -7.6881943 -2.2283652 8 1
7.6626129 -10.106102 -2.4652524 10 2
6.8657694 -9.0683012 -1.8014996 6 3
7.7724771 -10.277055 -1.5821079 6 4
8.6183262 -11.407881 -1.2508591 22 5
8.0937452 -10.729071 -0.70433736 26 6
8.4349594 -11.193569 -0.24464783 21 7
4.530232 -6.0490794 -2.0250003 31 0
5.7981844 -7.7505927 -2.2346637 8 1
7.1530223 -9.575572 -2.3232903 3 2
6.7833915 -9.0906811 -1.7964935 3 3
9.0956774 -12.202786 -1.8687446 19 4
8.5789309 -11.522103 -1.2567859 22 5
8.1807117 -11.003296 -0.71857274 17 6
4.5108347 -6.1116447 -2.0353529 7 0
5.7508731 -7.8002939 -2.2373631 8 1
8.8153591 -11.969977 -2.8896117 4 2
7.6835575 -10.444606 -2.0536718 11 3
7.7880573 -10.602153 -1.6152564 18 4
8.1352491 -11.086962 -1.2030978 20 5
8.0548544 -10.989457 -0.71407187 17 6
4.488452 -6.1687636 -2.044153 4 0
5.6976452 -7.8392577 -2.2373631 9 1
7.602654 -10.475685 -2.5160077 10 2
7.5420485 -10.403631 -2.0352125 14 3
7.8298101 -10.812484 -1.6391429 15 4
8.1366653 -11.248625 -1.2146025 21 5
8.01653 -11.098852 -0.71752608 8 6
4.4407744 -6.1936684 -2.0420823 3 0
5.6450481 -7.8820124 -2.2382631 9 1
7.5220346 -10.514418 -2.5129547 15 2
7.6421866 -10.694197 -2.08183 12 3
7.7829599 -10.90728 -1.6452364 7 4
7.9978023 -11.220789 -1.2055383 20 5
8.1238241 -11.41023 -0.73406422 8 6
8.5081167 -11.96766 -0.25630605 24 7
4.4230418 -6.25846 -2.0534704 4 0
5.6002574 -7.9329901 -2.2418623 9 1
7.4993467 -10.638884 -2.5301273 10 2
7.7493038 -11.005714 -2.1318891 9 3
7.4847045 -10.641758 -1.5974635 4 4
7.9696555 -11.34809 -1.213208 21 5
8.0623207 -11.492826 -0.73573893 8 6
8.460885 -12.074424 -0.25735319 24 7
4.3836584 -6.295527 -2.055541 4 0
8.5075998 -12.227165 0.26000595 22 8
5.5547533 -7.9862919 -2.2459114 10 1
7.4428101 -10.716779 -2.5362334 3 2
7.5822039 -10.929701 -2.1068597 3 3
7.3887463 -10.662749 -1.5928324 13 4
7.8683324 -11.384528 -0.72527176 17 6
4.3505287 -6.3419075 -2.0607173 4 0
5.5076756 -8.0377369 -2.2495105 11 1
7.2902093 -10.655059 -2.5095201 12 2
7.6873965 -11.248202 -2.1578572 5 3
8.1602602 -11.953527 -1.7770989 7 4
7.7767696 -11.408868 -1.2079786 21 5
8.1461153 -11.964173 -0.75855744 8 6
4.3061485 -6.3721247 -2.0607173 4 0
5.4677825 -8.1002197 -2.2562592 10 1
7.3341513 -10.881517 -2.5507348 12 2
7.4288621 -11.0345 -2.1068597 9 3
7.571476 -11.259053 -1.6659541 7 4
8.2937956 -12.365766 -0.78032917 17 6
4.2851086 -6.4374113 -2.0721054 4 0
5.4434686 -8.1868773 -2.2697561 16 1
8.3862324 -12.631858 -2.9472361 8 2
7.4477186 -11.230968 -2.1343923 4 3
7.2208252 -10.901207 -1.6055069 6 4
7.8715863 -11.897179 -1.2480702 22 5
8.2380896 -12.470026 -0.78325999 8 6
8.175518 -12.389411 -0.25909844 24 7
4.259129 -6.4962506 -2.081423 3 0
5.4192781 -8.275219 -2.2837031 22 1
8.3140287 -12.710007 -2.9521971 3 2
7.1247473 -10.904364 -2.0630579 9 3
7.1076674 -10.894825 -1.5972198 15 4
8.1334076 -12.495682 -0.78137589 17 6
8.0343399 -12.36235 -0.25735319 24 7
4.2231975 -6.5380726 -2.0855639 5 0
5.4071984 -8.3806887 -2.302599 20 1
5.8137035 -9.0245609 -2.0866873 3 2
7.0377588 -10.937224 -2.0599291 2 3
7.1192093 -11.076546 -1.6167189 12 4
8.7875185 -13.709009 -0.85339022 17 6
4.1981874 -6.5999975 -2.0959167 4 0
5.3297482 -8.3886271 -2.2945008 16 1
5.730577 -9.0334301 -2.0794365 4 2
7.2625608 -11.461644 -2.149097 8 3
7.6776156 -12.130719 -1.7627183 10 4
7.3695188 -11.661931 -1.2069327 21 5
7.9730735 -12.631668 -0.78284132 8 6
4.1663651 -6.6520662 -2.1031637 4 0
5.2669215 -8.4190226 -2.2927012 24 1
5.6392913 -9.0282574 -2.0691328 4 2
7.1792307 -11.507037 -2.1481583 7 3
7.6735811 -12.313749 -1.7814863 7 4
7.2626619 -11.672495 -1.2027491 20 5
7.7697811 -12.502121 -0.7714321 17 6
7.9867964 -12.866335 -0.26433414 25 7
4.2374458 -6.8717356 -2.1632097 7 0
5.214149 -8.4655418 -2.2954006 19 1
5.5144191 -8.9670677 -2.0462358 4 2
7.0108409 -11.413805 -2.1215644 13 3
7.6850104 -12.52607 -1.8043977 11 4
7.3100471 -11.933585 -1.2243638 21 5
7.7573628 -12.678722 -0.77896845 17 6
4.1953845 -6.9110589 -2.1663156 7 0
5.1771498 -8.5383978 -2.3052983 18 1
5.4232154 -8.9583197 -2.0355504 6 2
6.9381404 -11.474304 -2.1237545 12 3
7.5316944 -12.470665 -1.7887983 10 4
7.212153 -11.960442 -1.2219235 21 5
7.6604166 -12.718884 -0.77813107 17 6
4.1430702 -6.9335465 -2.1642449 7 0
5.1234074 -8.5843716 -2.3079977 16 1
5.3545122 -8.9858437 -2.0332606 6 2
7.4670739 -12.54604 -2.3124144 8 3
7.4545946 -12.540005 -1.7912358 3 4
7.6386547 -12.885445 -0.78503942 17 6
8.4267349 -14.231817 -0.28869772 30 7
4.0906477 -6.9556398 -2.1621742 7 0
5.0653267 -8.6232929 -2.3088977 18 1
5.2628479 -8.9738941 -2.0221939 9 2
7.2584968 -12.39162 -2.2745574 12 3
7.1312952 -12.189095 -1.7339572 9 4
7.3049479 -12.520977 -0.75970882 17 6
4.0226345 -6.9505882 -2.1518216 7 0
5.0430369 -8.7242432 -2.3264439 15 1
5.1804433 -8.976409 -2.0145614 10 2
7.1106477 -12.335883 -2.2551594 9 3
7.623457 -13.241548 -1.8760569 2 4
7.531991 -13.103824 -1.3223269 25 5
8.4106359 -14.650203 -0.88531512 17 6
8.4261465 -14.695034 -0.29567868 31 7
3.9828811 -6.9912357 -2.1559627 7 0
4.9873919 -8.7651415 -2.3282435 16 1
5.1027384 -8.9824429 -2.0080738 10 2
7.2175803 -12.720744 -2.3164818 9 3
6.9146018 -12.201634 -1.7220141 15 4
7.3837557 -13.050743 -1.3118682 24 5
7.8046904 -13.81161 -0.8314091 26 6
3.9434216 -7.0357237 -2.161139 7 0
4.9060884 -8.7640381 -2.3187954 17 1
5.0236225 -8.9887142 -2.0015864 10 2
7.4598022 -13.364171 -2.4241087 9 3
6.9046483 -12.384849 -1.7410256 14 4
7.3525419 -13.209908 -1.3226755 25 5
7.8419952 -14.106662 -0.84585381 26 6
8.4168739 -15.159473 -0.30265963 32 7
3.8923426 -7.0596991 -2.1601038 7 0
4.8645244 -8.8339224 -2.3282435 16 1
4.9418316 -8.9891577 -1.9939542 10 2
7.322587 -13.336274 -2.4097166 18 3
6.885787 -12.556329 -1.7583311 7 4
7.4002767 -13.511282 -1.3477764 26 5
7.8036904 -14.271465 -0.85244811 17 6
3.8392775 -7.0799069 -2.1580334 9 0
4.7906694 -8.8453913 -2.3223946 17 1
4.8581119 -8.981143 -1.9847952 10 2
7.195024 -13.318028 -2.3975151 14 3
6.8874826 -12.770077 -1.7814863 3 4
7.0601034 -13.106552 -1.3024553 24 5
7.7375932 -14.382294 -0.85590225 17 6
3.7900891 -7.1041718 -2.1575158 6 0
4.7211866 -8.8605976 -2.3178957 18 1
4.7952943 -9.0148401 -1.9847952 9 2
7.0610933 -13.291177 -2.3837488 16 3
7.3288751 -13.812675 -1.9199297 19 4
6.9758916 -13.169607 -1.3038499 24 5
7.9237251 -14.977951 -0.88803655 17 6
3.7448874 -7.1390123 -2.1601038 7 0
4.6393175 -8.8553648 -2.3079977 18 1
4.7140446 -9.0133047 -1.977163 10 2
6.5529165 -12.545237 -2.2417061 16 3
7.4820037 -14.342222 -1.9862267 16 4
7.737812 -14.857863 -1.4656109 30 5
7.6272702 -14.664346 -0.86626482 17 6
3.693186 -7.1615481 -2.1590683 9 0
4.6121812 -8.9551039 -2.3255439 16 1
4.6429272 -9.0302811 -1.9737284 10 2
6.9506269 -13.536078 -2.4100296 17 3
7.2132077 -14.065562 -1.9408913 19 4
7.5383482 -14.74391 -0.86783493 17 6
3.6465929 -7.1940494 -2.161139 9 0
4.5521927 -8.992301 -2.3268938 18 1
4.5576334 -9.0186691 -1.964188 9 2
6.8381591 -13.549003 -2.4037724 11 3
6.6377153 -13.168984 -1.8107349 16 4
7.1731892 -14.256097 -1.396235 28 5
7.6477709 -15.219132 -0.8926422 17 6
3.5962803 -7.2193317 -2.161139 7 0
4.4936433 -9.0325842 -2.329143 13 1
4.4893217 -9.0397167 -1.9618982 9 2
6.6837177 -13.476072 -2.3824971 15 3
6.4072857 -12.935726 -1.7724679 20 4
7.6819401 -15.556891 -0.90928501 27 6
3.5542858 -7.2616143 -2.1663156 9 0
4.4270525 -9.0567322 -2.3273437 14 1
4.4156284 -9.0453653 -1.9565556 10 2
6.4446778 -13.219401 -2.3293095 6 3
6.7511477 -13.872615 -1.8943372 16 4
7.0787139 -14.565096 -1.4168037 28 5
7.3124976 -15.066186 -0.87767404 17 6
3.5098004 -7.2960835 -2.1694212 9 0
4.3703656 -9.0971956 -2.3300431 14 1
4.3387904 -9.0476475 -1.9504496 9 2
6.7447152 -14.083611 -2.4732292 17 3
6.7199445 -14.050766 -1.9123739 13 4
6.8601213 -14.369632 -1.3930974 28 5
7.2002625 -15.102448 -0.87683672 8 6
3.4587786 -7.3204083 -2.1694212 9 0
4.2901182 -9.0922375 -2.3210452 12 1
4.2705011 -9.0670605 -1.9481598 10 2
6.5907383 -14.012378 -2.4525797 17 3
6.7955427 -14.467469 -1.962584 20 4
6.9017324 -14.720238 -1.4223818 28 5
7.3453412 -15.687751 -0.90781957 9 6
3.4075882 -7.3443766 -2.1694212 7 0
4.2199836 -9.1078196 -2.3174458 15 1
4.1873188 -9.0538883 -1.9390012 10 2
6.3685131 -13.789046 -2.4056494 19 3
6.3867602 -13.847596 -1.8724008 19 4
6.7713675 -14.701727 -1.4161065 28 5
7.247323 -15.764053 -0.90928501 18 6
3.3514273 -7.35744 -2.1663156 7 0
4.1724339 -9.1725368 -2.3264439 16 1
4.1142273 -9.0571556 -1.9336585 10 2
6.3218379 -13.936414 -2.4237959 16 3
6.576508 -14.524774 -1.9577093 21 4
7.2138238 -15.976849 -0.91870546 9 6
3.3115246 -7.4030066 -2.1730449 6 0
4.0343976 -9.0316916 -2.2837031 18 1
4.0460992 -9.0748987 -1.9313688 10 2
6.2790251 -14.102923 -2.445071 17 3
6.4000678 -14.395067 -1.9343103 11 4
3.2644207 -7.4365573 -2.1761506 6 0
4.0479169 -9.2345467 -2.3277936 3 1
3.9771397 -9.090333 -1.9286975 10 2
6.1139855 -13.994359 -2.4187901 18 3
5.9803166 -13.707967 -1.8363274 18 4
6.7276626 -15.450438 -1.4743265 30 5
6.9311142 -15.940471 -0.91095972 9 6
3.2147179 -7.4644895 -2.1777036 9 0
3.9764211 -9.2464705 -2.3237445 3 1
3.9027395 -9.0926208 -1.9233549 10 2
6.0519361 -14.120221 -2.433182 15 3
6.1217599 -14.310719 -1.9111552 10 4
6.7041621 -15.694909 -1.4931521 31 5
6.8627582 -16.089514 -0.91671669 18 6
3.1634741 -7.4926414 -2.1792564 6 0
3.8806281 -9.2046566 -2.3061984 11 1
3.8216457 -9.0780277 -1.9145776 10 2
5.4870453 -13.059543 -2.2435834 9 3
5.5355754 -13.194388 -1.7568686 19 4
6.6098266 -15.778083 -1.4966384 31 5
3.1051776 -7.5002642 -2.1751153 6 0
3.8319082 -9.2693424 -2.3156462 9 1
3.7498484 -9.088809 -1.9111431 10 2
5.2745957 -12.803472 -2.1932113 20 3
5.4418163 -13.229041 -1.7563812 12 4
6.432898 -15.66166 -1.4812989 30 5
3.0549209 -7.5271301 -2.1766684 7 0
3.793452 -9.3608856 -2.3318427 6 1
3.6849511 -9.106842 -1.9096165 10 2
5.2783432 -13.064357 -2.2316945 10 3
5.1370173 -12.740166 -1.6866719 19 4
5.2980266 -13.159341 -1.2410978 22 5
3.0079007 -7.5585179 -2.179774 7 0
3.7548316 -9.4498768 -2.3475893 11 1
3.6183896 -9.1250458 -1.90809 12 2
5.0779305 -12.825389 -2.1847639 16 3
5.0866694 -12.86714 -1.6988587 19 4
5.20749 -13.199713 -1.2414464 22 5
2.9606736 -7.5937338 -2.1839154 9 0
3.5396674 -9.1116533 -1.900076 10 2
4.8153992 -12.414837 -2.1090496 17 3
5.0641031 -13.076344 -1.7217702 16 4
5.1482534 -13.321234 -1.2494646 22 5
2.9103434 -7.6214361 -2.1859856 7 0
3.5371346 -9.2774115 -2.2922513 27 1
3.4627063 -9.1012783 -1.8928252 12 2
4.672492 -12.300422 -2.0840201 11 3
5.0121131 -13.215319 -1.7354196 16 4
2.8557119 -7.6379499 -2.1849504 9 0
3.2194409 -8.6245499 -2.1253376 19 1
3.3949718 -9.114193 -1.8905357 12 2
4.4914851 -12.077237 -2.0408442 16 3
4.8879471 -13.164384 -1.7242076 19 4
4.9146857 -13.264772 -1.2376115 22 5
2.8063138 -7.6644673 -2.187021 7 0
3.1927769 -8.7341175 -2.1469328 11 1
3.3261268 -9.1186466 -1.8867195 10 2
4.497046 -12.348826 -2.0815172 10 3
4.7324319 -13.016385 -1.700565 10 4
4.8487439 -13.365344 -1.2438867 22 5
2.7540402 -7.6875095 -2.1880562 7 0
3.0870969 -8.6314201 -2.1163394 2 1
3.2557878 -9.1231537 -1.8829032 12 2
4.733593 -13.286132 -2.2338843 11 3
4.4698129 -12.566567 -1.6376804 15 4
4.7379923 -13.35005 -1.2393546 22 5
2.7130826 -7.7430115 -2.1984091 9 0
3.1816657 -9.116004 -1.8767973 10 2
4.3235416 -12.408546 -2.0812044 9 3
4.3884945 -12.616216 -1.6401178 19 4
4.6067872 -13.273633 -1.2292446 21 5
4.9635143 -14.325688 -0.7945646 17 6
2.6552033 -7.7507973 -2.1953032 9 0
3.2878833 -9.6140671 -2.3457897 22 1
3.1027319 -9.0934 -1.8676385 10 2
4.2909479 -12.597367 -2.1077983 8 3
4.2670779 -12.548818 -1.6274434 18 4
4.4192739 -13.026228 -1.2034465 20 5
2.6071613 -7.7874651 -2.2004797 7 0
3.2256258 -9.6515722 -2.3493888 13 1
3.0453837 -9.1334639 -1.8714547 10 2
4.2097597 -12.647633 -2.1112397 7 3
4.2288175 -12.727122 -1.6466987 10 4
4.1774569 -12.594584 -1.1609144 19 5
4.6795626 -14.141405 -0.78064317 17 6
2.5564971 -7.8123746 -2.2025502 7 0
3.1205242 -9.5528984 -2.3201451 11 1
2.974627 -9.1278486 -1.8661121 10 2
4.1565723 -12.777434 -2.1281347 10 3
4.1739693 -12.853789 -1.659373 5 4
4.0535421 -12.505219 -1.1501071 18 5
4.640347 -14.349666 -0.79037774 17 6
2.5103202 -7.851676 -2.2087619 7 0
3.04654 -9.5460701 -2.3133967 10 1
2.9040897 -9.1216946 -1.8607695 10 2
6.3166461 -19.876467 -3.3032706 3 3
3.923959 -12.377379 -1.5942949 13 4
3.9697485 -12.544609 -1.151153 18 5
4.5063872 -14.275052 -0.78451604 8 6
2.4552209 -7.8731275 -2.2097969 7 0
2.9914732 -9.6104221 -2.3237445 11 1
2.8340843 -9.1272421 -1.8577164 10 2
3.9941406 -12.887053 -2.1368952 9 3
3.9994648 -12.936167 -1.6625416 7 4
3.8892798 -12.603157 -1.153942 19 5
4.2672095 -13.862168 -0.76012754 17 6
2.3988204 -7.8904948 -2.2097969 7 0
2.9243248 -9.6371765 -2.325094 10 1
2.7726812 -9.1604414 -1.8603877 13 2
4.0737767 -13.484487 -2.2310686 13 3
4.0700941 -13.497832 -1.7310323 16 4
3.8093238 -12.665008 -1.1570797 19 5
4.2306275 -14.092478 -0.7711181 26 6
2.3491659 -7.9255714 -2.2149734 7 0
2.8575261 -9.6592255 -2.3255439 11 1
2.6969936 -9.1400328 -1.8523737 10 2
3.8495095 -13.071083 -2.1581702 11 3
3.7904689 -12.895521 -1.6503549 14 4
3.6849401 -12.568931 -1.1459237 18 5
4.1175585 -14.071831 -0.76839662 17 6
2.2878821 -7.9213624 -2.2092795 6 0
2.7905629 -9.6808109 -2.3259938 10 1
2.6271515 -9.1378841 -1.8481761 10 2
3.8191817 -13.310301 -2.1932113 10 3
3.6167343 -12.629686 -1.6130629 10 4
3.5675557 -12.490898 -1.1365108 18 5
3.8905551 -13.648856 -0.74379867 35 6
2.2403708 -7.9650364 -2.2170439 7 0
2.7192235 -9.686924 -2.3228445 10 1
2.5601172 -9.144659 -1.8458863 10 2
2.7544923 -9.858839 -1.621287 4 3
2.7676506 -9.9259863 -1.2652477 3 4
3.8576624 -13.900855 -0.75604534 8 6
2.1887915 -7.9953895 -2.2211852 7 0
2.6520433 -9.707552 -2.3232944 12 1
2.4889894 -9.1357899 -1.8405437 10 2
2.6752334 -9.8397045 -1.6150296 24 3
2.6691778 -9.837779 -1.2515982 21 4
2.6778202 -9.8969669 -0.89700693 25 5
2.6645925 -9.8685694 -0.53571087 21 6
2.6923239 -9.9920607 -0.18063241 11 7
2.1344121 -8.0160761 -2.222738 6 0
2.6550634 -9.9854736 0.18035316 10 8
2.5817063 -9.7164125 -2.3210452 16 1
2.6440454 -9.9650421 0.54031646 8 9
2.4211273 -9.1377611 -1.8374907 9 2
2.6456523 -9.9922018 0.90432799 7 10
2.6039505 -9.8485918 -1.6134652 17 3
2.6421862 -10.007346 1.2708536 8 11
2.6039782 -9.8696098 -1.2533045 21 4
2.6386354 -10.015138 1.6403719 7 12
2.649179 -10.076568 2.0252469 7 13
2.596139 -9.8888636 -0.5358156 43 6
2.6458359 -10.092503 2.4087758 4 14
2.5981762 -9.9177618 -0.17895699 86 7
2.6499362 -10.129762 2.8055985 2 15
2.0846896 -8.0550938 -2.2294674 9 0
2.579284 -9.9805336 0.17993431 21 8
2.5191712 -9.7549543 -2.3259938 18 1
2.577404 -9.9948626 0.54094452 12 9
2.353358 -9.1392307 -1.8344377 9 2
2.5728502 -9.9988508 0.90328211 11 10
2.5692976 -10.01401 1.2693912 14 11
2.5621281 -9.9933071 -1.26671 3 4
2.564733 -10.018006 1.637869 15 12
2.5705061 -10.062481 2.0187593 14 13
2.5122302 -9.8486881 -0.53267539 33 6
2.5631194 -10.055516 2.3957288 9 14
2.5712929 -10.102318 -0.18195879 12 7
2.5629745 -10.084354 2.7879989 8 15
2.0302875 -8.0769463 -2.2315381 9 0
2.5356464 -10.094831 0.18167956 10 8
2.4571705 -9.796876 -2.3318427 11 1
2.5253356 -10.076107 0.54439867 4 9
2.2891893 -9.1474199 -1.8329114 10 2
2.5150578 -10.064894 0.90763986 4 10
2.9718337 -11.901669 -1.9429164 9 3
2.5121217 -10.075569 1.2749972 6 11
3.1051834 -12.472755 -1.5782082 19 4
2.5060217 -10.07357 1.6441264 5 12
2.5006666 -10.082087 2.019141 9 13
2.4364851 -9.8306637 -0.53079128 55 6
2.4984741 -10.095865 2.4011276 5 14
2.4460189 -9.8987141 -0.17797965 63 7
2.4979775 -10.11657 2.7921398 7 15
1.981678 -8.1168528 -2.2387848 9 0
2.3927355 -9.8228416 -2.3340921 10 1
2.2238824 -9.1574554 -1.8317665 6 2
2.8998358 -11.968201 -1.9504251 12 3
2.9054685 -12.018941 -1.5182483 19 4
2.909126 -12.070967 -1.0863092 24 5
2.3724654 -9.8668547 -0.53183806 44 6
2.3795166 -9.9190235 -0.17804946 34 7
1.9294139 -8.1492882 -2.2439611 9 0
2.3294766 -9.8620653 -2.3394909 11 1
2.1495478 -9.1288052 -1.8229893 9 2
2.7737467 -11.807389 -1.9210155 11 3
2.8314548 -12.081452 -1.5236107 19 4
2.8447294 -12.176348 -1.0939789 16 5
3.0833051 -13.228788 -0.71187371 8 6
2.3727112 -10.204181 -0.18286632 12 7
1.8767939 -8.1813898 -2.2491376 9 0
2.2636125 -9.8913851 -2.3426404 10 1
2.0927515 -9.1742144 -1.8290951 7 2
2.8389614 -12.475574 -2.0264523 8 3
2.6939914 -11.876838 -1.495337 18 4
2.742944 -12.122067 -1.087355 16 5
2.9860384 -13.228562 -0.71072239 17 6
1.8232235 -8.2172413 -2.2553494 9 0
2.2235165 -10.046227 -2.375483 11 1
2.0252674 -9.1732635 -1.8260422 7 2
2.7232955 -12.375958 -2.0070546 13 3
2.6195235 -11.934134 -1.5002117 16 4
2.731545 -12.475683 -1.1173366 17 5
3.0228798 -13.852555 -0.74306601 17 6
1.7771598 -8.2826576 -2.2698431 9 0
2.2014501 -10.286364 -2.4285715 14 1
1.9579351 -9.179841 -1.8245157 7 2
