# .PCD v0.7 - Point Cloud Data file format
VERSION 0.7
FIELDS x y z intensity ring
SIZE 4 4 4 4 2
TYPE F F F F U
COUNT 1 1 1 1 1
WIDTH 1350
HEIGHT 1
VIEWPOINT 0 0 0 1 0 0 0
POINTS 1350
DATA ascii
4.6586781 6.1509519 0.94741231 0 11
3.5532575 4.6897364 -0.72244155 1 4
4.7106905 6.2128644 1.2348938 2 12
4.4800701 5.9044147 -0.64843875 29 5
4.701632 6.1941781 1.5115889 2 13
4.7301316 6.2226939 1.8045573 2 14
4.5716939 6.0120835 -0.13183548 6 7
4.6502519 6.1109648 2.0576115 1 15
3.0110414 3.9354331 -1.3277417 12 0
4.846899 6.3303146 0.13916549 5 8
3.1970434 4.1740074 -1.213836 14 1
3.4651551 4.5175138 -1.1066922 8 2
4.7448263 6.1835761 0.68190652 1 10
3.7175157 4.8412647 -0.96676511 7 3
4.730535 6.156055 0.95326209 0 11
4.1835608 5.442287 -0.84284848 12 4
4.753953 6.1798234 1.2348938 2 12
4.5493159 5.9116797 -0.65262216 29 5
4.7555447 6.1752005 1.5150236 2 13
4.8033137 6.2304792 1.8162549 2 14
4.7423825 6.1425776 2.0793524 1 15
3.0562131 3.9372053 -1.3355063 10 0
3.2356732 4.1638947 -1.2174351 14 1
3.5090873 4.5108671 -1.11089 12 2
4.8564148 6.2383437 0.69166797 1 10
3.8025756 4.882863 -0.98021847 7 3
4.7967334 6.1550283 0.95813686 0 11
4.3032451 5.5178251 -0.8591789 10 4
4.8274961 6.1878176 1.2430284 2 12
4.6064153 5.9001913 -0.65488827 26 5
4.8444705 6.2006388 1.529525 1 13
4.8114791 6.1451368 2.0912578 1 15
3.086525 3.9208665 -1.3370593 8 0
3.2772071 4.1586118 -1.2223841 13 1
3.3957579 4.3028646 -1.0654775 5 2
4.8938274 6.1988878 0.69097072 1 10
3.8279972 4.8453488 -0.97802842 11 3
4.8839078 6.1774502 0.96691149 0 11
4.3527498 5.5016575 -0.86137259 11 4
4.8705778 6.1539645 1.2430284 2 12
4.6734743 5.9006858 -0.65854877 30 5
4.9217863 6.2097473 1.5402104 1 13
4.8710847 6.1325755 2.098505 1 15
3.0964165 3.8760388 -1.3292947 9 0
3.2910593 4.1152692 -1.2165353 20 1
3.558228 4.4445748 -1.1066922 6 2
4.9305859 6.1543798 0.68992484 1 10
3.8773994 4.8363271 -0.98178285 13 3
4.9616899 6.1865635 0.97373611 0 11
4.3537769 5.4246912 -0.85406041 8 4
4.9144897 6.1189542 1.2430284 2 12
4.7270341 5.8834467 -0.66029191 30 5
4.9846988 6.199718 1.5463161 1 13
5.023159 6.24086 1.8495475 2 14
4.9245424 6.1095943 2.1026461 1 15
3.1209686 3.851326 -1.3282595 11 0
3.3295305 4.1043 -1.2201345 20 1
3.6184137 4.4540462 -1.1154695 12 2
5.0186706 6.1754684 0.69620007 1 10
3.9434738 4.8489861 -0.9899174 10 3
5.0083394 6.1539798 0.97422361 1 11
4.4491916 5.4649801 -0.8652724 8 4
4.9720607 6.1028728 1.2467828 2 12
4.7954526 5.8818989 -0.66395247 26 5
5.0526757 6.1951957 1.5539485 1 13
5.0676889 6.2047548 1.8495475 2 14
5.003757 6.1199355 2.118175 2 15
3.182126 3.8712313 -1.3427533 10 0
3.3853424 4.1140623 -1.2300324 15 1
3.6544147 4.4347367 -1.1169959 10 2
5.142766 6.2386751 0.70735598 1 10
3.9797444 4.8243847 -0.99054313 10 3
5.0663424 6.1372375 0.97714853 1 11
4.4948196 5.4429693 -0.86673486 8 4
5.1101842 6.1837368 1.270561 2 12
4.8668699 5.885128 -0.66813594 27 5
5.1308465 6.2021241 1.564634 1 13
5.170558 6.2412567 1.871143 2 14
5.066092 6.1086459 2.1264575 2 15
3.211551 3.8518877 -1.3437886 9 0
3.4239726 4.1022949 -1.2336316 14 1
3.6991336 4.4256883 -1.1211938 6 2
5.2066436 6.2270761 0.710145 1 10
3.9765639 4.7525501 -0.98146993 15 3
5.1549459 6.156508 0.98592305 1 11
4.5378056 5.4175463 -0.86770982 11 4
5.1354618 6.126718 1.2661808 2 12
4.9360065 5.8845901 -0.67197078 22 5
5.221971 6.2233043 1.5791353 1 13
5.2039742 6.1930714 1.8675436 2 14
5.132246 6.1012154 2.1362925 1 15
3.2433536 3.8352733 -1.3458591 10 0
3.4701567 4.0991135 -1.2399302 15 1
3.7477143 4.4207206 -1.1265364 8 2
5.298955 6.2483191 0.7167688 1 10
4.0812263 4.8090129 -0.9989906 8 3
5.2209311 6.1476054 0.99031037 1 11
4.5870867 5.3993478 -0.86990345 10 4
5.2395248 6.1629562 1.2811985 2 12
5.0014982 5.8788195 -0.67528266 31 5
5.2907395 6.2165985 1.5867676 1 13
5.2951174 6.2129507 1.8846399 2 14
5.2098207 6.1063895 2.1507864 1 15
3.2826252 3.8272021 -1.3510355 9 0
3.5316939 4.1132307 -1.2516277 10 1
3.7861674 4.4033794 -1.1288261 8 2
5.3814254 6.2564888 0.72199816 1 10
4.1082573 4.7729182 -0.99742627 7 3
5.2896328 6.1410875 0.99518514 1 11
4.6155987 5.3566656 -0.86819732 11 4
5.3469205 6.2010283 1.2968419 2 12
5.0713291 5.8793387 -0.67929184 27 5
5.3622332 6.2122073 1.5951633 1 13
5.3627672 6.206254 1.8936379 2 14
5.2637014 6.0830169 2.1554451 2 15
3.2915132 3.7837863 -1.3437886 11 0
3.5475256 4.0737786 -1.2471286 21 1
3.8534629 4.420424 -1.1398931 10 2
5.445931 6.2427859 0.72478712 1 10
4.1861067 4.796937 -1.0083766 8 3
5.3600368 6.1378341 1.0005474 1 11
4.6750889 5.3497224 -0.87234086 10 4
5.3890061 6.1644893 1.2968419 2 12
5.1437354 5.8797812 -0.68347532 27 5
5.4235735 6.1953034 1.6005059 1 13
5.4470625 6.2155652 1.9080348 2 14
5.3406549 6.0877123 2.169939 2 15
3.3440282 3.791719 -1.354659 12 0
3.5790439 4.0539174 -1.2484783 14 1
3.8920314 4.4022393 -1.1421827 10 2
5.5014949 6.2204995 0.72653025 1 10
4.2561507 4.8090148 -1.0171371 14 3
5.4264479 6.1270137 1.0049347 1 11
4.7153416 5.3222361 -0.87307209 13 4
5.523644 6.2301831 1.3187426 2 12
5.2193327 5.8848782 -0.68818176 33 5
5.4942908 6.1905437 1.6089015 1 13
5.4944243 6.1841688 1.9098345 2 14
5.4061418 6.0762553 2.1792564 2 15
3.3974617 3.7985206 -1.3655293 11 0
3.6267555 4.050612 -1.255227 16 1
3.9481137 4.4048839 -1.1498151 10 2
5.5687346 6.2086377 0.7296679 1 10
4.2716365 4.760819 -1.0130697 10 3
5.5184207 6.1460662 1.0141968 0 11
4.7842274 5.3246231 -0.87892181 13 4
5.5527163 6.1777525 1.3156141 2 12
5.2696166 5.8586659 -0.68940192 28 5
5.5846562 6.2045698 1.6226398 1 13
5.6000757 6.2151542 1.9314297 2 14
5.5004244 6.098134 2.2004797 1 15
3.4316852 3.7832947 -1.3686352 11 0
3.6837656 4.0569329 -1.2651247 17 1
3.9967036 4.3954024 -1.1547761 8 2
5.6199865 6.178453 0.73071378 1 10
4.3454862 4.7739544 -1.0224558 15 3
5.588995 6.1357703 1.0190716 2 11
4.8480215 5.3204417 -0.88379657 12 4
5.6766396 6.2254386 1.3343862 2 12
5.3748364 5.8923931 -0.69776887 24 5
5.680779 6.2234311 1.6379045 1 13
5.6380706 6.1701517 1.92963 2 14
5.5387034 6.052917 2.1984091 3 15
3.3939264 3.6895781 -1.3432709 13 0
3.7238793 4.0440183 -1.2691739 15 1
4.0039086 4.3435555 -1.1482886 12 2
5.711616 6.1917887 0.73698896 1 10
4.3885975 4.7558784 -1.0249587 12 3
5.6656451 6.1355038 1.0254087 1 11
4.8931303 5.2952142 -0.88525897 12 4
5.7349744 6.2040625 1.3381406 2 12
5.3996067 5.8371749 -0.6956771 23 5
5.7454262 6.2066708 1.6440103 1 13
5.7075028 6.1592255 1.9386281 2 14
5.6165657 6.0547299 2.2129028 5 15
3.3820732 3.6268291 -1.3287771 8 0
3.7619581 4.0299735 -1.2727731 14 1
4.0234094 4.3040237 -1.1452357 10 2
5.8325591 6.2371707 0.74709904 1 10
4.4324903 4.7366633 -1.0274616 12 3
5.721909 6.1102896 1.0278461 1 11
4.9272642 5.2580276 -0.88477147 15 4
5.840292 6.2301669 1.3525326 2 12
5.4988413 5.8618202 -0.70317256 34 5
5.831615 6.2122135 1.6562221 1 13
5.8037405 6.1760364 1.9566242 2 14
5.6864929 6.0449228 2.2237732 6 15
3.515475 3.7162104 -1.3707057 10 0
3.7853398 3.9972904 -1.2709734 15 1
4.1060348 4.3313975 -1.1601188 6 2
5.868814 6.1866021 0.74605316 1 10
4.4309092 4.6675768 -1.019327 12 3
5.8437114 6.1536837 1.0419829 0 11
5.0158124 5.2781844 -0.89403361 12 4
5.9037814 6.2082553 1.3569127 2 12
5.5712142 5.8564892 -0.70718169 24 5
5.918159 6.2168527 1.6684339 1 13
5.8951139 6.1861558 1.9728208 2 14
5.7522769 6.0278354 2.2325733 5 15
3.5493574 3.6999419 -1.3738115 11 0
3.8226025 3.9806054 -1.2741227 16 1
4.134203 4.2990742 -1.1593555 6 2
5.9864473 6.2230182 0.75546592 1 10
4.4674997 4.6407967 -1.0202657 14 3
5.926158 6.1517386 1.0488076 0 11
5.0745807 5.2659068 -0.89793342 7 4
5.9579496 6.1782637 1.3594157 2 12
5.6230307 5.8289232 -0.70857614 29 5
5.9859614 6.2008104 1.6753031 1 13
5.9950337 6.2037044 1.9917165 2 14
5.8210878 6.015295 2.2429259 3 15
3.5683646 3.6681509 -1.3712233 12 0
3.8475783 3.9510314 -1.2732229 16 1
6.1000876 6.2619128 0.45814902 2 9
4.1592569 4.2666183 -1.1582106 10 2
6.0659194 6.218154 0.75999802 1 10
4.5472703 4.6597643 -1.0312161 11 3
6.0067282 6.1510248 1.0556324 0 11
5.1306443 5.2502275 -0.90134573 8 4
6.0385299 6.1771173 1.368176 2 12
5.6970258 5.8237076 -0.71275967 24 5
6.0757966 6.2065716 1.6882781 2 13
6.0600181 6.1839728 1.9989151 2 14
5.897069 6.0113916 2.2563846 1 15
3.6013908 3.6520281 -1.3743292 12 0
3.8812299 3.9316821 -1.2754724 14 1
4.1999841 4.2486472 -1.1612636 14 2
6.1249156 6.1937199 0.76208979 1 10
4.5949745 4.6433496 -1.0346577 13 3
6.1053963 6.1653605 1.0653819 0 11
5.1732445 5.2222362 -0.90256441 10 4
6.1343541 6.1881194 1.3800651 2 12
5.7543793 5.8007693 -0.71485138 30 5
6.1566262 6.2040873 1.6989634 1 13
6.1112881 6.149807 2.0016146 2 14
5.9743195 6.0056825 2.2698431 0 15
3.6281629 3.6281641 -1.3748468 11 0
5.9196472 5.9155173 0.14607665 6 8
3.9265049 3.9223964 -1.2813212 16 1
4.237884 4.2275395 -1.1635534 12 2
6.1905794 6.1733193 0.76487875 1 10
4.6454716 4.629282 -1.038725 9 3
6.1820445 6.1562071 1.0712316 0 11
5.2109866 5.1873908 -0.90280819 8 4
6.202611 6.1702223 1.3856968 2 12
5.8738637 5.8391147 -0.72461283 30 5
6.2220674 6.1830993 1.7050693 1 13
6.2121687 6.1646433 2.0205104 2 14
3.6767881 3.6258063 -1.3836466 12 0
5.969346 5.8824673 0.14628607 12 8
3.9385216 3.8798451 -1.2763723 15 1
4.2756896 4.2061129 -1.165843 12 2
6.2676206 6.1634779 0.76906228 1 10
4.718534 4.6368918 -1.0477982 8 3
6.2333703 6.1212435 1.0726941 0 11
5.264071 5.1675754 -0.90573299 11 4
6.2906609 6.1710367 1.3957086 2 12
5.963263 5.8478227 -0.73071378 35 5
6.3295841 6.2027202 1.7226238 1 13
6.3069005 6.1740212 2.0376067 2 14
3.6175284 3.5178928 -1.3520708 9 0
6.0350585 5.8667898 0.14691436 12 8
3.9934676 3.8794119 -1.2853703 15 1
4.369031 4.2398047 -1.1833974 10 2
6.3734303 6.1806011 0.77673197 1 10
4.7499871 4.6046667 -1.0477982 8 3
6.3433309 6.1449704 1.0843935 0 11
5.3028717 5.13346 -0.9062205 8 4
6.3495536 6.144558 1.3994628 2 12
6.0454774 5.8462143 -0.7357688 30 5
6.4179091 6.2020364 1.7348354 1 13
6.3470454 6.1271334 2.0367069 2 14
3.801712 3.6469843 -1.4115992 8 0
6.1148448 5.861877 0.14785679 18 8
4.0240026 3.8561845 -1.28672 21 1
4.3900113 4.2010574 -1.1811076 10 2
6.4585447 6.1783924 0.78196126 1 10
4.7862992 4.5754905 -1.0487368 9 3
6.4262671 6.1389294 1.0912182 0 11
5.3376908 5.0972457 -0.9062205 8 4
6.4608932 6.1655407 1.4144807 2 12
6.1063309 5.8231163 -0.73820913 30 5
6.494081 6.1907187 1.7439942 1 13
6.465888 6.1552272 2.0610015 2 14
3.7905915 3.5858371 -1.3981405 8 0
6.1861324 5.8478947 0.14858977 25 8
4.0593243 3.8360283 -1.2894194 15 1
4.4049563 4.1568308 -1.1772915 12 2
6.518909 6.1495624 0.78405303 1 10
4.6585774 4.3915572 -1.0140083 7 3
6.5325451 6.1538076 1.1019428 0 11
5.4179468 5.1020455 -0.9137764 10 4
6.5641985 6.1771417 1.4276211 2 12
6.1845694 5.815834 -0.74274123 30 5
6.5771942 6.1828818 1.7546796 1 13
6.5342736 6.1339474 2.0690999 2 14
3.8169439 3.5606058 -1.3986582 11 0
6.2531376 5.8291092 0.14921807 39 8
4.107389 3.8275254 -1.296168 14 1
4.4856095 4.1741247 -1.1910298 10 2
6.5675206 6.1093273 0.78475034 2 10
4.8960166 4.5512519 -1.0587486 9 3
6.61025 6.1404796 1.1077924 1 11
5.4141583 5.0276256 -0.90719545 15 4
6.6650791 6.1849141 1.4401358 2 12
6.2425547 5.7887697 -0.74483299 25 5
6.6633897 6.176857 1.7661282 1 13
6.6427217 6.1490755 2.0897954 2 14
3.8673005 3.5574131 -1.4079756 11 0
6.3466825 5.8340278 0.15047465 46 8
4.1469245 3.8106244 -1.300217 21 1
4.5088534 4.1374002 -1.1895033 12 2
6.6746135 6.1225872 0.79241997 2 10
4.8985457 4.4902668 -1.0524912 11 3
6.6968722 6.1344075 1.1151046 0 11
5.4549794 4.9950705 -0.9081704 8 4
6.7693043 6.1942415 1.4532764 2 12
6.3680968 5.823029 -0.75494307 26 5
6.7730112 6.1911154 1.7836826 1 13
6.6826091 6.0999222 2.0888956 2 14
3.866286 3.5069654 -1.3986582 11 0
6.4435554 5.8406129 0.15180102 47 8
4.1936455 3.7998974 -1.3065157 15 1
6.8266521 6.181355 0.48264223 2 9
4.5580087 4.1242628 -1.1948459 12 2
6.7969828 6.1480165 0.80183285 1 10
4.9883928 4.5089436 -1.0650059 11 3
6.783731 6.1274195 1.1224167 0 11
5.5913801 5.0486593 -0.92498839 9 4
6.8211856 6.154768 1.4551535 2 12
6.4145126 5.7837658 -0.75564027 26 5
6.8423171 6.1673398 1.7905518 1 13
6.7771721 6.1000571 2.105092 2 14
3.7265236 3.3330684 -1.3396474 10 0
6.5199561 5.8274684 0.15263875 41 8
4.2171636 3.7679329 -1.3056159 14 1
4.6423578 4.1420093 -1.2093475 10 2
6.8724499 6.1295905 0.8056677 1 10
4.982883 4.4411497 -1.0571842 8 3
6.8945327 6.1406441 1.1336287 0 11
5.6694884 5.0477791 -0.93205678 12 4
6.9289231 6.164772 1.4689198 1 12
6.5321589 5.8076863 -0.76470447 26 5
6.9292293 6.1585469 1.8020002 1 13
6.8633208 6.0913987 2.1185889 2 14
3.9438522 3.4781978 -1.4090109 11 0
6.6084881 5.8241181 0.15375571 42 8
4.2652988 3.7577226 -1.3123645 14 1
4.6549492 4.0952315 -1.2051498 8 2
6.9779119 6.136724 0.8129887 1 10
5.0627346 4.4492846 -1.0675089 11 3
6.9789948 6.1290426 1.1404535 0 11
5.5240846 4.8496089 -0.90256441 20 4
7.0311871 6.1683602 1.4814346 1 12
6.6040063 5.7895226 -0.76836497 21 5
7.0311127 6.1617832 1.8172649 1 13
6.9643393 6.0946693 2.136585 2 14
3.9490871 3.4340994 -1.4022816 8 0
6.7063422 5.8276863 0.15508209 65 8
4.2826023 3.7201862 -1.3096651 14 1
4.7338467 4.1063757 -1.2181247 8 2
7.0326295 6.098299 0.81438327 1 10
5.0876994 4.408659 -1.0662575 11 3
7.0696354 6.1217532 1.1482531 0 11
5.7514191 4.9785247 -0.93400675 11 4
7.0979834 6.1398005 1.4864405 1 12
6.6623545 5.7589087 -0.77045673 10 5
7.1006985 6.1356525 1.8241341 1 13
6.6816592 5.7694864 -0.46264988 37 6
7.0716338 6.1019201 2.1563809 2 14
6.7579455 5.8291845 -0.15578018 17 7
4.0184283 3.4454296 -1.4183285 10 0
6.7407923 5.775517 0.15494247 50 8
4.3439894 3.7206235 -1.3204627 14 1
4.7474794 4.0604668 -1.2143085 8 2
7.1053166 6.0749521 0.81786948 1 10
5.1859369 4.4307752 -1.0803366 12 3
7.1846638 6.1341219 1.1599525 0 11
5.7950954 4.9459834 -0.93546921 14 4
7.1707339 6.1157346 1.4926978 1 12
6.669034 5.6838284 -0.76662189 21 5
7.2121067 6.1444941 1.8416885 1 13
6.7096062 5.7123446 -0.46181253 37 6
7.1615572 6.0928102 2.1707778 2 14
6.7344947 5.7274547 -0.15431418 34 7
4.0836926 3.4522126 -1.4328223 9 0
6.7901139 5.7360597 0.15515189 50 8
4.3490157 3.6726017 -1.3141642 15 1
7.2916045 6.1531625 0.50001782 2 9
4.7772102 4.028492 -1.2146901 10 2
7.2633286 6.1227937 0.83111715 1 10
5.2197652 4.3970084 -1.0809623 12 3
7.2516146 6.1042643 1.1638523 0 11
5.8355594 4.9105177 -0.9364441 12 4
7.2858257 6.1265483 1.5077156 1 12
6.8976974 5.7960677 -0.78823656 16 5
7.3059354 6.1369314 1.8546635 1 13
7.2546811 6.0852451 2.1860743 2 14
6.8417373 5.7368326 -0.15584999 13 7
4.0780158 3.3988802 -1.4224695 11 0
6.9728913 5.8075371 0.15839803 53 8
4.422473 3.6820505 -1.3285609 15 1
7.334384 6.102108 0.50001782 2 9
4.8550363 4.0364614 -1.2272835 8 2
7.3273487 6.0897655 0.83355749 1 10
5.2944021 4.3970628 -1.0900354 10 3
7.3643212 6.1118064 1.1750643 0 11
5.9033093 4.897542 -0.94180632 16 4
7.367959 6.1083136 1.5158502 1 12
7.0239124 5.8189507 -0.79799795 11 5
7.384891 6.1158299 1.8638223 2 13
7.3120055 6.0468693 2.1905735 2 14
4.1106009 3.377686 -1.4255754 9 0
7.0704474 5.8056684 0.15968952 47 8
4.4239702 3.6313035 -1.3213625 15 1
4.886137 4.0049558 -1.2280468 6 2
7.4189978 6.0788741 0.83913547 1 10
5.3310862 4.3649969 -1.0912869 10 3
7.4651918 6.1080127 1.1843264 0 11
6.0095763 4.9152789 -0.95326209 9 4
7.4716029 6.1067305 1.5283649 1 12
7.0489321 5.7571735 -0.79625487 11 5
7.4821548 6.1088228 1.8775605 2 13
7.4386234 6.0646324 2.2157679 2 14
4.1686053 3.3768766 -1.437481 8 0
7.1543255 5.7913947 0.16066685 48 8
4.5052629 3.645689 -1.3380089 16 1
7.5741692 6.1246948 0.51048499 2 9
4.9185591 3.9744482 -1.2291917 14 2
7.5201559 6.0745029 0.84575933 1 10
5.353744 4.3214688 -1.0897226 12 3
7.5694523 6.1056018 1.1940759 1 11
6.1055579 4.9230456 -0.96301162 9 4
7.6217246 6.141181 1.5502658 1 12
7.1293044 5.7403064 -0.80078697 11 5
7.5888529 6.1081443 1.8935887 1 13
7.4959707 6.0247612 2.2202671 2 14
4.2101936 3.3621581 -1.4436927 8 0
7.2446027 5.7812176 0.16178381 48 8
4.5427918 3.6238692 -1.341608 20 1
7.6167459 6.0716643 0.51048499 2 9
4.9830379 3.9693727 -1.2383504 10 2
7.6247249 6.0714984 0.85273176 1 10
5.4116044 4.3061295 -1.0953542 12 3
7.6553984 6.0872021 1.2009006 1 11
6.2438927 4.9630623 -0.9793421 12 4
7.7077231 6.1222229 1.5590261 1 12
7.2909288 5.7870102 -0.81438327 11 5
7.689755 6.1013818 1.90809 1 13
7.608108 6.0279555 2.2409625 2 14
4.2532949 3.3482194 -1.4504219 9 0
7.3413644 5.7750111 0.16304037 49 8
4.5618548 3.5872457 -1.3398085 15 1
7.8159876 6.1417475 0.52095217 2 9
4.9859223 3.9150884 -1.2322445 12 2
7.745285 6.0796342 0.86144739 1 10
5.405786 4.2402039 -1.0881582 10 3
7.7164602 6.0483003 1.2038255 0 11
6.279952 4.9205751 -0.97958583 9 4
7.7938285 6.1023583 1.5677863 1 12
7.3144588 5.7249713 -0.81264013 11 5
7.8002067 6.1007671 1.9248812 1 13
7.6981049 6.0144172 2.2553592 2 14
4.2857256 3.3255484 -1.4535278 17 0
7.4500265 5.7788339 0.16457619 42 8
4.6145096 3.576802 -1.3479067 19 1
7.8576117 6.0884032 0.52095217 2 9
5.0481596 3.9087038 -1.2410218 16 2
7.8411169 6.0668669 0.86737394 1 10
5.5329633 4.2794476 -1.107869 12 3
7.8516865 6.0684757 1.2184497 0 11
6.3282933 4.8875313 -0.98177958 11 4
7.8945994 6.0950422 1.5796754 1 12
7.433126 5.7346153 -0.8213557 11 5
7.8799214 6.074935 1.9340401 1 13
7.8001175 6.0069032 2.2729053 4 14
4.3159342 3.3021688 -1.4561161 11 0
7.55691 5.7776947 0.16604221 43 8
4.6511359 3.5547762 -1.351506 20 1
7.957068 6.0770397 0.52472031 2 9
5.0862489 3.8817031 -1.2436931 14 2
7.8980708 6.0254374 0.86911702 1 10
5.6491065 4.3065844 -1.1250768 15 3
7.8970203 6.0159187 1.2189373 1 11
6.3708887 4.8515611 -0.98324198 13 4
7.9778304 6.0708814 1.58781 1 12
7.4951801 5.6994696 -0.82379609 11 5
7.9929857 6.0758085 1.9515946 1 13
7.8806696 5.9817567 2.284153 5 14
4.3512206 3.2812645 -1.4602571 11 0
7.6417789 5.7584929 0.16701953 43 8
4.6945162 3.5362906 -1.3569047 19 1
8.1014252 6.0982141 0.53141934 2 9
5.1336212 3.8614423 -1.2486541 8 2
7.9877181 6.0060735 0.87434638 1 10
5.6616626 4.2539883 -1.1216353 11 3
8.0213737 6.0226192 1.2316117 1 11
6.430006 4.8260312 -0.98714179 10 4
8.0516243 6.0387421 1.5940675 1 12
7.5220323 5.6374459 -0.82240158 11 5
8.0823441 6.0551729 1.963043 1 13
7.9986987 5.9837937 2.3061984 4 14
4.417438 3.2830715 -1.474751 11 0
7.7652745 5.7670012 0.16883458 54 8
4.7378678 3.5173681 -1.3623036 20 1
8.1438017 6.0415068 0.53141934 2 9
5.1762238 3.8372025 -1.2524703 14 2
8.1190958 6.0165911 0.88410783 1 10
5.6928086 4.2155371 -1.1219481 15 3
8.1621599 6.039681 1.2467235 0 11
6.5633364 4.8530693 -1.0022535 12 4
8.1730137 6.0410924 1.6097109 1 12
7.5612063 5.5847945 -0.82240158 11 5
8.182333 6.0391531 1.9767814 1 13
8.0904741 5.964808 2.3205953 4 14
4.443934 3.2536612 -1.4757862 12 0
7.8634357 5.7551694 0.17009115 37 8
4.769208 3.4879761 -1.3641032 21 1
8.2448769 6.0255022 0.53518754 2 9
5.2599583 3.8426621 -1.2662085 8 2
8.2166567 5.9982805 0.89003444 1 10
5.786664 4.2212586 -1.1344628 12 3
8.2329969 6.0036039 1.2511108 1 11
6.6355596 4.8351912 -1.0081033 11 4
8.2671328 6.0196619 1.6197226 1 12
7.641891 5.5623603 -0.82693368 11 5
8.3036795 6.0396223 1.9958621 1 13
8.188673 5.94942 2.3367915 8 14
4.4790754 3.2315981 -1.4799274 12 0
7.9822774 5.7548857 0.17176658 37 8
4.8092518 3.4659896 -1.3686022 21 1
8.3904648 6.0424981 0.54188651 2 9
5.215611 3.7533233 -1.2490358 14 2
8.3230238 5.9873147 0.89700693 1 10
5.8544879 4.2084293 -1.1419717 13 3
8.343461 5.9931765 1.2613478 1 11
6.7159166 4.8223214 -1.0151716 9 4
8.3185873 5.9687085 1.6215998 1 12
7.6740637 5.5042253 -0.82623643 11 5
8.3935137 6.0158153 2.0073106 1 13
8.2886353 5.9340801 2.3534379 2 14
4.4952273 3.1957741 -1.4778568 12 0
8.0962477 5.7537012 0.17337219 38 8
4.8301525 3.4300759 -1.3677025 21 1
8.4314032 5.9852419 0.54188651 2 9
5.3531284 3.797246 -1.275749 12 2
8.4198856 5.9682364 0.90293348 1 10
5.9281287 4.2004595 -1.150732 9 3
8.465065 5.9936042 1.2735348 1 11
6.7704859 4.7902226 -1.0183402 10 4
8.468688 5.9895158 1.642875 1 12
7.7676234 5.4896121 -0.83216298 11 5
8.4930372 5.9978461 2.021049 1 13
8.4190321 5.9389796 2.3786323 2 14
4.5342789 3.1772969 -1.4835509 13 0
8.1984625 5.7406273 0.17469859 39 8
4.8917046 3.4239378 -1.3785001 20 1
8.5777254 5.9994998 0.54858553 2 9
5.345715 3.7361639 -1.2677351 8 2
8.5223799 5.9541469 0.90955734 1 10
5.9605474 4.161232 -1.1513578 12 3
8.5653152 5.9752445 1.2823093 0 11
6.6466193 4.6350241 -0.99494141 15 4
8.5751286 5.9754176 1.6553898 1 12
7.9398313 5.5286126 -0.84645659 12 5
8.5755634 5.9690537 2.0309711 1 13
8.5403004 5.935668 2.4011276 2 14
4.56112 3.1488571 -1.4851037 12 0
8.3173485 5.7377563 0.17637403 40 8
4.921906 3.394129 -1.3802997 15 1
8.6786079 5.980268 0.55235374 2 9
5.3959227 3.7154539 -1.2734593 12 2
8.6589279 5.9600239 0.91966736 1 10
6.0252595 4.1441455 -1.1582409 13 3
8.6460829 5.9422908 1.2881591 0 11
6.8604302 4.7132826 -1.0219964 10 4
8.7208614 5.9869585 1.6754133 1 12
8.07024 5.5361629 -0.85621798 12 5
8.68503 5.9556727 2.046999 1 13
8.6554985 5.9265409 2.421823 2 14
4.6149402 3.1386659 -1.4954566 11 0
8.4200516 5.7222619 0.1777004 41 8
4.9728847 3.3783007 -1.3879479 24 1
8.7631111 5.9487004 0.55507523 2 9
5.5273376 3.7493289 -1.2982645 7 2
8.7267113 5.9173188 0.92245638 1 10
6.0573158 4.1041965 -1.1588666 9 3
8.7531071 5.9263015 1.2979087 0 11
6.9638596 4.7131124 -1.0324771 12 4
8.7558985 5.9215078 1.6741619 1 12
8.1351061 5.4975367 -0.859007 12 5
8.7979755 5.943253 2.0637903 1 13
8.7709789 5.9160972 2.4425187 2 14
4.5966153 3.0794899 -1.4825156 13 0
8.5428782 5.7189651 0.17944564 41 8
4.9817729 3.3337476 -1.383899 14 1
5.5501137 3.708468 -1.2975012 8 2
6.0940356 4.0672917 -1.160431 19 3
6.9866815 4.6577768 -1.0310147 12 4
8.1766071 5.4428124 -0.85935563 18 5
8.8817501 5.909965 2.0737123 1 13
4.6518621 3.0696712 -1.493386 12 0
8.6877737 5.7285314 0.18164465 43 8
5.060245 3.3353529 -1.3991956 20 1
8.9654093 5.9048648 0.56261158 6 9
5.5250297 3.6361721 -1.2856711 10 2
8.9283228 5.8737392 0.9350068 6 10
6.2394791 4.1016903 -1.1826447 11 3
8.952796 5.8808947 1.315214 15 11
7.068809 4.6415749 -1.0383269 12 4
8.9401188 5.865869 1.6935596 21 12
8.2743864 5.4249272 -0.86563081 24 5
8.9704113 5.8790226 2.0847793 18 13
8.9123306 5.8365111 -0.55832005 10 6
8.9513636 5.8553796 -0.18670586 18 7
4.6877575 3.0465946 -1.4980446 9 0
8.7812214 5.7025905 0.18276159 43 8
5.1046553 3.3137381 -1.4050443 24 1
5.6392407 3.6551764 -1.3062785 9 2
6.1916833 4.0086503 -1.1682527 11 3
7.0643678 4.5684004 -1.0329647 13 4
9.1003122 5.8804998 1.7160863 3 12
8.3756628 5.4080977 -0.87225467 12 5
10.721948 6.9151235 -0.66864425 8 6
4.6845069 2.9981704 -1.4902802 12 0
8.9387417 5.7165675 0.18520494 45 8
5.165431 3.3021598 -1.415392 18 1
9.3028183 5.942544 0.57852173 2 9
5.6944089 3.6347315 -1.3131475 11 2
9.2580433 5.9071198 0.96080488 1 10
6.2561622 3.9886894 -1.1751359 15 3
9.2567072 5.897172 1.3476313 1 11
7.1814828 4.5733514 -1.0453953 16 4
9.3044682 5.9207525 1.7467474 3 12
8.4257269 5.35952 -0.87364912 12 5
9.3564901 5.9469762 2.1549969 2 13
4.7412782 2.9880557 -1.5016681 15 0
9.0315886 5.6896996 0.1863219 34 8
5.1751633 3.257715 -1.4117929 17 1
9.4275761 5.9322643 0.58375531 2 9
5.7688804 3.6272345 -1.3245962 11 2
9.4171515 5.9165378 0.97300667 1 10
6.4571443 4.0552702 -1.2076741 10 3
9.4210567 5.9121137 1.3656679 1 11
7.2536011 4.5484109 -1.0512451 9 4
9.4583673 5.928628 1.7680227 1 12
8.5304823 5.3428655 -0.88062155 12 5
9.4477062 5.9127564 2.1664453 1 13
4.8156719 2.989336 -1.5187503 13 0
9.1849489 5.6971259 0.18866052 46 8
5.2336545 3.2450049 -1.4216906 19 1
9.6045876 5.9504523 0.59212905 2 9
5.7740297 3.5744736 -1.3200166 16 2
9.5317554 5.8984265 0.98067641 2 10
5.803164 3.5883083 -1.0806495 3 3
9.6242218 5.9463654 1.3890669 1 11
7.2463288 4.4736753 -1.0456392 13 4
9.6508207 5.9558139 1.7961807 3 12
8.6116667 5.3103704 -0.88515365 12 5
9.6508808 5.946558 2.2034624 2 13
9.1303682 5.6236305 -0.56198359 41 6
9.1829071 5.6471529 -0.18817185 44 7
4.8056164 2.9356647 -1.5089152 12 0
9.2227888 5.6318254 0.18862562 46 8
5.2833581 3.223711 -1.428889 20 1
9.7833462 5.9647474 0.60050285 2 9
5.7938137 3.5310109 -1.3188719 15 2
9.6962423 5.9046803 0.99322683 2 10
6.6285772 4.0334101 -1.2289493 12 3
9.7604799 5.9367952 1.4027163 1 11
7.5420141 4.5838165 -1.0836623 12 4
9.7911186 5.9460773 1.8143271 1 12
8.6962166 5.2790747 -0.89003444 12 5
9.7626619 5.921802 2.2194905 2 13
9.2802696 5.6181169 -0.18935861 19 7
4.8789711 2.9339035 -1.5254794 8 0
9.4514017 5.6789761 0.19246514 36 8
5.2890277 3.1767163 -1.4243901 14 1
9.9274988 5.9579725 0.60678315 2 9
5.8879662 3.5308583 -1.3345182 11 2
9.8500109 5.9044561 1.0047314 1 10
6.6531844 3.9850054 -1.2283236 13 3
9.9287605 5.9422369 1.420753 1 11
7.4511776 4.457674 -1.0661131 23 4
10.029077 5.9951448 1.85062 1 12
8.8183746 5.2693334 -0.89875001 12 5
9.9065943 5.9148898 2.242769 3 13
4.9458857 2.9273193 -1.5399734 8 0
9.5862141 5.6715355 0.1944198 37 8
5.3697915 3.1744215 -1.4401367 13 1
10.105382 5.9715466 0.61515689 2 9
5.9710326 3.525635 -1.3478748 13 2
10.024839 5.9145141 1.0183277 1 10
6.7822466 3.9998345 -1.2470957 10 3
10.133157 5.9712701 1.4441519 1 11
7.7455478 4.5606575 -1.1036489 14 4
10.154768 5.9768443 1.8662634 3 12
8.9820337 5.2823815 -0.91164899 13 5
10.047508 5.904274 2.2652845 4 13
4.9406595 2.8789964 -1.5322088 10 0
9.7413578 5.6718879 0.19675842 38 8
5.3980117 3.1417177 -1.4419363 15 1
10.319477 6.0012574 0.62562406 2 9
6.0073829 3.4907684 -1.3505462 9 2
10.188911 5.9181914 1.0308782 1 10
6.8920126 3.9999835 -1.2621135 10 3
10.3841 6.0218744 1.473888 2 11
7.7729759 4.5058374 -1.1031613 18 4
10.350088 5.9949117 1.8944216 3 12
9.0738754 5.2514834 -0.91722697 13 5
10.225114 5.9153771 2.2961955 1 13
4.9790721 2.8550069 -1.5379028 13 0
9.8778868 5.6594076 0.19871311 39 8
5.4384136 3.1146119 -1.4468851 17 1
10.423529 5.9647799 0.62939227 2 9
6.0537629 3.4614122 -1.3555073 13 2
10.413338 5.9517126 1.0493551 1 10
6.9232006 3.9537296 -1.2627392 12 3
10.570712 6.0318809 1.4943621 1 11
7.8783894 4.4937544 -1.1136422 10 4
10.501526 5.9851079 1.9144453 3 12
9.2730627 5.2806859 -0.93361235 13 5
5.0106616 2.8268192 -1.5415263 9 0
10.053031 5.6669021 0.20143569 40 8
5.473609 3.0842192 -1.4504844 17 1
10.576301 5.9545746 0.63609123 2 9
6.0931787 3.4277308 -1.3589417 11 2
10.586619 5.9530869 1.0626028 1 10
6.9420214 3.9004655 -1.2611748 13 3
10.730274 6.0240111 1.5109363 1 11
7.9597707 4.4668198 -1.1207105 15 4
10.642989 5.9676828 1.9325917 3 12
9.3792305 5.2547722 -0.94058478 13 5
5.0454769 2.8002064 -1.5461851 12 0
10.162298 5.6353765 0.20283188 40 8
5.5120516 3.0553789 -1.4549835 16 1
10.746902 5.9522071 0.64383703 2 9
6.0637097 3.3556399 -1.3471116 15 2
10.81621 5.9831948 1.0814284 1 10
7.0053906 3.8719697 -1.267745 12 3
10.956265 6.0506773 1.5367726 1 11
7.9855499 4.4082599 -1.1199794 10 4
10.784713 5.9485698 1.950738 3 12
9.4017248 5.1814756 -0.93919033 13 5
5.1005101 2.7843552 -1.5570555 12 0
10.341835 5.6408968 0.20562425 41 8
5.5349569 3.0177581 -1.4554334 14 1
10.942537 5.9611149 0.65304816 2 9
6.233561 3.393003 -1.3795491 8 2
10.990726 5.9799056 1.0946761 1 10
7.1207619 3.8710856 -1.2837014 13 3
11.134297 6.0479517 1.5557842 1 11
8.1696491 4.4357562 -1.1414284 16 4
10.923211 5.925889 1.9682587 3 12
9.6443586 5.2277498 -0.959759 13 5
5.1589718 2.7696962 -1.5689611 13 0
10.514889 5.6403995 0.20827703 42 8
5.5696297 2.9864106 -1.4590325 15 1
11.223321 6.012845 0.66728354 2 9
6.3055592 3.3753474 -1.3902344 12 2
11.218419 6.0026617 1.1131531 1 10
7.1946468 3.8464286 -1.2921488 12 3
11.23228 6.0000024 1.5635839 1 11
8.2669573 4.4141474 -1.1506904 18 4
11.089801 5.9164329 1.9907852 3 12
9.7650166 5.2052741 -0.968126 13 5
5.1781821 2.7336123 -1.5689611 16 0
10.653058 5.6190982 0.21023169 29 8
5.6334386 2.9701762 -1.4702801 17 1
11.289761 5.9473825 0.66874892 2 9
6.3411307 3.3376448 -1.3929057 12 2
11.401109 5.9984164 1.127098 1 10
7.2720318 3.8227623 -1.3012221 13 3
11.460181 6.0192842 1.5894201 1 11
8.4135733 4.4172273 -1.1667771 14 4
11.249791 5.9012609 2.0120604 3 12
9.7587624 5.1147809 -0.96394247 13 5
5.2365775 2.7178638 -1.5808668 15 0
10.844695 5.6237583 0.2132335 29 8
5.69556 2.9522984 -1.4810777 21 1
11.483529 5.947413 0.67775071 2 9
6.4008942 3.312242 -1.4009198 10 2
11.601979 6.0010571 1.142786 1 10
7.3389039 3.7927599 -1.308418 9 3
11.635975 6.0083489 1.6079443 0 11
8.5288773 4.4020839 -1.1784766 18 4
11.406588 5.88234 2.0327096 3 12
9.9040413 5.1031065 -0.97474986 13 5
5.2829576 2.6952863 -1.589149 14 0
10.997713 5.6060328 0.21546741 15 8
5.771595 2.9407747 -1.4954746 17 1
11.702759 5.9577093 0.68821788 2 9
6.481607 3.2968502 -1.4135132 12 2
11.821194 6.010211 1.1602172 1 10
7.4127555 3.7655878 -1.3168654 13 3
11.829869 6.0042329 1.6289058 1 11
8.6195927 4.3729701 -1.1867638 13 4
11.588331 5.8740129 2.0577393 3 12
9.9536467 5.0410409 -0.97614431 13 5
5.3310032 2.6730592 -1.5979488 12 0
11.19749 5.609736 0.21860886 15 8
5.8181219 2.9134982 -1.5022231 14 1
11.92268 5.9652357 0.69868505 2 9
6.4728575 3.2357154 -1.406644 7 2
12.00188 5.9970064 1.1738135 1 10
7.4194226 3.7040398 -1.313424 9 3
12.034925 6.003016 1.6513296 2 11
8.6783361 4.3268595 -1.1906636 19 4
11.728073 5.8422923 2.0752599 3 12
5.3685951 2.6451714 -1.6036428 11 0
11.39426 5.6091466 0.22168046 16 8
5.8540554 2.8805552 -1.5062722 14 1
12.107427 5.9523425 0.70705879 2 9
6.5587263 3.2216077 -1.4203823 12 2
12.168649 5.9745321 1.1860154 1 10
7.5834322 3.7200098 -1.3378277 9 3
12.187055 5.973021 1.6664416 1 11
8.7938995 4.3080869 -1.202363 16 4
11.871478 5.810647 2.0934062 3 12
10.527793 5.1484027 -1.0253001 14 5
5.3991036 2.613519 -1.6072664 13 0
5.9038491 2.8540347 -1.5139207 14 1
12.220626 5.9024177 0.71124572 2 9
6.6553187 3.2115798 -1.4364102 14 2
12.385928 5.9742608 1.2030978 1 10
7.6287913 3.6764138 -1.3412693 13 3
12.35008 5.946353 1.6830157 1 11
8.741478 4.2069941 -1.191151 15 4
12.06308 5.8003831 2.1200001 3 12
10.617355 5.1006622 -1.0305295 14 5
11.630986 5.5801253 -0.67607594 35 6
11.723842 5.6171246 -0.22691619 18 7
5.4364104 2.5848849 -1.6129603 10 0
11.659315 5.5387478 0.22531058 33 8
5.9782028 2.8386581 -1.5278676 12 1
12.449199 5.9059939 0.72213155 2 9
6.7006407 3.1759701 -1.4413712 15 2
12.549768 5.9456577 1.214951 1 10
7.6953378 3.6425035 -1.3484653 18 3
12.567159 5.9431505 1.7069021 1 11
8.9465151 4.2290025 -1.2150375 19 4
12.285472 5.8020692 2.1519127 4 12
10.710366 5.0536213 -1.0361074 14 5
11.810585 5.5651941 -0.68424034 8 6
11.784483 5.5453568 -0.22733505 18 7
5.4175634 2.5297065 -1.6020899 14 0
11.784683 5.4977956 0.22698599 17 8
5.9943409 2.7952087 -1.5269678 17 1
12.649446 5.8931623 0.73134273 2 9
6.7440085 3.1390548 -1.4459506 12 2
12.786068 5.948667 1.2337767 1 10
7.7474508 3.601177 -1.3531584 14 3
12.76318 5.927176 1.7278637 1 11
9.0622501 4.2065549 -1.226737 18 4
12.402737 5.7518954 2.1653662 1 12
10.843003 5.0239611 -1.0455203 15 5
12.073912 5.5866098 -0.69721967 17 6
5.4631896 2.5047052 -1.6103721 14 0
6.0225682 2.7573483 -1.5292172 15 1
12.850111 5.8778181 0.74055386 2 9
6.7943306 3.104949 -1.4520565 11 2
12.99764 5.9370728 1.250162 1 10
7.8119392 3.5650444 -1.3600414 15 3
12.945129 5.9021688 1.7468753 1 11
9.1130724 4.1530643 -1.2296617 18 4
10.888695 4.9530907 -1.0465661 15 5
12.199906 5.5418253 -0.70224392 8 6
5.5510097 2.4982173 -1.6310778 9 0
6.0825539 2.733609 -1.539565 17 1
13.018376 5.8452239 0.74788088 2 9
6.8570395 3.0759249 -1.4608337 6 2
13.198758 5.917913 1.2655014 1 10
7.901536 3.5394957 -1.3713048 10 3
13.159965 5.8894963 1.7702743 1 11
9.1563396 4.0958309 -1.2316117 16 4
10.95212 4.8899441 -1.0493551 15 5
12.535638 5.5890889 -0.71930546 17 6
5.584218 2.4664302 -1.6357363 11 0
6.1157522 2.697372 -1.5431641 17 1
13.20508 5.8186297 0.75625467 2 9
6.8981118 3.0366797 -1.4650315 9 2
13.349169 5.8737764 1.27596 1 10
7.9929619 3.513659 -1.3828808 11 3
13.33162 5.8549571 1.7878234 1 11
9.3174009 4.0900545 -1.2494047 20 4
11.113732 4.8693385 -1.0615569 15 5
12.764647 5.584702 -0.73019135 17 6
5.6013021 2.4273825 -1.6357363 11 0
6.1791477 2.6739559 -1.5544118 15 1
13.52037 5.8451843 0.77195543 2 9
6.9119329 2.9853375 -1.4635051 9 2
13.543504 5.8467712 1.2906022 1 10
8.0753412 3.4828057 -1.3928926 10 3
13.521664 5.8261476 1.8078099 0 11
9.4095402 4.0523891 -1.2579355 14 4
11.220675 4.8231039 -1.0685294 15 5
12.979518 5.5710773 -0.74023986 17 6
5.6216679 2.3897305 -1.6367717 11 0
6.2640362 2.6589253 -1.5710582 21 1
13.744723 5.8286271 0.7824226 2 9
6.9832225 2.9584539 -1.4741904 9 2
13.752783 5.8235512 1.3066388 1 10
8.0994587 3.4263442 -1.3928926 11 3
13.759487 5.8150659 1.8341339 0 11
9.4705172 4.0005035 -1.2623228 14 4
11.308317 4.7698455 -1.0737587 16 5
13.209537 5.5609202 -0.75112569 17 6
5.6524792 2.3563721 -1.6409128 12 0
6.2896428 2.6181247 -1.5728577 16 1
13.968482 5.811656 0.79288983 2 9
6.9741931 2.8987923 -1.4680845 9 2
13.943987 5.7900567 1.3209324 1 10
8.18645 3.3976359 -1.403843 13 3
13.960115 5.7881861 1.8555828 0 11
9.6302624 3.9889851 -1.2798719 15 4
11.418668 4.722764 -1.0810798 16 5
13.43907 5.5501647 -0.76201159 17 6
5.6862674 2.3251567 -1.6460892 11 0
6.3145337 2.5782015 -1.5746574 20 1
14.127072 5.7622724 0.7995888 2 9
6.9669876 2.8389232 -1.4623603 11 2
14.127004 5.7536197 1.3345287 1 10
8.2923079 3.3739059 -1.4179221 11 3
14.165695 5.7578521 1.8775192 0 11
9.7240877 3.9485416 -1.2886466 13 4
11.628615 4.7147994 -1.0978137 16 5
13.670025 5.534153 -0.77289748 17 6
5.7547669 2.3052399 -1.6611006 14 0
6.369009 2.5474236 -1.5836555 16 1
14.420182 5.7618198 0.81382424 2 9
7.0905619 2.8317189 -1.4841125 16 2
14.297355 5.7040629 1.3467305 1 10
8.3547735 3.3298397 -1.4244925 13 3
14.360456 5.7205248 1.8979933 0 11
9.8417921 3.9165285 -1.3005898 10 4
11.683465 4.6423359 -1.0999055 17 5
13.939498 5.5274816 -0.78587681 17 6
5.8012919 2.277004 -1.6699005 10 0
6.4301844 2.5199594 -1.5944531 15 1
14.646033 5.7338247 0.82429141 2 9
7.2477732 2.8345377 -1.5127338 13 2
14.585483 5.7013144 1.3700883 1 10
8.4293375 3.2915497 -1.4332528 13 3
14.582262 5.6883154 1.9218796 0 11
9.8818407 3.8527722 -1.3022959 14 4
11.902065 4.6308565 -1.1173366 17 5
14.087586 5.4727082 -0.79205245 26 6
14.18967 5.5038171 -0.26566055 25 7
5.8296685 2.2413037 -1.6735239 9 0
14.125708 5.4251819 0.26412472 22 8
6.5021982 2.495961 -1.6079501 14 1
14.872191 5.7029467 0.83475858 2 9
7.2197185 2.7656102 -1.5028118 11 2
14.822162 5.6748619 1.3885653 1 10
8.4687185 3.2389684 -1.4360685 12 3
14.792217 5.6515608 1.9443036 0 11
10.019769 3.8261745 -1.3169203 13 4
12.10539 4.6129217 -1.1333733 18 5
14.50626 5.5191097 -0.81340551 26 6
5.8524055 2.2032728 -1.6755946 9 0
6.5304098 2.4546201 -1.6106496 15 1
15.098624 5.6691871 0.84522581 2 9
7.3197312 2.7454765 -1.5196029 11 2
15.07783 5.6523743 1.4087855 1 10
8.5355215 3.1963968 -1.4435774 12 3
15.073015 5.6385708 1.9759897 1 11
10.042515 3.7547445 -1.3164327 11 4
12.293302 4.5889449 -1.1480155 18 5
14.752191 5.4950814 -0.82502413 17 6
5.876708 2.1657016 -1.6781827 11 0
6.5620179 2.4143527 -1.6142488 15 1
15.31307 5.6310792 0.85506499 2 9
7.4451351 2.7348518 -1.5417367 10 2
15.326412 5.6238422 1.4283082 2 10
8.6535206 3.1735914 -1.4598466 9 3
15.286257 5.600029 1.9989011 2 11
10.221346 3.7404833 -1.3364193 13 4
12.40738 4.5330935 -1.1556851 19 5
15.033173 5.4835191 -0.83863139 17 6
5.9367428 2.1420414 -1.6911237 9 0
6.5856342 2.3722723 -1.6160485 22 1
15.735384 5.661984 0.87641799 2 9
7.5194716 2.7027338 -1.5531853 10 2
15.739352 5.6541057 1.4631705 1 10
8.6977749 3.1211116 -1.4636011 12 3
15.676291 5.6191001 2.044724 2 11
10.343746 3.7056406 -1.3490938 13 4
12.558013 4.4914761 -1.166841 19 5
14.529343 5.1851006 -0.80848593 35 6
14.510225 5.1697154 -0.26887178 26 7
5.9843435 2.1121163 -1.7004411 7 0
6.6351185 2.3378952 -1.6241466 22 1
16.150331 5.687428 0.89735234 2 9
7.5636234 2.6606045 -1.5585279 10 2
16.128071 5.666945 1.4955926 1 10
8.8082819 3.0932479 -1.4786187 11 3
16.05884 5.6331749 2.0895717 3 11
10.478024 3.6714053 -1.3632306 13 4
12.792173 4.4747438 -1.1856667 20 5
15.661715 5.4693165 -0.86940503 17 6
5.9952903 2.0690286 -1.6994059 9 0
6.6752291 2.2997713 -1.6299953 23 1
16.568329 5.701705 0.9182868 2 9
7.6066051 2.6147089 -1.563489 13 2
16.551634 5.6862698 1.531152 1 10
8.8750324 3.0455258 -1.4861275 10 3
16.372906 5.612092 2.1251578 2 11
10.569129 3.620682 -1.3717614 16 4
12.838949 4.3882451 -1.1870612 20 5
15.983988 5.4538488 -0.88510579 17 6
6.0260625 2.0326803 -1.7040646 6 0
6.7132845 2.2605762 -1.6353942 24 1
16.891687 5.681396 0.93398756 2 9
7.6953921 2.5853033 -1.5779905 10 2
16.97624 5.6999421 1.5667117 1 10
8.9822283 3.0123894 -1.5005195 12 3
16.652617 5.5783587 2.1563563 3 11
10.748503 3.5984893 -1.391748 10 4
12.933523 4.3199668 -1.1929878 20 5
16.290722 5.4318361 -0.89996922 18 6
6.0676284 1.9996309 -1.7118292 7 0
6.7270508 2.2130446 -1.6349442 22 1
7.780406 2.553556 -1.5917287 13 2
17.348808 5.6905851 1.5973904 1 10
9.066865 2.9705188 -1.5111572 10 3
16.947742 5.5459218 2.1895049 5 11
10.880908 3.5585351 -1.4056411 11 4
13.125512 4.2850132 -1.2079786 21 5
16.561832 5.3940501 -0.91284388 27 6
6.0924745 1.9607732 -1.7149351 7 0
6.753469 2.1696031 -1.6376437 21 1
7.8649092 2.5221198 -1.605467 10 2
17.695499 5.6677828 1.6256288 1 10
9.1433144 2.9268003 -1.5205431 10 3
10.958434 3.4993932 -1.4124658 13 4
13.291786 4.2368355 -1.220529 21 5
14.426567 4.5902343 -0.79341316 17 6
6.101994 1.9180989 -1.7138997 7 0
6.6713939 2.0932465 -1.6142488 32 1
7.8898191 2.4694965 -1.6069933 10 2
18.041718 5.6435618 1.6538674 1 10
9.2766542 2.8982408 -1.5393152 11 3
11.076756 3.4542694 -1.4246527 12 4
13.496067 4.1983857 -1.2365657 22 5
17.386156 5.3985405 -0.95408463 18 6
6.1724906 1.8930146 -1.7299466 6 0
6.7901945 2.0785666 -1.6394434 28 1
7.9275217 2.4206617 -1.6111913 12 2
18.450371 5.6302838 1.6876837 1 10
9.364686 2.8541393 -1.5505786 9 3
11.119592 3.3826323 -1.4270902 14 4
13.708076 4.1596084 -1.2532996 22 5
17.6528 5.3465123 -0.96664524 18 6
6.2096181 1.8570693 -1.7366759 7 0
6.9651313 2.0790431 -1.6781349 27 1
7.9950304 2.3803878 -1.6214949 18 2
18.787132 5.5899787 1.7148763 1 10
9.4430828 2.8061402 -1.5602776 13 3
11.34145 3.3616452 -1.452439 13 4
13.950762 4.1271095 -1.2728225 23 5
17.934881 5.2955365 -0.98004323 9 6
6.2635517 1.8244754 -1.7480639 7 0
7.002284 2.0356801 -1.6835337 17 1
8.0472794 2.3349047 -1.6287457 12 2
19.194077 5.5618663 1.7483442 1 10
9.5445147 2.7621076 -1.5737309 10 3
11.368456 3.2834921 -1.4529265 18 4
14.147704 4.078177 -1.2881619 24 5
18.256401 5.2487369 -0.99553466 9 6
6.335609 1.7975737 -1.7646283 5 0
7.0425763 1.994175 -1.6898323 18 1
8.1261292 2.2948713 -1.6413391 10 2
19.573748 5.5240645 1.7793715 1 10
9.6168013 2.7104108 -1.5824912 11 3
11.456074 3.2223203 -1.4612136 19 4
14.264071 4.0040774 -1.2961801 24 5
18.523396 5.1857691 -1.0080953 18 6
6.3331065 1.7491876 -1.7604873 7 0
7.0751128 1.9501415 -1.6943314 21 1
8.1055965 2.2296083 -1.6340883 12 2
19.942287 5.4780526 1.8093531 1 10
9.7531338 2.6773045 -1.6018891 10 3
11.5185 3.1532648 -1.4663321 19 4
14.406994 3.9359019 -1.3066388 24 5
18.797203 5.1247058 -1.0210745 9 6
6.3821778 1.7160715 -1.77084 3 0
7.1879778 1.9287041 -1.7181761 14 1
8.1551018 2.1821046 -1.6409575 12 2
20.317875 5.4327536 1.8400321 1 10
9.8250237 2.6234231 -1.6106495 10 3
11.624094 3.0972817 -1.4770566 14 4
14.69985 3.9058321 -1.3306938 25 5
19.087357 5.0609193 -1.0348912 9 6
6.3940034 1.6714705 -1.77084 3 0
7.1937256 1.8765044 -1.7163765 14 1
8.1530371 2.1206701 -1.6375229 18 2
20.733255 5.3890233 1.8741971 1 10
9.896636 2.5686629 -1.6194097 9 3
11.737676 3.0399444 -1.4887561 14 4
14.622586 3.7762179 -1.3212811 25 5
19.47809 5.0192533 -1.0541509 9 6
6.3905368 1.6229901 -1.7666988 3 0
7.2255402 1.8310275 -1.7208756 15 1
21.083647 5.3349862 1.1397727 3 9
8.1828718 2.0675433 -1.6405759 18 2
21.087183 5.3241348 1.9027841 1 10
9.9794531 2.5159225 -1.6300472 11 3
11.874121 2.9869764 -1.5033803 15 4
14.868901 3.7292967 -1.3411525 26 5
19.718033 4.934545 -1.0652461 9 6
6.3829546 1.5737118 -1.7615224 3 0
7.2513933 1.7837977 -1.7240249 17 1
8.3019762 2.0360894 -1.6615648 10 2
21.839834 5.3522568 1.9672793 1 10
10.050499 2.459343 -1.6388077 11 3
12.068243 2.9463861 -1.5253168 14 4
19.988791 4.8542604 -1.0780162 9 6
6.3693595 1.5232735 -1.7547932 2 0
7.3300133 1.7489597 -1.7397714 11 1
8.4038467 1.9989793 -1.6791192 12 2
22.458185 5.3378711 2.0195727 2 10
10.12124 2.4018884 -1.647568 10 3
12.20442 2.8895028 -1.5399412 13 4
15.384909 3.6311707 -1.3829873 27 5
20.119394 4.7374926 -1.0832498 9 6
6.3741927 1.4774611 -1.7532402 3 0
7.3876114 1.7082843 -1.7505691 14 1
8.5056 1.9605453 -1.6966736 12 2
10.110809 2.3249729 -1.6431879 9 3
12.293948 2.8202078 -1.5487157 14 4
20.49469 4.6750941 -1.1016721 9 6
6.390008 1.4341912 -1.7547932 2 0
7.4297848 1.6634761 -1.7577676 11 1
8.5574007 1.9096733 -1.704306 10 2
10.196207 2.2697866 -1.654451 12 3
12.402479 2.754112 -1.5599277 15 4
15.679218 3.470258 -1.4049505 28 5
20.994898 4.6352406 -1.1267933 10 6
6.3753223 1.3842169 -1.7480639 3 0
7.4564538 1.6148657 -1.7613667 12 1
8.606988 1.8577509 -1.7115568 10 2
10.23498 2.2035325 -1.6582055 12 3
12.565028 2.6982958 -1.5779644 14 4
21.417397 4.5719571 -1.1477276 10 6
6.4283156 1.3488022 -1.7599696 2 0
7.4808969 1.5655683 -1.7645161 7 1
8.6697168 1.8080385 -1.7214788 7 2
10.358418 2.1545522 -1.6757263 10 3
12.731741 2.6389394 -1.5964885 14 4
16.112467 3.3308654 -1.4394642 29 5
21.769596 4.4884577 -1.1648939 20 6
6.4075074 1.2966371 -1.7516873 2 0
7.4899983 1.5116106 -1.7640662 7 1
8.7783613 1.7668418 -1.7405598 7 2
10.199256 2.0454164 -1.647568 20 3
12.899739 2.5799615 -1.6152564 10 4
16.330719 3.2572699 -1.4568955 29 5
22.071491 4.3862972 -1.1793386 10 6
6.4258842 1.2537224 -1.7542756 3 0
7.5118461 1.4615169 -1.7667656 7 1
8.7907791 1.70398 -1.7405598 7 2
10.265653 1.9842891 -1.6560154 17 3
13.001252 2.5060034 -1.6257372 11 4
22.501747 4.3087177 -1.2006916 20 6
6.4078989 1.203837 -1.7470287 3 0
7.491219 1.4032978 -1.7595671 7 1
8.8950977 1.6598535 -1.7588774 7 2
10.535605 1.9602698 -1.6973141 13 3
13.158957 2.4412472 -1.6432863 11 4
16.821835 3.1086373 -1.4966384 31 5
22.873047 4.2145047 -1.2189045 20 6
6.4218507 1.1601056 -1.7485816 2 0
7.500833 1.3509685 -1.7595671 7 1
8.9625082 1.6077664 -1.7699443 6 2
10.595702 1.8950163 -1.704823 14 3
13.247989 2.3622141 -1.6523046 16 4
23.063181 4.0832701 -1.2274876 20 6
6.4393101 1.1168919 -1.7511697 3 0
7.5216041 1.3005584 -1.7622666 7 1
9.0509062 1.5584877 -1.7852092 6 2
10.659293 1.8296922 -1.7129576 13 3
13.271983 2.2710137 -1.6532797 20 4
23.701534 4.0258403 -1.259936 10 6
6.3993087 1.0639886 -1.7382288 11 0
7.51512 1.2454672 -1.7586673 7 1
9.0538177 1.4939795 -1.7836826 4 2
10.819946 1.7795914 -1.7367356 13 3
17.614233 2.8781295 -1.5614822 33 5
24.541252 3.992415 -1.3030608 10 6
6.3989487 1.0180759 -1.7361581 11 0
7.5159321 1.1917542 -1.7568678 7 1
9.0308104 1.4271121 -1.777195 4 2
10.929375 1.7212719 -1.7523791 10 3
13.602453 2.1325195 -1.6905717 11 4
17.830748 2.7858446 -1.5789135 33 5
24.938877 3.8830311 -1.3227391 10 6
6.4248295 0.9773984 -1.7413346 6 0
7.5200171 1.1399794 -1.7559679 7 1
9.0133743 1.3599297 -1.7718524 4 2
10.960657 1.6478652 -1.7555077 13 3
13.699106 2.0522397 -1.7008086 11 4
18.046822 2.690675 -1.5963445 34 5
25.218252 3.7463968 -1.3361371 10 6
6.4850283 0.94028562 -1.7558285 2 0
7.527792 1.0874556 -1.7559679 7 1
8.9954443 1.2930565 -1.7665098 4 2
11.065757 1.5847421 -1.7705256 8 3
13.823152 1.972247 -1.7144581 12 4
18.262428 2.5926318 -1.6137757 34 5
25.457367 3.6004677 -1.3474417 11 6
6.4263673 0.88601774 -1.7382288 2 0
7.5158939 1.0322237 -1.7514689 7 1
8.9964714 1.2291619 -1.7649832 4 2
11.170503 1.5202363 -1.7855432 8 3
13.915267 1.8863615 -1.7242076 13 4
18.406454 2.4821053 -1.6249317 35 5
25.632324 3.4428484 -1.3553967 11 6
6.4630442 0.84513938 -1.746511 2 0
9.0301437 1.1696072 -1.7699443 6 2
11.245495 1.450559 -1.7958679 7 3
14.014729 1.8003041 -1.7349322 13 4
26.739502 3.4016895 -1.4126523 11 6
6.457284 0.79857868 -1.7434052 2 0
7.5353761 0.9279021 -1.7528186 37 1
9.0127563 1.1034349 -1.7649832 4 2
11.231817 1.3691471 -1.7921134 7 3
14.153076 1.7177258 -1.7505313 13 4
26.814156 3.2211361 -1.4153737 11 6
6.4550261 0.75258094 -1.7413346 2 0
7.5513496 0.87639236 -1.7550682 7 1
8.9948854 1.0375668 -1.7600222 3 2
11.213627 1.2875462 -1.7877333 7 3
14.23178 1.6265407 -1.7588185 14 4
6.4389992 0.70518458 -1.7356406 2 0
7.5224128 0.81985211 -1.7469698 6 1
9.0155735 0.97622061 -1.7626936 4 2
11.177171 1.2043616 -1.7805374 4 3
14.47372 1.5519055 -1.7873359 9 4
19.62919 2.0942919 -1.7270782 38 5
6.4668264 0.66258067 -1.7418523 2 0
7.5395856 0.76850146 -1.7496693 7 1
8.9946623 0.91205788 -1.7573509 27 2
11.200832 1.1298388 -1.7830403 4 3
14.624443 1.4648694 -1.8046414 10 4
6.4365706 0.61523813 -1.7325348 2 0
7.5446415 0.71716321 -1.7496693 6 1
8.9969025 0.8488766 -1.7565877 22 2
11.176978 1.0486677 -1.7780343 5 3
14.776382 1.3785735 -1.8221905 7 4
30.731688 2.8292549 -1.6173905 11 6
6.436861 0.56994361 -1.7314996 2 0
7.547524 0.66430336 -1.7492194 5 1
9.0417252 0.78946102 -1.76422 4 2
11.182059 0.97044134 -1.7777214 6 3
14.908267 1.2859584 -1.8373024 6 4
31.443237 2.6735384 -1.6538165 10 6
6.4830427 0.52844787 -1.7428875 1 0
7.5267258 0.60955417 -1.7433707 3 1
9.0274477 0.72474331 -1.760404 4 2
11.186593 0.89218974 -1.7774086 4 3
14.829811 1.1749421 -1.8265779 6 4
32.162041 2.5086286 -1.6906608 9 6
6.467309 0.48173982 -1.7377111 2 0
7.5346851 0.5572803 -1.7442704 3 1
9.0362024 0.66199327 -1.7611672 4 2
11.155116 0.81135362 -1.7714641 24 3
14.821813 1.0702453 -1.824628 6 4
32.808319 2.3287034 -1.7237372 8 6
6.5129189 0.43943885 -1.7490991 2 0
7.5286703 0.5040139 -1.742021 4 1
9.0601931 0.60019028 -1.7649832 4 2
11.174306 0.7343632 -1.7736541 18 3
14.838826 0.96738911 -1.8258467 5 4
34.003746 2.1750956 -1.7857031 7 6
6.4541211 0.39023155 -1.7325348 2 0
7.5358953 0.45167834 -1.7429208 4 1
9.0484848 0.53599483 -1.7619303 4 2
11.232405 0.65945989 -1.7821016 4 3
14.89278 0.86653829 -1.8316964 5 4
55.874981 3.2315247 8.8645163 1 12
35.003151 1.9937592 -1.8374109 5 6
55.513206 3.1328418 -0.97052836 13 7
6.4566884 0.34516069 -1.7325348 2 0
7.5427575 0.3992593 -1.7438205 3 1
55.588814 2.9230149 2.9173112 0 9
9.0578871 0.47312301 -1.7630752 3 2
55.580151 2.8933797 4.8692169 1 10
11.230816 0.58072621 -1.7811631 4 3
55.55899 2.8533893 6.8307772 1 11
14.906397 0.76295906 -1.8326714 5 4
55.566719 2.8246174 8.8122673 1 12
36.169193 1.8069431 -1.8979112 4 6
6.5013957 0.30204853 -1.7439228 2 0
7.5336809 0.3460547 -1.7411212 3 1
9.0628595 0.41154161 -1.7634568 4 2
11.240429 0.50452721 -1.7821016 2 3
55.573154 2.4749942 6.8302898 0 11
14.889545 0.65790313 -1.8299903 6 4
37.0746 1.5992664 -1.9448044 3 6
6.4685545 0.25641361 -1.7346053 2 0
7.5592289 0.29568404 -1.74652 3 1
9.043932 0.34743616 -1.759259 3 2
11.275261 0.4272441 -1.7871076 3 3
14.925515 0.55511898 -1.83389 24 4
38.454086 1.3898872 -2.0166092 1 6
6.489532 0.21074617 -1.7397816 2 0
7.561151 0.24158387 -1.74652 3 1
9.0225887 0.28354913 -1.7546796 3 2
11.278029 0.34654924 -1.7871076 4 3
14.964743 0.45199153 -1.8382773 3 4
39.161793 1.1349306 -2.0532444 1 6
6.4869833 0.16533712 -1.7387464 2 0
7.5587573 0.18869394 -1.7456201 3 1
9.0636406 0.21993023 -1.7623119 3 2
11.2703 0.26757085 -1.7855432 4 3
14.95761 0.34727657 -1.8370585 4 4
40.366829 0.8878724 -2.1160476 0 6
6.4995689 0.12025984 -1.7418523 2 0
7.5598903 0.13591926 -1.7456201 3 1
9.0649557 0.15664873 -1.7623119 3 2
11.260042 0.18868424 -1.783666 4 3
14.993413 0.24339202 -1.8412023 3 4
41.366562 0.62096626 -2.1681743 0 6
6.5157032 0.075059384 -1.7459934 2 0
7.56845 0.083223678 -1.7474198 2 1
9.0344172 0.093036115 -1.756206 3 2
11.282814 0.11028211 -1.7871076 4 3
15.034446 0.13907243 -1.846077 3 4
22.640686 0.19363639 -1.9808756 33 5
41.917122 0.33655182 -2.1968544 0 6
6.4967504 0.029481703 -1.740817 1 0
7.5571537 0.030336974 -1.7447205 2 1
9.089818 0.030144015 -1.7668914 3 2
11.303062 0.031565696 -1.7902362 4 3
15.042993 0.034134012 -1.847052 3 4
6.508389 -0.015903028 -1.7439228 2 0
7.5883613 -0.022515187 -1.7519189 2 1
9.0662479 -0.033229683 -1.7623119 3 2
11.299056 -0.047329653 -1.7896105 4 3
15.066684 -0.071000598 -1.8499768 3 4
6.4733472 -0.061011665 -1.7346053 1 0
7.5958138 -0.075568512 -1.7537185 2 1
9.0972052 -0.096857138 -1.768418 3 2
11.306352 -0.12629841 -1.7908621 3 3
15.093611 -0.17650828 -1.8533891 3 4
52.377293 -0.70394266 -0.91433161 22 7
6.4843535 -0.10639247 -1.7377111 1 0
7.5795131 -0.12833109 -1.7501192 2 1
9.1237888 -0.16084923 -1.7737606 3 2
11.301244 -0.20515621 -1.7902362 3 3
