# .PCD v0.7 - Point Cloud Data file format
VERSION 0.7
FIELDS x y z intensity ring
SIZE 4 4 4 4 2
TYPE F F F F U
COUNT 1 1 1 1 1
WIDTH 1339
HEIGHT 1
VIEWPOINT 0 0 0 1 0 0 0
POINTS 1339
DATA ascii
6.5745864 2.9934428 -1.6677872 14 1
13.771396 6.2643843 0.79288983 2 9
7.5086036 3.4123752 -1.6031773 10 2
13.775558 6.2575669 1.3237214 1 10
8.7349777 3.9641991 -1.5192918 9 3
13.716795 6.2193341 1.8492455 0 11
10.233718 4.6379128 -1.3795611 15 4
12.151601 5.4968739 -1.166841 19 5
5.8771539 2.6302104 -1.7252878 9 0
6.6309075 2.9633727 -1.6767852 14 1
14.179544 6.3309364 0.81382424 2 9
7.5537572 3.3694727 -1.6077567 9 2
14.011798 6.2472439 1.3421984 1 10
8.7985277 3.9192004 -1.5255492 9 3
13.99565 6.228344 1.8809316 0 11
10.22957 4.5502243 -1.3746864 6 4
12.189681 5.4119058 -1.166841 19 5
5.8882966 2.5860116 -1.7232174 9 0
6.6728511 2.9263966 -1.682184 13 1
14.406331 6.3119483 0.82429141 2 9
7.6094704 3.330826 -1.6146259 9 2
14.2303 6.225944 1.3589324 1 10
8.8835945 3.8829963 -1.535561 9 3
14.304398 6.2464609 1.9165175 0 11
9.9517994 4.3437014 -1.3332508 11 4
12.23447 5.3298631 -1.1675383 19 5
5.9204011 2.5509531 -1.7273583 9 0
6.7038579 2.8843646 -1.6848834 14 1
14.633538 6.2900925 0.83475858 2 9
7.6469698 3.2838182 -1.6176788 9 2
14.544385 6.2427511 1.3847303 1 10
8.9359045 3.8317819 -1.5399411 9 3
14.537424 6.2277484 1.9418663 0 11
9.981884 4.2741141 -1.3332508 13 4
5.938066 2.5095589 -1.7273583 9 0
6.7274222 2.8390081 -1.6857833 12 1
14.861135 6.2653675 0.84522581 2 9
7.7089467 3.2484627 -1.6260743 9 2
14.782261 6.223002 1.4032074 1 10
9.0170631 3.7922778 -1.5493271 9 3
14.678296 6.1701903 1.9550281 2 11
10.070045 4.2289233 -1.3410504 7 4
10.094585 4.2330132 -0.95766729 13 5
14.320028 5.9960756 -0.81361485 8 6
5.9478712 2.4661248 -1.7252878 7 0
6.7609935 2.7991166 -1.6893824 14 1
7.7453933 3.2019181 -1.6291273 10 2
15.037896 6.2104597 1.4234276 1 10
9.0712318 3.7444506 -1.5543331 9 3
14.907144 6.1473265 1.9798895 2 11
10.837501 4.4668965 -1.4392771 18 4
12.658562 5.207149 -1.1975199 20 5
14.430716 5.927299 -0.81759238 26 6
14.455125 5.9284821 -0.27271131 40 7
5.9909368 2.4375434 -1.7330524 6 0
6.7902422 2.7586153 -1.6920818 12 1
15.310419 6.2138028 0.86595082 2 9
7.7961202 3.1609216 -1.6352333 10 2
15.316191 6.2037044 1.4457395 1 10
9.129468 3.6959605 -1.5599647 9 3
15.110584 6.1112175 2.0013385 1 11
10.940203 4.4201293 -1.4487829 14 4
12.926522 5.2147837 -1.2194831 21 5
6.0064321 2.3938956 -1.7325348 5 0
6.8170509 2.7128367 -1.6938814 14 1
15.725687 6.2516518 0.88688523 2 9
7.8404355 3.1137488 -1.6398127 10 2
15.615761 6.1953392 1.4697944 1 10
9.1997528 3.6480124 -1.5674735 9 3
15.386472 6.0950494 2.0320497 1 11
11.045385 4.3709474 -1.4585325 15 4
12.959802 5.1206861 -1.2191346 21 5
12.72564 5.0179029 -0.71689802 8 6
6.0306067 2.3536627 -1.7346053 4 0
6.8544464 2.6710613 -1.6983805 13 1
15.956137 6.211421 0.89735234 2 9
7.9027705 3.0732181 -1.6482083 10 2
15.885193 6.1742282 1.4910605 1 10
9.2624512 3.5963869 -1.5737309 9 3
11.168175 4.3296065 -1.4707193 16 4
13.289704 5.1413989 -1.2466757 22 5
6.0505013 2.3128836 -1.7356406 4 0
6.8802099 2.6259229 -1.7001802 14 1
7.9607263 3.031951 -1.6558405 10 2
16.169977 6.1553164 1.5137209 1 10
9.3316441 3.5484903 -1.5812398 9 3
11.318757 4.2973366 -1.4865624 10 4
13.444518 5.0936708 -1.2578317 22 5
12.753366 4.8241825 -0.7145952 43 6
6.0809746 2.2760038 -1.7397816 4 0
6.9275813 2.5887399 -1.7073785 14 1
8.0111313 2.9872754 -1.6619464 9 2
16.447788 6.1299567 1.5356841 1 10
9.3932142 3.4970407 -1.5874972 9 3
11.42477 4.2465682 -1.4965557 10 4
13.56194 5.0301781 -1.2655014 23 5
12.760512 4.7253199 -0.71312982 43 6
6.1075997 2.2374825 -1.7428875 3 0
6.9454851 2.5403132 -1.7073785 13 1
8.0686769 2.9447362 -1.6695787 10 2
16.774691 6.1187572 1.5621796 1 10
9.469368 3.4503143 -1.5962574 9 3
11.5157 4.1890993 -1.5045991 9 4
13.746553 4.9897594 -1.2794462 23 5
12.770655 4.6279597 -0.71187371 52 6
6.1085229 2.1895742 -1.7387464 4 0
6.9887381 2.5009551 -1.7136772 14 1
8.1038294 2.8936162 -1.6726319 9 2
9.5378838 3.4000359 -1.6037663 9 3
11.589552 4.1245708 -1.5104488 9 4
14.005491 4.9761124 -1.3003637 24 5
12.761239 4.5240092 -0.70957094 43 6
6.0908451 2.1353707 -1.7294289 3 0
7.0280995 2.4598286 -1.7190759 14 1
8.1826458 2.8591108 -1.6848437 7 2
9.6279488 3.3584611 -1.6150296 9 3
11.655559 4.0566158 -1.5153236 9 4
14.111404 4.90307 -1.3069874 24 5
12.244517 4.2472281 -0.67921609 26 6
16.827997 5.8239226 -0.31082737 33 7
6.094275 2.090102 -1.7263231 3 0
7.0373058 2.4094081 -1.7172763 14 1
8.2135525 2.805727 -1.6871332 7 2
14.07739 4.806047 1.3014096 1 10
9.7035093 3.30902 -1.6237899 9 3
14.068631 4.7920938 1.8248718 5 11
11.703569 3.9842274 -1.5180047 10 4
14.345263 4.872355 -1.3254646 25 5
12.201994 4.1372709 -0.67523855 52 6
6.0812426 2.0382957 -1.7185585 2 0
7.0687394 2.3651664 -1.7208756 14 1
8.2627363 2.7582641 -1.6932391 9 2
9.7713537 3.25618 -1.6312988 9 3
14.133761 4.7044168 1.8290153 6 11
11.795144 3.923722 -1.5262917 10 4
14.537771 4.8248038 -1.3401066 26 5
13.212667 4.3773489 -0.72945863 17 6
6.1118474 2.0012043 -1.7232174 3 0
7.0924873 2.3181846 -1.7226752 12 1
8.2967234 2.7053769 -1.696292 10 2
9.8426857 3.2037802 -1.6394334 9 3
13.556493 4.4073863 1.7502877 0 11
11.943077 3.8805404 -1.5418911 10 4
14.774958 4.7921233 -1.3589324 26 5
12.745036 4.1239057 -0.70203459 26 6
6.1183081 1.9561332 -1.7211467 3 0
7.1456285 2.280463 -1.7316732 11 1
14.033279 4.4758964 0.77195543 2 9
8.3486176 2.6595709 -1.7031612 9 2
13.935729 4.4340601 1.2794462 1 10
9.9056778 3.1498828 -1.6463164 9 3
13.794295 4.3811064 1.7770989 2 11
12.072055 3.8294802 -1.5550529 10 4
14.956209 4.7357707 -1.3725287 27 5
13.332705 4.2140207 -0.73280811 43 6
6.1148853 1.9092602 -1.716488 2 0
7.1535449 2.2294486 -1.7298737 11 1
8.4044762 2.6128783 -1.7107936 7 2
14.034082 4.3603883 1.2857215 1 10
9.9689331 3.0935316 -1.6531997 9 3
13.976233 4.3317108 1.796598 5 11
12.217301 3.7842276 -1.5704085 9 4
15.190685 4.693594 -1.3910056 27 5
13.587008 4.1903005 -0.74515945 8 6
6.1317616 1.8676493 -1.7175232 2 0
7.1689339 2.1794565 -1.7298737 10 1
8.430028 2.5564151 -1.71232 9 2
13.995538 4.2415023 1.2794462 1 10
10.058352 3.0444567 -1.6644629 9 3
13.918724 4.2076163 1.785386 5 11
12.340339 3.7281151 -1.5828393 10 4
15.448186 4.6552629 -1.4115744 28 5
6.1353912 1.8220462 -1.7149351 3 0
7.2082639 2.1365545 -1.7357224 9 1
8.4627314 2.5019572 -1.715373 7 2
14.024807 4.1436982 1.2794462 1 10
10.139989 2.9920568 -1.6744747 9 3
13.867785 4.0867748 1.775149 5 11
12.447944 3.6659925 -1.5933199 9 4
68.470093 20.138876 11.303956 20 12
15.785359 4.6399012 -1.4394642 29 5
6.1683736 1.7850789 -1.7206291 2 0
7.2136416 2.0834787 -1.7334728 7 1
8.4795656 2.4442952 -1.715373 7 2
10.198087 2.9338892 -1.6807321 9 3
13.818966 3.9703584 1.7653995 5 11
12.536201 3.5970681 -1.6013633 7 4
16.07403 4.6030855 -1.462822 30 5
20.146584 5.7579226 -1.0981131 19 6
6.1729455 1.7409502 -1.7185585 2 0
7.2013955 2.0269332 -1.7271742 7 1
8.5039835 2.3871593 -1.7168994 7 2
13.69694 3.8422995 1.244584 1 10
10.252561 2.8722136 -1.6863638 9 3
13.766057 3.8513243 1.7551624 5 11
12.669368 3.5421197 -1.6152564 9 4
16.25931 4.5335655 -1.4767668 30 5
14.51966 4.040309 -0.78985435 35 6
6.1756339 1.6952554 -1.7159703 3 0
7.1928167 1.9704304 -1.7217753 7 1
8.531805 2.3308368 -1.719189 7 2
10.31429 2.8119981 -1.6932468 9 3
13.721741 3.7358303 1.7461442 6 11
12.726351 3.4624438 -1.6194 7 4
16.509769 4.4794183 -1.4966384 31 5
21.069408 5.7046947 -1.1439595 20 6
6.1835852 1.6511065 -1.7149351 3 0
7.1838007 1.9141495 -1.7163765 7 1
13.848493 3.684797 0.75102103 2 9
8.5611515 2.2747455 -1.7218604 6 2
13.872495 3.6834073 1.2557399 1 10
10.390952 2.7551103 -1.7026329 9 3
13.632347 3.6094649 1.7315198 3 11
12.825055 3.3933151 -1.6289058 9 4
16.802639 4.4331746 -1.5203447 31 5
21.518188 5.665267 -1.16615 20 6
6.1800022 1.6040139 -1.710794 2 0
7.1856699 1.8610189 -1.7136772 7 1
8.5901279 2.2183623 -1.7245318 7 2
13.581486 3.504823 1.2271528 1 10
10.42906 2.6874347 -1.7057616 9 3
13.393837 3.4464278 1.6981276 1 11
12.963784 3.3333633 -1.6435301 9 4
22.122217 5.6594462 -1.196714 10 6
6.2079096 1.5650777 -1.7154527 2 0
7.1833687 1.8070015 -1.7100779 6 1
8.6035023 2.1578603 -1.7241502 6 2
13.868457 3.475801 1.2508591 1 10
10.533801 2.6361411 -1.7198406 8 3
13.527346 3.3802681 1.7120206 3 11
13.063779 3.2620144 -1.6532797 9 4
22.700048 5.6387315 -1.2258129 10 6
6.2224369 1.5226215 -1.716488 2 0
7.2071667 1.7595847 -1.7127774 7 1
8.6141758 2.0983188 -1.723387 6 2
13.82269 3.3619452 1.244584 1 10
10.547663 2.5634456 -1.719215 8 3
13.519175 3.2806284 1.7081208 3 11
13.146041 3.1852169 -1.6608355 12 4
23.102922 5.5721121 -1.2454911 10 6
6.2025838 1.4730891 -1.7082058 2 0
7.226562 1.7122834 -1.714577 7 1
13.751042 3.2531445 0.74055386 2 9
8.6725597 2.0485094 -1.732164 7 2
13.798716 3.2567949 1.2404004 1 10
10.62875 2.5046983 -1.7295396 9 3
13.454793 3.1657073 1.6971526 1 11
13.194471 3.1020279 -1.664248 11 4
23.580788 5.5134654 -1.2691472 10 6
6.2014203 1.4271544 -1.7050999 10 0
7.226944 1.6591744 -1.7118775 7 1
8.6904774 1.9887897 -1.7329274 7 2
13.770617 3.1488352 1.2358683 1 10
10.642126 2.4295554 -1.728914 9 3
13.32173 3.0364068 1.6776536 0 11
13.310646 3.0314369 -1.6761911 9 4
13.965955 3.1704268 -1.2529509 22 5
24.016081 5.4386959 -1.2905002 21 6
6.2244325 1.3867632 -1.7087234 9 0
7.2307415 1.6069893 -1.7100779 7 1
8.7098999 1.9293482 -1.7340722 6 2
13.733905 3.0397046 1.2306391 1 10
10.691617 2.3624506 -1.7342327 8 3
13.268941 2.9270799 1.6683915 1 11
13.428414 2.9598012 -1.6883781 9 4
13.835961 3.0395038 -1.2393546 22 5
22.039015 4.8375306 4.3859358 2 13
24.236855 5.3110867 -1.3003392 10 6
6.2358503 1.3436816 -1.709241 10 0
7.2379742 1.5556511 -1.7091781 7 1
8.7154799 1.8668457 -1.7325459 6 2
13.746997 2.9420886 1.2299418 1 10
10.713647 2.2889848 -1.7351713 9 3
13.506994 2.8783934 -1.6956902 9 4
13.954288 2.9635384 -1.2480702 22 5
24.910315 5.2766924 -1.3344623 10 6
6.2488618 1.300905 -1.7102764 2 0
7.2562895 1.5066707 -1.7109778 7 1
8.7552156 1.8115238 -1.7378885 4 2
13.704766 2.8331311 1.2243638 1 10
10.758384 2.2201219 -1.7398643 8 3
13.610367 2.8012342 -1.706171 11 4
25.243975 5.1634812 -1.3503726 11 6
6.2805195 1.2618144 -1.716488 2 0
7.2666311 1.4559755 -1.7109778 7 1
8.7676487 1.750361 -1.7378885 4 2
13.661687 2.7249136 1.2187859 3 10
10.78912 2.148051 -1.7423673 8 3
13.748363 2.7297363 -1.7210391 9 4
25.447924 5.0203643 -1.3593743 11 6
6.2910719 1.2183046 -1.7170056 2 0
7.2574859 1.401511 -1.7064787 7 1
28.960451 5.5821538 1.5456903 8 9
8.7892933 1.6909628 -1.7397964 4 2
10.817432 2.0752819 -1.7445574 7 3
13.886018 2.6564407 -1.7359071 10 4
26.000355 4.9410214 -1.3870076 11 6
6.3051214 1.1754171 -1.7185585 2 0
8.7429714 1.6188377 -1.728348 4 2
10.827773 1.998994 -1.7439317 7 3
13.966701 2.5709264 -1.7437067 10 4
6.2922568 1.1276219 -1.7128645 2 0
7.2648354 1.2979902 -1.7037793 24 1
8.7656574 1.5598247 -1.7306377 4 2
10.915376 1.9364603 -1.7558208 9 3
14.04686 2.4844213 -1.7515063 10 4
6.2847443 1.0810461 -1.7087234 2 0
7.3217382 1.2554742 -1.7150269 6 1
8.7724628 1.4979297 -1.7298744 4 2
10.959785 1.8655181 -1.7608266 9 3
14.12649 2.3969283 -1.759306 7 4
22.31665 3.7585502 -1.1860375 51 6
6.2845135 1.0358902 -1.7066529 2 0
7.3168626 1.2021201 -1.7118775 6 1
8.7633314 1.4334806 -1.7260582 4 2
10.995937 1.7927732 -1.764581 9 3
14.229092 2.3122582 -1.7700305 7 4
28.383905 4.5768619 -1.5067523 11 6
33.733849 5.4093347 9.1544304 9 15
6.3259406 0.9974066 -1.7159703 1 0
7.3212276 1.150401 -1.7109778 6 1
8.7886429 1.3746974 -1.7291112 4 2
11.023799 1.7184026 -1.7670839 7 3
14.305696 2.2223103 -1.7775863 9 4
29.141584 4.49053 -1.5452715 11 6
6.3594952 0.95724159 -1.7232174 2 0
7.3194442 1.097816 -1.7087282 5 1
8.7883158 1.3118584 -1.727203 4 2
11.02185 1.6393658 -1.7648939 5 3
14.434753 2.1392627 -1.7917233 9 4
29.705755 4.3653784 -1.5735331 24 6
6.3277764 0.90733957 -1.7128645 1 0
7.3462219 1.0494457 -1.7132272 5 1
8.7717743 1.2484074 -1.722242 19 2
11.022974 1.5629126 -1.7633295 6 3
14.5201 2.0484197 -1.8004979 9 4
30.332129 4.2467089 -1.6051439 11 6
6.3338065 0.86424667 -1.7128645 2 0
7.3338847 0.99679613 -1.7087282 5 1
33.671394 4.5645132 1.7807834 16 9
8.7997322 1.1897732 -1.7260582 10 2
33.682503 4.5480614 2.9735794 7 10
11.01404 1.4832883 -1.7602009 6 3
33.68034 4.5238314 4.1725631 2 11
14.636012 1.9632673 -1.8131722 9 4
33.619667 4.4977632 5.3722734 4 12
31.156937 4.1406188 -1.647222 10 6
6.3281903 0.81851733 -1.7097588 2 0
7.334867 0.94482124 -1.7073785 3 1
33.792805 4.346951 1.7855983 5 9
8.8212585 1.1315919 -1.7287296 3 2
33.69762 4.3107958 2.9721851 10 10
11.006247 1.4060256 -1.7573849 5 3
33.653244 4.2872124 4.1654944 13 11
14.783274 1.8780527 -1.8297465 9 4
33.629902 4.2663465 5.3691444 13 12
32.024597 4.0342875 -1.6916029 9 6
33.632065 4.2248626 7.8255973 14 14
33.567062 4.1988463 9.0643616 10 15
6.3297796 0.77495718 -1.7087234 2 0
7.3430629 0.8951118 -1.7078284 4 1
8.8133516 1.0680951 -1.7256767 3 2
11.004025 1.3277385 -1.7555077 4 3
14.913969 1.7915882 -1.8443708 9 4
33.047592 3.928982 -1.7441481 8 6
6.3465505 0.73207939 -1.7118292 2 0
7.3510685 0.84404802 -1.7082783 3 1
8.8282185 1.0089712 -1.727203 3 2
11.006922 1.252136 -1.7545692 4 3
14.997124 1.6954533 -1.8531454 9 4
33.665054 3.7702 -1.7753404 7 6
33.600643 3.733285 9.0586662 12 15
6.3590684 0.68969291 -1.7138997 1 0
7.376018 0.79608232 -1.7127774 3 1
8.8194313 0.94563973 -1.7241502 3 2
11.019322 1.1756817 -1.7551949 20 3
15.067817 1.596989 -1.8604575 9 4
34.723457 3.6434622 -1.8297698 6 6
6.3561535 0.64339262 -1.7118292 1 0
7.3582587 0.74093747 -1.7073785 3 1
8.8336334 0.88482815 -1.7256767 3 2
11.021558 1.0962127 -1.7542564 21 3
14.81389 1.4655685 -1.8277966 5 4
36.159973 3.5327787 -1.9040868 4 6
33.57122 3.2502897 9.0374441 5 15
6.3758764 0.60045165 -1.7159703 2 0
7.4020576 0.69318312 -1.7163765 3 1
8.8944731 0.82668072 -1.736362 3 2
11.06238 1.0223312 -1.759575 4 3
14.764456 1.3566632 -1.8204844 5 4
36.832203 3.3390338 -1.9382099 3 6
6.3760643 0.55559266 -1.7149351 2 0
7.3834181 0.63947582 -1.7109778 3 1
8.8529482 0.7620818 -1.727203 3 2
11.037592 0.94431931 -1.7545692 4 3
14.765656 1.2528834 -1.8195094 4 4
6.3989549 0.51372212 -1.7201115 2 0
7.3798299 0.58858031 -1.7091781 3 1
8.8658819 0.70087689 -1.7287296 3 2
11.063607 0.86878574 -1.7576978 4 3
14.73426 1.1492674 -1.8146347 4 4
6.3599977 0.46593422 -1.7087234 2 0
7.3779283 0.53662455 -1.7078284 2 1
8.8782806 0.641078 -1.7302561 3 2
11.077147 0.7940228 -1.7589493 4 3
14.724103 1.0451028 -1.812441 3 4
6.3668776 0.42288828 -1.7097588 2 0
7.3950214 0.48728889 -1.7109778 3 1
8.8551121 0.5772922 -1.7249134 3 2
11.074535 0.71616054 -1.7576978 3 3
14.671444 0.9410497 -1.8051288 24 4
38.504925 2.4225371 -2.0219476 1 6
6.3773885 0.37888709 -1.7118292 2 0
7.4099154 0.43633738 -1.7136772 3 1
8.8942051 0.51751047 -1.7317824 3 2
11.07532 0.63860077 -1.7570721 3 3
14.737112 0.84199774 -1.812441 3 4
6.3914533 0.33496192 -1.7149351 2 0
7.4030504 0.38409093 -1.7114276 3 1
8.8779945 0.45440534 -1.7279664 3 2
11.099237 0.56226438 -1.7602009 2 3
14.740649 0.73899341 -1.8121973 4 4
6.4052157 0.29085881 -1.7180409 2 0
7.4269662 0.33335975 -1.7163765 3 1
8.9357986 0.39639598 -1.7386516 3 2
11.094913 0.48635501 -1.7589493 2 3
14.731566 0.63546741 -1.8104911 3 4
6.4340725 0.24829908 -1.7252878 3 0
7.4290628 0.28280172 -1.7163765 3 1
8.9187298 0.33327383 -1.7348354 3 2
11.121727 0.40976414 -1.7627038 3 3
14.74547 0.53554517 -1.8117099 2 4
6.4028244 0.20233437 -1.716488 2 0
7.4172215 0.2305029 -1.7132272 3 1
8.9365387 0.27147818 -1.7378885 3 2
11.128265 0.33222774 -1.7633295 3 3
14.732974 0.43212372 -1.8097599 2 4
6.3828368 0.15710944 -1.710794 3 0
7.4205985 0.1787658 -1.7136772 3 1
8.9499922 0.20935394 -1.7401782 3 2
11.122415 0.25434378 -1.762078 3 3
14.751511 0.3296054 -1.8117099 2 4
6.4166145 0.11312392 -1.7195939 2 0
7.4060779 0.12668924 -1.7100779 3 1
8.9198275 0.14635505 -1.7340722 3 2
11.139721 0.17694478 -1.764581 3 3
14.793149 0.22722214 -1.8165846 2 4
6.407589 0.068221904 -1.7170056 3 0
7.4126277 0.075041175 -1.7114276 4 1
8.9598951 0.084449403 -1.7417046 3 2
11.120931 0.098994702 -1.7614522 3 3
14.778494 0.12381496 -1.8146347 2 4
6.4156361 0.02351822 -1.7190762 3 0
7.3973813 0.023243995 -1.7078284 4 1
8.8974419 0.021741971 -1.7294928 3 2
11.152957 0.021414245 -1.7664583 2 3
14.769073 0.020624746 -1.813416 3 4
6.3924623 -0.021198286 -1.7128645 3 0
7.4168506 -0.028478801 -1.7123275 4 1
8.9091568 -0.040428746 -1.7317824 3 2
11.164687 -0.056510042 -1.7683355 2 3
14.798633 -0.082652017 -1.817072 2 4
6.4346571 -0.066262849 -1.7242525 3 0
7.4301114 -0.080404676 -1.7154768 3 1
8.9086571 -0.10262489 -1.7317824 3 2
11.148217 -0.13426192 -1.7658324 2 3
14.815559 -0.18618761 -1.8192657 3 4
6.3992696 -0.11058243 -1.7149351 3 0
7.4001427 -0.13175389 -1.7087282 4 1
8.8998728 -0.16467077 -1.7302561 3 2
11.131208 -0.21178666 -1.7633295 2 3
14.803976 -0.28942037 -1.818047 2 4
6.417654 -0.15572332 -1.7201115 3 0
7.4029388 -0.1835096 -1.709628 5 1
8.9573841 -0.22829974 -1.7417046 3 2
11.165004 -0.29041591 -1.7689612 2 3
14.799609 -0.39271101 -1.8178033 3 4
6.4164104 -0.20052285 -1.7201115 3 0
7.4131637 -0.23555832 -1.7123275 5 1
8.8849316 -0.28853402 -1.7279664 3 2
11.182447 -0.36900613 -1.7720897 2 3
14.820315 -0.4968195 -1.8207282 3 4
33.874088 -1.1473944 5.368206 2 12
6.4032722 -0.24486968 -1.7170056 3 0
7.4113388 -0.2873058 -1.7123275 5 1
8.8944721 -0.35101953 -1.7302561 3 2
11.148018 -0.44580185 -1.7670839 3 3
14.824419 -0.60059327 -1.8217031 3 4
6.3821077 -0.28869361 -1.7118292 3 0
7.4169388 -0.33939561 -1.7141271 5 1
8.8878822 -0.41292334 -1.7294928 3 2
11.148581 -0.52380365 -1.7677096 4 3
14.819864 -0.70407182 -1.8217031 3 4
6.4030871 -0.33445099 -1.7180409 3 0
7.3988209 -0.39034557 -1.7105279 5 1
8.9279137 -0.47726759 -1.7378885 3 2
11.176211 -0.60332566 -1.7727156 3 3
14.838375 -0.8088125 -1.824628 3 4
6.4160237 -0.38005829 -1.722182 3 0
7.4387112 -0.44454667 -1.7204256 4 1
8.955718 -0.54147983 -1.7439942 3 2
11.152011 -0.68013257 -1.7695868 3 3
14.856142 -0.91384584 -1.8275528 3 4
6.4055042 -0.4243302 -1.7201115 3 0
7.4393153 -0.49672708 -1.7213255 2 1
8.9008961 -0.59899908 -1.7340722 3 2
11.158948 -0.75682753 -1.7714641 4 3
14.857323 -1.0180809 -1.8285278 3 4
6.3986135 -0.46763924 -1.7190762 3 0
7.437705 -0.54749608 -1.7217753 3 1
8.9630642 -0.6660707 -1.7470472 3 2
11.177031 -0.83648163 -1.7752185 3 3
14.857967 -1.119784 -1.8295028 3 4
6.4028955 -0.51291531 -1.7211467 3 0
7.4317594 -0.59925073 -1.7213255 3 1
8.9386282 -0.72703636 -1.7432311 3 2
11.178795 -0.9151358 -1.7764701 3 3
14.881441 -1.2260921 -1.8334025 3 4
6.403008 -0.55793852 -1.722182 3 0
7.4157467 -0.65009797 -1.718626 4 1
8.9059563 -0.78700215 -1.7378885 3 2
11.199679 -0.99560428 -1.7808502 2 3
14.896245 -1.332075 -1.8363274 3 4
6.4143438 -0.60407501 -1.7263231 3 0
7.4129672 -0.7020371 -1.7190759 3 1
8.8807001 -0.84729308 -1.7340722 3 2
11.216052 -1.0760317 -1.7846047 2 3
14.890533 -1.4364183 -1.8368149 3 4
6.3945937 -0.64728403 -1.722182 3 0
7.4214568 -0.75515276 -1.7222252 5 1
8.905817 -0.91247255 -1.7401782 3 2
11.204336 -1.1539029 -1.7839788 2 3
14.890017 -1.5413601 -1.8380336 2 4
6.3937607 -0.69232661 -1.7232174 3 0
7.4160042 -0.8069455 -1.7222252 4 1
8.8954954 -0.97264409 -1.7394148 3 2
11.184442 -1.2288467 -1.7821016 2 3
14.934138 -1.6513824 -1.8448583 2 4
6.3889003 -0.73583108 -1.7232174 3 0
7.4122753 -0.85762954 -1.7226752 3 1
8.9703932 -1.0442568 -1.7554429 3 2
11.218755 -1.311946 -1.7889848 2 3
14.96987 -1.7585554 -1.850708 2 4
6.3836074 -0.78041577 -1.7232174 3 0
7.4215813 -0.9112556 -1.7262744 3 1
8.865653 -1.0932776 -1.736362 3 2
11.197803 -1.3868219 -1.7871076 2 3
14.969046 -1.8644933 -1.8521705 2 4
6.3704834 -0.82285923 -1.7211467 3 0
7.3997464 -0.959746 -1.7226752 3 1
8.923995 -1.1637763 -1.749337 3 2
11.223104 -1.4695792 -1.7927393 2 3
14.936327 -1.9637527 -1.849733 2 4
6.3913817 -0.87096506 -1.7283937 3 0
7.3967271 -1.0119103 -1.723575 3 1
8.9156523 -1.2260487 -1.749337 3 2
11.216483 -1.5484351 -1.793365 3 3
14.973376 -2.0750639 -1.8560703 2 4
6.3698473 -0.91337007 -1.7242525 3 0
7.4010553 -1.0651898 -1.7262744 3 1
8.8874454 -1.2854509 -1.7455208 3 2
11.185852 -1.6238648 -1.7902362 2 3
14.968348 -2.1809778 -1.857289 3 4
6.3671365 -0.9583925 -1.7252878 3 0
7.3876586 -1.1159594 -1.7249247 4 1
8.8666086 -1.3456976 -1.7432311 3 2
11.217205 -1.70846 -1.7971194 2 3
14.96453 -2.2872219 -1.8587514 3 4
6.3604655 -1.0017098 -1.7252878 3 0
7.3914404 -1.1680444 -1.7276241 4 1
8.9076567 -1.4140216 -1.7531532 3 2
11.209218 -1.7853944 -1.7977451 2 3
14.972138 -2.3927879 -1.8616763 3 4
6.3475986 -1.0451478 -1.7237349 2 0
7.3638792 -1.2164416 -1.7231251 4 1
8.9827862 -1.4903122 -1.7699443 3 2
11.208172 -1.8655512 -1.7996223 2 3
14.970733 -2.4998696 -1.8636261 3 4
6.3591871 -1.0927082 -1.7289113 2 0
7.3763313 -1.2714621 -1.728074 3 1
8.9412107 -1.5476295 -1.7638384 3 2
11.237692 -1.9511873 -1.8065054 2 3
15.011586 -2.6145418 -1.8709384 3 4
111.25151 -19.576603 -1.971738 151 7
6.3152728 -1.1306081 -1.7190762 2 0
7.3653574 -1.3225828 -1.7276241 3 1
8.9150133 -1.6056703 -1.7607856 3 2
11.208599 -2.0248246 -1.8040025 3 3
14.985153 -2.7178607 -1.8699634 3 4
6.3283224 -1.1774555 -1.7247702 2 0
7.3791728 -1.3769759 -1.7330229 2 1
8.9228821 -1.6714838 -1.7646016 3 2
11.225252 -2.108861 -1.8090084 3 3
14.966307 -2.8197978 -1.8699634 7 4
6.3313284 -1.2238061 -1.7278759 2 0
7.3636403 -1.4273458 -1.7316732 3 1
8.9379749 -1.7389854 -1.7699443 3 2
11.229645 -2.190959 -1.812137 3 3
15.028079 -2.9402211 -1.8802004 3 4
6.3131599 -1.2660779 -1.7252878 2 0
7.3515859 -1.4783344 -1.7312233 3 1
8.8909769 -1.7943504 -1.7630752 3 2
11.229565 -2.2724371 -1.81464 3 3
34.149658 -6.9230027 4.2783456 1 11
15.077223 -3.0592749 -1.888975 3 4
6.3211904 -1.3136586 -1.7299466 2 0
7.3563485 -1.5328017 -1.7348225 2 1
8.8590174 -1.8523588 -1.759259 3 2
11.209559 -2.3499675 -1.8140143 7 3
15.090466 -3.1718085 -1.8933623 3 4
6.3326402 -1.3622254 -1.7356406 3 0
7.3645177 -1.5882293 -1.7393216 3 1
8.8842459 -1.9224651 -1.7668914 3 2
11.208325 -2.4315176 -1.8165172 7 3
15.114508 -3.2872062 -1.899212 3 4
6.3305187 -1.4080797 -1.7377111 3 0
7.3475437 -1.6383317 -1.7379718 3 1
8.8632908 -1.9811801 -1.765365 3 2
11.170311 -2.5030022 -1.8130757 5 3
15.116368 -3.3983049 -1.9023806 2 4
6.3057251 -1.447679 -1.7335701 3 0
7.3248272 -1.6856842 -1.7352724 3 1
8.8721981 -2.0483084 -1.7699443 3 2
11.156414 -2.5818148 -1.8137014 13 3
15.160567 -3.516819 -1.9109114 2 4
6.2973442 -1.4921111 -1.7340877 2 0
7.3147769 -1.7372301 -1.7357224 3 1
8.8427715 -2.1050143 -1.7668914 3 2
11.178932 -2.6673212 -1.8202716 4 3
15.220591 -3.642904 -1.921636 1 4
6.3114395 -1.5408973 -1.740817 3 0
7.3084612 -1.7883691 -1.7370721 3 1
8.8240471 -2.1657608 -1.7661282 3 2
11.19073 -2.7528491 -1.8252774 4 3
15.206353 -3.7519276 -1.9230984 1 4
6.2777705 -1.5803618 -1.7346053 3 0
7.3105927 -1.8444349 -1.7406713 3 1
8.8163261 -2.2292364 -1.7676547 3 2
11.209039 -2.8425684 -1.8315349 3 3
15.218266 -3.8677747 -1.9279732 1 4
75.286118 -19.274174 -1.3565058 16 7
6.2740655 -1.626089 -1.7366759 3 0
7.3031969 -1.8968968 -1.742021 3 1
8.8096466 -2.2947412 -1.7695627 4 2
11.208035 -2.9257421 -1.8346636 3 3
15.233144 -3.9849761 -1.9333354 1 4
6.2662935 -1.6708456 -1.7377111 3 0
7.2709498 -1.9428054 -1.737522 4 1
8.8052025 -2.3576996 -1.7718524 4 2
11.191677 -3.0029881 -1.8352894 3 3
15.250959 -4.1036043 -1.9391851 1 4
6.2771339 -1.7195848 -1.7439228 3 0
7.2725906 -1.9963788 -1.7411212 5 1
8.7790632 -2.4165084 -1.7699443 12 2
11.212334 -3.0926027 -1.8421725 3 3
15.260941 -4.217895 -1.94406 1 4
6.242661 -1.7570843 -1.7377111 3 0
7.254725 -2.0460441 -1.7402214 5 1
8.8001966 -2.486887 -1.7775766 4 2
11.191024 -3.1688502 -1.8421725 2 3
15.307508 -4.3460193 -1.9538096 1 4
6.2379799 -1.8016796 -1.7397816 4 0
7.276196 -2.1056702 -1.7487694 6 1
8.7958202 -2.552093 -1.780248 4 2
11.20277 -3.2568259 -1.8478041 2 3
15.300442 -4.4567747 -1.9567344 3 4
6.206728 -1.839695 -1.7346053 4 0
7.2538462 -2.1541967 -1.7469698 6 1
8.8003674 -2.6201589 -1.7848274 4 2
11.194904 -3.3394732 -1.8503071 2 3
15.345034 -4.5862203 -1.966484 3 4
46.983215 -14.104578 -2.570847 0 6
6.1974306 -1.8841048 -1.7356406 4 0
7.2386303 -2.2047856 -1.7469698 6 1
8.7856169 -2.6826794 -1.7855908 4 2
11.175097 -3.4187028 -1.8509328 2 3
15.407537 -4.722321 -1.9786707 3 4
6.2210126 -1.9388208 -1.7459934 4 0
7.223062 -2.2552664 -1.7469698 7 1
8.7990065 -2.7523825 -1.7920781 3 2
11.181726 -3.5041401 -1.8559387 1 3
15.438586 -4.8499985 -1.9869579 3 4
45.199471 -14.251339 -2.4837601 0 6
6.2113528 -1.9822953 -1.7470287 3 0
7.1852698 -2.2972581 -1.7415711 15 1
8.8020124 -2.8209341 -1.7966576 3 2
11.190845 -3.5929873 -1.8615704 2 3
15.495924 -4.9841485 -1.9986575 3 4
43.814087 -14.151565 -2.4130018 0 6
6.1789999 -2.0196085 -1.7418523 4 0
7.1857247 -2.3528218 -1.7456201 23 1
8.7900696 -2.883229 -1.7981842 3 2
11.139856 -3.6604443 -1.8571903 2 3
15.528626 -5.1145639 -2.007432 3 4
6.1684136 -2.0639222 -1.7428875 4 0
7.2337937 -2.4246058 -1.7613667 7 1
8.7580462 -2.9423039 -1.7958944 3 2
11.158311 -3.7551868 -1.8646991 2 3
15.554617 -5.2437749 -2.0154753 2 4
43.60466 -14.759363 -2.4125831 0 6
6.1721315 -2.113193 -1.7480639 4 0
7.2056308 -2.4712548 -1.7586673 6 1
8.7595701 -3.0110326 -1.8004738 3 2
11.165442 -3.8445699 -1.8703307 2 3
15.626474 -5.38978 -2.0296123 2 4
44.074299 -15.262094 -2.4444034 0 6
6.1462884 -2.1523995 -1.744958 4 0
7.179009 -2.5182738 -1.7564179 4 1
8.7568569 -3.0786233 -1.8042899 3 2
11.156962 -3.9289868 -1.8734595 1 3
15.732613 -5.5495882 -2.0483801 1 4
6.1493001 -2.2017679 -1.7501343 4 0
7.1997738 -2.5821462 -1.7658658 3 1
8.7541761 -3.1447954 -1.8081062 3 2
11.133678 -4.0061755 -1.8740851 1 3
15.77565 -5.6889157 -2.0591044 2 4
43.596748 -15.773195 -2.4297493 0 6
6.099699 -2.2309659 -1.7402993 10 0
7.163733 -2.6243896 -1.7613667 3 1
11.127687 -4.0919862 -1.8778396 2 3
15.879994 -5.8489947 -2.0778725 2 4
6.1147394 -2.284991 -1.7490991 9 0
7.1580124 -2.6791196 -1.7645161 4 1
8.8013239 -3.3011894 -1.8271869 3 2
11.135832 -4.183466 -1.884097 3 3
15.970687 -6.0093498 -2.0951779 3 4
6.1184916 -2.335201 -1.7547932 6 0
7.1282125 -2.7248511 -1.7618166 4 1
8.7780628 -3.3625531 -1.8271869 3 2
11.117421 -4.2653518 -1.8859742 3 3
16.035818 -6.1619978 -2.1093147 3 4
6.1110401 -2.381366 -1.7573814 4 0
7.1090164 -2.7745488 -1.7618166 4 1
8.7543745 -3.4237535 -1.8271869 3 2
34.358414 -13.444165 3.2279 1 10
11.138873 -4.3630338 -1.8947345 3 3
16.099594 -6.3158455 -2.1234517 15 4
6.0978556 -2.4253986 -1.7584167 4 0
7.114819 -2.8342073 -1.7681153 4 1
8.6937923 -3.4702303 -1.8195547 3 2
11.163169 -4.4626889 -1.9041206 2 3
16.241238 -6.5026083 -2.1480694 2 4
6.0771952 -2.4664576 -1.7573814 5 0
7.1183276 -2.893348 -1.7739639 3 1
8.6626968 -3.5263655 -1.8180283 3 2
11.176435 -4.556468 -1.9116293 2 3
16.406776 -6.7021632 -2.1760993 3 4
6.0638356 -2.5092435 -1.7584167 4 0
7.0948682 -2.9402416 -1.7730643 3 1
8.6741304 -3.6018138 -1.8256606 3 2
11.133409 -4.6298318 -1.9097521 2 3
16.560522 -6.8968711 -2.2026668 2 4
6.0568495 -2.5560224 -1.7615224 4 0
7.1118641 -3.0056319 -1.7825122 1 1
8.6451578 -3.6607513 -1.8248973 3 2
11.155374 -4.7305803 -1.9191382 2 3
16.866438 -7.1628532 -2.2499521 5 4
6.0459561 -2.6012981 -1.763593 4 0
7.0907073 -3.0552082 -1.7825122 3 1
8.6302042 -3.7256849 -1.8271869 3 2
11.143835 -4.81775 -1.9228927 2 3
16.930788 -7.3301153 -2.2653077 4 4
6.0311866 -2.6449952 -1.7646283 4 0
7.0906167 -3.1140392 -1.7879109 1 1
8.615428 -3.7890842 -1.8294767 3 2
11.132478 -4.9030461 -1.9266472 2 3
16.96456 -7.4857993 -2.2767632 5 4
6.00246 -2.6812592 -1.7615224 4 0
7.0692558 -3.162231 -1.7879109 1 1
8.6174316 -3.8619852 -1.8355827 3 2
11.170065 -5.0129981 -1.9391619 2 3
17.038622 -7.6610341 -2.2938249 5 4
6.0077348 -2.7353499 -1.7687694 4 0
7.0464468 -3.2127361 -1.7879109 1 1
8.5616846 -3.9090049 -1.8294767 3 2
11.212947 -5.1289539 -1.9529281 2 3
17.078571 -7.8227854 -2.3064992 5 4
57.629528 -26.482254 -3.3238568 11 6
5.9779763 -2.7723482 -1.7656636 4 0
7.0273805 -3.2634926 -1.7888107 2 1
8.5655346 -3.9850774 -1.8363459 3 2
11.219842 -5.2271304 -1.9604369 3 3
17.127882 -7.9905019 -2.3206363 5 4
5.9829326 -2.8255644 -1.7729106 4 0
7.0114732 -3.3158054 -1.7906104 1 1
8.5595026 -4.0533714 -1.8409253 3 2
11.255396 -5.3372345 -1.9729517 3 3
17.136229 -8.1405449 -2.3294108 5 4
5.9705253 -2.8695707 -1.774981 3 0
7.0133243 -3.3752849 -1.796909 2 1
8.5575228 -4.1258183 -1.8466495 4 2
11.274787 -5.4431639 -1.9829636 2 3
17.194805 -8.3122931 -2.34501 5 4
5.9538174 -2.9128807 -1.7760164 3 0
6.9720898 -3.4155912 -1.79241 2 1
8.5637598 -4.2027588 -1.8542819 4 2
11.289699 -5.5478797 -1.9923496 3 3
17.228973 -8.477706 -2.3576844 5 4
5.9575472 -2.9664295 -1.7832633 3 0
6.9410987 -3.4607041 -1.7906104 3 1
8.5377235 -4.2641964 -1.8550451 4 2
11.310761 -5.6566019 -2.0029871 3 3
17.25812 -8.6422215 -2.3698714 5 4
5.9194598 -2.999217 -1.7780869 3 0
6.9358859 -3.5187757 -1.7955593 3 1
8.580266 -4.3586679 -1.8706915 4 2
11.335382 -5.7657008 -2.0142503 3 3
17.27165 -8.8003454 -2.3801084 5 4
5.9229503 -3.0518279 -1.7853339 3 0
6.9048462 -3.5623307 -1.7937597 3 1
8.5618362 -4.4247718 -1.8733629 4 2
11.358012 -5.877378 -2.0255136 4 3
17.274801 -8.9505816 -2.3888831 5 4
5.9015002 -3.0931032 -1.7853339 3 0
6.8815341 -3.6113541 -1.7942096 4 1
8.5332575 -4.483861 -1.8737445 4 2
11.396412 -5.9959426 -2.039593 14 3
17.243504 -9.0876217 -2.3932703 5 4
33.639084 -17.773411 -1.9938955 2 6
5.8593054 -3.123323 -1.7791222 3 0
6.8733468 -3.6684837 -1.7987086 4 1
8.5667448 -4.5799818 -1.8882459 4 2
11.367147 -6.0847969 -2.0420959 8 3
17.246126 -9.2434168 -2.4025323 5 4
33.391415 -17.949366 -1.9867778 2 6
5.850945 -3.1715169 -1.7832633 3 0
6.8372922 -3.7108016 -1.7960092 4 1
8.5526218 -4.6475606 -1.8920621 4 2
11.417431 -6.2120657 -2.0586779 4 3
17.205578 -9.3768911 -2.4059448 5 4
33.296509 -18.191557 -1.9884526 2 6
5.8562956 -3.2261839 -1.7915455 3 0
6.8408837 -3.7732558 -1.8036577 3 1
8.5216856 -4.7081051 -1.8924437 4 2
11.446382 -6.3317814 -2.0718184 4 3
17.18137 -9.5198689 -2.4117944 5 4
57.273922 -31.812824 -3.433553 17 6
5.8128347 -3.2566769 -1.7853339 3 0
6.8239055 -3.8278313 -1.806357 3 1
8.4834747 -4.7645988 -1.8912989 3 2
11.48342 -6.4600163 -2.0868361 3 3
17.187134 -9.6805 -2.4220314 5 4
5.8101025 -3.3086503 -1.7915455 3 0
6.8088665 -3.882134 -1.8095063 3 1
8.481555 -4.8436809 -1.8985497 4 2
11.532358 -6.5939565 -2.1040437 4 3
17.181152 -9.8357573 -2.4308062 5 4
5.790206 -3.3510666 -1.7925807 3 0
6.7934017 -3.9364128 -1.8126557 3 1
8.4840498 -4.9219894 -1.9065636 3 2
11.622149 -6.7506814 -2.1287606 7 3
17.228745 -10.023343 -2.4473803 6 4
5.7639318 -3.3884432 -1.7915455 4 0
6.7899618 -3.9964011 -1.8189542 7 1
8.4630117 -4.9890747 -1.9096165 3 2
11.622371 -6.8597679 -2.1375208 6 3
17.1943 -10.160582 -2.4522552 6 4
5.7434525 -3.4305813 -1.7925807 3 0
6.7719316 -4.0497074 -1.8216537 7 1
8.4524374 -5.0606837 -1.9149592 3 2
11.64657 -6.9813757 -2.1506615 7 3
17.13656 -10.288546 -2.454205 6 4
5.733182 -3.4776115 -1.7967219 4 0
6.7641973 -4.1078467 -1.8270525 7 1
8.4705772 -5.1522164 -1.927171 3 2
11.634665 -7.0851169 -2.1575444 6 3
17.100033 -10.425619 -2.45908 6 4
5.7054749 -3.5155246 -1.7956866 4 0
6.745306 -4.161108 -1.829752 8 1
8.4644651 -5.2298017 -1.9340401 3 2
11.636996 -7.1983829 -2.1672435 5 3
17.077461 -10.5761 -2.466392 6 4
5.6840682 -3.5573201 -1.7967219 3 0
6.735908 -4.2205138 -1.8351506 8 1
8.4510288 -5.3033762 -1.9393828 3 2
11.628275 -7.3057203 -2.175065 6 3
17.016655 -10.70352 -2.4683421 6 4
5.6590953 -3.596915 -1.7967219 3 0
6.7128558 -4.2716208 -1.8369503 7 1
8.4568453 -5.3896799 -1.9493048 3 2
11.606963 -7.4058485 -2.1806967 7 3
16.988358 -10.851978 -2.4751666 6 4
5.6305995 -3.6342402 -1.7956866 3 0
6.6959648 -4.3268423 -1.8405495 7 1
8.4552727 -5.4720545 -1.9577004 3 2
11.608029 -7.5210714 -2.1907084 7 3
16.952152 -10.996241 -2.4810164 6 4
5.6244802 -3.686167 -1.8018982 4 0
6.6851463 -4.3863115 -1.8459483 7 1
8.4168644 -5.5309491 -1.9577004 3 2
11.584945 -7.621469 -2.1963401 7 3
16.906471 -11.135066 -2.4856474 4 4
5.598609 -3.7253435 -1.8018982 4 0
6.664093 -4.4393578 -1.8486477 7 1
8.4286737 -5.6233525 -1.9695306 4 2
11.593876 -7.7438526 -2.2082293 6 3
16.872875 -11.282615 -2.4922283 6 4
5.5852714 -3.7729893 -1.8060393 4 0
6.6523094 -4.4988742 -1.8540466 7 1
8.442852 -5.7183905 -1.982124 4 2
11.555881 -7.8356905 -2.2113578 6 3
16.869247 -11.451421 -2.5034404 6 4
27.727095 -18.871624 -1.7577556 7 6
5.5460496 -3.803149 -1.8018982 3 0
6.6464448 -4.5628524 -1.8612449 7 1
8.4189034 -5.7883153 -1.9859402 12 2
11.53344 -7.9385738 -2.2176151 6 3
16.818314 -11.589186 -2.5078275 6 4
27.719553 -19.151014 -1.7657107 7 6
5.5653453 -3.8737807 -1.8169098 2 0
6.6208239 -4.6135983 -1.8630446 7 1
8.395998 -5.8593073 -1.9901379 22 2
11.523077 -8.0505762 -2.2263756 7 3
16.733744 -11.70404 -2.5073402 6 4
27.666941 -19.4014 -1.7709442 7 6
5.5350099 -3.9103098 -1.8158745 2 0
6.601182 -4.6687102 -1.8666438 6 1
8.409359 -5.9563608 -2.0031128 4 2
11.518158 -8.1673889 -2.2363873 7 3
16.679146 -11.840113 -2.5114837 4 4
5.5122867 -3.9522331 -1.8174274 2 0
6.5700107 -4.7158165 -1.8670937 4 1
8.3994532 -6.0378418 -2.0107453 4 2
11.489719 -8.2683687 -2.2420189 7 3
16.620237 -11.97367 -2.5151396 6 4
27.555267 -19.902744 -1.7814115 7 6
5.4814358 -3.9883461 -1.8163921 3 0
6.5794573 -4.7925477 -1.879241 7 1
8.3951626 -6.1241026 -2.0199041 4 2
11.479575 -8.3833323 -2.2514052 6 3
16.555473 -12.103467 -2.5180645 6 4
30.344242 -22.241173 -1.9717051 2 6
5.4658923 -4.035696 -1.8205333 3 0
6.5646448 -4.8522639 -1.8846399 6 1
8.3753777 -6.1974535 -2.0252469 4 2
11.441293 -8.4753847 -2.2551594 7 3
16.476948 -12.223481 -2.5190394 6 4
29.890818 -22.223173 -1.9520266 3 6
5.456851 -4.0867043 -1.8267449 4 0
6.5314641 -4.8968353 -1.8846399 6 1
8.386857 -6.29703 -2.0386035 4 2
11.419743 -8.583539 -2.2626684 7 3
16.315641 -12.276867 -2.5070963 10 4
29.412863 -22.188337 -1.9308829 3 6
5.4343405 -4.129375 -1.8288155 4 0
6.5048747 -4.9482126 -1.8868895 4 1
8.421896 -6.4134436 -2.0576842 3 2
11.392471 -8.6850233 -2.2689257 7 3
15.996017 -12.212194 -2.4710231 15 4
28.978806 -22.172001 -1.9122514 4 6
5.4183483 -4.1757035 -1.8329566 4 0
6.4895577 -5.0066595 -1.8922883 3 1
8.732688 -6.7469535 -2.1450748 9 2
11.353436 -8.7812634 -2.2733059 6 3
15.764981 -12.206553 -2.4481115 15 4
28.476213 -22.10434 -1.8892236 4 6
5.3738451 -4.20153 -1.8277801 5 0
6.5066228 -5.0926809 -1.9075849 2 1
8.6494722 -6.7771778 -2.135916 10 2
11.315162 -8.8754091 -2.2776861 6 3
15.513906 -12.186333 -2.4222753 16 4
28.048891 -22.080229 -1.8708013 5 6
5.3723707 -4.2596149 -1.8370978 5 0
6.4718075 -5.1368513 -1.9075849 2 1
8.5927258 -6.8300667 -2.1336262 10 2
11.262198 -8.9615669 -2.2795632 6 3
15.28252 -12.178056 -2.399364 16 4
27.619377 -22.056152 -1.852379 5 6
5.3537927 -4.3076377 -1.8412387 5 0
6.4470243 -5.1928105 -1.9111842 3 1
8.5448351 -6.8898883 -2.1336262 9 2
11.207005 -9.0493736 -2.2814405 6 3
15.045836 -12.162154 -2.3754773 17 4
26.970495 -21.855871 -1.8193027 6 6
5.3250861 -4.3461304 -1.8417563 6 0
6.4226875 -5.2475557 -1.9147834 3 1
8.4892359 -6.9458852 -2.1320999 10 2
11.177175 -9.1549292 -2.2883236 6 3
26.948524 -22.088549 4.2783456 1 11
14.81013 -12.143548 -2.3515911 17 4
26.752455 -21.990358 -1.8149065 19 6
5.2990794 -4.3868957 -1.8433093 4 0
6.4144044 -5.3158917 -1.9233315 3 1
26.686998 -22.132378 1.8169999 14 9
8.4284525 -6.9949508 -2.1290469 10 2
26.733006 -22.194168 3.039818 8 10
11.131223 -9.2478848 -2.292078 6 3
26.778399 -22.263453 4.275908 9 11
14.587629 -12.132403 -2.3296547 17 4
5.2905159 -4.4424176 -1.8510739 2 0
6.4024968 -5.3818607 -1.9309798 5 1
8.3944311 -7.0662642 -2.132863 9 2
11.081496 -9.3380985 -2.2952068 6 3
14.372086 -12.12387 -2.3086929 19 4
5.2696691 -4.4880118 -1.8546973 3 0
6.3751483 -5.4352775 -1.9341292 6 1
8.3819799 -7.1538281 -2.1420219 9 2
11.005663 -9.4030457 -2.2927039 6 3
14.223745 -12.169709 -2.298456 8 4
5.2331491 -4.5187268 -1.8526268 4 0
6.3556962 -5.4938374 -1.9395281 7 1
8.3288631 -7.2096 -2.1412585 10 2
10.948707 -9.4874115 -2.2945809 6 3
14.197562 -12.315674 -2.307718 15 4
5.2334485 -4.5831509 -1.8640147 3 0
6.3377023 -5.5560594 -1.9458266 7 1
8.2884502 -7.2738953 -2.1435483 9 2
10.904651 -9.5799694 -2.2989612 6 3
13.962194 -12.283368 -2.283344 16 4
5.1905737 -4.6084065 -1.8598738 1 0
6.3230429 -5.6197824 -1.953025 7 1
8.2697315 -7.3602972 -2.1519439 9 2
10.878801 -9.6926594 -2.3077216 6 3
13.759747 -12.272417 -2.263845 16 4
5.1755023 -4.6600432 -1.8660854 3 0
6.3039198 -5.682054 -1.9593236 15 1
8.2239752 -7.4231133 -2.1534703 10 2
10.846046 -9.8001547 -2.3152304 4 3
13.517682 -12.227024 -2.2380087 23 4
5.1571093 -4.7090874 -1.8712618 3 0
6.2482772 -5.7114635 -1.9543748 25 1
8.1864338 -7.4936013 -2.1572866 10 2
10.778821 -9.8769693 -2.3155432 5 3
13.361774 -12.256687 -2.2263095 22 4
5.1467876 -4.7659779 -1.879544 4 0
6.235405 -5.7801156 -1.9629229 13 1
8.1582613 -7.570518 -2.1633925 7 2
10.767786 -10.002542 -2.3277452 6 3
13.172687 -12.253675 -2.2090039 24 4
5.1198616 -4.8061886 -1.8816146 2 0
6.2285795 -5.8531175 -1.9732707 5 1
8.1080713 -7.6299796 -2.1641557 9 2
10.7322 -10.109979 -2.335254 6 3
12.982102 -12.242272 -2.1909673 22 4
5.1057725 -4.8604627 -1.8888614 2 0
6.2059054 -5.9139352 -1.9791193 7 1
8.0801716 -7.7107949 -2.1710248 10 2
10.691355 -10.21331 -2.3418241 5 3
12.758591 -12.200896 -2.1675684 23 4
5.0772758 -4.9013553 -1.890932 1 0
6.1924939 -5.9842 -1.9881173 6 1
8.0346098 -7.775208 -2.1733146 10 2
10.631143 -10.298697 -2.3443272 5 3
12.550545 -12.170822 -2.1466067 28 4
5.0512171 -4.9447908 -1.8940378 2 0
6.1784029 -6.0545645 -1.9971154 7 1
8.0053558 -7.8558626 -2.1801836 9 2
10.597034 -10.410041 -2.3527746 6 3
12.418563 -12.212212 -2.1385634 20 4
5.0426226 -5.0057926 -1.903873 2 0
6.1470418 -6.1085391 -2.0007145 7 1
7.9753656 -7.9364853 -2.187053 7 2
10.538095 -10.497709 -2.3559034 6 3
12.258507 -12.224321 -2.1256454 13 4
5.0021071 -5.0353928 -1.9018024 2 0
6.1371903 -6.1845026 -2.0115123 6 1
7.9363484 -8.0087051 -2.1916323 9 2
10.489567 -10.596292 -2.3615351 9 3
12.051432 -12.186805 -2.10444 13 4
4.9817023 -5.0853715 -1.9074965 4 0
6.0965915 -6.2299829 -2.0124121 6 1
7.882988 -8.0667229 -2.1923954 7 2
10.429134 -10.683399 -2.3646638 6 3
11.875973 -12.178263 -2.0885971 11 4
4.9433947 -5.1172466 -1.9064611 4 0
6.0935464 -6.3144617 -2.0259092 7 1
7.8496971 -8.142808 -2.1985013 9 2
10.360285 -10.758409 -2.3656023 8 3
11.728745 -12.196486 -2.0776286 15 4
4.9484301 -5.1927323 -1.9219903 3 0
6.2667513 -6.5830374 -2.0983434 13 1
7.8413553 -8.2486362 -2.2122397 7 2
10.321651 -10.86915 -2.3740497 6 3
11.823061 -12.463263 -2.1093147 13 4
26.518345 -28.02276 -2.0219476 1 6
4.9067659 -5.2215209 -1.9199197 3 0
6.2539845 -6.6621466 -2.109591 14 1
7.8253155 -8.3447809 -2.2236881 9 2
10.293345 -10.98817 -2.3846872 7 3
11.418434 -12.206274 -2.0522799 17 4
4.8964553 -5.2839894 -1.9302725 3 0
6.1914358 -6.6884832 -2.104192 15 1
7.7654014 -8.4005632 -2.2236881 9 2
10.233213 -11.081863 -2.3890674 9 3
11.192961 -12.133944 -2.026931 20 4
26.476128 -28.772408 -2.0491624 1 6
4.8490219 -5.3066349 -1.9261314 4 0
6.1367078 -6.7229085 -2.1014926 14 1
7.7027502 -8.447423 -2.2221618 10 2
10.144244 -11.136657 -2.3859386 6 3
11.051878 -12.150114 -2.0166941 21 4
19.335564 -21.301733 -1.5076944 23 6
4.8231359 -5.3509974 -1.9302725 5 0
6.0881968 -6.7616286 -2.1005929 14 1
7.6593418 -8.5185118 -2.2267411 9 2
10.079448 -11.221902 -2.3890674 7 3
10.963615 -12.219149 -2.0157192 13 4
19.077154 -21.314165 -1.4991113 23 6
4.7907948 -5.3903151 -1.9323431 4 0
6.0330811 -6.7952228 -2.0978935 13 1
7.5985746 -8.5675116 -2.2259779 9 2
10.02903 -11.31982 -2.3953247 6 3
10.693892 -12.087247 -1.9815956 35 4
4.7718225 -5.4431367 -1.93959 4 0
5.9918242 -6.8419948 -2.0996931 14 1
7.5566702 -8.6410398 -2.2313204 10 2
9.7769108 -11.191702 -2.3537133 14 3
9.741456 -11.16684 -1.8195094 9 4
9.7857943 -11.229531 -1.3031527 24 5
18.515259 -21.269361 -1.4778628 23 6
4.7453814 -5.4917612 -1.9447664 5 0
5.9452567 -6.8876472 -2.1005929 13 1
7.5525723 -8.7590065 -2.2481117 7 2
9.8164454 -11.400591 -2.3828101 10 3
9.5985365 -11.159328 -1.8073225 9 4
9.7590961 -11.358021 -1.3101251 24 5
18.275452 -21.299751 -1.4708499 23 6
4.7144432 -5.5335789 -1.9478723 5 0
5.897028 -6.9289842 -2.1005929 14 1
7.5303855 -8.8606977 -2.2603235 10 2
9.7749691 -11.514021 -2.3921962 11 3
9.4484959 -11.141284 -1.7936732 9 4
9.7722921 -11.53533 -1.3226755 25 5
18.01021 -21.289585 -1.4614294 23 6
4.6906075 -5.5841074 -1.9540838 9 0
5.851016 -6.9729691 -2.1014926 14 1
7.4774652 -8.9207773 -2.2626133 10 2
9.3159218 -11.125923 -2.2983353 9 3
9.3220997 -11.149105 -1.7844112 9 4
9.7630482 -11.688905 -1.332437 25 5
15.30197 -18.339943 -1.2517716 10 6
4.6438622 -5.6054926 -1.9504604 20 0
5.8083873 -7.01864 -2.1032922 14 1
7.3999968 -8.9546022 -2.2580338 9 2
9.1650829 -11.102333 -2.280189 10 3
9.1790581 -11.131128 -1.7714928 7 4
9.552784 -11.61321 -0.78807491 8 6
4.6143923 -5.6497459 -1.9546015 18 0
5.7740302 -7.0771379 -2.1086912 13 1
7.3422632 -9.0121326 -2.2595603 9 2
9.0349817 -11.101698 -2.2670486 10 3
9.0397663 -11.119463 -1.7595497 9 4
9.7445593 -12.003512 -1.3526571 26 5
17.283649 -21.313091 -1.4380875 11 6
4.5942221 -5.7058983 -1.9628838 5 0
9.5057507 -11.814322 0.26468319 23 8
5.7244816 -7.1172752 -2.1086912 13 1
7.2816262 -9.0662336 -2.2603235 7 2
8.8905048 -11.081301 -2.2501535 10 3
8.8886738 -11.09091 -1.7451692 7 4
9.7522821 -12.181549 -1.3652076 26 5
9.5122986 -11.911586 -0.2660794 26 7
4.5746932 -5.763556 -1.9716836 4 0
9.4599161 -11.922614 0.26566055 46 8
5.6867619 -7.1723356 -2.1131902 14 1
7.2416878 -9.1432896 -2.2671926 7 2
8.7682962 -11.08269 -2.2382646 9 3
8.7679577 -11.098176 -1.7366383 9 4
9.7163725 -12.311894 -1.37218 27 5
10.095948 -12.806649 -0.85464621 8 6
9.4585962 -12.015415 -0.26691711 39 7
4.5210681 -5.7763052 -1.9654719 4 0
9.4651527 -12.101775 0.26817369 23 8
5.6474133 -7.2231603 -2.1167896 14 1
7.1909685 -9.2106457 -2.2713904 6 2
8.6445494 -11.084442 -2.2263756 9 3
8.6543941 -11.109055 -1.7290823 3 4
9.676671 -12.439187 -1.3788038 27 5
13.878912 -17.860378 -1.1854095 10 6
9.469779 -12.199572 -0.26956987 39 7
4.5136733 -5.8505554 -1.9799658 4 0
9.4195051 -12.218237 0.26929063 47 8
5.6016068 -7.2685838 -2.1185889 12 1
7.1228995 -9.2559547 -2.2702456 7 2
8.4995375 -11.056819 -2.2088549 9 3
9.6743965 -12.598812 -1.9503973 15 4
9.6865807 -12.632927 -1.3927487 28 5
13.72231 -17.915611 -1.1826881 10 6
9.4281254 -12.322559 -0.27082643 26 7
4.4890895 -5.9034524 -1.9872128 4 0
9.4283457 -12.40789 0.27201322 24 8
5.5530834 -7.310617 -2.119489 14 1
34.411301 -45.335209 2.9828358 0 9
7.0889549 -9.3461266 -2.2801676 9 2
8.3791933 -11.059206 -2.1975915 10 3
9.6461048 -12.745185 -1.962584 15 4
9.6844769 -12.80982 -1.4049505 28 5
9.9001417 -13.114104 -0.8611359 8 6
9.4309654 -12.506227 -0.2734094 27 7
4.4616694 -5.953198 -1.9934243 4 0
9.3916283 -12.535794 0.2734094 24 8
5.5135899 -7.3648067 -2.1239879 13 1
33.860188 -45.24538 2.9616921 0 9
7.0322289 -9.403595 -2.2824574 7 2
8.2422476 -11.03369 -2.1813223 9 3
9.6304798 -12.91087 -1.9776958 15 4
9.6543331 -12.957 -1.4136661 28 5
13.101933 -17.603224 -1.1500304 20 6
9.391139 -12.635962 -0.27480558 27 7
4.4279323 -5.9927526 -1.9965302 3 0
9.4226637 -12.761926 0.2768999 24 8
5.4702749 -7.4115725 -2.1266873 13 1
33.408348 -45.297424 2.9497595 0 9
6.9815502 -9.4730053 -2.2874184 5 2
8.122858 -11.033695 -2.1700592 9 3
9.6082344 -13.065681 -1.9913452 15 4
9.6226044 -13.104382 -1.4223818 28 5
12.753097 -17.386662 -1.130038 40 6
4.3950853 -6.0360126 -2.0006714 4 0
9.3921633 -12.908244 0.27864513 25 8
5.4298625 -7.4653406 -2.1311862 13 1
32.919861 -45.293671 2.9344773 1 9
6.9452434 -9.5628157 -2.2973404 6 2
8.0154724 -11.048561 -2.1619246 3 3
9.5983238 -13.244959 -2.0084071 15 4
9.6219864 -13.297139 -1.4359779 29 5
9.3330851 -12.92637 -0.27829608 28 7
4.3641009 -6.0822453 -2.0058477 3 0
5.3844237 -7.5125694 -2.1338856 13 1
32.791248 -45.785442 2.9514341 0 9
6.9137325 -9.6605616 -2.3091705 7 2
8.7020893 -12.172894 -2.3699825 8 3
9.5909891 -13.431188 -2.0264435 15 4
9.6098919 -13.477547 -1.4481798 29 5
9.3654938 -13.163929 -0.28199598 28 7
4.325994 -6.1188731 -2.0079181 4 0
9.3356361 -13.214511 0.28241485 25 8
5.318356 -7.5308757 -2.1284869 15 1
32.480019 -46.026306 2.9522717 0 9
6.8687496 -9.7406816 -2.316803 7 2
8.3472967 -11.850602 -2.2958324 9 3
9.5461073 -13.567631 -2.0369244 18 4
9.572835 -13.625822 -1.4568955 29 5
9.3422346 -13.327235 -0.28409025 29 7
4.3008375 -6.1742878 -2.0162005 4 0
9.316268 -13.384405 0.28464878 25 8
5.2856855 -7.5966139 -2.136585 12 1
6.8565884 -9.8690128 -2.3358839 7 2
7.9861803 -11.507742 -2.218554 8 3
9.3188372 -13.443066 -2.0084071 3 4
9.3151236 -13.472833 -0.85841441 8 6
9.3057852 -13.474403 -0.2858355 29 7
4.2794909 -6.2360196 -2.0265532 4 0
9.3085508 -13.574454 0.28730151 26 8
5.254559 -7.6654763 -2.1455832 12 1
6.7742162 -9.8971987 -2.3313043 10 2
7.8621664 -11.499618 -2.206352 9 3
9.5270271 -13.950403 -2.0742164 15 4
9.5769672 -14.044572 -1.4872255 30 5
4.3710957 -6.4657993 -2.0912578 6 0
5.2140031 -7.7213535 -2.1509819 11 1
32.661884 -48.405003 3.060293 0 9
6.7620292 -10.028896 -2.3511486 7 2
7.4186502 -11.015181 -2.1034181 13 3
7.3950462 -10.992553 -1.6267121 19 4
9.5075693 -14.154092 -1.4917578 31 5
4.3547602 -6.5395732 -2.1052344 9 0
5.1599712 -7.7575655 -2.1509819 12 1
31.679722 -47.663769 2.9993739 0 9
6.7287803 -10.131464 -2.3641236 10 2
7.388526 -11.137486 -2.1168714 9 3
9.4826412 -14.31042 -2.1078525 15 4
9.5184622 -14.38628 -1.5091888 31 5
4.316505 -6.5787549 -2.1083403 9 0
5.1198664 -7.8120675 -2.1563809 11 1
31.175108 -47.604279 2.9822078 0 9
6.6876116 -10.219742 -2.3740456 9 2
7.2639098 -11.113111 -2.1027923 8 3
9.4674892 -14.500961 -2.1263764 15 4
9.4772577 -14.532537 -1.5179044 31 5
4.270472 -6.6087289 -2.1083403 9 0
5.0715442 -7.8574433 -2.1590803 12 1
30.486532 -47.251484 2.9470379 0 9
6.6295967 -10.283176 -2.3782434 10 2
7.2223215 -11.215445 -2.1128042 8 3
9.4454699 -14.690262 -2.1444132 17 4
9.466011 -14.739168 -1.5325466 32 5
4.2212391 -6.631125 -2.1062696 9 0
5.0304904 -7.9115157 -2.164479 12 1
30.177334 -47.49688 2.9491315 0 9
6.5671153 -10.344125 -2.3816779 13 2
7.1195159 -11.227223 -2.1056082 9 3
9.4132395 -14.861544 -2.1600125 16 4
9.435771 -14.914384 -1.5440512 32 5
13.319268 -21.085289 -1.3070383 10 6
4.1707387 -6.6538849 -2.1041989 9 0
4.987546 -7.9662623 -2.169878 14 1
29.673208 -47.413376 2.9313371 0 9
6.4663658 -10.340315 -2.3706112 10 2
7.0345583 -11.262019 -2.1031051 9 3
9.3995981 -15.071753 -2.1809738 15 4
9.4367628 -15.149004 -1.5614822 33 5
13.127956 -21.09915 -1.302328 21 6
4.1212921 -6.6755447 -2.1021285 9 0
4.9352512 -8.0033455 -2.1707778 14 1
6.4146061 -10.418642 -2.3782434 12 2
6.9154067 -11.245232 -2.0909033 8 3
9.3840656 -15.277469 -2.201448 16 4
9.397439 -15.323215 -1.5726382 33 5
12.905224 -21.067661 -1.2947917 21 6
4.0826144 -6.717361 -2.1062696 9 0
4.88937 -8.0542612 -2.1752765 14 1
6.3325558 -10.44806 -2.374809 13 2
6.8285499 -11.279717 -2.0884004 8 3
9.3552427 -15.47171 -2.2199721 15 4
9.3273058 -15.449851 -1.5789135 33 5
12.703168 -21.066593 -1.2892441 32 6
4.0356197 -6.7456989 -2.1062696 9 0
4.8370199 -8.0948915 -2.1770763 14 1
6.2735419 -10.515618 -2.3801515 10 2
6.7203116 -11.277903 -2.0793271 9 3
9.2490349 -15.540057 -2.2204597 17 4
12.490547 -21.044842 -1.2825451 31 6
3.9923482 -6.7803674 -2.1083403 9 0
4.7882934 -8.1419001 -2.1806755 12 1
6.1829276 -10.525914 -2.3729007 10 2
6.6223993 -11.287606 -2.072757 8 3
9.3229265 -15.915989 -2.2648201 6 4
12.287557 -21.027634 -1.2763693 21 6
3.9402902 -6.7973571 -2.1052344 9 0
4.7522907 -8.2080336 -2.1896734 13 1
6.1052408 -10.557558 -2.3706112 10 2
6.5365214 -11.321589 -2.0705669 9 3
9.229248 -16.004875 -2.268476 11 4
9.2418365 -16.046112 -1.6200509 35 5
12.112272 -21.055386 -1.2730199 21 6
3.8939314 -6.8240199 -2.1052344 9 0
4.7098193 -8.263895 -2.1959722 14 1
6.0342073 -10.600576 -2.3709927 9 2
6.4310255 -11.311457 -2.060868 8 3
9.2689505 -16.322935 -2.3047931 8 4
11.898803 -21.013945 -1.2655882 21 6
3.8580506 -6.8665371 -2.1104105 9 0
4.6644459 -8.3119431 -2.2004712 13 1
5.9599938 -10.637979 -2.3702295 9 2
6.3307304 -11.313596 -2.053359 8 3
6.473011 -11.586838 -1.629637 6 4
11.699327 -21.002281 -1.259936 21 6
3.8125532 -6.900733 -2.1124811 9 0
