# .PCD v0.7 - Point Cloud Data file format
VERSION 0.7
FIELDS x y z intensity ring
SIZE 4 4 4 4 2
TYPE F F F F U
COUNT 1 1 1 1 1
WIDTH 1296
HEIGHT 1
VIEWPOINT 0 0 0 1 0 0 0
POINTS 1296
DATA ascii
5.1616273 -7.0628095 -2.0196106 13 1
6.328095 -8.6716242 -2.0866873 10 2
8.2278585 -11.287349 -2.2122965 14 3
8.2261648 -11.297445 -1.7159206 7 4
8.2719183 -11.376965 -1.2306391 21 5
4.1428957 -5.7463803 -1.8981789 4 0
5.1190271 -7.10816 -2.02231 13 1
6.2788639 -8.7315292 -2.0905035 12 2
8.1050673 -11.283549 -2.2004075 13 3
8.0822859 -11.264278 -1.7022711 7 4
8.1481972 -11.37289 -1.2240152 21 5
4.1093907 -5.7846127 -1.9012847 5 0
5.0715337 -7.1469026 -2.0232098 14 1
6.2279687 -8.7895689 -2.0939381 10 2
8.0272369 -11.341471 -2.2007203 12 3
7.9621964 -11.262075 -1.6934966 7 4
4.0677991 -5.8115778 -1.9007671 10 0
5.0192828 -7.1789393 -2.02231 13 1
6.1833124 -8.8569794 -2.0996623 12 2
7.8732891 -11.290294 -2.1800709 9 3
7.8402624 -11.25549 -1.6842345 7 4
7.920064 -11.382756 -1.213208 21 5
4.0282245 -5.8414245 -1.9012847 22 0
4.9646201 -7.207386 -2.0205104 11 1
6.1707339 -8.9684105 -2.1160717 10 2
8.0670223 -11.73759 -2.2557852 11 3
7.7210579 -11.251027 -1.67546 7 4
7.8404055 -11.437771 -1.213208 21 5
4.0035725 -5.8910775 -1.9085318 36 0
4.911068 -7.2345619 -2.0187106 14 1
6.110177 -9.0145216 -2.1168351 10 2
7.9007149 -11.669306 -2.2320073 9 3
7.5998135 -11.237548 -1.6657103 7 4
7.6488643 -11.327109 -1.1957767 20 5
3.9677212 -5.9269109 -1.9111199 18 0
4.8669415 -7.2783914 -2.02141 14 1
6.0776191 -9.1026764 -2.1275203 10 2
7.5560093 -11.329758 -2.1569188 10 3
7.472753 -11.217639 -1.6549859 7 4
3.9273107 -5.956079 -1.9116375 5 0
4.8138671 -7.3089361 -2.0205104 14 1
6.0096078 -9.1383219 -2.125994 10 2
7.3671918 -11.215477 -2.1253188 8 3
7.3681207 -11.229701 -1.6491361 7 4
7.4089618 -11.304847 -1.1825291 20 5
3.8961549 -5.9995532 -1.9168139 4 0
4.7881761 -7.3816032 -2.0313082 14 1
5.9686174 -9.2119684 -2.1336262 10 2
7.2574091 -11.213953 -2.1156199 9 3
7.2539911 -11.225845 -1.6410927 9 4
7.3039284 -11.31612 -1.1783456 19 5
3.8531454 -6.0226793 -1.9157786 4 0
4.7378206 -7.4140239 -2.0313082 14 1
5.8999367 -9.2467928 -2.1320999 10 2
7.1322322 -11.19105 -2.1018538 9 3
7.1390347 -11.214677 -1.6323181 9 4
7.1862741 -11.306301 -1.1720704 19 5
3.8295407 -6.0788546 -1.9250962 4 0
4.6838703 -7.4436202 -2.0304081 11 1
5.8394156 -9.2944059 -2.1336262 9 2
7.02033 -11.187027 -2.0918419 11 3
7.0278859 -11.212101 -1.6247622 7 4
7.0733428 -11.30215 -1.1664925 19 5
3.7849727 -6.1021581 -1.9240609 4 0
4.6400008 -7.4893913 -2.0340075 12 1
5.7785187 -9.3416243 -2.1351528 10 2
6.917141 -11.195433 -2.0843329 9 3
6.9160786 -11.206834 -1.6169626 7 4
6.9608226 -11.296976 -1.1609144 19 5
3.7483211 -6.1383257 -1.9271667 4 0
4.5916615 -7.5282559 -2.0358069 13 1
5.7070341 -9.3716774 -2.132863 9 2
6.8121238 -11.199571 -2.0761983 9 3
6.8026295 -11.197161 -1.6086755 7 4
6.8425198 -11.280562 -1.1542907 19 5
3.709357 -6.1709671 -1.9292372 4 0
4.5329738 -7.5501032 -2.0331075 13 1
5.6414695 -9.4112911 -2.132863 9 2
6.6891217 -11.172284 -2.0624323 9 3
6.6876144 -11.183046 -1.5999008 7 4
6.7513447 -11.307528 -1.1521989 18 5
3.6858597 -6.2299657 -1.93959 4 0
4.5039487 -7.6218305 -2.0439053 13 1
5.5666509 -9.4352283 -2.1294286 10 2
6.5838852 -11.172759 -2.0539849 8 3
6.5902472 -11.196957 -1.5952698 9 4
6.6318622 -11.285676 -1.1452264 18 5
3.6500533 -6.2689013 -1.9437311 4 0
4.4447508 -7.6429811 -2.0412059 12 1
5.5114889 -9.4925365 -2.1336262 10 2
6.4829321 -11.179148 -2.0467887 9 3
6.4770956 -11.18257 -1.5867389 7 4
6.5209684 -11.271919 -1.1392999 18 5
3.6042788 -6.2908788 -1.9426959 4 0
4.3990278 -7.687355 -2.044805 13 1
5.4428511 -9.5230141 -2.1320999 10 2
6.3773088 -11.171549 -2.0374026 9 3
6.3683982 -11.174053 -1.579183 9 4
6.4460592 -11.324096 -1.1399971 18 5
3.5670679 -6.3253622 -1.9458016 4 0
4.3542509 -7.7307043 -2.0484045 11 1
5.3935575 -9.5915833 -2.1389689 10 2
6.2701426 -11.16413 -2.0280166 9 3
6.266942 -11.172128 -1.5728458 9 4
3.5321944 -6.3670039 -1.9509782 5 0
4.314342 -7.7864823 -2.0551529 9 1
5.3464208 -9.6650801 -2.1469829 12 2
6.1519294 -11.135011 -2.0148761 9 3
6.1705732 -11.182585 -1.5682149 7 4
3.4895086 -6.3948994 -1.9520133 4 0
4.2654724 -7.8266788 -2.0578523 10 1
5.293829 -9.7297602 -2.1530888 10 2
6.0551786 -11.142975 -2.0086186 9 3
11.036117 -20.334459 -2.8407748 8 4
6.7506857 -12.45394 -1.2393546 22 5
21.874245 -40.421829 -2.4087102 0 6
3.4630497 -6.4531493 -1.9623661 4 0
4.2125702 -7.8597016 -2.0587521 13 1
5.2413754 -9.7915325 -2.158813 10 2
5.9531145 -11.135155 -1.9998584 9 3
10.89482 -20.41276 -2.8410182 14 4
6.7104373 -12.588676 -1.2480702 22 5
21.531017 -40.442848 -2.4011738 0 6
3.4316704 -6.5004897 -1.969613 3 0
4.1489749 -7.8692312 -2.053803 14 1
5.18295 -9.8469954 -2.1630108 10 2
5.8513327 -11.130983 -1.9917238 9 3
10.745475 -20.467113 -2.8383372 17 4
3.4520607 -6.6511731 -2.0079181 3 0
4.099318 -7.9083848 -2.0565026 15 1
5.1139984 -9.8785591 -2.1622477 10 2
5.7554736 -11.131949 -1.9848408 9 3
10.669703 -20.672167 -2.856374 17 4
20.576429 -39.968742 -2.3559556 0 6
3.4488633 -6.7571096 -2.0327649 7 0
4.0453925 -7.9361048 -2.0565026 15 1
5.043129 -9.9105206 -2.1614842 10 2
5.6650891 -11.147203 -1.9804606 10 3
5.6707592 -11.177677 -1.5389662 19 4
5.6785269 -11.207526 -1.0992082 17 5
3.4073503 -6.7954311 -2.036906 7 0
4.0068245 -8.001442 -2.0659504 17 1
4.9852333 -9.9683142 -2.1664453 10 2
5.5692949 -11.155644 -1.974829 7 3
10.409262 -20.87775 -2.8644173 10 4
5.609026 -11.264732 -1.1009513 17 5
19.906227 -40.048164 -2.3438137 0 6
3.3564107 -6.8121214 -2.0348353 7 0
3.9448435 -8.0169802 -2.0628011 15 1
4.913774 -10.003732 -2.1664453 9 2
5.4825783 -11.176519 -1.9717003 2 3
10.295393 -21.024797 -2.8744104 17 4
20.190611 -41.341923 -2.4112225 0 6
3.3075786 -6.8359652 -2.0348353 9 0
3.88907 -8.0485125 -2.0637012 15 1
4.8438163 -10.037792 -2.1664453 10 2
5.6244926 -11.676398 -2.0527334 4 3
10.180203 -21.162348 -2.8834291 14 4
3.2605088 -6.8542619 -2.0338001 9 0
3.841459 -8.0864506 -2.0668504 16 1
4.7728562 -10.065208 -2.1653006 10 2
5.3042879 -11.201058 -1.9629399 2 3
10.056601 -21.265289 -2.8883038 14 4
19.235434 -40.803413 -2.36412 0 6
3.2011313 -6.8523531 -2.0265532 9 0
3.7758482 -8.0936451 -2.0619013 15 1
13.502727 -28.969891 1.6750647 7 9
4.7115884 -10.117862 -2.1694984 10 2
5.2634435 -11.318419 -1.977019 8 3
9.9129133 -21.345783 -2.8897662 14 4
15.756798 -34.038403 -1.9657387 3 6
3.1499934 -6.8675108 -2.0244827 7 0
3.7095144 -8.098547 -2.0565026 15 1
4.6318579 -10.130868 -2.1653006 12 2
13.509266 -29.561296 2.8435433 4 10
5.4952412 -12.035932 -2.0955963 7 3
9.764473 -21.416271 -2.8900099 17 4
15.341947 -33.758457 -1.9433389 3 6
3.1051447 -6.8963804 -2.0265532 7 0
3.6480911 -8.1135836 -2.053803 14 1
13.480268 -29.994947 1.7234231 6 9
4.5796804 -10.199771 -2.1733146 13 2
13.301744 -29.653069 2.8433688 2 10
5.3339872 -11.896414 -2.0649352 7 3
9.6155319 -21.485733 -2.8902535 14 4
15.183433 -34.02261 -1.9525501 3 6
3.0659428 -6.9350252 -2.0317297 9 0
3.5927799 -8.1382265 -2.053803 14 1
4.5131111 -10.242275 -2.1756043 15 2
12.874738 -29.232376 2.7945619 2 10
5.0964627 -11.582592 -2.0042386 9 3
9.5361395 -21.703344 -2.9107275 15 4
14.980791 -34.208275 -1.9571555 3 6
3.0089965 -6.9367652 -2.0260355 6 0
3.537426 -8.166687 -2.054703 14 1
11.994086 -27.7167 1.5827441 17 9
4.4321494 -10.251906 -2.1710248 16 2
12.690892 -29.369099 2.7990937 2 10
4.8588901 -11.255172 -1.9416648 9 3
9.4063921 -21.820433 -2.9175522 15 4
14.626505 -34.044106 -1.9418734 7 6
2.9635212 -6.9647131 -2.0281062 6 0
3.4894707 -8.2127056 -2.0601017 12 1
4.3535714 -10.266332 -2.1675904 12 2
5.0020318 -11.812696 -2.0317712 7 3
9.2383671 -21.849003 -2.9126775 15 4
13.038975 -30.942881 -1.7597443 7 6
2.9170587 -6.9905806 -2.029659 7 0
3.4365475 -8.2476597 -2.0628011 15 1
12.215871 -29.332315 1.6652256 7 9
4.299427 -10.333793 -2.1756043 9 2
4.660049 -11.217113 -1.9238312 8 3
9.0787706 -21.896461 -2.9104841 18 4
12.315299 -29.790567 -1.6894048 9 6
2.8708713 -7.0138507 -2.0306942 7 0
3.3825409 -8.2762728 -2.0641508 16 1
11.790344 -28.876953 1.6346614 7 9
4.2434926 -10.403548 -2.1839998 10 2
11.728462 -28.768423 2.7180388 14 10
4.6270785 -11.360971 -1.9429164 10 3
8.940732 -21.985334 -2.91414 15 4
12.428078 -30.668058 -1.7342044 8 6
2.8268707 -7.0462728 -2.0343177 6 0
3.3297515 -8.3123484 -2.0673003 14 1
11.582529 -28.943726 1.6338241 23 9
4.1875205 -10.47485 -2.1927772 10 2
11.538424 -28.877356 2.7206535 2 10
4.5527768 -11.40584 -1.9451064 8 3
11.707686 -29.360439 3.8810513 9 11
8.762042 -21.984518 -2.905853 20 4
12.319032 -30.940641 5.2746582 2 12
12.197454 -30.71324 -1.7319016 8 6
2.7811441 -7.0748258 -2.036906 7 0
3.2744884 -8.3426476 -2.0690999 15 1
12.050933 -30.734558 1.7301222 6 9
4.1221671 -10.523937 -2.196975 10 2
12.382462 -31.628803 2.971662 2 10
4.8097568 -12.298319 -2.0915291 5 3
8.6278419 -22.095078 -2.9124339 18 4
11.406385 -29.240782 4.9711752 3 12
12.133374 -31.184807 -1.7536734 7 6
2.7358508 -7.1048856 -2.0400119 7 0
3.2266557 -8.3925886 -2.0758483 16 1
11.407856 -29.702984 1.6675284 7 9
4.0500016 -10.556125 -2.1977382 15 2
12.333269 -32.162811 3.0136714 3 10
4.3174725 -11.270915 -1.9116293 24 3
11.429989 -29.869587 3.9268742 3 11
8.498908 -22.221521 -2.9212084 9 4
11.158261 -29.20529 4.951777 6 12
12.138686 -31.85478 -1.7865404 7 6
2.6875455 -7.1274276 -2.0410471 7 0
11.04904 -29.333292 0.54713297 55 8
3.1638675 -8.4039679 -2.073149 16 1
10.944304 -29.101429 1.6294278 7 9
3.9644725 -10.552896 -2.1912506 10 2
11.868209 -31.608356 2.9538825 2 10
4.3656368 -11.63925 -1.9688843 18 3
11.069347 -29.543419 3.8737392 3 11
4.5014176 -12.020401 -1.5760144 7 4
11.517479 -30.788509 5.2064524 5 12
2.6470878 -7.1713886 -2.0482941 9 0
3.1071405 -8.4313354 -2.0744987 15 1
3.8717303 -10.528724 -2.1805654 10 2
10.555798 -28.720745 2.6770759 9 10
4.223001 -11.502551 -1.9407262 10 3
10.812247 -29.482063 3.8557026 6 11
8.2691202 -22.559814 -2.9502134 15 4
10.925308 -29.838671 5.0328102 9 12
10.728165 -29.379622 -1.6391623 21 6
2.5903947 -7.171525 -2.0431178 9 0
3.0521705 -8.4638214 -2.077198 15 1
10.841516 -30.096975 1.6765301 14 9
3.8081024 -10.583207 -2.1862895 10 2
10.680691 -29.699284 2.7612681 11 10
4.1693091 -11.606116 -1.953241 8 3
8.0604897 -22.474985 -2.9316893 13 4
10.77469 -30.076004 5.0600295 12 12
10.350774 -28.972307 -1.6123662 22 6
2.5467007 -7.2076492 -2.0482941 9 0
2.996897 -8.4959488 -2.0798974 15 1
10.676269 -30.300024 1.6836479 14 9
3.7465088 -10.64472 -2.1935403 10 2
10.208639 -29.021324 2.6915436 12 10
4.2230787 -12.018858 -2.0176921 8 3
10.939953 -31.169815 4.056056 2 11
7.7844563 -22.191662 -2.8875723 8 4
10.130075 -28.910767 4.8519716 7 12
10.455265 -29.922495 -1.6611434 10 6
2.4925356 -7.2142973 -2.0451882 9 0
2.9457717 -8.5406141 -2.085746 16 1
10.629725 -30.853456 1.7102345 6 9
3.6625221 -10.64277 -2.1878161 13 2
9.9072866 -28.80551 2.6650481 15 10
3.9593613 -11.52495 -1.9300886 14 3
9.9869146 -29.103069 3.77795 14 11
7.8051515 -22.758085 -2.9541132 13 4
10.066274 -29.384434 4.9195518 7 12
10.362326 -30.334963 -1.6799845 9 6
2.4396381 -7.2242012 -2.0431178 9 0
2.8879449 -8.5665102 -2.087096 14 1
3.6000252 -10.703436 -2.1950669 10 2
9.761179 -29.038277 2.6802132 6 10
3.9058435 -11.632834 -1.943542 9 3
9.7866497 -29.181494 3.7791688 10 11
7.6990719 -22.970123 -2.9745872 15 4
9.8445816 -29.405293 4.911417 10 12
9.9872923 -29.883528 6.124588 3 13
9.6886301 -29.023588 -1.6035738 11 6
2.3939865 -7.255733 -2.0472586 9 0
2.8219726 -8.5679541 -2.0825968 15 1
3.5356319 -10.760015 -2.2015543 10 2
9.7322731 -29.635736 2.7290206 2 10
3.6767752 -11.209343 -1.8684534 9 3
9.3286724 -28.473782 3.678992 23 11
7.602767 -23.219513 -2.9999361 16 4
9.9380875 -30.387657 5.0637846 12 12
9.8405695 -30.142887 6.1635127 3 13
9.4833012 -29.082922 -1.6031551 22 6
2.3456438 -7.2796245 -2.0493293 9 0
2.7680552 -8.605998 -2.087096 14 1
10.797141 -33.588863 1.8490295 4 9
3.4923179 -10.877295 -2.2206352 16 2
9.8451586 -30.700899 2.8207085 2 10
3.6956465 -11.531327 -1.9178867 12 3
9.9534578 -31.094595 4.0087705 2 11
7.4900503 -23.427071 -3.0199225 16 4
9.9228115 -31.054846 5.1635895 11 12
9.3472776 -29.324223 5.9826255 3 13
10.389679 -32.61412 -1.7938673 6 6
2.297199 -7.2991076 -2.0503645 9 0
2.7035723 -8.6060476 -2.0825968 15 1
9.4968758 -30.267544 1.6625041 7 9
3.3992696 -10.847082 -2.2095683 12 2
9.7997141 -31.29006 2.868644 9 10
3.6368725 -11.626604 -1.9294629 8 3
9.2921562 -29.742245 3.8259664 10 11
4.0385327 -12.934422 -1.6637604 15 4
9.1329708 -29.286587 4.8588552 10 12
9.4065285 -30.219463 6.1520638 9 13
9.746686 -31.350809 -1.7205971 17 6
2.2461858 -7.3149672 -2.0503645 9 0
2.6537039 -8.6582499 -2.0906951 14 1
10.069886 -32.896034 1.8029739 5 9
3.3401055 -10.924995 -2.2206352 19 2
9.4861326 -31.047129 2.8402312 7 10
3.4927704 -11.445769 -1.8953601 12 3
9.3400936 -30.645681 3.9336989 9 11
3.9325185 -12.911029 -1.6571795 27 4
9.4991703 -31.226271 5.1695337 2 12
9.4542875 -31.137266 6.3253183 3 13
9.5611982 -31.52894 -1.726668 17 6
2.1994963 -7.3452749 -2.0545056 9 0
2.5954254 -8.6840334 -2.0924947 14 1
3.2682416 -10.963099 -2.2236881 19 2
8.6047163 -28.882357 2.6366355 6 10
3.2787025 -11.019258 -1.8208973 18 3
8.9314022 -30.055563 3.849853 3 11
3.265295 -10.995255 -1.4083222 23 4
9.1191769 -30.746401 5.0794277 6 12
3.2650652 -11.022676 -1.0057772 21 5
9.3533096 -31.63706 -1.7289709 8 6
2.1481647 -7.3604507 -2.0545056 9 0
2.5336461 -8.6981993 -2.0915949 14 1
3.1001556 -10.670803 -2.1599579 12 2
3.2220483 -11.112078 -1.8324735 3 3
9.274622 -32.027752 4.094079 5 11
3.7529728 -12.968491 -1.6576669 11 4
9.6271801 -33.310493 5.4917893 2 12
3.2145538 -11.137086 -1.0141442 14 5
8.8385248 -30.641851 6.1990032 4 13
8.4842558 -29.452269 -1.6062953 11 6
2.0977833 -7.3789859 -2.055541 9 0
2.476053 -8.7269239 -2.0942943 14 1
3.1191313 -11.022775 -2.2267411 19 2
8.3757334 -29.618942 2.6929381 18 10
3.5357659 -12.520148 -2.060555 9 3
8.7759933 -31.117334 3.9697723 8 11
3.6752679 -13.040231 -1.6635166 10 4
8.5605497 -30.41437 5.0043392 3 12
8.260704 -29.408089 5.9375949 4 13
2.0431254 -7.3822799 -2.0524352 9 0
2.4207742 -8.7646599 -2.0992434 17 1
8.7247248 -31.63179 1.719655 19 9
3.0567007 -11.097279 -2.2374265 19 2
7.9974337 -29.054306 2.6364613 6 10
3.462409 -12.595953 -2.0690024 8 3
8.0010061 -29.146795 3.7111657 15 11
3.6245787 -13.212977 -1.6822846 3 4
8.0781832 -29.488413 4.842586 10 12
8.1374407 -29.806772 -1.6192746 10 6
1.9915376 -7.3963633 -2.0524352 9 0
2.3696404 -8.8189859 -2.1082413 17 1
2.9430757 -10.983706 -2.2103314 10 2
8.4370203 -31.509398 2.8538277 2 10
4.2239833 -15.797197 -2.5899293 6 3
8.579318 -32.130569 4.0833545 2 11
6.3654156 -23.855946 -3.0316222 16 4
7.8924618 -29.620438 4.8551006 7 12
7.8184414 -29.445896 -1.5966655 11 6
1.9359396 -7.3951354 -2.0482941 9 0
2.313926 -8.8579397 -2.1136403 21 1
8.0042648 -30.66301 1.6608294 7 9
2.9053841 -11.145967 -2.2389529 15 2
8.635417 -33.175598 2.9992034 3 10
3.812031 -14.655582 -2.3984535 2 3
8.2007236 -31.573395 4.0053582 5 11
6.2306104 -24.022781 -3.0472214 16 4
7.7426968 -29.874258 4.8879519 10 12
1.8893696 -7.4231191 -2.0524352 9 0
2.2478216 -8.8508196 -2.1082413 15 1
2.8279831 -11.167882 -2.2393346 10 2
7.8483143 -31.016232 2.7990937 2 10
3.9327054 -15.56474 -2.5426862 9 3
7.7596312 -30.756029 3.8947008 6 11
6.0980086 -24.187826 -3.0628207 15 4
11.822583 -47.137299 -2.5468771 0 6
1.8384291 -7.4398789 -2.0534704 9 0
2.1878424 -8.8738642 -2.1100409 14 1
2.748543 -11.181634 -2.2381897 10 2
7.350719 -29.926754 2.6960757 6 10
3.8837032 -15.835468 -2.5824206 10 3
7.3596358 -30.053627 3.7991552 10 11
5.7407374 -23.460455 -2.965569 4 4
7.9605947 -32.581516 5.312202 7 12
7.8079414 -32.078125 -1.7302269 8 6
1.7918479 -7.4750757 -2.0596819 9 0
2.1194942 -8.8623886 -2.1037421 17 1
7.2573686 -30.392647 1.6375922 23 9
2.6613071 -11.162354 -2.2305572 15 2
7.7450953 -32.510502 2.9239006 2 10
2.9283028 -12.310785 -2.0042386 2 3
2.7428 -11.557801 -1.4585325 12 4
7.4082103 -31.265804 5.0891266 6 12
7.5599465 -32.030773 -1.7247839 8 6
1.7387441 -7.4836397 -2.0586467 9 0
2.0593317 -8.8845634 -2.1055419 17 1
7.0639243 -30.524298 1.6419884 15 9
2.5598915 -11.079281 -2.2103314 12 2
7.3005686 -31.622238 2.8393598 5 10
2.849385 -12.361727 -2.0092444 3 3
7.5340891 -32.73798 4.1247902 7 11
5.5865593 -24.29475 -3.0608706 17 4
2.680635 -11.694882 -1.0497037 15 5
1.6856079 -7.4918265 -2.0576115 9 0
1.9955484 -8.8911171 -2.1037421 16 1
2.5090544 -11.215668 -2.2339919 10 2
7.2834659 -32.584366 2.9211118 4 10
2.8236799 -12.653159 -2.053359 13 3
6.9841843 -31.348215 3.9434485 3 11
2.5962183 -11.691463 -1.0477864 37 5
7.366641 -33.283741 -1.7865404 7 6
1.6365521 -7.5185132 -2.0617526 9 0
1.9292943 -8.885788 -2.0992434 16 1
6.7728152 -31.219963 1.6742274 7 9
2.4380558 -11.25743 -2.2389529 10 2
6.9631848 -32.205986 2.8827631 2 10
2.7391555 -12.67981 -2.0546105 13 3
2.6526501 -12.321035 -1.547497 9 4
2.5128603 -11.701511 -1.0470891 37 5
1.583745 -7.5219164 -2.0596819 9 0
1.8711691 -8.9101582 -2.1019428 15 1
2.3344729 -11.155036 -2.2152925 15 2
6.6067915 -31.597368 2.8241947 5 10
3.3314745 -15.960779 -2.5824206 10 3
2.5885479 -12.434033 -1.5594403 19 4
2.4238219 -11.683653 -1.0439515 37 5
1.534274 -7.5479345 -2.0638232 9 0
1.8104675 -8.9306431 -2.1037421 16 1
2.301631 -11.394291 -2.2595603 9 2
6.3844657 -31.634907 2.8234973 2 10
2.5337629 -12.577393 -2.032084 5 3
4.9165535 -24.471546 -3.0647705 15 4
2.3355472 -11.667078 -1.0409881 29 5
5.3615756 -26.856459 -1.4352614 22 6
1.4785691 -7.5432954 -2.0596819 9 0
1.7518163 -8.9621906 -2.1082413 21 1
2.208519 -11.340707 -2.245822 10 2
6.1737309 -31.731512 2.8282037 12 10
2.4895794 -12.819716 -2.0683768 14 3
2.3331671 -12.048004 -1.5067927 7 4
2.2547951 -11.687012 -1.0413368 22 5
5.179234 -26.920692 -1.4367268 34 6
1.4301713 -7.5762138 -2.0658937 9 0
1.6892055 -8.9742022 -2.1082413 21 1
2.1636662 -11.539164 -2.2820759 12 2
2.4297891 -12.996006 -2.094032 13 3
2.2264452 -11.943008 -1.4916809 15 4
2.1767883 -11.722056 -1.0430799 22 5
4.9955359 -26.979761 -1.4379829 22 6
1.3758643 -7.5784111 -2.0638232 9 0
1.6355374 -9.0356331 -2.1199389 16 1
2.0684247 -11.472838 -2.2660477 12 2
2.428117 -13.508428 -2.1738136 24 3
2.1370616 -11.925043 -1.4875373 10 4
2.0878386 -11.685607 -1.0385478 22 5
4.8081098 -27.019878 -1.4382969 22 6
1.3249152 -7.5992503 -2.0669291 9 0
1.5764225 -9.0698709 -2.1253376 15 1
1.9829098 -11.444096 -2.2576523 10 2
2.3324132 -13.50323 -2.170372 20 3
2.05443 -11.943584 -1.4880248 10 4
2.0072172 -11.705791 -1.0390707 36 5
4.5221181 -26.455462 -1.4065813 22 6
1.2722013 -7.6023769 -2.065376 10 0
1.5165728 -9.0919228 -2.128037 16 1
1.904898 -11.46928 -2.2599418 12 2
2.2355065 -13.503594 -2.1678691 20 3
1.9934459 -12.080685 -1.5033803 7 4
1.9294319 -11.730978 -1.0401167 44 5
4.3457055 -26.537632 -1.4093028 22 6
1.2178737 -7.6034431 -2.0633056 10 0
1.4518335 -9.0945921 -2.1262374 15 1
1.8187642 -11.431569 -2.2500198 10 2
2.1398261 -13.495085 -2.1641147 24 3
1.9294875 -12.22372 -1.5194671 7 4
1.8512038 -11.767779 -1.0422083 44 5
4.1532168 -26.491617 -1.4053252 22 6
1.1687241 -7.6287422 -2.0679643 9 0
1.3916605 -9.1158228 -2.1289368 15 1
1.7268218 -11.364408 -2.2343736 9 2
2.0437863 -13.497976 -2.1622374 25 3
1.8684499 -12.383786 -1.5377475 18 4
1.7731464 -11.808001 -1.0446488 37 5
3.9791048 -26.593052 -1.409198 22 6
1.1154379 -7.6367159 -2.0679643 9 0
1.3285474 -9.1291723 -2.1298366 15 1
1.6249326 -11.220748 -2.2038438 16 2
1.8146667 -12.577363 -2.012686 15 3
1.6551325 -11.51429 -1.4283088 31 4
3.8505511 -27.02157 -1.4304465 11 6
1.0631607 -7.6519704 -2.0700347 9 0
1.2615775 -9.1150608 -2.1244378 20 1
1.5628934 -11.350457 -2.2271228 10 2
1.733528 -12.638651 -2.0205078 6 3
1.6821959 -12.312292 -1.5258043 5 4
3.6500211 -26.960711 -1.425841 22 6
1.0084513 -7.6496296 -2.0674467 10 0
1.1963896 -9.1120529 -2.1217382 15 1
1.4940372 -11.440908 -2.242769 16 2
1.7430801 -13.402657 -2.1406496 3 3
1.7351668 -13.396649 -1.6586419 18 4
3.4886551 -27.195524 -1.4369361 22 6
0.95478332 -7.6545668 -2.0669291 9 0
1.1289033 -9.089242 -2.1145399 18 1
1.4155731 -11.462749 -2.2450588 16 2
1.5568962 -12.661623 -2.0205078 24 3
1.6333964 -13.341444 -1.6503549 4 4
3.3121657 -27.33025 -1.4427978 23 6
0.90041816 -7.6533713 -2.0648584 9 0
1.0699545 -9.1356115 -2.123538 20 1
1.3430051 -11.536706 -2.2576523 12 2
2.7910891 -24.196638 -2.990674 14 4
2.6756451 -23.447447 -1.2368035 21 6
0.84633052 -7.6537108 -2.0633056 10 0
1.0057245 -9.1389837 -2.1226382 16 1
1.2669135 -11.586784 -2.2656662 18 2
1.3722667 -12.611431 -2.0092444 2 3
2.4943044 -23.035349 -2.8449183 14 4
2.5269794 -23.606554 -1.2442352 21 6
0.79128551 -7.6440597 -2.0591643 10 0
0.94189906 -9.1457825 -2.1226382 21 1
1.1758051 -11.495741 -2.2462037 10 2
1.6971228 -16.678902 -2.655319 5 3
2.2858465 -22.582151 -2.7869084 22 4
2.2230322 -22.11565 -1.9446188 34 5
2.7947164 -27.950079 -1.472106 23 6
0.74105412 -7.6820874 -2.0679643 9 0
0.88025963 -9.1754131 -2.128037 18 1
1.0864011 -11.407904 -2.2275043 22 2
1.5802703 -16.686411 -2.6546934 9 3
2.0840316 -22.129164 -2.7291422 28 4
2.1821651 -23.478451 -1.2357568 31 6
0.68671757 -7.6793766 -2.0658937 9 0
0.81480134 -9.1658058 -2.1244378 22 1
1.0108718 -11.462145 -2.2366631 9 2
1.4587359 -16.639969 -2.6456199 10 3
1.9100176 -21.919704 -2.7015998 26 4
1.9421681 -22.470072 -1.973206 33 5
1.9539253 -22.744898 -1.1964 20 6
0.63150245 -7.6647305 -2.0607173 9 0
0.75365514 -9.2062321 -2.1325359 20 1
0.88254583 -10.874049 -2.1206512 24 2
0.87607485 -10.864865 -1.7264109 19 3
0.87086278 -10.871272 -1.3391005 31 4
1.7948664 -22.55427 -1.9794812 33 5
1.7756144 -22.511093 -1.1834208 10 6
0.57928473 -7.6862898 -2.065376 10 0
0.68994695 -9.2190428 -2.1343358 20 1
0.81913036 -11.022729 -2.1485093 10 2
1.2275721 -16.636829 -2.6421785 5 3
0.79986537 -10.944401 -1.3473876 5 4
1.5894872 -22.066467 -1.1594509 20 6
0.52787673 -7.7035465 -2.0689995 9 0
0.62638664 -9.2118597 -2.1316364 19 1
0.73767531 -10.961578 -2.1355343 4 2
0.83831698 -12.555195 -1.9929754 4 3
1.413045 -21.330708 -2.6248221 26 4
1.4396716 -22.142796 -1.1629051 30 6
0.47337222 -7.6954746 -2.0658937 9 0
0.56467146 -9.2588015 -2.1415341 15 1
0.65487081 -10.862597 -2.1153085 9 2
1.0051805 -16.819956 -2.6687725 13 3
1.2555254 -21.195395 -2.6070292 26 4
1.2912993 -22.259979 -1.1685573 20 6
0.41984645 -7.7024498 -2.0669291 9 0
0.49896857 -9.2430573 -2.1370349 16 1
0.58069223 -10.898273 -2.1214147 18 2
0.89085674 -16.885742 -2.6781583 11 3
1.1129124 -21.306726 -2.6197035 28 4
1.1002264 -21.35001 -1.8703622 35 5
1.1669973 -22.878819 -1.2005869 20 6
0.36624727 -7.7090526 -2.0679643 9 0
0.43515939 -9.2618895 -2.1406343 15 1
0.50214297 -10.849109 -2.1111107 12 2
0.77132493 -16.85603 -2.6725268 12 3
0.95444828 -21.099806 -2.5933797 21 4
0.95345312 -21.40892 -1.8748943 35 5
0.97089165 -22.060343 -1.1572528 20 6
0.31413943 -7.7538872 -2.0793524 9 0
0.36799797 -9.2023907 -2.1262374 22 1
0.42523354 -10.822925 -2.1053865 16 2
0.65240455 -16.829422 -2.6675208 13 3
0.80575526 -21.070251 -2.5889926 22 4
0.80260104 -21.27953 -1.8630412 36 5
0.80762231 -21.817097 -1.1441689 20 6
0.25935221 -7.7365837 -2.0741758 9 0
0.30631503 -9.2826433 -2.1442335 15 1
0.35187417 -10.835379 -2.1072946 12 2
0.53682774 -16.801884 -2.6625149 13 3
0.6577695 -21.047585 -2.5855803 24 4
0.65206414 -21.220886 -1.8574631 36 5
0.66410625 -21.987785 -1.1528566 30 6
0.20730473 -7.761344 -2.0803876 9 0
0.24230775 -9.2533436 -2.1370349 20 1
0.27607027 -10.831682 -2.1061497 15 2
0.4171491 -16.710434 -2.6474974 10 3
0.51023823 -21.027849 -2.5826554 22 4
0.50626296 -21.324514 -1.8661788 36 5
0.51475859 -22.171589 -1.162277 30 6
0.15161042 -7.7549033 -2.0783172 9 0
0.1766804 -9.2860155 -2.1442335 21 1
0.19986434 -10.80194 -2.100044 16 2
0.29763365 -16.71694 -2.648123 10 3
0.35718393 -20.669666 -2.5382948 22 4
0.35015914 -21.805262 -1.1429127 20 6
0.097370192 -7.7480454 -2.0762465 9 0
0.11222298 -9.3181992 -2.1514318 21 1
0.12282961 -10.826652 -2.1046233 13 2
0.13248383 -12.24267 -1.9391619 4 3
0.2137323 -20.755026 -2.5485318 22 4
0.19225018 -21.18206 -1.1101505 19 6
0.04336258 -7.7639909 -2.0803876 9 0
0.046989411 -9.28368 -2.1433337 17 1
0.049061947 -10.811531 -2.1015704 18 2
0.049101267 -12.231435 -1.9372847 7 3
0.068849429 -20.761967 -2.5492632 14 4
0.048874911 -21.540384 -1.1288867 20 6
-0.009485417 -7.7641058 -2.0803876 9 0
-0.016168695 -9.2642965 -2.1388347 18 1
-0.026350806 -10.784123 -2.0962276 19 2
-0.036303163 -12.23543 -1.9379103 9 3
-0.072021797 -20.632923 -2.5334201 19 4
-0.089163318 -21.286505 -1.8623439 36 5
-0.10329475 -21.919676 -1.1487744 20 6
-0.063910723 -7.7908959 -2.0876343 9 0
-0.081253424 -9.3107262 -2.1496322 19 1
-0.10167455 -10.787604 -2.0969911 19 2
-0.12197716 -12.260557 -1.9419776 13 3
-0.21398626 -20.433422 -2.5090463 18 4
-0.24744302 -21.159513 -1.108999 19 6
-0.11800562 -7.7709436 -2.0824583 9 0
-0.14668112 -9.3372116 -2.155931 15 1
-0.17704558 -10.790557 -2.0977542 18 2
-0.2078685 -12.277183 -1.9447935 12 3
-0.35815516 -20.518759 -2.5197706 19 4
-0.39325616 -21.055429 -1.1036608 29 6
-0.17199633 -7.7583423 -2.0793524 9 0
-0.21053496 -9.2775126 -2.1424339 20 1
-0.25030833 -10.78125 -2.0962276 22 2
-0.2840243 -11.963461 -1.8953601 11 3
-0.50857234 -20.809464 -2.5558441 17 4
-0.53854918 -21.130131 -1.1077429 19 6
-0.22491372 -7.7608538 -2.0803876 9 0
-0.27414003 -9.2914476 -2.146033 14 1
-0.32556826 -10.779241 -2.0962276 21 2
-0.37803105 -12.302766 -1.9494866 13 3
-0.65380287 -20.920601 -2.5699809 16 4
-0.68061459 -21.419331 -1.8748943 35 5
-0.69350713 -21.355419 -1.1197803 29 6
-0.27992162 -7.7822614 -2.0865991 9 0
-0.33928412 -9.2970963 -2.1478326 15 1
-0.39907813 -10.7807 -2.0969911 19 2
-0.46317425 -12.337414 -1.9554311 9 3
-0.78451222 -20.514832 -2.5207458 16 4
-0.82025176 -21.159224 -1.8525823 36 5
-0.83383226 -21.222479 -1.1130812 29 6
-0.33288741 -7.7801762 -2.0865991 9 0
-0.40239003 -9.290679 -2.1469328 16 1
-0.47381267 -10.765882 -2.0947013 19 2
-0.54999447 -12.349667 -1.957934 9 3
-0.94093347 -20.881834 -2.5665686 19 4
-0.98049521 -21.184217 -1.1114064 29 6
-0.38681096 -7.7699451 -2.0845287 9 0
-0.46782884 -9.2993212 -2.1496322 14 1
-0.54708284 -10.762407 -2.0947013 18 2
-0.63120657 -12.2904 -1.9491737 7 3
-1.0888579 -20.916388 -2.5716872 13 4
-1.1148369 -21.201611 -1.8574631 36 5
-1.133037 -21.334616 -1.1196755 19 6
-0.44214025 -7.7863421 -2.089705 9 0
-0.53229183 -9.2880449 -2.1478326 14 1
-0.62476504 -10.769977 -2.0969911 21 2
-0.90844619 -15.51965 -2.4622788 12 3
-1.2106287 -20.498077 -2.5212333 14 4
-1.2546406 -20.994207 -1.8400321 36 5
-1.289879 -21.395739 -1.1233391 29 6
-0.49452069 -7.7522192 -2.081423 9 0
-1.4821129 -23.106991 0.40416282 43 8
-0.59812224 -9.2996607 -2.1514318 14 1
-0.69942892 -10.757516 -2.0954645 21 2
-1.0258154 -15.65091 -2.4841797 11 3
-1.3594609 -20.576279 -2.5319576 19 4
-1.3879009 -20.78614 -1.8226008 37 5
-1.4317056 -21.274618 -1.1174774 29 6
-0.54999274 -7.767848 -2.0865991 9 0
-0.6597029 -9.2486076 -2.1406343 15 1
-0.77535725 -10.76412 -2.0977542 22 2
-1.1353384 -15.647308 -2.4848053 11 3
-1.4923699 -20.419779 -2.513921 16 4
-1.5183206 -20.577246 -1.8051698 37 5
-1.605654 -21.606689 -1.135481 20 6
-0.60540736 -7.7792268 -2.0907402 9 0
-0.72577643 -9.2632046 -2.1451333 17 1
-0.84986717 -10.750616 -2.0962276 19 2
-1.2440776 -15.633093 -2.4838667 13 3
-1.6466156 -20.555292 -2.5319576 21 4
-1.731361 -21.286396 -1.1192569 19 6
-0.65904856 -7.7671118 -2.0886698 9 0
-0.78711146 -9.219079 -2.1361351 19 1
-0.92489988 -10.744421 -2.0962276 22 2
-1.350971 -15.598443 -2.4797995 10 3
-1.7880106 -20.519566 -2.5290327 16 4
-1.8241572 -20.808409 -1.8274815 36 5
-1.8677926 -21.136515 -1.1120346 19 6
-0.71431774 -7.7738633 -2.0917757 9 0
-2.1593575 -23.455223 0.41114378 44 8
-0.8568334 -9.2715731 -2.1496322 15 1
-0.99764889 -10.733967 -2.0954645 24 2
-1.4085795 -15.06965 -2.397202 2 3
-1.9248924 -20.439388 -2.5207458 16 4
-1.9837848 -20.831038 -1.0966477 19 6
-0.76569647 -7.7534409 -2.0876343 9 0
-0.90702248 -9.1355991 -2.119489 24 1
-1.0749059 -10.750183 -2.100044 18 2
-1.5805284 -15.723778 -2.5029516 6 3
-2.0847275 -20.631214 -2.5460944 22 4
-2.132261 -20.955339 -1.842821 36 5
-2.1314001 -20.838537 -1.0977992 29 6
-0.82102662 -7.7594328 -2.0907402 9 0
-0.98334897 -9.2472515 -2.1469328 17 1
-1.1495122 -10.738513 -2.0992808 24 2
-1.5960305 -14.836396 -2.3634121 3 3
-1.859605 -17.201841 -2.1244266 13 4
-2.2902853 -20.946245 -1.1042887 29 6
-0.87734365 -7.7727094 -2.0959167 9 0
-1.0470046 -9.2324152 -2.1451333 21 1
-1.2248957 -10.734127 -2.100044 21 2
-1.8161137 -15.84148 -2.5254784 10 3
-1.942175 -16.86305 -2.0842097 10 4
-2.4228363 -20.812696 -1.0981131 19 6
-0.92882413 -7.7433777 -2.089705 9 0
-1.1123648 -9.2326202 -2.1469328 18 1
-1.3007491 -10.73311 -2.1015704 24 2
-1.8674662 -15.34211 -2.4478867 6 3
-2.0282953 -16.590956 -2.0522799 7 4
-2.5453119 -20.610931 -1.0883787 19 6
-0.98334736 -7.7405372 -2.0907402 9 0
-1.1674215 -9.1511717 -2.1298366 21 1
-1.3756486 -10.723768 -2.1015704 24 2
-1.980081 -15.371801 -2.4547698 6 3
-2.1104581 -16.316525 -2.0201063 8 4
-2.7216163 -20.955286 -1.8487476 36 5
-2.7475872 -21.040241 -1.1120346 9 6
-1.0373626 -7.7334833 -2.0907402 9 0
-1.2370023 -9.1852875 -2.1397343 15 1
-1.4517664 -10.737501 -2.1061497 24 2
-2.0798836 -15.322734 -2.4491384 9 3
-2.1964061 -16.096836 -1.9947575 8 4
-2.9576733 -21.507795 -1.1377839 10 6
-1.0905176 -7.7300696 -2.0917757 9 0
-1.2978555 -9.1650772 -2.1370349 19 1
-1.5255865 -10.719332 -2.1046233 30 2
-1.5375803 -10.763203 -1.7220308 24 3
-1.5423526 -10.75638 -1.3342258 19 4
-3.0757327 -21.265232 -1.1260605 20 6
-1.1421913 -7.7069798 -2.0876343 7 0
-1.3646752 -9.1750698 -2.1415341 19 1
-1.601545 -10.716186 -2.1061497 25 2
-2.2191987 -14.796005 -2.3696697 7 3
-2.3702691 -15.747022 -1.9552718 7 4
-3.1151824 -20.598192 -1.8226008 37 5
-3.2229156 -21.235344 -1.1256418 19 6
-1.1947813 -7.6911826 -2.0855639 9 0
-1.4244939 -9.1383619 -2.1352355 19 1
-1.6793553 -10.72414 -2.109966 27 2
-2.2016268 -14.011288 -2.2463992 9 3
-2.4863296 -15.769308 -1.9601468 8 4
-3.4688911 -21.827747 -1.1582996 10 6
-1.2515454 -7.7017221 -2.0907402 9 0
-1.4939005 -9.1628151 -2.1433337 21 1
-1.7567198 -10.727654 -2.113019 24 2
-2.4415774 -14.861041 -2.385313 9 3
-2.5169365 -15.269735 -1.900187 3 4
-3.6146483 -21.763592 -1.156206 30 6
-1.3033431 -7.6813693 -2.0876343 9 0
-1.5689495 -9.2174807 -2.1586304 15 1
-1.8368628 -10.746092 -2.1191249 24 2
-2.311573 -13.480761 -2.1663048 1 3
-2.6100156 -15.173537 -1.8904375 10 4
-3.732398 -21.541035 -1.1457388 30 6
-1.3562646 -7.6682792 -2.0865991 7 0
-1.6298574 -9.1871147 -2.1541312 20 1
-1.9168446 -10.771998 -2.1267571 24 2
-2.4831102 -13.911982 -2.2382646 3 3
-2.7232368 -15.19598 -1.895556 9 4
-3.8867331 -21.558371 -1.1480416 30 6
-1.4101757 -7.6683693 -2.0891874 10 0
-1.6930602 -9.1796408 -2.1550312 21 1
-1.9962895 -10.781517 -2.1313365 22 2
-2.7100117 -14.59349 -2.3508976 9 3
-2.7317455 -14.66774 -1.8319401 12 4
-4.1247454 -21.997919 -1.1729535 20 6
-1.4618634 -7.64885 -2.0865991 9 0
-1.7512356 -9.1369743 -2.1478326 14 1
-2.0752192 -10.786598 -2.1351528 25 2
-2.680105 -13.891472 -2.2407675 2 3
-2.8446369 -14.702882 -1.8387648 11 4
-4.2335486 -21.739216 -1.160707 20 6
-1.5152268 -7.6384583 -2.0865991 9 0
-1.8214442 -9.1570177 -2.1554811 23 1
-2.1596966 -10.818054 -2.1443117 19 2
-2.8902416 -14.438012 -2.3321254 2 3
-2.8933005 -14.414079 -1.8051288 2 4
-4.3773046 -21.669975 -1.1586134 20 6
-1.566959 -7.6201248 -2.0845287 9 0
-1.8967397 -9.1994276 -2.1685281 19 1
-2.2388473 -10.830019 -2.1496544 15 2
-2.9744174 -14.350306 -2.3211749 8 3
-2.9599011 -14.230276 -1.7846549 1 4
-4.5377564 -21.758965 -1.9446188 34 5
-4.4245567 -21.160709 -1.1329689 10 6
-1.6187905 -7.609283 -2.0845287 9 0
-1.9568743 -9.1748686 -2.1658287 17 1
-2.3242586 -10.8602 -2.158813 15 2
-3.0707991 -14.311807 -2.3183591 9 3
-2.972784 -13.819717 -1.7356633 5 4
-4.7250896 -21.835958 -1.1708602 20 6
-1.6710434 -7.5940223 -2.0834932 9 0
-2.0007284 -9.0696411 -2.1442335 21 1
-2.4006727 -10.855629 -2.1611028 18 2
-3.0775034 -13.881721 -2.2520308 2 3
-3.0976362 -13.926518 -1.7517501 9 4
-4.8300438 -21.608374 -1.1603929 20 6
-1.7196987 -7.5692849 -2.07987 10 0
-2.0779943 -9.1242151 -2.16043 18 1
-2.4807725 -10.857745 -2.1649189 18 2
-3.1690476 -13.836791 -2.2482765 4 3
-3.2316797 -14.065132 -1.7719804 6 4
-5.0930996 -22.060642 -1.1865609 20 6
-1.7777926 -7.5737123 -2.0845287 9 0
-2.1414473 -9.1015244 -2.1586304 14 1
-2.6407828 -11.197487 -2.2362814 12 2
-3.3007236 -13.952167 -2.270803 6 3
-3.3279622 -14.034502 -1.7710054 7 4
-1.832442 -7.5686269 -2.0865991 9 0
-2.1966639 -9.0522652 -2.150532 16 1
-2.7333789 -11.229807 -2.2465851 9 2
-3.3999205 -13.936461 -2.2720544 4 3
-3.414073 -13.962719 -1.7649119 9 4
-1.8805587 -7.5369062 -2.081423 9 0
-2.2437332 -8.9724302 -2.1352355 19 1
-2.8364823 -11.317585 -2.2679558 10 2
-3.8950875 -15.506993 -2.5323615 10 3
-3.5182555 -13.965493 -1.7683243 9 4
-1.9356598 -7.5388999 -2.0855639 9 0
-2.3037825 -8.9531765 -2.1343358 20 1
-2.9482927 -11.424873 -2.2935243 6 2
-4.0289707 -15.578872 -2.5486307 10 3
-3.5549643 -13.716395 -1.7398069 10 4
-1.989231 -7.5289383 -2.0865991 9 0
-2.3821912 -8.9971561 -2.1487324 16 1
-3.0042992 -11.31483 -2.2755883 7 2
-4.1518517 -15.603815 -2.5573912 6 3
-3.6537032 -13.702751 -1.7412694 19 4
-2.0387044 -7.5036821 -2.0834932 9 0
-2.4562063 -9.0216732 -2.1586304 15 1
-3.0511608 -11.176156 -2.2519279 10 2
-4.2481761 -15.528721 -2.5498822 11 3
-3.7681692 -13.745831 -1.7500439 11 4
-2.0889623 -7.4818244 -2.081423 9 0
-2.5149293 -8.9892931 -2.1550312 15 1
-3.1202734 -11.130554 -2.2469668 10 2
-4.391705 -15.63447 -2.5720959 9 3
-3.8312132 -13.602633 -1.7351758 9 4
-2.1440985 -7.4822879 -2.0855639 9 0
-2.5749838 -8.9682198 -2.1541312 15 1
-3.2983806 -11.457525 -2.3175662 7 2
-4.5231929 -15.681247 -2.5849233 10 3
-3.8807228 -13.427491 -1.7161642 5 4
-7.1325531 -24.566418 -1.340638 22 6
-2.1919208 -7.4523106 -2.081423 9 0
-2.6320212 -8.9313326 -2.1496322 15 1
-3.2013919 -10.835489 -2.1962116 18 2
-4.4436002 -15.010964 -2.4794865 5 3
-3.9320347 -13.257336 -1.6978838 7 4
-7.2742314 -24.416491 -1.3351951 21 6
-2.2483585 -7.4516225 -2.0855639 9 0
-2.6965649 -8.9202003 -2.1514318 16 1
-3.3680656 -11.113495 -2.2572706 18 2
-4.4983578 -14.815133 -2.4522669 6 3
-3.9719191 -13.056738 -1.6757036 9 4
-7.4246678 -24.300171 -1.3316363 10 6
-2.2991831 -7.4320536 -2.0845287 9 0
-2.7553127 -8.8899889 -2.1487324 20 1
-3.4490628 -11.100961 -2.2595603 13 2
-4.5629268 -14.658885 -2.4316175 9 3
-4.044064 -12.968047 -1.667904 9 4
-7.7648559 -24.79285 -1.3615724 11 6
-2.3440061 -7.393723 -2.0783172 9 0
-2.8137679 -8.8593941 -2.146033 14 1
-3.6253459 -11.387153 -2.3229089 10 2
-4.6195335 -14.483644 -2.4078395 7 3
-4.0988507 -12.827935 -1.6535234 6 4
-7.9072423 -24.642948 -1.3563387 11 6
-2.3979533 -7.3845282 -2.0803876 9 0
-2.8743441 -8.8358278 -2.1451333 14 1
-3.5605085 -10.919199 -2.2324655 12 2
-4.7144017 -14.432261 -2.4047108 6 3
-4.1648445 -12.727315 -1.6442614 1 4
-8.0566387 -24.518839 -1.3525707 11 6
-2.4457917 -7.3566079 -2.0772817 9 0
-2.9445801 -8.8414297 -2.1514318 14 1
-3.7858465 -11.341011 -2.3240535 12 2
-4.8651609 -14.548871 -2.4297404 9 3
-4.6054358 -13.748247 -1.7802675 7 4
-7.7933769 -23.170937 -1.2811843 10 6
-2.4958465 -7.3356962 -2.0762465 9 0
-3.0037186 -8.8132801 -2.1496322 15 1
-3.8243129 -11.195403 -2.2996302 12 2
-4.9691691 -14.522027 -2.4309919 7 3
-4.6800618 -13.653792 -1.7722242 2 4
-7.9809475 -23.191507 -1.2853712 10 6
-2.540647 -7.299849 -2.0710702 7 0
-3.0741553 -8.8178568 -2.155931 14 1
-3.9095008 -11.188819 -2.303828 19 2
-5.361475 -15.318539 -2.5705316 10 3
-7.9047089 -22.547073 -2.933639 4 4
-8.1890755 -23.267101 -1.2926983 10 6
-2.5954335 -7.2928538 -2.0741758 9 0
-3.1264775 -8.7704821 -2.1496322 15 1
-3.9848762 -11.153858 -2.3023016 19 2
-5.4489837 -15.226798 -2.5614581 14 3
-8.1061325 -22.614672 -2.9497259 2 4
-8.387825 -23.310846 -1.2983505 10 6
-2.648926 -7.2818184 -2.0762465 9 0
-3.1862965 -8.7447796 -2.1487324 16 1
-3.8875613 -10.646287 -2.2030807 22 2
-3.892746 -10.643188 -1.7949294 13 3
-3.9004214 -10.646887 -1.3922355 19 4
-9.4836998 -25.789841 -1.4400762 11 6
-2.6875827 -7.2305536 -2.0669291 7 0
-3.2268715 -8.6675339 -2.1352355 20 1
-4.116333 -11.038991 -2.2900898 15 2
-5.7226853 -15.322323 -2.5905552 6 3
-8.5839176 -22.934328 -3.0067606 11 4
-8.6648989 -23.077057 -1.2918609 10 6
-2.7367365 -7.2120924 -2.0669291 9 0
-3.2844095 -8.6417265 -2.1343358 18 1
-4.2408142 -11.134744 -2.3160398 18 2
-5.8175464 -15.25062 -2.5852363 9 3
-8.9863796 -23.520685 -3.0915818 2 4
-8.7757378 -22.88546 -1.2845339 10 6
-2.7870197 -7.1928105 -2.0669291 9 0
-3.3517098 -8.6367531 -2.1388347 16 1
-4.0935936 -10.526659 -2.1954484 19 2
-5.8658018 -15.060539 -2.5598938 11 3
-8.3517618 -21.410126 -2.821763 17 4
-9.7944584 -25.018219 -1.4080467 11 6
-2.8400075 -7.1803651 -2.0689995 9 0
-3.4147949 -8.6203899 -2.1406343 14 1
-4.3726878 -11.016055 -2.303828 18 2
-6.0211544 -15.14588 -2.5814819 9 3
-8.4621105 -21.25355 -2.8088448 22 4
-9.5538797 -23.910604 -1.3494304 11 6
-2.8857281 -7.1496139 -2.0658937 9 0
-3.4588244 -8.5565929 -2.1307364 15 1
-4.4745469 -11.047128 -2.316803 16 2
-6.0265002 -14.856359 -2.5392444 12 3
-8.6521235 -21.296946 -2.8224943 19 4
-10.082496 -24.73107 -1.399673 11 6
-2.9446199 -7.1548166 -2.0731406 9 0
-3.5080762 -8.5112324 -2.1253376 15 1
-4.3600383 -10.557323 -2.2202537 10 2
-6.1425853 -14.851502 -2.5455019 11 3
-8.8151159 -21.281576 -2.8283439 21 4
-9.3215132 -22.426586 -1.2728106 10 6
-2.9855258 -7.11271 -2.0669291 9 0
-3.5643885 -8.4793482 -2.123538 14 1
-4.5471821 -10.796215 -2.2771149 16 2
-6.3259587 -14.997546 -2.5780404 12 3
-8.9820108 -21.263403 -2.8341937 19 4
-9.721034 -22.934698 -1.3054682 10 6
-3.0305486 -7.0810375 -2.0638232 9 0
-3.6188922 -8.4435091 -2.1208386 15 1
-4.543427 -10.580203 -2.2381897 16 2
-6.3852434 -14.847765 -2.5598938 12 3
-9.3948488 -21.814598 -2.9163334 4 4
-4.9413805 -11.451746 -1.0911899 16 5
-10.365761 -23.988321 -1.3695275 11 6
-3.0783646 -7.0561662 -2.0627878 9 0
-3.6839921 -8.4323244 -2.1244378 14 1
-4.6722856 -10.674122 -2.2649028 18 2
-6.4768481 -14.77569 -2.5552011 14 3
-9.5947866 -21.85754 -2.930958 4 4
-5.0436673 -11.468036 -1.0960705 16 5
-3.1322591 -7.045095 -2.0658937 9 0
-3.7364304 -8.3921585 -2.1208386 16 1
-4.7514901 -10.652001 -2.2671926 21 2
-6.5742044 -14.717487 -2.5530109 7 3
-9.6904068 -21.663179 -2.9138963 9 4
-5.1007915 -11.381638 -1.0911899 16 5
-10.00458 -22.29241 -1.2805563 10 6
-3.1765833 -7.0124979 -2.0627878 7 0
-3.7900956 -8.3552217 -2.118139 18 1
-4.8549795 -10.682914 -2.2809308 18 2
-4.9994106 -10.985444 -1.9116293 19 3
-7.492806 -16.441462 -2.2185097 16 4
-10.065294 -22.014952 -1.2686237 21 6
-3.2254615 -6.9901509 -2.0627878 9 0
-3.8614113 -8.356864 -2.1253376 15 1
-4.9286175 -10.646977 -2.2805493 12 2
-6.748313 -14.557951 -2.5414345 11 3
-7.517139 -16.194292 -2.1921859 9 4
-10.318231 -22.157793 -1.280975 10 6
-3.2758265 -6.9709597 -2.0638232 9 0
-3.9188285 -8.3279381 -2.1248875 13 1
-4.9365354 -10.476435 -2.2511647 19 2
-6.835444 -14.486669 -2.5370543 9 3
-7.6368003 -16.155777 -2.1941359 16 4
-10.414062 -21.971542 -1.274276 21 6
-3.3248672 -6.9519854 -2.0648584 9 0
-3.9737413 -8.2975559 -2.1239879 14 1
-5.0019121 -10.425786 -2.24773 10 2
-5.288064 -11.007449 -1.9341559 7 3
-7.7009797 -16.008612 -2.1812177 18 4
-5.6239552 -11.670074 -1.1333733 18 5
-10.31721 -21.380257 -1.2441305 21 6
-3.3716292 -6.9251308 -2.0638232 9 0
-4.0281563 -8.2626047 -2.1221881 14 1
-5.0642366 -10.369442 -2.2431507 10 2
-6.4894595 -13.270079 -2.3396342 9 3
-7.72438 -15.774393 -2.1566 18 4
-5.7123079 -11.644838 -1.1347678 18 5
-10.478549 -21.332804 -1.2455959 21 6
-3.4181781 -6.8979611 -2.0627878 9 0
-4.0944037 -8.2517376 -2.1266873 14 1
-5.1251459 -10.31098 -2.2381897 10 2
-6.5775433 -13.215609 -2.3380699 5 3
-7.7617116 -15.574394 -2.1366136 18 4
-5.7985563 -11.619948 -1.1361622 18 5
-3.461031 -6.8635807 -2.0596819 9 0
-4.1501555 -8.2194738 -2.1257875 13 1
-5.238616 -10.361707 -2.2568891 10 2
-5.9544854 -11.76236 -2.0880876 1 3
-7.7984281 -15.378192 -2.1171145 18 4
-5.8795376 -11.579184 -1.1361622 18 5
-10.835042 -21.310926 -1.2529229 21 6
-3.5111964 -6.8467398 -2.0617526 9 0
-4.2006645 -8.1806335 -2.1230881 15 1
-5.2722096 -10.249812 -2.2404792 24 2
-5.684617 -11.037363 -1.9663814 4 3
-7.8337746 -15.190666 -2.0985904 3 4
-6.014894 -11.648654 -1.1469696 18 5
-11.290032 -21.827282 -1.2878834 21 6
-3.5589099 -6.8220601 -2.0617526 9 0
-4.245945 -8.1286535 -2.1172395 16 1
-5.3773413 -10.281534 -2.2553625 12 2
-5.8814936 -11.231157 -2.007993 2 3
-7.5394254 -14.372673 -1.9928077 7 4
-6.1368346 -11.68399 -1.1546392 19 5
-11.802766 -22.442871 -1.3289148 10 6
-3.6070724 -6.8010912 -2.0627878 9 0
-4.2947764 -8.0875168 -2.11409 15 1
-5.4056549 -10.162279 -2.2374265 9 2
-5.8018966 -10.893428 -1.9548053 10 3
-7.5464725 -14.151117 -1.9691651 5 4
-12.008135 -22.451508 -1.3343576 10 6
-3.652631 -6.7723427 -2.0617526 9 0
-4.3289099 -8.0161839 -2.1032922 15 1
-5.4914112 -10.151922 -2.2435322 7 2
-6.7705746 -12.501054 -2.251718 8 3
-7.6043916 -14.023051 -1.9586842 7 4
-3.7035375 -6.7534533 -2.0638232 9 0
-4.3791409 -7.9755177 -2.1005929 14 1
-5.5252533 -10.046248 -2.2286491 12 2
-7.0168095 -12.742454 -2.303967 12 3
-7.6388445 -13.85489 -1.9425975 1 4
-10.938 -19.805981 -1.9794812 33 5
-3.7468324 -6.7206836 -2.0617526 9 0
-4.4280648 -7.9328403 -2.0974436 16 1
-5.6335788 -10.075974 -2.2439139 10 2
-7.0805101 -12.64834 -2.2958324 9 3
-7.6926794 -13.725032 -1.9318731 1 4
-11.076005 -19.729136 -1.9794812 33 5
-3.7993748 -6.7044458 -2.0648584 9 0
-4.4689136 -7.8763094 -2.0906951 15 1
-5.683414 -10.000554 -2.2358999 10 2
-7.1608243 -12.584867 -2.2933295 11 3
-7.9474964 -13.950415 -1.9713587 2 4
-12.152785 -21.271587 -1.2839059 10 6
-3.8499434 -6.6844554 -2.0669291 9 0
-4.521843 -7.8415442 -2.0897954 14 1
-5.7363977 -9.9317341 -2.2294126 12 2
-7.2663088 -12.565349 -2.2989612 11 3
-8.2336788 -14.220997 -2.0176692 21 4
-11.186465 -19.289907 -1.9508941 33 5
-12.758294 -21.973846 -1.3316363 10 6
-3.8965158 -6.6574144 -2.0669291 9 0
-4.5705652 -7.799696 -2.087096 14 1
-5.7926755 -9.8694324 -2.2244515 10 2
-6.3830791 -10.862317 -1.9954783 9 3
-8.390132 -14.260693 -2.0315621 22 4
-3.9389484 -6.6234078 -2.0648584 7 0
-4.6249061 -7.7675972 -2.087096 14 1
-5.8667579 -9.8415785 -2.2271228 10 2
-6.2908406 -10.540434 -1.9441677 18 3
-6.2914886 -10.524817 -1.5055741 20 4
-6.2986588 -10.524296 -1.0730615 24 5
-12.267538 -20.473227 -1.2508295 10 6
-3.985939 -6.59975 -2.0658937 9 0
-4.6736383 -7.7292662 -2.0852964 14 1
-5.9241347 -9.781909 -2.2229249 10 2
-7.526721 -12.413422 -2.299274 8 3
-8.681757 -14.301467 -2.0542297 21 4
-12.541016 -20.602045 -1.2640181 10 6
-4.0339355 -6.5750561 -2.0669291 9 0
-4.7213631 -7.6864877 -2.0825968 14 1
-5.9144769 -9.6176052 -2.1946852 15 2
-6.7752681 -11.004431 -2.0467887 4 3
-8.829318 -14.318233 -2.0654416 18 4
-12.521344 -20.257967 -1.248108 10 6
-4.0785975 -6.5474458 -2.0669291 9 0
-4.7818236 -7.6674004 -2.0861959 14 1
-6.0209975 -9.6393566 -2.2091868 13 2
-6.6843457 -10.688888 -1.9967299 4 3
-8.9781885 -14.34025 -2.0773852 11 4
-12.598751 -20.068567 -1.2418277 21 6
-4.1180105 -6.509017 -2.0638232 9 0
-4.8331504 -7.6305375 -2.0852964 14 1
-6.091301 -9.6020603 -2.2103314 10 2
-7.0002666 -11.022151 -2.0680637 7 3
-9.1174936 -14.339201 -2.0864034 12 4
-12.979061 -20.357359 -1.2652742 10 6
-4.1654387 -6.4833608 -2.0648584 9 0
-4.890521 -7.6031656 -2.087096 13 1
-6.1666932 -9.572504 -2.2133844 10 2
-7.0235119 -10.890009 -2.0524204 7 3
-9.2701406 -14.356915 -2.0983465 18 4
-12.517359 -19.334085 -1.2070767 10 6
-4.2021551 -6.4411788 -2.0607173 7 0
-4.9520049 -7.581892 -2.0906951 14 1
-6.2424526 -9.5467386 -2.2172008 10 2
-6.8410578 -10.45025 -1.9782705 13 3
-9.4289198 -14.381493 -2.1115084 22 4
-12.666216 -19.275143 -1.2087513 20 6
-4.2053728 -6.3512173 -2.0410471 4 0
-4.9991918 -7.5415111 -2.0888956 13 1
-6.2861438 -9.4685793 -2.2091868 16 2
-7.0997324 -10.68191 -2.0314584 8 3
-9.5903749 -14.412832 -2.1256454 23 4
-13.017731 -19.511887 -1.229267 20 6
-4.1547675 -6.1806159 -1.995495 3 0
-5.053896 -7.5096612 -2.0897954 13 1
-6.2906466 -9.3332949 -2.1878161 13 2
-7.3210831 -10.84987 -2.0730698 1 3
-9.6418676 -14.273149 -2.1149206 23 4
-12.790742 -18.884747 -1.1953533 20 6
-4.1869259 -6.1355023 -1.9903185 3 0
-5.1083984 -7.4774132 -2.0906951 12 1
-6.3423481 -9.2697058 -2.1832366 10 2
-7.3173933 -10.682784 -2.0508561 4 3
-12.714062 -18.492167 -1.1760937 10 6
-4.1900549 -6.0489531 -1.9716836 4 0
-5.1626973 -7.4447699 -2.0915949 12 1
-13.482443 -19.434858 1.2396295 5 9
-6.4108973 -9.2343845 -2.1851447 12 2
-7.2817111 -10.477009 -2.0208206 5 3
-9.748353 -14.005169 -2.0951779 1 4
-13.049318 -18.72665 -1.9969124 32 5
-13.200742 -18.922823 -1.2091701 20 6
-4.2178016 -6.0013256 -1.9654719 3 0
-5.208766 -7.4030824 -2.0897954 11 1
-13.806367 -19.608084 1.2567958 15 9
-6.4876461 -9.2070589 -2.1893425 15 2
-7.3820024 -10.46466 -2.0283296 8 3
-13.316607 -18.856525 -2.8344374 8 4
-13.179736 -18.635092 -1.9969124 32 5
-4.2394032 -5.9434242 -1.9561545 4 0
-5.2603221 -7.366538 -2.0897954 12 1
-6.5437713 -9.150363 -2.1866713 10 2
-7.4882264 -10.459447 -2.0374026 9 3
-13.245549 -18.480742 -2.7917831 18 4
-13.454336 -18.72369 -1.2083327 20 6
-4.2694635 -5.898035 -1.9509782 4 0
-13.818316 -19.075232 0.41114378 44 8
-5.3116217 -7.3296351 -2.0897954 13 1
-13.928709 -19.206448 1.2433978 10 9
-6.602881 -9.0981007 -2.1851447 12 2
-7.5958982 -10.454859 -2.0467887 9 3
-13.446641 -18.487354 -2.806895 18 4
-13.605906 -18.658352 -1.2102168 20 6
-4.2990985 -5.8525147 -1.9458016 4 0
-13.95115 -18.978298 0.41114378 44 8
-5.3580432 -7.2860951 -2.0879958 11 1
-14.221086 -19.324295 1.2574238 15 9
-6.6394591 -9.0154228 -2.1763675 16 2
-7.6991796 -10.442913 -2.0549233 9 3
-13.459855 -18.236506 -2.7830086 12 4
-13.654746 -18.473555 -2.0098114 32 5
-13.709694 -18.527592 -1.207914 20 6
-4.3352342 -5.8161635 -1.9437311 4 0
-5.4157715 -7.2578826 -2.0906951 13 1
-14.527729 -19.454985 1.2724966 21 9
-6.6916585 -8.9546986 -2.1729329 12 2
-7.7955608 -10.420546 -2.0611808 9 3
-7.8251042 -10.448627 -1.6028258 7 4
-13.691734 -18.262217 -1.9969124 32 5
-13.663625 -18.198242 -1.192632 20 6
-4.3734021 -5.7826748 -1.9426959 4 0
-14.409357 -19.045677 0.41686818 45 8
-5.4639568 -7.2167897 -2.0897954 11 1
-14.765931 -19.49576 1.2817078 16 9
-6.7738023 -8.9371061 -2.1798022 12 2
-7.8543706 -10.351505 -2.0580521 11 3
-7.938693 -10.447481 -1.6111128 10 4
-13.663756 -17.942738 -1.1819553 20 6
-4.407959 -5.7466402 -1.9406252 4 0
-14.342279 -18.684469 0.41114378 44 8
-5.5082059 -7.1732473 -2.0879958 12 1
-14.446535 -18.7999 1.2425604 5 9
-6.853981 -8.9129419 -2.1855264 13 2
-8.0228462 -10.421642 -2.0830817 9 3
-8.0459747 -10.440372 -1.618425 10 4
-14.389464 -18.624516 -1.2334539 21 6
-4.4218693 -5.6821856 -1.9292372 4 0
-5.5557551 -7.1315432 -2.087096 11 1
-6.9112082 -8.8586826 -2.1839998 15 2
-8.1306677 -10.410525 -2.0921547 8 3
-8.145565 -10.418351 -1.6237873 10 4
-14.31684 -18.285223 -2.0317745 32 5
-14.792665 -18.872572 -1.2566911 21 6
-4.4638233 -5.6542106 -1.9302725 3 0
-5.6078219 -7.0956421 -2.0879958 13 1
-14.451148 -18.272093 1.2208933 19 9
-6.9533911 -8.7855873 -2.1778939 13 2
-8.2632589 -10.429377 -2.1074855 9 3
-8.2649775 -10.420331 -1.6330494 10 4
-14.911629 -18.753206 -1.2556443 10 6
-4.4790359 -5.5927515 -1.9199197 4 0
-5.6523461 -7.0502377 -2.0861959 14 1
-14.607105 -18.206589 1.2233007 4 9
-7.0120959 -8.7337694 -2.1771307 10 2
-8.3742285 -10.419165 -2.1171842 8 3
-8.3848085 -10.421151 -1.6423115 12 4
-15.167582 -18.804104 -1.2661116 21 6
-4.5155358 -5.5583467 -1.9188845 4 0
-5.6915922 -6.9985099 -2.0825968 14 1
-14.922962 -18.336531 1.2390016 10 9
-7.080337 -8.693737 -2.1794205 10 2
-8.4842138 -10.406378 -2.1265705 8 3
-8.4950151 -10.408495 -1.6496235 7 4
-14.822722 -18.135651 -2.0492058 31 5
-15.456579 -18.890984 -1.2791955 21 6
-4.5370293 -5.5058155 -1.9116375 9 0
-5.730392 -6.9465785 -2.0789976 14 1
-15.760098 -19.091364 1.2974085 5 9
-7.1333561 -8.6350136 -2.1771307 10 2
-8.5931616 -10.391041 -2.1356435 9 3
-8.6168404 -10.408572 -1.6591294 9 4
-8.702858 -10.497543 -1.1929878 20 5
-15.642939 -18.8487 -1.2836965 10 6
-4.5728784 -5.4710426 -1.9106023 22 0
-5.7687426 -6.8944488 -2.0753984 14 1
-15.521159 -18.536781 1.2670536 5 9
-7.1808543 -8.5699558 -2.1733146 10 2
