# .PCD v0.7 - Point Cloud Data file format
VERSION 0.7
FIELDS x y z intensity ring
SIZE 4 4 4 4 2
TYPE F F F F U
COUNT 1 1 1 1 1
WIDTH 1344
HEIGHT 1
VIEWPOINT 0 0 0 1 0 0 0
POINTS 1344
DATA ascii
3.7640557 3.8063393 -1.4343752 13 0
6.2356553 6.3034973 0.15476793 49 8
4.071795 4.1132264 -1.3362092 21 1
6.6178269 6.6828246 0.49290007 2 9
4.5091925 4.5503068 -1.2452196 12 2
6.5347915 6.5897727 0.81194282 2 10
4.896966 4.9364438 -1.1012988 16 3
6.5702357 6.6185803 1.1450845 1 11
5.4225626 5.4586453 -0.94473124 13 4
6.5735555 6.6149879 1.4770544 3 12
6.2166491 6.2514663 -0.77132833 32 5
6.5558023 6.587925 1.8065797 2 13
6.4901285 6.5151033 2.1230881 2 14
3.799453 3.7901788 -1.4379987 10 0
6.3035831 6.283814 0.15536132 43 8
4.0748544 4.0606532 -1.3281111 19 1
6.7096047 6.6815619 0.49624959 2 9
4.5965147 4.5741091 -1.2604843 10 2
6.6077461 6.5732422 0.81542915 2 10
4.9621301 4.9327745 -1.1081818 15 3
6.6360021 6.5921335 1.1484969 1 11
5.4201503 5.3824463 -0.93790656 16 4
6.6392064 6.5884142 1.4814346 3 12
6.304318 6.2539105 -0.77690631 32 5
6.6353531 6.5776992 1.8161201 3 13
6.584177 6.5201359 2.1392844 2 14
3.8533628 3.7906585 -1.4483514 10 0
6.3761511 6.2702055 0.15609433 51 8
4.1753788 4.1031346 -1.351506 15 1
6.806222 6.6861238 0.50001782 2 9
4.6303453 4.5454664 -1.2612475 12 2
6.690454 6.5632277 0.81996119 2 10
4.9927711 4.8961177 -1.1075561 16 3
6.7374282 6.6023898 1.1582464 1 11
5.4689441 5.3555837 -0.93985647 19 4
6.7855296 6.6425662 1.5039611 3 12
6.3791609 6.2403936 -0.7807411 27 5
6.7260375 6.5751324 1.8283319 3 13
6.6574202 6.5012417 2.1482825 2 14
3.8818486 3.7670324 -1.4493867 9 0
6.4771919 6.2812233 0.15749051 52 8
4.2088079 4.0800443 -1.3533056 15 1
6.8527341 6.6384444 0.50001782 2 9
4.6690183 4.5198569 -1.2631556 14 2
6.789381 6.5701852 0.82658505 2 10
5.0197301 4.8542762 -1.1059917 19 3
6.831892 6.6020942 1.1665335 1 11
5.6061563 5.4137998 -0.95691812 16 4
6.8431082 6.6060085 1.506464 3 12
6.456986 6.2289062 -0.78492463 27 5
6.8113494 6.5661702 1.8390172 3 13
6.7587895 6.5086784 2.1662786 2 14
3.925457 3.7551827 -1.4555984 9 0
6.5656877 6.2786942 0.15857257 53 8
4.2519851 4.0632854 -1.3578045 18 1
6.9000621 6.5892372 0.50001782 2 9
4.7061396 4.4925733 -1.2646821 14 2
6.8679409 6.5516858 0.83041996 2 10
5.0586271 4.8223205 -1.1069304 16 3
6.9151831 6.5898404 1.1728706 1 11
5.6898141 5.4183388 -0.96471781 16 4
6.9045148 6.5704894 1.5095928 3 12
6.5609412 6.2413549 -0.79224569 27 5
6.8982882 6.5576849 1.8500841 2 13
6.8464575 6.5015926 2.1797757 2 14
3.9431441 3.7197347 -1.4524926 11 0
6.6686521 6.286418 0.15996876 55 8
4.3001018 4.0522151 -1.3641032 14 1
7.0331373 6.6230602 0.50629812 2 9
4.7353077 4.4560914 -1.2639189 14 2
6.9759116 6.5622835 0.8379153 2 10
5.1871629 4.8761845 -1.1275797 16 3
7.0287104 6.6027145 1.1840826 2 11
5.7969618 5.4437108 -0.97641724 14 4
7.0280046 6.5951161 1.5264877 3 12
6.6464939 6.2349291 -0.79730076 22 5
7.0155206 6.5764971 1.8691651 4 13
6.9258223 6.4856024 2.1905735 2 14
3.9704332 3.6934297 -1.4530102 13 0
6.7537518 6.2803741 0.16098098 56 8
4.3339992 4.0274005 -1.3659029 20 1
7.1365857 6.6294103 0.51048499 2 9
4.7871127 4.4437904 -1.2696431 14 2
7.0770617 6.5649123 0.84453917 2 10
5.2723784 4.8891177 -1.1388431 12 3
7.0938787 6.5736055 1.187495 1 11
5.8173442 5.3869257 -0.97349238 19 4
7.0959249 6.5685997 1.5314937 3 12
6.7103367 6.2073178 -0.79974109 16 5
7.0958591 6.5593462 1.8783239 2 13
7.0181742 6.4807239 2.2054203 4 14
4.001173 3.6715446 -1.4550807 12 0
6.8460712 6.2776704 0.16213286 56 8
4.3785486 4.0136099 -1.3713017 17 1
7.2563319 6.6468787 0.51571852 2 9
4.8353972 4.4261694 -1.2742226 12 2
7.1656761 6.556941 0.84976846 2 10
5.309298 4.8548565 -1.1394688 15 3
7.1952844 6.5748048 1.1967571 1 11
5.9037127 5.3927202 -0.98177958 18 4
7.2276883 6.5974741 1.549953 3 12
6.7976675 6.2006001 -0.80497038 22 5
7.1853147 6.5519018 1.890154 3 13
7.1151185 6.4788027 2.2216165 4 14
4.0338702 3.6500025 -1.457669 16 0
6.9357142 6.2712955 0.16321491 57 8
4.4151363 3.9907844 -1.374001 16 1
7.3766694 6.6629925 0.52095217 2 9
4.8865833 4.4107203 -1.2795652 12 2
7.2364287 6.5294433 0.85273176 1 10
5.3489299 4.8229632 -1.1407202 12 3
7.2646022 6.5456758 1.2006569 1 11
5.9294167 5.3407445 -0.97982955 18 4
7.28825 6.5600729 1.5530815 3 12
6.8615294 6.1716461 -0.80741084 16 5
7.2761335 6.5422745 1.9019842 2 13
7.2138267 6.4771438 2.2382631 2 14
4.0563707 3.6191795 -1.4566337 15 0
7.0241017 6.2626486 0.16426206 58 8
4.4574375 3.9728298 -1.3785001 16 1
7.4230061 6.6113315 0.52095217 2 9
4.9275203 4.3856373 -1.2822365 16 2
7.3175607 6.5105486 0.8569153 2 10
5.411993 4.8117566 -1.1469777 12 3
7.3902612 6.5659943 1.2138187 2 11
5.3253732 4.7297535 -0.87453443 6 4
7.3974018 6.5654116 1.566535 3 12
6.9808755 6.1935601 -0.81647497 11 5
7.3715801 6.5355968 1.9149592 2 13
7.2956786 6.461484 2.2499604 2 14
4.1250534 3.6290514 -1.4721627 14 0
7.1251307 6.2661958 0.16562334 51 8
4.4997044 3.9544764 -1.3829991 17 1
7.4918404 6.5817451 0.52262688 2 9
4.9808664 4.3727164 -1.2883424 14 2
7.4482017 6.5342011 0.86685097 2 10
5.4772964 4.8034582 -1.1538608 15 3
7.4915118 6.5652585 1.2230808 2 11
6.0452204 5.2940574 -0.98665434 12 4
7.5117736 6.5760651 1.5812398 3 12
7.0179491 6.1394224 -0.81577778 11 5
7.4879766 6.5459986 1.9332769 2 13
7.4022584 6.4642291 2.2688563 2 14
4.1817584 3.628746 -1.4835509 13 0
7.2019429 6.2451181 0.16639124 43 8
4.5265155 3.9237585 -1.3829991 17 1
7.5798807 6.5658946 0.52555776 2 9
5.0142388 4.3404093 -1.2891057 14 2
7.5120955 6.5002956 0.86911702 2 10
5.5585108 4.8064508 -1.1638726 13 3
7.5942402 6.5621176 1.232343 2 11
6.1141648 5.2813339 -0.99201655 19 4
7.6083417 6.567348 1.5918773 3 12
7.0957761 6.1227522 -0.81996119 17 5
7.5858831 6.5410347 1.947015 2 13
7.4859509 6.4480357 2.2810037 4 14
4.2040524 3.5969536 -1.4825156 13 0
7.2989907 6.2427464 0.16764782 53 8
4.5804615 3.9148543 -1.3910973 19 1
7.6851344 6.5660467 0.52974463 2 9
5.040679 4.3036304 -1.2883424 14 2
7.6194344 6.5007167 0.87626386 2 10
5.5670505 4.7479944 -1.1588666 12 3
7.6598825 6.5283003 1.2357552 1 11
6.2476087 5.3208952 -1.0076158 16 4
7.6889663 6.5461402 1.5993862 3 12
7.1262083 6.062737 -0.81856668 17 5
7.6732478 6.5235176 1.9577004 2 13
7.5872316 6.4435496 2.2981 4 14
4.2343464 3.5732358 -1.484586 14 0
7.3943686 6.2354708 0.16883458 45 8
4.6248841 3.8986552 -1.3964962 17 1
7.785778 6.5585575 0.53351277 2 9
5.1021442 4.2948833 -1.2963563 14 2
7.7138143 6.4910355 0.88201612 2 10
5.6605382 4.7598667 -1.1713815 13 3
7.7569451 6.518085 1.2440423 1 11
6.2633204 5.2592783 -1.0042036 15 4
7.8055911 6.5519924 1.614091 3 12
6.5974555 5.5339627 -0.75337422 10 5
7.7893162 6.529068 1.9756364 2 13
7.6678877 6.4204531 2.3088977 4 14
4.2999105 3.5761974 -1.4985623 11 0
7.4623227 6.2041507 0.16939306 45 8
4.6616578 3.8729324 -1.3991956 20 1
7.8786111 6.5409489 0.53665298 2 9
5.1591978 4.2817278 -1.3032255 11 2
7.8152757 6.4814577 0.8882913 2 10
5.7218308 4.7419276 -1.177013 15 3
7.8511777 6.5042977 1.251842 2 11
6.370223 5.2736545 -1.0154155 12 4
7.8674965 6.5085602 1.6172197 3 12
7.4005504 6.1200938 -0.84018135 11 5
7.8604355 6.4957905 1.982124 2 13
7.4321594 6.1375022 -0.50514668 46 6
7.7981844 6.4374781 2.334542 2 14
7.4598684 6.1538181 -0.16879968 51 7
4.3441925 3.5620148 -1.5052917 9 0
7.466311 6.1176405 0.16848554 36 8
4.6915975 3.8427632 -1.4000953 15 1
7.0972061 5.8090005 0.48065343 13 9
5.2049012 4.2571292 -1.3070416 13 2
7.1045303 5.8087864 0.80287874 11 10
5.8098664 4.7468596 -1.1882763 13 3
7.0748625 5.776288 1.1214418 15 11
6.4684005 5.2792597 -1.0251651 16 4
7.0294666 5.7330937 1.4366943 18 12
7.1095471 5.79634 -0.80253005 16 5
7.0517163 5.7450948 1.7680362 24 13
7.0953546 5.7765284 -0.47950208 12 6
7.0479112 5.735858 2.0978935 16 14
7.0604949 5.7420034 -0.1588518 52 7
4.3749619 3.5364594 -1.5073622 9 0
4.748632 3.8344033 -1.4090934 18 1
7.083745 5.7179017 0.47709462 20 9
5.2383404 4.2253022 -1.3081865 13 2
7.0642495 5.694025 0.79381454 18 10
5.7774367 4.6551518 -1.1751359 11 3
7.0506229 5.6769547 1.1114485 26 11
6.4958191 5.2265067 -1.0237026 13 4
7.0344644 5.6578755 1.4298111 28 12
7.090827 5.6991339 -0.79590619 16 5
7.0815578 5.6855836 -0.47594327 12 6
7.0361004 5.6450548 2.0825968 24 14
7.0685 5.664969 2.4272051 37 15
4.406487 3.5126169 -1.5099503 12 0
4.8112111 3.8311231 -1.419891 14 1
7.1000452 5.6496582 0.47552454 27 9
5.2953711 4.2106223 -1.3150556 15 2
7.0872436 5.6334143 0.79207134 31 10
5.9521008 4.7277374 -1.2039198 13 3
7.0776443 5.6177206 1.1094985 24 11
6.5778956 5.2191849 -1.0310147 18 4
7.0583143 5.5963559 1.4266826 22 12
7.1304393 5.6494951 -0.79590619 16 5
7.0948606 5.6192856 1.759259 31 13
7.1179428 5.6335306 -0.47573388 12 6
7.0783982 5.5982103 2.0834966 19 14
7.0745306 5.5891333 2.415817 23 15
4.4369769 3.4865451 -1.5120209 12 0
7.1340771 5.6018806 0.15832824 111 8
4.8378382 3.7974439 -1.419891 21 1
7.1424565 5.6024179 0.47573388 29 9
5.3076434 4.1602263 -1.3108579 11 2
7.1373777 5.5924006 0.79329151 21 10
6.0036278 4.7006788 -1.2076741 13 3
7.1291966 5.5779619 1.1114485 23 11
6.5922813 5.156014 -1.0276023 19 4
7.1221118 5.5664096 1.4316884 22 12
7.19169 5.6167474 -0.79834664 22 5
7.1308198 5.567204 1.7584958 29 13
7.1696968 5.5935297 -0.47657129 12 6
7.1449733 5.5702248 2.0915949 15 14
7.1301436 5.5526648 2.4215112 16 15
4.4734278 3.4649477 -1.516162 13 0
7.2109652 5.5813146 0.15916595 102 8
4.9012218 3.792197 -1.4306886 16 1
7.2129965 5.5768504 0.47782731 24 9
5.4033594 4.1746864 -1.3272674 15 2
7.2235541 5.578968 0.79852092 11 10
6.0362959 4.6586542 -1.2076741 11 3
7.2088337 5.5595741 1.1177858 17 11
6.6312594 5.1122932 -1.0280899 16 4
7.2124391 5.5563345 1.442013 14 12
7.26862 5.5955682 -0.80253005 16 5
7.2550864 5.5831389 1.7794847 12 13
7.2592387 5.5822954 -0.47992074 12 6
7.3073006 5.6152029 2.1275871 15 14
4.5036507 3.4383218 -1.5182326 12 0
4.9585676 3.7815218 -1.4396867 14 1
8.5893183 6.5456781 0.56596106 2 9
5.4542394 4.1535144 -1.3326101 15 2
8.4624071 6.4419618 0.9304747 2 10
6.1347051 4.6666298 -1.2208147 10 3
6.7679424 5.1427383 -1.0436891 13 4
8.4766064 6.4364295 1.6857381 1 12
7.8439813 5.9517517 -0.86144739 18 5
4.5259995 3.4056377 -1.517715 16 0
8.2439661 6.1987495 0.18003903 31 8
5.0191178 3.772572 -1.4495846 18 1
8.6795216 6.5191393 0.56889194 2 9
5.5113668 4.136548 -1.3394792 13 2
8.5836716 6.4401197 0.93884164 2 10
6.1307826 4.5964341 -1.2136188 14 3
8.6011944 6.4438882 1.3196013 2 11
6.7226481 5.034677 -1.0312586 20 4
8.5529652 6.4007664 1.6919955 3 12
7.9715023 5.9612784 -0.87086016 12 5
8.6028709 6.4310904 2.0878322 2 13
4.5775976 3.3946679 -1.5270324 16 0
8.3641586 6.1981926 0.18171446 43 8
5.0578604 3.7467201 -1.4531839 14 1
8.8307724 6.5368133 0.57580024 2 9
5.5748339 4.1236587 -1.3478748 13 2
8.6828909 6.4203134 0.94476819 2 10
6.2405686 4.6110444 -1.2289493 12 3
8.693881 6.4190564 1.3269135 2 11
6.9109607 5.1007886 -1.0546573 21 4
8.6832905 6.4042149 1.7088903 3 12
8.0706635 5.9480348 -0.87713534 12 5
8.7155266 6.4209476 2.1042418 2 13
4.6230216 3.3785861 -1.5342795 14 0
8.4815092 6.1939025 0.18332008 44 8
5.0870423 3.7136159 -1.4540836 18 1
8.9568672 6.5338607 0.58103383 2 9
5.6225262 4.0985136 -1.3524542 15 2
8.7951298 6.408824 0.95208931 2 10
6.3141289 4.5975938 -1.2370839 10 3
8.8347921 6.4282808 1.3415378 2 11
6.989747 5.0839429 -1.0612383 16 4
8.7933025 6.3910542 1.721718 3 12
8.1077404 5.8906193 -0.87678677 12 5
8.8316326 6.411849 2.1214147 1 13
8.9416075 6.4869337 -0.57894039 9 6
4.6574683 3.3541341 -1.5379028 12 0
8.5948839 6.1874294 0.18485589 33 8
5.1096787 3.6757376 -1.4531839 20 1
9.0432968 6.5030551 0.58375531 2 9
5.6997161 4.095665 -1.3642844 11 2
8.9561844 6.4309311 0.96463978 1 10
6.332437 4.5452962 -1.2345809 12 3
8.9525442 6.421216 1.3527498 2 11
6.8992181 4.9448209 -1.0422267 16 4
8.8976212 6.3747702 1.7336069 3 12
8.2167072 5.882585 -0.88410783 12 5
8.9208851 6.3820248 2.1320999 1 13
15.550492 11.12075 -1.0019196 18 6
4.6943703 3.3324161 -1.5425617 14 0
8.7194185 6.1851268 0.18660113 45 8
5.196578 3.6848304 -1.4707299 14 1
9.0232887 6.393579 0.57956845 2 9
5.7393861 4.063715 -1.3669558 13 2
9.0517883 6.4066567 0.97021776 1 10
6.3640146 4.5009766 -1.2345809 13 3
9.0295773 6.3814726 1.3576245 1 11
7.1629405 5.0603957 -1.0768377 18 4
9.0290518 6.3740168 1.7505019 1 12
8.316184 5.8664284 -0.89038306 12 5
9.0411367 6.3754573 2.1504176 2 13
15.864485 11.178728 -1.017097 19 6
4.7206845 3.3017783 -1.5435969 13 0
8.8312273 6.1722164 0.18806714 46 8
5.2269673 3.6518123 -1.4720796 18 1
5.8110929 4.0538726 -1.3772594 12 2
9.1387854 6.3729377 0.97474986 1 10
6.4260783 4.4778924 -1.2405255 14 3
9.1846819 6.3954186 1.3741989 1 11
7.1801744 4.9977875 -1.0741564 20 4
9.1592808 6.3706069 1.7670839 4 12
8.2162361 5.7104378 -0.87539226 18 5
9.1773281 6.3760333 2.1721697 4 13
9.19909 6.3863997 -0.58689547 19 6
9.2432375 6.4098787 -0.19633958 13 7
4.7833896 3.2961452 -1.5565379 13 0
8.9564514 6.1671162 0.18981238 35 8
5.2555451 3.6174424 -1.4729795 21 1
9.2597818 6.3688345 0.5889889 8 9
5.8732281 4.0365596 -1.3852733 12 2
9.2487411 6.3541107 0.9817223 21 10
6.4750972 4.445219 -1.2439669 20 3
7.2574563 4.976728 -1.0804937 21 4
9.2296009 6.3243771 1.7720897 7 12
8.4268761 5.77 -0.89352071 12 5
9.2442951 6.3273363 2.1775124 11 13
16.680092 11.40827 -1.0590705 19 6
4.8238664 3.274606 -1.5622318 15 0
9.1018915 6.1740365 0.19197647 36 8
5.2935743 3.5894127 -1.4765787 18 1
5.9354048 4.0185728 -1.3932874 12 2
6.5436058 4.4253612 -1.251163 15 3
7.339725 4.9581685 -1.0875622 14 4
9.4061489 6.349309 1.7974323 1 12
8.5957909 5.7979312 -0.90711701 19 5
9.4200954 6.3515463 2.2084234 3 13
16.958096 11.425462 -1.0716312 19 6
4.8578496 3.2483685 -1.5658553 13 0
9.2378836 6.1725574 0.19393115 37 8
5.3411903 3.5675251 -1.4828774 15 1
9.6036339 6.4096737 0.60510838 2 9
5.9992485 4.0010023 -1.401683 12 2
9.5570412 6.371346 1.0049057 2 10
6.6269493 4.4146156 -1.2611748 15 3
9.5876112 6.3820562 1.4141719 2 11
7.3444128 4.8870125 -1.0831748 18 4
9.5604601 6.3567624 1.8183944 3 12
8.6294174 5.7333741 -0.90641969 19 5
9.5770559 6.3605685 2.234755 2 13
17.187214 11.406197 -1.0810516 19 6
4.9078379 3.2324369 -1.5746551 14 0
9.3442259 6.1496887 0.19525753 37 8
5.4082961 3.5579941 -1.4945749 17 1
9.851759 6.4763203 0.61787838 2 9
6.0549278 3.9773488 -1.4081705 12 2
9.7195349 6.3821144 1.0172819 1 10
6.6278763 4.3487406 -1.2555431 17 3
9.7614183 6.399868 1.4331836 2 11
7.5809073 4.9683704 -1.1129109 11 4
9.741765 6.3796921 1.8443626 3 12
8.6959076 5.6904449 -0.90920866 19 5
9.7165174 6.3558917 2.2568891 4 13
17.390141 11.366794 -1.0887973 19 6
4.9367676 3.2023003 -1.5767257 15 0
9.4876099 6.1495671 0.19735181 38 8
5.4624419 3.5392241 -1.502673 16 1
10.044266 6.5029078 0.6270895 1 9
6.0990334 3.9456418 -1.4119867 12 2
9.8843107 6.3920069 1.0298322 1 10
6.7675796 4.3731194 -1.2761924 11 3
9.9025841 6.3940187 1.4473205 2 11
7.5920587 4.9002538 -1.1094985 14 4
10.016814 6.4603477 1.8878514 3 12
8.8583565 5.7110109 -0.92210776 13 5
9.8712311 6.359138 2.2824574 5 13
17.519453 11.277541 -1.0919374 19 6
4.9622583 3.1698391 -1.5777609 15 0
9.6421747 6.1569462 0.19969043 39 8
5.4870157 3.5010052 -1.502673 20 1
10.189335 6.4988236 0.6333698 2 9
6.143961 3.915642 -1.4161844 15 2
10.016083 6.3784971 1.0388964 1 10
6.8405151 4.3545322 -1.284327 15 3
10.143518 6.4521899 1.4760816 1 11
7.6729927 4.8769469 -1.1163234 15 4
10.158929 6.4545164 1.9063107 3 12
8.988842 5.7066946 -0.93152058 13 5
9.9949608 6.340549 2.3007751 3 13
5.0245981 3.1617081 -1.5907019 13 0
9.766181 6.1405725 0.20136586 40 8
5.5107207 3.4635725 -1.502673 21 1
10.268284 6.4487748 0.63546324 2 9
6.1960897 3.88831 -1.4219086 12 2
10.155474 6.3705153 1.0488322 2 10
6.9276557 4.3423452 -1.2949647 13 3
10.363285 6.490798 1.5014304 2 11
7.7985482 4.8825464 -1.1297289 21 4
10.329341 6.4620109 1.9297757 3 12
9.1433458 5.7156157 -0.94337374 13 5
10.121135 6.3243871 2.3198559 1 13
5.06954 3.1407969 -1.5979488 12 0
9.907424 6.1332951 0.20339034 40 8
5.5380812 3.4270673 -1.5035729 22 1
10.479528 6.4798751 0.64572108 2 9
6.2715192 3.8748841 -1.4329756 17 2
10.340395 6.386363 1.0633 2 10
6.9846992 4.3104696 -1.2999705 14 3
10.59083 6.530818 1.5277542 2 11
7.8645544 4.8477707 -1.13436 15 4
10.43307 6.4259987 1.9407262 3 12
9.3119793 5.7310133 -0.95662141 13 5
10.315535 6.3461585 2.3542016 1 13
9.9281597 6.1030741 -0.61076069 9 6
5.1045356 3.1133778 -1.6020899 12 0
9.9995213 6.0941582 0.2044026 41 8
5.6051402 3.4146833 -1.5152704 18 1
10.620049 6.4647126 0.65158272 2 9
6.2883558 3.8248818 -1.4306859 12 2
10.578804 6.4320173 1.0831715 2 10
7.0146222 4.2616024 -1.2999705 16 3
10.737976 6.5185328 1.5423784 1 11
7.9389372 4.8174634 -1.1402097 18 4
10.639832 6.4513335 1.9707617 3 12
9.3712225 5.6798844 -0.95871317 13 5
9.9773636 6.0377455 -0.61117935 27 6
9.9995432 6.0440178 -0.20394883 43 7
5.1128969 3.0697105 -1.5979488 13 0
10.037341 6.0238938 0.20433277 41 8
5.6371984 3.3804798 -1.5175198 25 1
10.814556 6.4826393 0.66079384 2 9
6.3748765 3.8183095 -1.4444242 12 2
10.753384 6.4357634 1.0964192 1 10
7.1044922 4.2502689 -1.3112338 13 3
10.962712 6.5532508 1.5682149 2 11
8.0030489 4.7802482 -1.1445969 18 4
10.771697 6.4314132 1.9870309 3 12
9.3353596 5.5694122 -0.95104349 13 5
5.1669331 3.0544989 -1.6083016 12 0
10.356355 6.1174145 0.20995246 14 8
5.6986737 3.364819 -1.5278676 22 1
10.990284 6.4841127 0.66874892 2 9
6.4453506 3.799634 -1.4543462 8 2
10.958291 6.4575052 1.1128045 1 10
7.1510139 4.2105899 -1.3143625 19 3
11.124537 6.5450115 1.584789 2 11
7.968668 4.6864157 -1.1350911 21 4
10.920219 6.41711 2.0061157 3 12
9.4039783 5.5238991 -0.95418108 13 5
5.2131796 3.0329247 -1.6160662 11 0
10.51876 6.1171498 0.2123958 14 8
5.73382 3.3318064 -1.5310168 23 1
11.09634 6.4452677 0.67251712 2 9
6.4761586 3.7586303 -1.4554911 11 2
11.154778 6.4688005 1.1281439 1 10
7.2752123 4.2172937 -1.3318831 14 3
11.285636 6.5367937 1.6013633 2 11
7.8826432 4.5620604 -1.1182733 20 4
11.079917 6.409894 2.027391 3 12
9.6907015 5.6016984 -0.97928184 14 5
5.2471123 3.0050526 -1.6202073 10 0
5.785121 3.3091521 -1.5386652 21 1
11.283256 6.4489112 0.68110019 2 9
6.5363374 3.7327983 -1.4631234 13 2
11.368121 6.4895225 1.1452264 1 10
7.325068 4.1781454 -1.3356376 14 3
11.486216 6.5463099 1.6232998 1 11
8.2765503 4.7132063 -1.1694584 20 4
11.248001 6.4027452 2.0499175 3 12
9.816165 5.5831599 -0.98799747 14 5
5.2533326 2.9588954 -1.6155485 14 0
5.8426213 3.2867792 -1.5476632 19 1
11.426613 6.4228086 0.68696183 2 9
6.5742178 3.6938102 -1.4657948 11 2
11.577579 6.4996905 1.1616118 1 10
7.3926811 4.146883 -1.3425208 12 3
11.642452 6.5280967 1.6388991 2 11
8.4079657 4.7106147 -1.1833514 15 4
11.37454 6.3674488 2.0646224 3 12
9.8931541 5.5358982 -0.99183232 14 5
5.2603436 2.9146581 -1.6114074 16 0
5.8620152 3.2440228 -1.5467634 22 1
11.642464 6.4375925 0.69721967 2 9
6.633132 3.6647105 -1.4730455 13 2
11.748247 6.4880548 1.1741621 1 10
7.4837136 4.1295319 -1.353784 17 3
11.827938 6.5212941 1.6583982 2 11
8.3050394 4.5770707 -1.1643399 19 4
11.558879 6.3650599 2.0899646 3 12
9.9525051 5.47823 -0.99392402 14 5
5.3127942 2.8954253 -1.6212426 16 0
5.8913679 3.206743 -1.548563 19 1
11.756186 6.3963828 0.70140654 2 9
6.6958714 3.640101 -1.4814411 13 2
11.926311 6.4781594 1.1874098 1 10
7.5151224 4.0803771 -1.3544097 17 3
12.015129 6.518259 1.6783847 2 11
8.4956026 4.6050634 -1.18652 29 4
11.753036 6.3681107 2.1171842 3 12
10.193754 5.5186415 -1.0141442 14 5
5.3766451 2.8829331 -1.6347013 14 0
5.9096212 3.1647301 -1.5476632 21 1
11.944962 6.3914142 0.70998967 2 9
6.7418957 3.604377 -1.4860206 11 2
12.114225 6.4738259 1.2017034 1 10
7.616611 4.0668945 -1.3675503 12 3
12.161924 6.4884129 1.6925216 2 11
8.7859879 4.6853738 -1.2225933 12 4
11.891349 6.3360643 2.1340792 3 12
10.202943 5.4341459 -1.0113552 14 5
5.4068933 2.8507326 -1.6378069 14 0
5.9263988 3.1206722 -1.5463136 23 1
12.140182 6.3899674 0.71899146 2 9
6.7992878 3.5757651 -1.4932712 17 2
12.303748 6.4650955 1.2159969 1 10
7.7385526 4.0645561 -1.3844452 18 3
12.339397 6.4755855 1.7110457 2 11
8.6743202 4.5483308 -1.2026067 20 4
12.074172 6.3283377 2.1591089 3 12
10.290052 5.3886642 -1.0162359 14 5
5.3889308 2.7933571 -1.6264189 15 0
6.0189948 3.1159542 -1.5647595 21 1
12.309776 6.3671613 0.72631848 2 9
6.8683047 3.5495534 -1.5028118 11 2
12.493736 6.4540243 1.2302905 1 10
7.8130794 4.0326328 -1.3925798 15 3
12.533622 6.4635482 1.7315198 2 11
8.9087772 4.5922594 -1.2306367 16 4
12.238565 6.3032789 2.1803839 3 12
10.512594 5.4097033 -1.0343643 14 5
5.3979735 2.7504048 -1.6233131 16 0
6.1187577 3.1136289 -1.5850052 23 1
12.471432 6.3408098 0.73322678 2 9
6.9471793 3.5290806 -1.5146419 11 2
12.691267 6.4442205 1.2452812 1 10
7.8586593 3.9869263 -1.3957086 15 3
12.72363 6.4494848 1.7515063 2 11
8.4589729 4.2859106 -1.1643399 12 4
12.389779 6.2721076 2.1994689 3 12
10.635445 5.3793435 -1.0427313 14 5
5.4343171 2.721303 -1.6284895 16 0
6.1943765 3.097857 -1.5989521 17 1
12.690482 6.3410821 0.74348468 2 9
6.994482 3.4918942 -1.5196029 13 2
12.899958 6.4373131 1.261318 1 10
7.9888349 3.9830866 -1.4138548 14 3
12.882065 6.4171481 1.7671057 2 11
9.1390638 4.5505967 -1.2535481 19 4
12.555298 6.2461686 2.2210569 3 12
10.814533 5.3777966 -1.0566761 15 5
5.4670482 2.6901238 -1.6326306 16 0
6.2263455 3.0596967 -1.6016515 16 1
12.912621 6.3426032 0.75395191 2 9
7.0498109 3.4597754 -1.526472 13 2
13.091278 6.4190183 1.2756114 1 10
8.0654268 3.9529622 -1.4226153 16 3
13.078768 6.4043927 1.7880672 2 11
9.192008 4.4971523 -1.2564731 18 4
12.707545 6.214366 2.2404547 1 12
10.880456 5.3161602 -1.0594652 15 5
12.397869 6.0495253 -0.722969 8 6
5.5165386 2.6679859 -1.6419481 15 0
12.450562 6.0161614 0.24136679 19 8
6.2926536 3.0392771 -1.613349 15 1
13.086096 6.314805 0.76148826 2 9
7.103857 3.4249692 -1.5329596 16 2
13.263893 6.3920426 1.2881619 1 10
8.0892668 3.8948445 -1.4219894 16 3
13.255537 6.3766093 1.8061038 1 11
9.3941526 4.5170622 -1.2798719 15 4
12.946483 6.2195935 2.2748702 1 12
10.989153 5.2745566 -1.0664377 15 5
12.400178 5.9438319 -0.72066617 26 6
12.454493 5.9618497 -0.24101773 31 7
5.5734181 2.6476474 -1.6533362 15 0
12.546454 5.9548159 0.24241392 19 8
6.3207593 2.9986162 -1.6151485 18 1
13.281464 6.2951488 0.77028066 2 9
7.1737294 3.3971343 -1.5428816 13 2
13.517093 6.3981671 1.308382 1 10
8.1912651 3.8737414 -1.43513 14 3
13.482801 6.3704185 1.8309652 2 11
9.5475168 4.5090132 -1.2964462 12 4
11.119419 5.2418923 -1.0755018 16 5
12.791932 6.0221605 -0.74097258 8 6
5.6215286 2.6225576 -1.662136 13 0
6.3910003 2.9774587 -1.6277459 15 1
13.513404 6.2899261 0.78116655 2 9
7.2150707 3.3552511 -1.5466977 15 2
13.677065 6.3573856 1.3195379 1 10
8.3220224 3.8647182 -1.4532764 11 3
13.68541 6.349658 1.8524141 2 11
9.5687323 4.4355679 -1.2949837 14 4
11.260613 5.2126756 -1.0856119 16 5
12.98595 6.0031013 -0.74976498 17 6
5.5786729 2.554117 -1.6440187 11 0
6.3696079 2.9122024 -1.6169481 21 1
13.725204 6.2694106 0.7907964 2 9
7.2579641 3.3137684 -1.5508956 10 2
13.896224 6.338737 1.3362719 1 10
8.2991333 3.7821312 -1.4445159 15 3
13.881151 6.3230839 1.8728882 2 11
8.761116 3.9871299 -1.1818891 12 4
11.369285 5.1669078 -1.0925844 16 5
13.219557 5.996655 -0.76075554 17 6
5.6316099 2.5309467 -1.6543714 15 0
6.3737826 2.8604822 -1.6128991 24 1
7.3012009 3.2705755 -1.5550934 15 2
14.085616 6.3066974 1.3502167 1 10
8.3902493 3.7531419 -1.4557793 15 3
14.074655 6.2900057 1.8928748 2 11
11.452386 5.1085172 -1.0971165 16 5
13.441734 5.9846425 -0.7711181 17 6
5.6738868 2.5024858 -1.6616182 10 0
6.4524493 2.8418386 -1.6277459 22 1
14.212496 6.2566104 0.81382424 2 9
7.34306 3.2294993 -1.5592911 12 2
14.235095 6.2546992 1.3603268 1 10
8.4336863 3.7038913 -1.458908 15 3
14.284382 6.2674351 1.9152987 1 11
9.9649639 4.368094 -1.3359319 12 4
11.608234 5.0811696 -1.108621 17 5
13.696274 5.9866056 -0.78336465 17 6
5.5932851 2.4215894 -1.6331483 9 0
6.4859543 2.8040357 -1.631345 21 1
14.40251 6.2205973 0.82219797 2 9
7.4555583 3.2170434 -1.5783721 12 2
14.474924 6.2428751 1.3791524 1 10
8.5536757 3.6855657 -1.4751772 12 3
14.506476 6.2444763 1.9391851 1 11
10.014524 4.3087931 -1.3386129 16 4
11.753267 5.0471749 -1.1190797 17 5
13.939652 5.9774261 -0.7948786 17 6
5.6598415 2.4036286 -1.6476421 7 0
6.5484304 2.7769461 -1.6421427 15 1
14.66627 6.2133899 0.83475858 2 9
7.4941082 3.1718025 -1.5818065 10 2
14.646603 6.1960068 1.3913542 1 10
8.7211227 3.6857409 -1.499581 11 3
14.677731 6.1970987 1.9562467 1 11
10.166898 4.2904849 -1.3549435 12 4
11.898388 5.0114002 -1.1295384 18 5
14.209335 5.975975 -0.80785793 17 6
5.7567353 2.3974791 -1.6709359 6 0
6.5712547 2.7326615 -1.6430426 22 1
14.963822 6.2165837 0.84920329 2 9
7.6067333 3.1570351 -1.6008875 10 2
14.910341 6.1852131 1.4122716 1 10
8.8123369 3.6519911 -1.5108442 13 3
14.926056 6.1795311 1.9835457 1 11
10.258968 4.2452087 -1.3632306 15 4
12.002196 4.9592066 -1.1361622 18 5
14.459355 5.9626698 -0.81968582 26 6
5.7715445 2.3565009 -1.6704183 7 0
6.575738 2.6808305 -1.6394434 21 1
15.157456 6.176393 0.85778642 2 9
7.675324 3.1244297 -1.6108096 13 2
15.163559 6.1665316 1.4321432 1 10
8.8992109 3.617213 -1.5214819 14 3
15.159057 6.1554537 2.0088944 2 11
10.402402 4.2197533 -1.3783424 15 4
12.147324 4.9201794 -1.146621 18 5
14.619955 5.9127913 -0.82648951 17 6
5.8466349 2.3408563 -1.6875002 6 0
6.6517358 2.6591599 -1.6538402 20 1
15.359721 6.1341276 0.86678815 4 9
7.6987734 3.0714974 -1.6111913 10 2
15.375442 6.131074 1.4481798 2 10
9.0013218 3.5856998 -1.5346223 15 3
15.393477 6.1258144 2.0342433 2 11
10.475156 4.1664515 -1.3841921 15 4
12.33323 4.8955245 -1.1609144 19 5
14.811276 5.8701801 -0.83496791 26 6
14.917954 5.9034243 -0.28004134 28 7
5.870028 2.302804 -1.6895708 6 0
6.6828394 2.6176324 -1.6569895 24 1
15.826241 6.1926742 0.89065343 2 9
7.745626 3.0276849 -1.6165339 12 2
15.811299 6.1772838 1.4851339 1 10
9.0997419 3.5515037 -1.547137 13 3
15.746582 6.1393409 2.0751913 2 11
10.655654 4.1523271 -1.4041786 14 4
12.433954 4.8352985 -1.1671896 19 5
15.233575 5.9148307 -0.85642564 17 6
5.876945 2.2583027 -1.6869825 7 0
6.7064099 2.5730078 -1.6583391 19 1
16.17494 6.1992655 0.90781957 2 9
7.7739086 2.9763446 -1.6180604 12 2
16.066168 6.1479321 1.5050054 1 10
9.0984821 3.4780145 -1.5427569 16 3
16.052399 6.1298103 2.1098022 2 11
10.734457 4.0969472 -1.4107596 10 4
12.54105 4.7789359 -1.1741621 19 5
15.520917 5.9020491 -0.87024236 17 6
5.8799109 2.2124565 -1.6833591 6 0
6.7315063 2.5288665 -1.6601387 19 1
16.471054 6.1845031 0.92205495 2 9
7.707593 2.8909552 -1.6001244 22 2
16.433334 6.1572542 1.5353355 1 10
9.2070417 3.4478691 -1.5571488 14 3
16.376356 6.1261296 2.1468506 3 11
10.861351 4.0587344 -1.4236778 11 4
12.727177 4.7483749 -1.1884557 20 5
15.858324 5.9071078 -0.88688523 26 6
5.9183993 2.1810658 -1.6900884 7 0
6.7119861 2.4695303 -1.6511407 20 1
16.821274 6.1823583 0.9392212 2 9
7.742331 2.8424885 -1.6031773 16 2
16.770395 6.1536946 1.5628768 1 10
9.238308 3.3862274 -1.5584004 16 3
16.687153 6.1099358 2.1819489 3 11
10.956536 4.0073562 -1.4324524 11 4
12.88728 4.7058778 -1.2003088 20 5
16.167505 5.894083 -0.90185326 18 6
5.9665689 2.1504495 -1.6994059 5 0
6.7331533 2.4227567 -1.6520406 32 1
17.147011 6.1631732 0.9549219 2 9
7.9430571 2.8534138 -1.6405759 15 2
17.136549 6.1492834 1.5928583 1 10
9.4408159 3.3840203 -1.5884358 12 3
16.979815 6.0830078 2.2146099 3 11
11.085174 3.9668851 -1.4456142 12 4
12.949839 4.6265178 -1.2030978 20 5
16.382353 5.8399315 -0.91148311 18 6
6.0032988 2.1164534 -1.7056175 5 0
6.7462254 2.3744006 -1.6511407 26 1
17.566463 6.1757908 0.97585636 2 9
7.9558625 2.7938995 -1.6390493 15 2
17.479858 6.1350622 1.6207482 1 10
9.5164061 3.3363276 -1.597196 13 3
17.272091 6.0486093 2.2470272 6 11
11.142576 3.8998919 -1.4495142 11 4
13.204572 4.6112437 -1.2236667 21 5
16.575483 5.7786837 -0.91996151 27 6
6.065414 2.0908601 -1.7190762 3 0
6.7442107 2.320904 -1.6466417 27 1
17.986908 6.1828547 0.99679077 2 9
8.0513039 2.7644327 -1.6546957 12 2
17.812479 6.1124697 1.6475922 1 10
9.4983549 3.2557228 -1.590313 14 3
11.195824 3.8310096 -1.4529265 13 4
13.391055 4.5717311 -1.2379601 22 5
16.836607 5.7382083 -0.93220812 18 6
6.1146483 2.0601814 -1.7289113 2 0
6.7676392 2.2762458 -1.6484413 20 1
18.313622 6.1525474 1.0124915 2 9
8.0871572 2.7137775 -1.6581303 18 2
18.153177 6.0880704 1.6751333 1 10
9.509614 3.1855676 -1.5884358 15 3
11.387967 3.8081553 -1.4743755 11 4
13.464224 4.4920115 -1.2417951 22 5
17.024057 5.6697598 -0.94037253 18 6
6.161911 2.0283182 -1.7382288 2 0
6.814837 2.2392883 -1.6560897 26 1
18.595236 6.1030202 1.0256802 2 9
8.1394882 2.668257 -1.6649995 18 2
18.577696 6.0864911 1.7103442 1 10
9.5428877 3.122782 -1.590313 14 3
11.565234 3.7778654 -1.4938745 11 4
13.612704 4.4361787 -1.2526023 22 5
17.125902 5.5711608 -0.94382668 18 6
6.1479883 1.9774556 -1.7304642 2 0
6.9041395 2.2166781 -1.6740857 24 1
18.96727 6.0824256 1.0438931 2 9
8.1836357 2.6211791 -1.6703421 16 2
18.907122 6.0522213 1.7368397 1 10
9.7219715 3.1082892 -1.616594 14 3
11.651196 3.7183743 -1.5016742 10 4
13.912174 4.4292393 -1.2773546 23 5
17.38423 5.5246201 -0.95596868 18 6
6.1468992 1.929857 -1.7263231 2 0
6.8971319 2.1614308 -1.6686869 26 1
8.1829977 2.558125 -1.6665258 18 2
19.295029 6.0282121 1.7685643 1 10
9.7057209 3.0285733 -1.6103365 16 3
11.767844 3.6652782 -1.5133736 13 4
14.193907 4.4100456 -1.3003637 24 5
17.735226 5.5001526 -0.97313493 18 6
6.1639161 1.888028 -1.7273583 1 0
6.9437342 2.1229129 -1.6763352 22 1
19.8106 6.049149 1.0855525 3 9
8.2645035 2.5204098 -1.6795008 18 2
19.698753 6.0037236 1.8016834 1 10
9.7908812 2.980294 -1.6209741 19 3
11.850129 3.6003406 -1.5206858 13 4
14.31893 4.3422308 -1.3090792 24 5
18.008331 5.4473305 -0.98600948 18 6
6.151032 1.8372095 -1.7201115 1 0
6.9920015 2.0844061 -1.6844335 21 1
8.213727 2.4439366 -1.6657627 15 2
20.122154 5.9795704 1.8365457 1 10
9.7995777 2.9102108 -1.6190969 12 3
12.110989 3.5874395 -1.5509094 10 4
14.501745 4.2873564 -1.3230242 25 5
18.209734 5.3732367 -0.99501133 18 6
6.181942 1.8007038 -1.7252878 1 0
7.0415807 2.0471041 -1.6929817 23 1
8.2230453 2.3843513 -1.6642361 13 2
20.610189 5.9722133 1.8773347 1 10
10.070127 2.9142156 -1.6603956 16 3
12.203783 3.5247552 -1.5596839 13 4
14.683747 4.2326951 -1.3369691 25 5
18.695967 5.375113 -1.0195045 19 6
6.1497598 1.7448436 -1.7128645 2 0
7.1682024 2.0297472 -1.7199757 13 1
8.2655354 2.335794 -1.6695787 13 2
21.119247 5.9602323 1.9198667 1 10
10.116347 2.8531044 -1.6647757 17 3
12.300709 3.4598958 -1.568946 11 4
13.15916 3.6939173 -1.1957767 20 5
18.89175 5.292448 -1.0281924 19 6
6.1987343 1.7132388 -1.7232174 2 0
7.1856089 1.9819475 -1.7208756 11 1
21.895411 6.0309968 1.1902244 4 9
8.3384304 2.2936537 -1.6810273 15 2
21.643456 5.9494071 1.9637932 1 10
10.193168 2.7980971 -1.6741619 15 3
12.373754 3.3897178 -1.5752833 10 4
13.184628 3.6019592 -1.1957767 20 5
19.224981 5.2413316 -1.0443118 9 6
6.2105441 1.6699218 -1.7232174 2 0
7.2369137 1.9418348 -1.7298737 11 1
8.3732033 2.2404633 -1.6848437 13 2
22.092512 5.90727 2.0007472 2 10
10.292609 2.748275 -1.6873024 17 3
12.466168 3.3216555 -1.5840578 12 4
15.192798 4.0368109 -1.3753176 27 5
19.423273 5.1499863 -1.0531043 9 6
6.2257895 1.6274973 -1.7242525 1 0
7.2597232 1.89372 -1.7321231 9 1
8.4304419 2.1928253 -1.6932391 13 2
22.557446 5.8631692 2.0390959 4 10
10.323017 2.6793296 -1.6891795 14 3
12.520368 3.2403226 -1.5879577 14 4
15.413518 3.9804723 -1.3927487 28 5
19.642487 5.0616164 -1.063048 19 6
6.2222943 1.5791093 -1.7201115 2 0
7.2636409 1.8393373 -1.7298737 7 1
8.4569664 2.1367979 -1.6955289 18 2
23.101103 5.8283248 2.0844166 4 10
10.403222 2.6208336 -1.6991913 16 3
12.739055 3.2021961 -1.612819 13 4
15.626454 3.9193001 -1.4094826 28 5
19.974655 4.9950619 -1.0790628 29 6
6.2556772 1.5411736 -1.7263231 2 0
7.2535968 1.7829971 -1.7244748 7 1
18.985683 4.6598196 1.0245287 27 9
8.4491577 2.0706229 -1.6909494 16 2
10.436616 2.5518947 -1.7016943 16 3
12.768814 3.1150649 -1.613794 14 4
15.889613 3.86759 -1.4307486 29 5
18.947353 4.5978565 -1.0218073 19 6
6.2287049 1.4884827 -1.7159703 1 0
19.024168 4.5427237 0.34140396 32 8
7.2620764 1.7314101 -1.723575 7 1
18.983934 4.5226116 1.0227494 30 9
8.440136 2.0076113 -1.68637 18 2
10.484497 2.4880939 -1.7067002 15 3
13.010471 3.0779445 -1.6415801 12 4
16.207092 3.8252239 -1.4568955 29 5
20.803711 4.8986282 -1.1200942 9 6
6.2537475 1.4495435 -1.7201115 1 0
7.2812877 1.6836983 -1.7253746 7 1
8.5094261 1.9614275 -1.697437 12 2
10.505463 2.4157228 -1.7073259 16 3
13.178168 3.0230463 -1.6601044 11 4
16.303322 3.727972 -1.4631705 30 5
21.705873 4.9513798 -1.1667778 10 6
6.256176 1.4041536 -1.7180409 1 0
7.2928653 1.6328208 -1.7253746 7 1
26.25322 5.8682876 1.4098262 7 9
8.5957241 1.9182255 -1.7119384 12 2
10.498931 2.3371761 -1.7035716 17 3
13.288095 2.950773 -1.6713163 11 4
16.523483 3.6571178 -1.4806018 30 5
22.605841 4.9909034 -1.2132523 10 6
6.254499 1.3579836 -1.7149351 1 0
7.2812319 1.5769174 -1.7199757 7 1
8.6914272 1.8759764 -1.728348 7 2
10.484097 2.2571659 -1.6985657 19 3
13.341367 2.8650117 -1.67546 18 4
22.882334 4.8846765 -1.2262316 20 6
6.2713895 1.3158756 -1.7170056 7 0
7.2958775 1.5268482 -1.7208756 7 1
8.7562027 1.8260747 -1.7386516 4 2
10.53441 2.1911588 -1.7041972 16 3
13.452397 2.7907534 -1.6869156 16 4
23.326662 4.8094935 -1.2482127 21 6
6.2804232 1.2720611 -1.7170056 5 0
7.3063588 1.4758762 -1.7208756 7 1
8.7860594 1.7683911 -1.7420862 4 2
10.429371 2.0934634 -1.6847994 17 3
13.60975 2.7244415 -1.704221 10 4
23.684847 4.7112064 -1.2655882 10 6
6.3081107 1.2318871 -1.722182 1 0
7.3050075 1.4225972 -1.7181761 7 1
8.7535658 1.6999371 -1.733309 3 2
10.695494 2.0712478 -1.7254723 14 3
13.55632 2.6154473 -1.6952027 18 4
24.006664 4.6055841 -1.2810796 21 6
6.3581171 1.1967824 -1.7335701 1 0
7.3106909 1.3721215 -1.7172763 6 1
8.805747 1.6463611 -1.741323 4 2
10.674739 1.9900124 -1.7198406 15 3
13.95048 2.5931273 -1.7422442 10 4
24.203215 4.4683318 -1.2898722 10 6
26.849655 4.9326735 7.314744 4 15
6.339704 1.1475478 -1.7263231 1 0
7.3315983 1.3231266 -1.7199757 7 1
8.7899733 1.5799826 -1.7359804 4 2
10.781703 1.9321659 -1.7348584 14 3
13.895941 2.4827533 -1.7332259 13 4
24.646797 4.3725057 -1.3118533 21 6
6.3247204 1.0992937 -1.7201115 1 0
8.7969208 1.5179111 -1.7352172 4 2
10.90395 1.8756011 -1.7523791 13 3
14.032283 2.4061458 -1.7480941 18 4
18.535891 3.1650703 -1.6451519 35 5
25.275278 4.3022275 -1.3436735 11 6
6.36273 1.0601923 -1.7283937 1 0
7.332056 1.2177581 -1.7159266 34 1
8.8150501 1.4577453 -1.7367436 4 2
10.873898 1.7923688 -1.745496 10 3
13.886155 2.2814186 -1.7278637 19 4
25.348064 4.1327381 -1.3459762 11 6
6.3318224 1.0096592 -1.7180409 1 0
7.3634744 1.1702113 -1.7213255 6 1
8.7978649 1.3918743 -1.7314008 4 2
10.897853 1.7182567 -1.7473731 8 3
14.29003 2.2454247 -1.7761239 11 4
19.208179 3.0044951 -1.7009314 37 5
26.134094 4.073813 -1.3861703 11 6
6.3578143 0.96834195 -1.7232174 1 0
7.3444905 1.1146857 -1.7150269 5 1
8.8190145 1.3321748 -1.7336906 4 2
11.048273 1.663004 -1.7695868 6 3
14.148306 2.1220512 -1.7566248 19 4
26.489834 3.9400396 -1.4035457 11 6
6.4026561 0.92948318 -1.7335701 1 0
7.3655939 1.0653369 -1.7181761 7 1
8.8280993 1.2705781 -1.7336906 4 2
11.051792 1.5847158 -1.7683355 6 3
14.07238 2.0103121 -1.7454128 18 4
27.964247 3.9599836 -1.4801657 11 6
6.3707151 0.87947786 -1.7232174 1 0
7.347755 1.0104382 -1.7123275 5 1
8.8406448 1.2094476 -1.7344538 22 2
11.050843 1.5059208 -1.7664583 6 3
14.074268 1.9104242 -1.7439504 19 4
28.49003 3.8317478 -1.5065429 11 6
6.3728681 0.83448178 -1.722182 1 0
7.3507652 0.95860904 -1.7114276 5 1
8.8332987 1.1456789 -1.7314008 18 2
11.043453 1.4264572 -1.7636423 4 3
14.24871 1.8328885 -1.7639371 19 4
29.435385 3.7498834 -1.5551107 12 6
6.3286915 0.78379393 -1.7087234 2 0
7.3785534 0.90989476 -1.7163765 6 1
8.8311481 1.0843294 -1.7294928 3 2
11.048986 1.3507743 -1.7630166 5 3
14.49763 1.7621039 -1.7931857 14 4
20.483747 2.4788001 -1.8051698 37 5
30.265293 3.6464171 -1.5976075 11 6
6.356905 0.74339336 -1.7149351 1 0
7.3690896 0.85785013 -1.7127774 6 1
8.8385029 1.0226499 -1.7294928 3 2
11.036561 1.2711186 -1.759575 4 3
14.631562 1.6774055 -1.8082974 16 4
30.802021 3.4931161 -1.6246129 10 6
6.4387522 0.70743513 -1.7356406 1 0
7.3613391 0.80490065 -1.709628 5 1
8.817935 0.95949543 -1.7241502 3 2
11.042994 1.1957529 -1.7592622 5 3
14.828445 1.5951755 -1.8312089 5 4
31.949175 3.4031055 -1.6838571 9 6
6.3550205 0.65448755 -1.7118292 1 0
7.3550158 0.75358307 -1.7069286 4 1
8.8752012 0.90307432 -1.7340722 3 2
11.033384 1.1168387 -1.7564464 21 3
14.75008 1.4852545 -1.8202407 5 4
32.898308 3.2720916 -1.7326344 8 6
6.3786654 0.6119501 -1.7170056 1 0
7.3794966 0.70406789 -1.7114276 4 1
8.826417 0.8374536 -1.723387 3 2
11.066297 1.0441283 -1.7605137 6 3
14.712654 1.3778012 -1.8143909 5 4
33.448826 3.097065 -1.7604771 7 6
6.3711376 0.56748617 -1.7138997 1 0
7.3899422 0.65433294 -1.7127774 3 1
8.8711634 0.77924895 -1.7310193 3 2
11.065445 0.96615827 -1.7592622 4 3
14.694227 1.2726629 -1.8109785 4 4
34.464626 2.9486153 -1.8128129 6 6
6.3557806 0.52031076 -1.7087234 1 0
7.3633575 0.59890723 -1.7055789 3 1
8.8607321 0.71602827 -1.7279664 3 2
11.077983 0.88742417 -1.7602009 3 3
14.665155 1.1670548 -1.8063475 4 4
35.082191 2.7487195 -1.8442147 5 6
6.3785229 0.47736508 -1.7138997 1 0
7.3576427 0.54676819 -1.7033294 3 1
8.869544 0.65289652 -1.7287296 3 2
11.064206 0.80862379 -1.7570721 4 3
14.657107 1.0634881 -1.8043977 4 4
35.897408 2.5605743 -1.8860834 4 6
6.435668 0.43648317 -1.7283937 1 0
7.3846121 0.49695897 -1.7087282 3 1
8.8777008 0.59276968 -1.7294928 3 2
11.06157 0.73277104 -1.7558208 3 3
14.594845 0.95659912 -1.7958668 19 4
36.779015 2.3719549 -1.931511 3 6
6.3729286 0.38867143 -1.710794 1 0
7.3956051 0.44715589 -1.7105279 3 1
8.8777037 0.53054303 -1.7287296 3 2
11.07036 0.65576243 -1.7564464 3 3
14.630744 0.85897803 -1.7995229 4 4
6.3716292 0.34395918 -1.7097588 1 0
7.3946543 0.39530236 -1.709628 2 1
8.8615856 0.46752194 -1.7249134 3 2
63.648609 3.3468213 5.5762243 9 10
11.066777 0.57805389 -1.7551949 3 3
63.614067 3.3004754 7.821331 6 11
14.636383 0.75682223 -1.7995229 4 4
37.785961 1.907547 -1.9828002 2 6
6.3622966 0.29892448 -1.7066529 1 0
7.3816609 0.3429448 -1.7060288 2 1
8.8489437 0.40492287 -1.7218604 3 2
11.031076 0.49898857 -1.7489375 2 3
14.619495 0.65364027 -1.7968417 3 4
6.3912525 0.2555837 -1.7138997 2 0
7.3760858 0.29109886 -1.7042291 2 1
8.8671894 0.34529585 -1.7249134 3 2
11.03027 0.42374426 -1.7483118 3 3
14.615768 0.55126172 -1.7958668 3 4
38.954323 1.4283901 -2.0428817 1 6
6.3580904 0.21091789 -1.7045823 2 0
7.3701057 0.24062671 -1.7024295 3 1
8.8419123 0.28250504 -1.7195706 3 2
11.02901 0.34660408 -1.7476861 3 3
14.595372 0.45103356 -1.7929419 3 4
6.370995 0.16683136 -1.7076882 1 0
7.3696575 0.18912131 -1.7019798 3 1
8.8436689 0.22076999 -1.7195706 3 2
11.031161 0.26959339 -1.7476861 3 3
14.570382 0.34845626 -1.7895297 3 4
6.3874564 0.12264606 -1.7118292 1 0
7.3571601 0.13741206 -1.6988304 4 1
8.8096628 0.15838893 -1.7127017 3 2
11.032775 0.19258003 -1.7476861 3 3
14.57246 0.24673428 -1.7895297 3 4
6.3765664 0.077908598 -1.7087234 1 0
7.3637857 0.086114414 -1.7001802 3 1
8.8419638 0.097227402 -1.7188075 3 2
11.021998 0.11542795 -1.7458088 2 3
14.532143 0.14457859 -1.7844112 2 4
6.3653641 0.033332221 -1.7056175 2 0
7.3486176 0.034633435 -1.6965809 3 1
8.8267212 0.035433445 -1.7157546 3 2
10.998832 0.038394328 -1.7420545 3 3
14.532805 0.040585294 -1.7844112 2 4
6.3654394 -0.012220781 -1.7056175 2 0
7.350626 -0.017961005 -1.6970307 5 1
8.8306789 -0.02620123 -1.7165178 3 2
11.002774 -0.040327456 -1.7426801 3 3
14.487078 -0.060683683 -1.7788051 2 4
6.3420181 -0.05645293 -1.6994059 2 0
7.3464246 -0.069240466 -1.696131 4 1
8.8106346 -0.089192301 -1.7127017 3 2
10.970621 -0.11680323 -1.7376742 3 3
14.468407 -0.16414592 -1.7766114 2 4
6.3491778 -0.10195769 -1.7014765 2 0
7.3496375 -0.12187278 -1.6970307 5 1
8.8019457 -0.15056513 -1.7111752 3 2
10.949754 -0.19495201 -1.7345455 2 3
14.480803 -0.26540425 -1.7783177 3 4
6.3541307 -0.14530498 -1.7030294 2 0
7.321363 -0.17125894 -1.6907321 4 1
8.8163805 -0.2123884 -1.714228 3 2
10.932375 -0.26909068 -1.7320426 2 3
14.44294 -0.36306709 -1.7739303 3 4
6.3587551 -0.18983422 -1.7045823 2 0
7.3375192 -0.22289966 -1.6947813 6 1
8.7833338 -0.271424 -1.7081223 3 2
10.942136 -0.34387046 -1.7339199 2 3
14.418227 -0.46318698 -1.7712492 3 4
6.3708291 -0.23360768 -1.7082058 2 0
7.3397269 -0.27298388 -1.6956811 7 1
8.7459116 -0.33139798 -1.7012531 3 2
10.919729 -0.41949368 -1.7307911 3 3
14.37507 -0.55977249 -1.7663743 3 4
6.3593931 -0.27765709 -1.7056175 2 0
7.3318019 -0.32395971 -1.6943314 5 1
8.7492695 -0.39271155 -1.7023981 4 2
10.920483 -0.49589619 -1.7314169 4 3
14.360897 -0.65965945 -1.7651558 4 4
6.3302884 -0.32067856 -1.6983706 2 0
7.3254695 -0.3749378 -1.6934315 5 1
8.7972898 -0.45642763 -1.71232 4 2
10.895055 -0.57098567 -1.7279752 4 3
14.340082 -0.75906116 -1.7632058 4 4
6.3799686 -0.36786667 -1.7123468 2 0
7.3246183 -0.42618284 -1.6938814 6 1
8.7586126 -0.51575541 -1.7054509 4 2
10.869112 -0.6457442 -1.7245337 3 3
14.336415 -0.8592732 -1.7634495 3 4
6.3656778 -0.41164988 -1.709241 2 0
7.3097968 -0.47654688 -1.691182 6 1
8.7686119 -0.57626218 -1.7081223 3 2
10.884049 -0.7229178 -1.7276624 3 3
14.334028 -0.95960379 -1.7639371 3 4
6.306848 -0.45097405 -1.6942296 2 0
7.3219337 -0.52741176 -1.6947813 7 1
8.752737 -0.63508195 -1.7058325 3 2
10.847493 -0.79278326 -1.7226565 4 3
14.295673 -1.0523171 -1.7600372 3 4
6.3075695 -0.49309352 -1.6952648 2 0
7.3182745 -0.57596076 -1.6947813 6 1
8.7403831 -0.69402307 -1.704306 3 2
10.861537 -0.86817473 -1.7257853 3 3
14.307765 -1.1536889 -1.7624747 3 4
6.3192787 -0.53953135 -1.6994059 2 0
7.3178492 -0.62864757 -1.6956811 7 1
8.7391052 -0.75688857 -1.7050693 3 2
10.855046 -0.94587547 -1.7257853 3 3
14.281345 -1.2544793 -1.7602808 2 4
6.3479581 -0.5877648 -1.7082058 2 0
7.2976403 -0.67955101 -1.6920818 6 1
8.7217369 -0.81830388 -1.7027797 3 2
10.844067 -1.0231565 -1.7251595 3 3
14.234693 -1.3505881 -1.7556499 2 4
6.3263984 -0.63034338 -1.703547 2 0
7.296597 -0.73086959 -1.6929817 6 1
8.7314386 -0.88074905 -1.7058325 3 2
10.836659 -1.0988369 -1.7251595 3 3
14.213067 -1.4487233 -1.7541875 2 4
6.3064766 -0.67285466 -1.6994059 2 0
7.2816281 -0.78075242 -1.6907321 5 1
8.7094612 -0.93999869 -1.7027797 3 2
10.828724 -1.1744637 -1.7251595 3 3
14.230235 -1.5509242 -1.7575998 2 4
6.3284979 -0.71992236 -1.7066529 2 0
7.2682557 -0.83068329 -1.6889325 5 1
8.6909857 -0.99943316 -1.7004899 3 2
10.828111 -1.2509398 -1.7264109 3 3
14.211172 -1.649316 -1.7566248 2 4
6.2772884 -0.7585237 -1.6942296 2 0
7.2777557 -0.8832829 -1.6925317 5 1
8.6721039 -1.0586554 -1.6982002 3 2
10.795585 -1.3236185 -1.7226565 3 3
14.18749 -1.747032 -1.7551624 2 4
6.2718401 -0.80232871 -1.6942296 2 0
7.2636805 -0.9330762 -1.6907321 4 1
8.6685905 -1.1181618 -1.6989634 3 2
10.794161 -1.3980854 -1.7239079 3 3
14.182822 -1.8470615 -1.7561374 2 4
6.3045239 -0.85016418 -1.7045823 2 0
7.2417126 -0.98040497 -1.687133 4 1
8.656683 -1.1781228 -1.6982002 3 2
10.780224 -1.4728734 -1.7232823 3 3
14.165989 -1.943018 -1.7556499 2 4
6.2794638 -0.89034581 -1.6994059 2 0
7.2483759 -1.0315964 -1.6902822 3 1
8.6951056 -1.2436906 -1.7073588 3 2
10.766037 -1.545656 -1.7226565 3 3
14.174047 -2.0425115 -1.7583311 2 4
20.61788 -2.9821022 -1.8226008 37 5
6.280901 -0.93420458 -1.7014765 2 0
7.2681694 -1.0849383 -1.6965809 3 1
8.6631403 -1.2993526 -1.7027797 3 2
10.782615 -1.623018 -1.7270367 2 3
14.143741 -2.1390398 -1.7563812 2 4
6.2950516 -0.98240203 -1.7071705 2 0
7.2313409 -1.1323978 -1.6898323 3 1
8.6732531 -1.362848 -1.7065957 3 2
10.735603 -1.6945909 -1.721405 3 3
14.138267 -2.2392817 -1.7575998 3 4
6.2708802 -1.0235248 -1.7025118 2 0
7.2213359 -1.1825391 -1.6893824 3 1
8.674902 -1.426789 -1.7088854 3 2
10.754695 -1.7746432 -1.7264109 2 3
14.12033 -2.3376055 -1.7573562 4 4
6.2407289 -1.0633845 -1.6963001 2 0
7.2359548 -1.2368644 -1.6947813 3 1
8.6262884 -1.4791676 -1.7012531 3 2
10.730685 -1.8457973 -1.7245337 2 3
14.091929 -2.434099 -1.7558937 4 4
6.2866068 -1.1152875 -1.710794 2 0
7.2273684 -1.2860891 -1.6947813 3 1
8.6660013 -1.548332 -1.7111752 3 2
10.736981 -1.9241503 -1.7276624 2 3
14.063313 -2.5278552 -1.7544312 4 4
6.2710676 -1.157746 -1.7087234 1 0
7.2162976 -1.336159 -1.6943314 3 1
8.6166563 -1.6001139 -1.7035428 3 2
10.719752 -1.9964663 -1.7270367 2 3
14.062883 -2.6292567 -1.7566248 7 4
6.2476549 -1.198586 -1.7045823 1 0
7.2182755 -1.3887142 -1.6970307 2 1
8.5857096 -1.6580095 -1.6997266 3 2
10.701312 -2.0723724 -1.7264109 3 3
14.053929 -2.7292614 -1.7578436 9 4
6.2429242 -1.2429274 -1.7056175 1 0
7.2045822 -1.43831 -1.696131 2 1
8.589325 -1.7209939 -1.7027797 3 2
10.698204 -2.1493649 -1.7282882 3 3
14.096805 -2.839854 -1.7656432 4 4
6.2113914 -1.2817956 -1.6994059 1 0
7.194366 -1.488572 -1.696131 2 1
8.596323 -1.7849075 -1.7065957 3 2
10.65393 -2.2179604 -1.7235951 4 3
14.09801 -2.9426601 -1.7683243 3 4
6.2174048 -1.3283565 -1.703547 2 0
7.1837983 -1.5387615 -1.696131 2 1
8.6031704 -1.8475013 -1.710412 3 2
10.655966 -2.2941694 -1.7264109 6 3
14.096526 -3.0452018 -1.7707617 3 4
6.2270832 -1.3748108 -1.7087234 1 0
7.1617422 -1.5850973 -1.6934315 3 1
8.5785627 -1.9049636 -1.7081223 3 2
10.643547 -2.3693643 -1.7270367 6 3
14.118096 -3.1505942 -1.7761239 3 4
6.1909647 -1.4122354 -1.7014765 2 0
7.1505013 -1.6350567 -1.6934315 3 1
8.5577431 -1.9615568 -1.7065957 3 2
10.644499 -2.4457381 -1.7298526 5 3
14.147984 -3.2611179 -1.7827048 2 4
6.1774478 -1.453458 -1.7004411 1 0
7.1505866 -1.6863742 -1.696131 3 1
8.5476608 -2.0221567 -1.7073588 3 2
10.625243 -2.5195346 -1.7295396 9 3
14.123528 -3.3568852 -1.7824612 3 4
6.1934338 -1.5029269 -1.7076882 1 0
7.1310654 -1.7344112 -1.6943314 4 1
8.5562239 -2.0873647 -1.7119384 3 2
10.595881 -2.5908356 -1.7276624 4 3
14.12674 -3.4620183 -1.7858734 3 4
6.1528039 -1.5386297 -1.6994059 2 0
7.1074414 -1.7813101 -1.6916319 5 1
8.5014582 -2.1369963 -1.7039244 4 2
10.615847 -2.6743965 -1.7339199 3 3
14.138797 -3.5697894 -1.7905045 2 4
6.1830707 -1.5921447 -1.710794 1 0
7.1137013 -1.835755 -1.696131 5 1
8.5205441 -2.2051489 -1.7107936 4 2
10.589269 -2.7464595 -1.7326683 2 3
14.14235 -3.6759 -1.7941607 2 4
6.1606007 -1.6323028 -1.7076882 1 0
7.0856442 -1.881372 -1.6925317 5 1
8.4973516 -2.2625587 -1.709267 4 2
10.596558 -2.8274486 -1.7370484 3 3
14.170039 -3.7888992 -1.8009853 2 4
6.1826053 -1.6844125 -1.7170056 1 0
7.0930166 -1.9364383 -1.6974807 6 1
8.481349 -2.3218255 -1.709267 4 2
10.591801 -2.9055378 -1.7395515 3 3
14.17578 -3.8966761 -1.8051288 2 4
6.1297679 -1.7160758 -1.7056175 1 0
7.0793247 -1.9859095 -1.6974807 6 1
8.4592648 -2.3793852 -1.7081223 3 2
10.582665 -2.9826267 -1.7414287 3 3
14.159695 -3.9987836 -1.8065913 2 4
6.1102114 -1.7566922 -1.703547 2 0
7.0690331 -2.0363624 -1.6983805 6 1
8.4462194 -2.4394727 -1.7088854 3 2
10.561584 -3.0564342 -1.7414287 4 3
14.13334 -4.0980911 -1.8068351 3 4
6.1163273 -1.804774 -1.7087234 2 0
7.0509076 -2.0845585 -1.6974807 6 1
8.4873343 -2.5156744 -1.7207156 4 2
10.574076 -3.1402154 -1.7470603 3 3
14.127216 -4.2034531 -1.8097599 3 4
6.092485 -1.8440716 -1.7056175 2 0
7.0473723 -2.1371253 -1.7001802 6 1
8.4507818 -2.5691547 -1.7168994 4 2
10.570791 -3.2197149 -1.7501891 4 3
14.110818 -4.3060317 -1.811466 2 4
6.0665469 -1.882552 -1.7019941 2 0
7.0360017 -2.1874297 -1.7010798 7 1
8.4532576 -2.634515 -1.7210972 4 2
10.540514 -3.2910788 -1.7489375 4 3
14.146723 -4.4251809 -1.819997 2 4
6.0587792 -1.9266144 -1.703547 2 0
6.9982781 -2.2293987 -1.6956811 6 1
8.4327888 -2.6928678 -1.7207156 4 2
10.55491 -3.3766222 -1.7551949 4 3
14.202443 -4.5517039 -1.8312089 3 4
39.859127 -12.828068 -2.1944468 0 6
6.0745721 -1.9784377 -1.7118292 2 0
7.004775 -2.2854545 -1.7010798 7 1
8.413784 -2.7516737 -1.7207156 4 2
10.557361 -3.4588368 -1.759575 4 3
14.204268 -4.6618862 -1.8355962 3 4
39.768597 -13.106022 -2.1944468 0 6
6.0624447 -2.0214088 -1.7123468 2 0
6.9775586 -2.3305967 -1.6983805 6 1
8.4023056 -2.811372 -1.722242 4 2
10.522334 -3.5268512 -1.7576978 4 3
14.241001 -4.784327 -1.8446145 4 4
39.792027 -13.414694 -2.2007272 0 6
6.0485449 -2.0626273 -1.7123468 2 0
6.9689102 -2.3805568 -1.7001802 6 1
8.4103355 -2.8795016 -1.7279664 3 2
10.523617 -3.6091967 -1.762078 3 3
14.266305 -4.9011445 -1.8521705 3 4
6.0267015 -2.1022584 -1.7102764 2 0
6.9631586 -2.4330075 -1.7028794 7 1
8.3868341 -2.9353843 -1.727203 3 2
