# .PCD v0.7 - Point Cloud Data file format
VERSION 0.7
FIELDS x y z intensity ring
SIZE 4 4 4 4 2
TYPE F F F F U
COUNT 1 1 1 1 1
WIDTH 1310
HEIGHT 1
VIEWPOINT 0 0 0 1 0 0 0
POINTS 1310
DATA ascii
-4.6885691 8.0042706 -1.4692327 14 3
-34.681435 59.255154 8.430191 14 11
-4.8647985 8.3151083 -1.182864 7 4
-3.6287494 6.2123485 -0.62943876 56 5
-3.0888276 5.3370876 -1.6523008 10 0
-3.5128627 6.0771079 -1.6205474 21 1
-3.5965755 6.2319646 -1.39863 28 2
-4.7835083 8.2986555 -1.5171016 9 3
-4.8838844 8.4830542 -1.2018756 14 4
-3.5684118 6.2081652 -0.62647545 52 5
-4.9023933 8.5393133 -0.51603258 45 6
-3.067744 5.3870602 -1.6611006 9 0
-3.4703538 6.1014829 -1.6205474 21 1
-3.5335948 6.2227759 -1.3909976 29 2
-4.6494474 8.1978216 -1.4926978 10 3
-4.7775793 8.4340382 -1.1901761 19 4
-3.5171373 6.2190528 -0.625081 52 5
-4.8230124 8.5385494 -0.51393914 22 6
-7.637517 13.53783 -0.2713151 27 7
-3.0376146 5.4218287 -1.6652418 13 0
-3.4067376 6.0881486 -1.6106496 22 1
-3.4670856 6.2061586 -1.3818389 28 2
-4.5680399 8.1869545 -1.4848762 13 3
-32.031254 57.454399 8.0767698 10 11
-4.7958922 8.6059036 -1.2096752 13 4
-5.2941303 9.5077724 1.7235951 3 12
-3.4571702 6.2138553 -0.6221177 56 5
-5.9924312 10.783974 -0.64655846 17 6
-7.542819 13.59082 -0.2713151 27 7
-3.0276625 5.4936609 -1.680771 9 0
-3.3575733 6.099833 -1.6075002 26 1
-3.4066548 6.1992416 -1.3749697 28 2
-31.435947 57.229057 5.7125363 13 10
-4.508872 8.2151833 -1.4842504 17 3
-31.831751 58.045605 8.1284428 10 11
-33.373703 60.933025 11.003602 16 12
-3.3907461 6.1958938 -0.61793417 54 5
-4.834558 8.8451576 -0.52827919 22 6
-2.9956799 5.5265522 -1.6843945 11 0
-3.3436673 6.17625 -1.6214472 14 1
-3.3614259 6.219419 -1.3742064 26 2
-31.139816 57.639942 5.73171 13 10
-4.4926953 8.3229456 -1.4980166 20 3
-31.35412 58.133633 8.1099186 10 11
-5.7680144 10.698936 -1.4924121 3 4
-3.3371618 6.1977787 -0.61584246 58 5
-5.8961253 10.968623 -0.65262944 8 6
-2.9552069 5.5439219 -1.6833591 10 0
-3.2949729 6.1891222 -1.6187478 15 1
-3.2987368 6.2040205 -1.3658109 26 2
-30.254322 56.948036 5.6417656 11 10
-4.3710856 8.2312088 -1.4761158 19 3
-30.831154 58.10722 8.0767698 10 11
-6.0241914 11.363321 -1.579183 3 4
-32.110474 60.594948 10.86156 15 12
-3.2714365 6.1786652 -0.61165899 58 5
-7.0612187 13.353216 -0.79163373 17 6
-2.9138136 5.5570655 -1.6812886 12 0
-3.223839 6.1561637 -1.6043509 19 1
-3.1953125 6.1120691 -1.3406241 30 2
-3.1889653 6.1077142 -1.0912869 40 3
-30.700182 58.849049 8.1498909 10 11
-3.1674757 6.0743055 -0.8411423 23 4
-31.308783 60.092369 10.732032 14 12
-3.1759267 6.0982981 -0.60154891 60 5
-7.0581112 13.57585 -0.80189157 8 6
-2.8784876 5.5841408 -1.6833591 11 0
-3.1540229 6.1265421 -1.5908539 38 1
-3.1320899 6.0917726 -1.3314652 30 2
-3.1283689 6.0923772 -1.0847167 33 3
-30.407637 59.2686 8.1791401 11 11
-3.1231806 6.0927372 -0.84065479 22 4
-3.1369069 6.1274152 -0.60224617 60 5
-10.769719 21.063999 -1.2398388 10 6
-2.83954 5.6018801 -1.6828415 9 0
-3.124573 6.1722083 -1.5971525 27 1
-3.1178236 6.1695604 -1.343677 24 2
-29.443451 58.288143 5.713233 13 10
-3.117801 6.1775551 -1.09598 27 3
-29.522985 58.547112 8.0509338 9 11
-5.4735012 10.859228 -1.4931433 20 4
-30.418623 60.401894 10.711382 13 12
-3.1110682 6.182982 -0.6055581 63 5
-6.9886346 13.907444 -0.81570828 8 6
-2.8227584 5.6665263 -1.6963001 9 0
-3.1725469 6.3770704 -1.6443923 14 1
-3.0912647 6.224587 -1.3509278 3 2
-29.087217 58.595772 5.7233434 13 10
-3.0658207 6.1814747 -1.0928513 33 3
-29.206959 58.940334 8.0767698 10 11
-4.2036791 8.4868469 -1.1628774 5 4
-31.525972 63.703976 11.257651 19 12
-3.0545838 6.1777592 -0.60294342 56 5
-2.7483087 5.6149535 -1.6750768 11 0
-3.1270933 6.3973126 -1.6439424 19 1
-28.879147 59.132458 3.4488351 14 9
-3.7778158 7.7422352 -1.6745398 3 2
-29.393599 60.265835 5.8662791 17 10
-3.0113449 6.1796408 -1.088784 25 3
-28.707897 58.964306 8.0523958 9 11
-5.3239589 10.939944 -1.4938745 22 4
-2.997654 6.1679459 -0.59998012 48 5
-5.4163632 11.164478 -0.65032667 26 6
-2.7107165 5.6374855 -1.6761122 11 0
-3.0840425 6.4225016 -1.6448421 19 1
-3.7250285 7.7677703 -1.6745398 3 2
-2.9598258 6.180397 -1.0853424 27 3
-28.168789 58.871845 8.0133982 9 11
-5.1524186 10.778048 -1.4668195 20 4
-29.319479 61.359241 10.770827 14 12
-2.9502316 6.1797323 -0.59910858 54 5
-6.342452 13.303207 -0.77237409 26 6
-2.70034 5.7151937 -1.6937119 10 0
-3.0685282 6.5032663 -1.6601387 17 1
-27.659142 58.672291 3.39943 12 9
-3.6707084 7.7935867 -1.6745398 3 2
-27.994709 59.464821 5.7501874 14 10
-2.9098802 6.1866102 -1.0828395 30 3
-27.692932 58.930519 7.9948735 8 11
-5.1810546 11.030278 -1.4963119 19 4
-28.840012 61.455147 10.752055 14 12
-2.8968673 6.1785302 -0.59701681 54 5
-5.0959234 10.883568 -0.62981093 8 6
-2.6489918 5.709373 -1.6864649 11 0
-3.0730267 6.6323886 -1.6875829 13 1
-3.6162095 7.8190236 -1.6745398 3 2
-2.8550231 6.1816673 -1.0784594 34 3
-27.576935 59.764091 8.0816441 10 11
-5.1072478 11.073389 -1.4972868 18 4
-28.314404 61.446869 10.715761 13 12
-2.8319998 6.1515484 -0.59248471 54 5
-4.9597497 10.788223 -0.62227458 8 6
-2.6050642 5.7189369 -1.6838769 9 0
-2.8378363 6.2386017 -1.5823058 13 1
-27.063667 59.550976 3.4281104 13 9
-3.529068 7.7725739 -1.6592751 3 2
-27.369207 60.307095 5.7941136 15 10
-2.8060873 6.1888547 -1.0762693 37 3
-27.409676 60.508476 8.1562281 11 11
-3.8147352 8.4251642 -1.1355786 6 4
-27.909161 61.697037 10.725148 14 12
-2.7851365 6.1597905 -0.59143883 54 5
-4.8826699 10.818945 -0.62206525 17 6
-6.1104712 13.558416 -0.25958708 24 7
-2.5532496 5.7105289 -1.6761122 11 0
-2.8434746 6.3685851 -1.6101997 15 1
-26.737453 59.912548 3.4383681 13 9
-2.9004643 6.5053811 -1.3845102 3 2
-26.735115 60.019855 5.7484441 14 10
-2.7542543 6.1861567 -1.0725149 40 3
-27.016537 60.737175 8.1620789 11 11
-3.7477617 8.4334497 -1.1331413 7 4
-27.377892 61.636444 10.681973 27 12
-2.7372165 6.1681576 -0.59039295 43 5
-4.7894945 10.808105 -0.61955309 8 6
-2.5213087 5.7436967 -1.680771 13 0
-2.7366853 6.2432251 -1.5737575 21 1
-3.4388785 7.8600636 -1.6676707 3 2
-26.594208 60.813797 5.807013 15 10
-2.6999283 6.1798925 -1.0681347 42 3
-3.6569316 8.3823471 -1.1229043 19 4
-5.1096706 11.723451 2.0255136 3 12
-2.685338 6.1670222 -0.58847558 47 5
-4.7003841 10.810143 -0.61777371 35 6
-4.7299175 10.893659 -0.20729968 15 7
-2.4910827 5.784225 -1.6875002 10 0
-2.9047525 6.754487 -1.6974807 14 1
-3.3637919 7.8369718 -1.6577487 3 2
-2.6458268 6.1731701 -1.0637544 40 3
-3.6076951 8.4295731 -1.1258291 18 4
-2.6304791 6.1581359 -0.58586085 56 5
-4.6647639 10.936386 -0.62311196 17 6
-2.4401159 5.7765603 -1.6802533 11 0
-2.8143566 6.672255 -1.6718361 3 1
-3.2998528 7.838552 -1.6531693 3 2
-25.697695 61.072666 5.7969027 15 10
-2.5896492 6.1605349 -1.0584357 37 3
-25.761673 61.344559 8.1693907 11 11
-4.5314078 10.795617 -1.4375709 24 4
-2.5781879 6.1542969 -0.58376914 52 5
-4.5073757 10.775216 -0.6121214 18 6
-2.4012072 5.7970247 -1.6812886 11 0
-2.8123956 6.799788 -1.6988304 3 1
-3.2502966 7.8741002 -1.6558405 4 2
-2.5345364 6.1492414 -1.0534298 35 3
-25.423508 61.743168 8.1986389 11 11
-3.4775634 8.449749 -1.1219293 20 4
-2.5275874 6.1537175 -0.58202606 56 5
-4.4464355 10.841534 -0.61411017 9 6
-2.3526828 5.7939577 -1.6755946 14 0
-2.7663198 6.8228683 -1.6997302 1 1
-2.8277812 6.9884634 -1.4654131 3 2
-2.4856248 6.1521339 -1.0509269 34 3
-25.51193 63.207718 8.369256 13 11
-4.3386512 10.754741 -1.4239216 13 4
-2.482667 6.1633863 -0.58132881 52 5
-5.3487687 13.305468 -0.75154442 17 6
-2.316462 5.8210115 -1.6787004 14 0
-2.7250962 6.8583136 -1.7037793 1 1
-3.145041 7.9272909 -1.6577487 3 2
-24.943056 62.934753 5.9227552 19 10
-2.4407809 6.1615648 -1.0496755 35 3
-5.0926232 12.869055 1.6993462 3 11
-2.8848798 7.2975321 -0.96349907 3 4
-2.4278736 6.1509166 -0.57853985 56 5
-5.21487 13.231936 -0.74536878 26 6
-2.3006587 5.8978343 -1.6963001 9 0
-2.570848 6.6006913 -1.6353942 7 1
-3.1024234 7.9819913 -1.6646177 3 2
-23.567526 60.66647 5.6940589 12 10
-2.3919883 6.1637216 -1.0471724 37 3
-25.138849 64.845367 8.5393848 16 11
-3.3314514 8.5978918 -1.1321664 7 4
-2.3748133 6.1416998 -0.57609946 50 5
-2.8301826 7.3422146 -0.13735044 6 7
-2.2497723 5.8884892 -1.6890532 9 0
-2.4531648 6.4309397 -1.5890542 3 1
-3.0647829 8.0511618 -1.6745398 3 2
-22.576632 59.339787 5.5546098 8 10
-2.3418813 6.1618052 -1.0440438 39 3
-3.2586684 8.587533 -1.127779 13 4
-2.3248227 6.1394963 -0.57435632 50 5
-5.0246692 13.29038 -0.74463606 17 6
-2.2038729 5.8913851 -1.6854297 11 0
-2.2970741 6.1503406 -1.5157202 0 1
-2.9838181 8.006135 -1.6608016 3 2
-21.819641 58.577358 5.4688482 6 10
-2.2877846 6.1483831 -1.0390378 39 3
-3.1640718 8.5170317 -1.115592 14 4
-2.2756715 6.1387644 -0.57278752 43 5
-3.986866 10.77212 -0.60196823 27 6
-2.7565031 7.4597955 -0.13881645 6 7
-2.1713216 5.9302115 -1.6921589 9 0
-2.5190272 6.8910208 -1.6938814 0 1
-5.1674714 14.15137 0.78954029 2 9
-21.396515 58.690826 5.4653621 6 10
-2.2400763 6.1512108 -1.0368477 40 3
-3.0238221 8.3169041 -1.0865872 9 4
-2.2327595 6.1545019 -0.57278752 43 5
-3.9306095 10.85227 -0.60489905 27 6
-2.1109762 5.8924832 -1.6771475 11 0
-2.4537973 6.8607302 -1.682184 0 1
-20.463022 57.27692 3.1875739 2 9
-20.927378 58.673618 5.4500227 6 10
-2.1871307 6.1387892 -1.0321548 39 3
-3.7593238 10.569085 -1.3773675 14 4
-2.1757443 6.1305089 -0.56912696 40 5
-4.6445107 13.108424 -0.72883058 8 6
-3.8404126 10.857034 -0.20101681 14 7
-2.064677 5.8924913 -1.6730064 10 0
-2.3955457 6.8482628 -1.6749856 1 1
-20.038937 57.350502 3.1838059 2 9
-2.1403239 6.1427155 -1.0302775 37 3
-21.23963 61.026237 7.933939 8 11
-3.0534918 8.7782907 -1.1411846 9 4
-2.1315858 6.1417847 -0.5687784 54 5
-4.5888462 13.244326 -0.73458755 17 6
-2.0259936 5.9140725 -1.6750768 11 0
-2.36092 6.903542 -1.6844335 1 1
-20.036671 58.756432 5.4311972 5 10
-2.0922918 6.1425486 -1.0277746 40 3
-3.6126671 10.624303 -1.3778549 11 4
-2.0775621 6.1203046 -0.56546646 42 5
-4.5774326 13.507922 -0.74746221 17 6
-1.9887589 5.9368849 -1.6776651 9 0
-2.0543048 6.1432314 -1.4954746 1 1
-2.6656356 7.9852638 -1.636378 3 2
-19.631222 58.876335 5.4298029 5 10
-2.0440128 6.133801 -1.0240202 31 3
-19.872786 59.704971 7.7262731 5 11
-2.9506254 8.8699017 -1.1477655 7 4
-2.0358574 6.1343036 -0.56546646 42 5
-4.3855166 13.237313 -0.73081934 17 6
-3.5632749 10.774338 -0.19808482 13 7
-1.9391153 5.9187355 -1.6688653 11 0
-2.0110931 6.1493125 -1.493675 10 1
-2.5445573 7.7896862 0.4294689 2 9
-2.5868611 7.928566 -1.6211133 6 2
-2.0009904 6.143816 -1.0233943 31 3
-19.336969 59.44244 7.6750884 4 11
-3.4634116 10.659281 -1.3761488 9 4
-1.9909818 6.1385431 -0.56459486 52 5
-3.4985886 10.812472 -0.5955832 18 6
-3.5027199 10.844622 -0.19892253 14 7
-1.8825953 5.8882961 -1.6564419 18 0
-2.5538831 8.0217037 -1.636378 3 2
-1.9509921 6.1391511 -1.0202657 33 3
-19.204187 60.502617 7.7940326 6 11
-3.3972454 10.715961 -1.3802923 14 4
-1.93378 6.1108437 -0.56076008 52 5
-4.2081666 13.330366 -0.73259878 8 6
-4.2507844 13.489967 -0.24688175 22 7
-1.8363856 5.8887072 -1.6528184 12 0
-1.9165145 6.1569958 -1.4887261 41 1
-2.4795322 7.9854002 -1.6253111 9 2
-1.9023331 6.1378608 -1.0177628 38 3
-18.877584 60.983616 7.8383927 6 11
-3.222616 10.417025 -1.3388567 13 4
-1.8957738 6.1394243 -0.56215453 48 5
-2.6051674 8.4577208 -0.46380129 12 6
-1.8047853 5.9328051 -1.6616182 11 0
-1.8655543 6.1441207 -1.4824274 61 1
-2.4404938 8.0528221 -1.6356149 3 2
-2.4103706 7.9634252 0.72792476 2 10
-1.8582221 6.1431036 -1.0165112 40 3
-17.899466 59.248428 7.5995288 3 11
-3.2123158 10.64642 -1.3654243 9 4
-1.8436739 6.1219854 -0.55936551 45 5
-3.9503784 13.142292 -0.71920079 8 6
-1.7616117 5.9356923 -1.6590302 14 0
-1.8164942 6.1323867 -1.4765787 56 1
-2.3786559 8.0508337 -1.6317985 3 2
-17.358253 58.788757 5.3628669 3 10
-1.8085881 6.1331897 -1.0127568 42 3
-17.490978 59.390999 7.6019664 3 11
-3.1638792 10.749925 -1.375905 7 4
-1.7974707 6.1190991 -0.55797106 48 5
-3.1284938 10.677857 -0.58312726 19 6
-1.7346238 5.997952 -1.6730064 12 0
-1.7682365 6.1261945 -1.4720796 59 1
-2.3129315 8.029108 -1.6241663 3 2
-16.711645 58.089005 5.2882619 3 10
-1.760249 6.1225762 -1.0090024 42 3
-17.195906 59.890278 7.6507144 4 11
-3.062484 10.680158 -1.3642055 13 4
-1.7503191 6.1161757 -0.55657655 48 5
-2.3755891 8.3175306 -0.45333412 12 6
-1.6759387 5.9464002 -1.6554067 12 0
-1.7233301 6.1268334 -1.4693804 56 1
-2.266366 8.0790844 -1.6310353 3 2
-16.340597 58.289661 5.2962799 1 10
-1.7132022 6.1194983 -1.0064995 38 3
-3.5970659 12.874556 -1.6413364 9 4
-1.7027674 6.1109724 -0.55500776 40 5
-2.2998102 8.2704115 -0.44987994 25 6
-2.9918277 10.78086 -0.19529243 33 7
-1.6308067 5.9449143 -1.6517832 13 0
-1.6774274 6.1274376 -1.4666809 56 1
-2.1912944 8.0265284 -1.6172972 3 2
-15.866136 58.156281 5.2739682 1 10
-1.6673229 6.1198745 -1.0046222 42 3
-2.2539251 8.2843866 1.0541699 2 11
-3.2118011 11.813232 -1.5031366 3 4
-1.661103 6.1265574 -0.55535638 40 5
-2.2769613 8.4154377 -0.45689294 12 6
-3.5951736 13.315075 -0.2407385 21 7
-1.5897616 5.9580212 -1.6523008 10 0
-1.632603 6.1314659 -1.4648812 59 1
-15.312587 57.711021 5.2237668 0 10
-1.619498 6.1122699 -1.0014936 38 3
-16.097311 60.839848 7.7272482 5 11
-2.8090699 10.624388 -1.3493375 9 4
-1.6111829 6.111032 -0.55291605 40 5
-1.5442481 5.9540153 -1.6481597 11 0
-1.5878047 6.1351681 -1.4630816 59 1
-2.1035402 8.1513901 -1.636378 3 2
-14.903343 57.793362 5.2216749 0 10
-1.5708758 6.100472 -0.99773914 38 3
-2.7244546 10.603364 -1.344219 7 4
-1.5610634 6.0931807 -0.55030131 46 5
-2.7498837 10.756836 -0.58187127 9 6
-2.7624269 10.829526 -0.19508299 27 7
-1.5083069 5.9871306 -1.6543714 11 0
-1.5411339 6.1309843 -1.4594824 66 1
-14.653364 58.380505 3.1544976 0 9
-2.0198536 8.0592327 -1.6150075 3 2
-14.612796 58.348244 5.2624636 0 10
-1.5272896 6.1074567 -0.99711335 40 3
-14.947152 59.860725 7.5756426 3 11
-2.0688691 8.2916145 -1.0492952 13 4
-1.5165631 6.0961971 -0.54960412 43 5
-3.263649 13.148417 -0.70998967 26 6
-3.3280382 13.437913 -0.24164602 21 7
-1.4458269 5.9130683 -1.6310778 13 0
-1.4936754 6.1226616 -1.4549835 66 1
-14.347506 58.900536 3.1771069 1 9
-1.9649361 8.0788603 -1.6161523 3 2
-1.4841515 6.1160502 -0.99680054 43 3
-14.293286 58.991268 7.4527984 1 11
-2.0202785 8.3444414 -1.0541699 21 4
-1.4739666 6.106636 -0.54960412 50 5
-3.7347744 15.508747 -0.83601463 17 6
-2.6044123 10.839819 -0.19459434 13 7
-1.4147596 5.9662528 -1.6429834 12 0
-1.4499973 6.1291475 -1.4540836 56 1
-1.885955 7.99684 -1.5970714 3 2
-1.4364406 6.1051116 -0.99335897 36 3
-14.106272 60.048134 7.5736928 3 11
-1.9710428 8.3969946 -1.0590447 19 4
-2.0585444 8.7835464 1.4288726 4 12
-1.4308474 6.1148367 -0.54942977 40 5
-3.1079056 13.313291 -0.7164793 26 6
-2.5286777 10.857736 -0.19459434 13 7
-1.3739408 5.9797487 -1.6440187 10 0
-1.4036924 6.1239247 -1.4504844 70 1
-1.8318259 8.0174675 -1.5985978 3 2
-13.546382 59.336864 5.3248672 2 10
-1.3893911 6.0957313 -0.99023032 40 3
-13.518481 59.405743 7.4805846 2 11
-2.4286473 10.681108 -1.3449502 25 4
-1.3832785 6.103302 -0.54751235 43 5
-2.9602695 13.0931 -0.70349997 17 6
-1.3361446 6.002162 -1.6476421 9 0
-1.3594408 6.121923 -1.447785 66 1
-1.7772139 8.0297499 -1.5985978 3 2
-1.346166 6.0973315 -0.98897886 35 3
-2.3353984 10.604338 -1.3332508 7 4
-1.3387123 6.0989542 -0.54629219 31 5
-2.8937194 13.216352 -0.70904762 17 6
-1.294209 6.011344 -1.6476421 9 0
-1.3125771 6.1122117 -1.4432859 70 1
-1.7342601 8.1033945 -1.6108096 3 2
-1.3035659 6.1065812 -0.98897886 35 3
-12.752737 59.842758 7.5127583 2 11
-2.2617228 10.622324 -1.3334944 13 4
-1.2932061 6.0945086 -0.54507202 34 5
-2.2579777 10.668707 -0.57150865 20 6
-1.2455225 5.9880791 -1.6388422 10 0
-1.2682904 6.1135936 -1.4414864 78 1
-1.6530036 7.9961033 -1.5871494 3 2
-12.31437 59.621006 5.3262615 2 10
-1.2577108 6.1000547 -0.98647583 38 3
-12.276218 59.646458 7.4771724 2 11
-2.2062969 10.729243 -1.3449502 2 4
-1.2534264 6.1170511 -0.54629219 31 5
-2.1878402 10.705736 -0.57266009 30 6
-2.1960788 10.774804 -0.19194156 19 7
-1.2036874 5.9966288 -1.6388422 11 0
-1.2240484 6.114655 -1.4396867 77 1
-1.600212 8.022851 -1.5902023 3 2
-12.2522 61.483627 5.4848852 7 10
-1.2120107 6.0931873 -0.98397291 42 3
-11.851777 59.691765 7.4722977 2 11
-2.132503 10.750225 -1.3456814 22 4
-1.2060523 6.1021981 -0.54420048 39 5
-2.5846233 13.113372 -0.70046449 17 6
-2.1161699 10.76633 -0.19152272 19 7
-1.1595949 5.9935055 -1.6357363 11 0
-1.1761649 6.0962629 -1.4333881 70 1
-1.5374926 7.9991231 -1.5833331 3 2
-1.168699 6.09762 -0.98334718 40 3
-11.661568 60.958485 7.6204906 4 11
-2.0357866 10.651763 -1.3315445 31 4
-1.1615069 6.0946083 -0.54280597 30 5
-2.0321898 10.703845 -0.57098538 10 6
-1.1205537 6.0166488 -1.6398776 10 0
-1.1335763 6.1043258 -1.4333881 59 1
-10.939288 58.965557 3.1429839 0 9
-1.4730042 7.9553504 -1.5726478 4 2
-1.1250149 6.0937786 -0.98146993 41 3
-11.262164 61.122356 7.6312151 4 11
-1.5589064 8.4771242 -1.0583134 3 4
-1.1174929 6.0947299 -0.54210871 24 5
-2.4226158 13.25189 -0.70601213 17 6
-1.9878567 10.9168 -0.19368681 13 7
-1.0785513 6.0184321 -1.6383246 9 0
-1.0885717 6.0927167 -1.428889 59 1
-1.4225849 7.9944339 -1.5783721 18 2
-1.0817549 6.0975947 -0.98084426 43 3
-10.88847 61.500515 7.6687508 4 11
-1.4776545 8.3546171 -1.0417392 18 4
-1.0721543 6.0866852 -0.5407142 21 5
-1.8740509 10.671831 -0.56784517 10 6
-1.8879843 10.784317 -0.19110386 26 7
-1.0302862 5.9896412 -1.6284895 12 0
-1.0446925 6.092485 -1.4270895 59 1
-1.3660815 8.0002995 -1.5776089 7 2
-1.0351815 6.0816293 -0.97708976 45 3
-1.4425378 8.5017281 -1.0588009 9 4
-1.0332834 6.1156325 -0.54263163 18 5
-1.8004968 10.690564 -0.56815922 20 6
-1.8457571 10.994445 -0.19459434 13 7
-0.99630022 6.0443416 -1.6414305 9 0
-1.0021336 6.0996299 -1.4270895 52 1
-1.3092449 8.003829 -1.5764639 4 2
-9.7325459 59.563568 5.2802434 1 10
-0.99492657 6.1023555 -0.97927988 48 3
-1.8604432 11.448717 -1.4241652 10 4
-0.98515356 6.0892611 -0.53966838 21 5
-1.7503005 10.8547 -0.5762189 9 6
-1.7454762 10.86096 -0.19201139 19 7
-0.94986326 6.0244336 -1.6341835 9 0
-0.95770776 6.0949273 -1.4243901 47 1
-9.493041 60.759975 5.3802981 4 10
-0.94834459 6.0837789 -0.97521257 43 3
-1.6311586 10.500259 -1.3047333 19 4
-0.94323027 6.0999274 -0.54001695 24 5
-1.6440655 10.669258 -0.56575173 10 6
-2.0556815 13.387025 -0.23641029 20 7
-0.90864724 6.0366488 -1.6357363 11 0
-0.91398048 6.0937557 -1.4225905 63 1
-0.90143275 6.0388122 -1.186832 10 2
-8.8929291 59.646347 5.2760601 1 10
-0.89334935 6.0062346 -0.96175921 31 3
-0.88992661 6.0048261 -0.74535298 36 4
-0.8849234 5.9999266 -0.53060412 51 5
-1.5805748 10.755566 -0.56972927 10 6
-1.5710704 10.729941 -0.18928881 19 7
-0.86044884 6.0007749 -1.6243484 19 0
-0.85708511 5.9996719 -1.3991956 70 1
-0.8520655 5.994422 -1.1769099 34 2
-8.4740629 59.6912 5.2746654 1 10
-0.84835243 5.9908099 -0.95831764 33 3
-0.8460452 5.9971328 -0.7436468 30 4
-0.84162974 5.9960928 -0.52973258 54 5
-1.4921672 10.671394 -0.56470507 20 6
-1.868561 13.414422 -0.23641029 20 7
-0.81853747 6.0066357 -1.6243484 21 0
-0.8136059 5.9939227 -1.3964962 59 1
-8.0125246 59.184124 3.1300046 0 9
-0.80914491 5.9924417 -1.1753834 31 2
-8.139142 60.357056 5.3283534 2 10
-0.80835116 6.0102911 -0.96050775 31 3
-0.80969167 6.0442109 -0.74876529 12 4
-0.8071171 6.0571208 -0.53461331 36 5
-2.7025731 20.363255 -1.0765507 19 6
-0.77509844 6.0007076 -1.6212426 15 0
-0.78318042 6.088366 -1.4171916 63 1
-7.6215096 59.412949 3.1392157 0 9
-1.028119 8.0368567 -1.5749376 3 2
-1.7354943 13.585282 1.1982172 1 10
-0.77361113 6.0726151 -0.96958095 41 3
-7.940268 62.502506 7.7360229 5 11
-1.3465794 10.614574 -1.3137517 16 4
-0.77004755 6.1041188 -0.53827387 27 5
-1.6586851 13.203962 -0.697429 8 6
-1.3450203 10.752553 -0.18914919 19 7
-0.73154521 5.9925499 -1.6176192 12 0
-0.74018335 6.0898166 -1.4162918 59 1
-0.96680844 8.0009584 -1.5665419 3 2
-7.3271303 60.725914 5.3513622 3 10
-0.73167217 6.0817895 -0.97020662 39 3
-1.2771696 10.663136 -1.3186264 27 4
-0.72364497 6.0776911 -0.53548485 24 5
-1.543424 13.020851 -0.68717122 26 6
-0.69035357 6.0032687 -1.6191721 11 0
-0.69765043 6.0948358 -1.4162918 59 1
-0.90915239 7.9919071 -1.563489 3 2
-6.9614954 61.290295 5.3966832 4 10
-0.68608105 6.0592699 -0.96582651 33 3
-6.8886633 61.029224 7.5410318 3 11
-1.1922421 10.579081 -1.3071707 19 4
-0.68097824 6.0806146 -0.53531057 18 5
-2.0089273 18.0235 -0.95042109 18 6
-1.1828583 10.66296 -0.18726432 25 7
-0.64677048 5.9925756 -1.6150309 10 0
-0.65300536 6.0801816 -1.4117929 56 1
-6.6434612 62.061779 3.2711022 6 9
-0.66129619 6.1981554 -1.2116373 4 2
-6.5452566 61.448345 5.406445 4 10
-0.64480537 6.0737338 -0.96739089 31 3
-6.6141052 62.509003 7.7179861 5 11
-1.1158549 10.563457 -1.3042458 10 4
-0.63727915 6.063314 -0.53339314 11 5
-1.1088796 10.621618 -0.55968076 30 6
-0.60646975 6.0123219 -1.6191721 12 0
-0.61054182 6.0845923 -1.4117929 63 1
-6.3876791 63.770931 3.3588173 10 9
-0.80082524 8.0232191 -1.5673052 3 2
-1.7364644 17.458839 1.534987 1 10
-0.60266995 6.0701189 -0.96613932 31 3
-6.1696744 62.362934 7.6945872 5 11
-1.0350749 10.49987 -1.2954712 31 4
-0.59493661 6.067615 -0.53339314 8 5
-2.2303383 22.869968 -1.2042505 10 6
-1.0404105 10.746109 -0.18845108 12 7
-0.56589264 6.0201573 -1.6202073 11 0
-0.56838554 6.0808454 -1.4099932 59 1
-0.73753917 7.9504194 -1.5520406 3 2
-1.6855599 18.2043 1.5994822 1 10
-0.55918926 6.0623765 -0.96426219 31 3
-5.9528723 64.784515 7.988049 8 11
-0.96067977 10.475044 -1.2915714 22 4
-0.55220103 6.0676517 -0.53304452 5 5
-0.96187031 10.693192 -0.18740395 18 7
-0.51832718 5.9604497 -1.6031252 14 0
-0.52591944 6.0846658 -1.4099932 63 1
-0.68369377 7.9749355 -1.5558566 3 2
-5.0832362 59.415173 5.2171426 1 10
-0.51651686 6.0621963 -0.9636364 31 3
-5.2429876 61.790264 7.6141539 3 11
-1.097056 12.955991 -1.5964885 4 4
-0.51582927 6.1428332 -0.53931969 6 5
-1.9152881 22.95262 -1.2070767 20 6
-0.47654885 5.9619975 -1.6026076 10 0
-0.48342764 6.0881886 -1.4099932 59 1
-0.63015801 8.0069141 -1.5611992 3 2
-4.6621056 59.369755 5.2101703 0 10
-0.47418216 6.0656543 -0.9636364 31 3
-4.6691661 59.996662 7.3889389 1 11
-0.64282781 8.2787218 -1.019559 10 4
-0.46848902 6.0746884 -0.53304452 5 5
-0.81403458 10.652281 -0.55989015 20 6
-0.43576038 5.9767399 -1.6057135 11 0
-0.43950829 6.0719786 -1.4054942 59 1
-0.57564574 8.0110178 -1.5611992 3 2
-4.3117156 60.299126 5.288959 1 10
-0.43316749 6.0726819 -0.96426219 31 3
-4.3379741 61.116119 7.5229955 2 11
-0.58641434 8.3028097 -1.0219964 7 4
-0.4302482 6.1374364 -0.53827387 6 5
-0.74359226 10.687461 -0.5614602 20 6
-1.0045527 14.585221 -0.25518909 23 7
-0.39328191 5.9525805 -1.5984664 11 0
-0.39790961 6.070941 -1.4045944 56 1
-3.8873138 60.112343 5.2701335 1 10
-0.39025158 6.0676727 -0.96301067 31 3
-3.8992858 60.958694 7.5000839 2 11
-0.82648438 12.95617 -1.5940511 9 4
-0.67678922 10.697668 -0.93779576 13 5
-0.67058802 10.718306 -0.56282091 20 6
-0.35262951 5.9706087 -1.6026076 11 0
-0.35551965 6.0735707 -1.4045944 49 1
-3.3927779 58.841133 5.1564822 0 10
-0.3481504 6.0563836 -0.96082056 33 3
-3.4901791 61.08688 7.5127583 2 11
-0.73274946 12.904149 -1.5869827 7 4
-0.34469032 6.1268716 -0.53687936 6 5
-0.73064691 13.109637 -0.68811321 17 6
-0.80204076 14.573725 -0.25477022 23 7
-0.30609217 5.8996673 -1.5829374 12 0
-0.31184918 6.0720668 -1.4036945 52 1
-0.30403945 6.064692 -0.96175921 31 3
-3.0464425 61.194092 7.5229955 2 11
-0.52590525 10.601252 -1.3032708 19 4
-0.30220607 6.1570411 -0.53931969 6 5
-0.63984394 13.22436 -0.69387019 8 6
-0.26662979 5.9402585 -1.5932901 12 0
-0.26927781 6.0702024 -1.4027947 56 1
-0.34933141 7.9690499 -1.550514 3 2
-2.5865817 59.480373 5.208776 0 10
-0.26198488 6.0488586 -0.95894337 33 3
-2.6304884 61.229279 7.5249453 2 11
-0.44850636 10.525334 -1.2935213 18 4
-0.44132212 10.618249 -0.55695927 20 6
-0.22633643 5.945797 -1.5943254 10 0
-0.22722186 6.0524206 -1.3982958 45 1
-2.2531726 60.580917 3.1771069 1 9
-0.29412213 7.9830661 -1.5528038 12 2
-2.2511554 61.392078 5.3747201 4 10
-0.21982121 6.052515 -0.95925629 31 3
-0.37649709 10.518223 -1.2923026 24 4
-0.37288728 10.624849 -0.93012613 13 5
-0.62430781 18.058416 -0.94696695 9 6
-0.18482143 5.9472318 -1.5943254 10 0
-0.18496247 6.0538597 -1.3982958 56 1
-0.2378516 7.9672637 -1.5493692 10 2
-1.8155283 61.171303 5.3541517 3 10
-0.17761636 6.0558767 -0.9595691 33 3
-0.30356628 10.538455 -1.2944963 18 4
-0.29668754 10.555496 -0.92385083 13 5
-0.2957826 10.7232 -0.56219292 10 6
-0.14320436 5.9445148 -1.5932901 12 0
-0.14269404 6.0550032 -1.3982958 45 1
-0.18213783 7.9648037 -1.5486058 18 2
-1.402018 61.780048 5.406445 4 10
-0.13546932 6.0628939 -0.96050775 31 3
-0.22955854 10.52047 -1.2920588 14 4
-0.22517091 10.573206 -0.92524534 19 5
-0.22008565 10.685067 -0.56009948 10 6
-0.29590228 14.740785 -0.25735319 24 7
-0.1018023 5.9511642 -1.594843 13 0
-0.1004862 6.0597491 -1.3991956 52 1
-0.1281748 7.9815631 -1.5516587 3 2
-0.99568439 63.382046 5.5458941 8 10
-0.094046749 6.0537992 -0.95894337 33 3
-0.15537003 10.472195 -1.2859653 21 4
-0.15135053 10.57452 -0.92524534 13 5
-0.14595011 10.584467 -0.55476117 20 6
-0.061427977 5.9652419 -1.5984664 11 0
-0.059081119 6.044704 -1.3955964 52 1
-0.072877504 8.0293798 -1.5608176 3 2
-0.56603634 63.586586 5.5633254 9 10
-0.051662713 6.0404811 -0.95675331 31 3
-0.08468993 10.54844 -1.2952274 21 4
-0.077727236 10.603211 -0.92768568 13 5
-0.071318924 10.477378 -0.54910892 21 6
-0.019745644 5.9539347 -1.5953608 11 0
-0.016849918 6.0332766 -1.392897 45 1
-0.1495152 61.181854 3.2064149 3 9
-0.016816264 8.0296926 -1.5608176 3 2
-0.11866121 61.795837 5.406445 4 10
-0.0094942702 6.0446453 -0.95737904 31 3
-0.011131086 10.630163 -1.3052207 16 4
-0.0045778672 13.097968 -1.1459237 18 5
0.002290586 13.15994 -0.68968332 8 6
0.022019381 6.0080185 -1.6098546 11 0
0.025287025 6.0371442 -1.3937967 45 1
0.27812582 61.293251 3.2122767 3 9
0.032716233 6.0465398 -0.95769191 33 3
0.063670717 10.729236 -1.3174077 16 4
0.084532239 13.089726 -1.1452264 18 5
0.093098603 13.009812 -0.68183291 35 6
0.081865288 10.660062 -0.18607756 12 7
0.063469119 5.9613566 -1.5974313 11 0
0.067520693 6.0446153 -1.3955964 43 1
0.70190084 61.86911 3.2426314 4 9
0.082919866 7.0907903 -1.3784043 3 2
0.07377363 6.0382762 -0.95644045 39 3
0.13990135 10.831746 -1.3300822 5 4
0.17687133 13.160537 -1.1515017 18 5
0.18278871 13.090757 -0.68612444 17 6
0.21321657 14.542222 -0.25386271 35 7
0.10461856 5.9936228 -1.6062311 13 0
0.10845342 6.0323248 -1.392897 42 1
0.11592983 6.0376139 -0.95644045 39 3
0.20811287 10.550699 -1.295715 4 4
0.14645499 7.1711068 -0.62752134 8 5
0.28368872 13.212942 -0.2306859 19 7
0.14598739 5.973434 -1.6010547 13 0
0.15075886 6.0392132 -1.3946966 52 1
0.15807462 6.0366573 -0.95644045 33 3
0.35034555 13.116782 -1.6111128 5 4
0.29270354 10.679183 -0.93465823 13 5
0.29406056 10.527442 -0.55193508 21 6
0.18756489 5.9684067 -1.6000193 14 0
0.19254348 6.0263271 -1.3919971 49 1
0.20001811 6.0294838 -0.95550185 31 3
0.44311282 13.149729 -1.6155001 4 4
0.36587629 10.637055 -0.93117195 13 5
0.37005299 10.596989 -0.55570322 10 6
0.4665857 13.163728 -0.229918 19 7
0.2303372 5.9959087 -1.607784 11 0
0.29536089 7.6191163 0.13309206 4 8
0.23475926 6.0287309 -1.392897 45 1
0.24266188 6.0417571 -0.95769191 33 3
0.43007031 10.569812 -1.2988837 21 4
0.54047912 13.058896 -1.1434834 18 5
0.54840297 13.08454 -0.68633378 26 6
0.26991528 5.9439778 -1.5943254 18 0
0.27666605 6.0230513 -1.3919971 43 1
0.36078379 7.7949467 0.40895322 2 9
0.28427419 6.0280771 -0.95581466 35 3
0.62023443 13.007427 -1.5989259 7 4
0.62934965 13.054915 -1.1434834 18 5
0.64012724 13.088372 -0.6867525 8 6
0.31211323 5.9554534 -1.5979488 13 0
0.31891415 6.0248652 -1.392897 45 1
0.43034443 7.9978356 0.70073211 1 10
0.32508942 6.0220571 -0.95518899 37 3
0.70388079 12.87196 -1.5828393 9 4
0.58890539 10.666949 -0.93465823 13 5
0.72720176 13.047818 -0.6848684 26 6
0.47039872 8.3354664 -0.14572759 7 7
0.35264072 5.9531913 -1.5979488 13 0
0.36037892 6.0303359 -1.3946966 43 1
0.48152369 7.9641223 -1.5508956 3 2
0.36736101 6.0235844 -0.95581466 33 3
0.51092106 8.3296738 1.0246775 3 11
0.65192497 10.598228 -1.3037584 7 4
0.66336036 10.662578 -0.93465823 13 5
0.65857196 10.496928 -0.55120236 21 6
0.67863995 10.726917 -0.18761338 12 7
0.39470685 5.9582939 -1.6000193 12 0
0.4016937 6.0160065 -1.3919971 47 1
0.94124782 14.023159 0.73657632 6 9
0.40886858 6.0129895 -0.9545632 37 3
0.73051268 10.660754 -1.3120455 19 4
0.89573562 12.939489 -1.1347678 18 5
0.9058277 12.986581 -0.68225157 17 6
1.0226657 14.551888 -0.25463063 35 7
0.43544424 5.9438338 -1.5969136 13 0
0.44368067 6.0130558 -1.3919971 59 1
0.60084099 8.0662622 -1.5722662 3 2
0.45084003 6.0099883 -0.9545632 39 3
0.97820425 12.979442 1.5981947 2 11
0.79520661 10.526729 -1.2962024 24 4
0.91814214 12.097974 1.9216411 1 12
0.8121646 10.652277 -0.93465823 13 5
1.0012084 13.041675 -0.68549639 17 6
0.47847533 5.9599047 -1.6020899 12 0
0.48564896 6.0098119 -1.3919971 70 1
4.9683666 61.216427 3.2187662 3 9
0.64980245 7.9718595 -1.5547118 3 2
0.49375293 6.0185075 -0.95644045 33 3
0.8778199 10.631708 -1.3098518 9 4
0.8865118 10.646347 -0.93465823 13 5
1.0828986 12.922911 -0.67963481 26 6
1.2247425 14.524235 -0.25442117 23 7
0.51839131 5.9371748 -1.5969136 12 0
0.52827555 6.0140395 -1.3937967 66 1
0.69782174 7.8810816 -1.5379206 3 2
0.53610849 6.0188489 -0.95706618 35 3
0.94210136 10.514601 -1.2962024 18 4
0.94572431 10.493223 -0.92175907 13 5
1.1745365 12.930948 -0.6804722 17 6
1.3308413 14.567107 -0.25532871 24 7
0.56018811 5.9372578 -1.5979488 13 0
0.57024574 6.0102053 -1.3937967 70 1
0.76263452 7.9934125 -1.5608176 3 2
0.57630771 6.007195 -0.95581466 35 3
0.80772793 8.3580008 -1.0310147 7 4
1.0197287 10.494299 -0.92245638 19 5
1.7439536 17.850399 -0.93995386 18 6
1.4313245 14.545522 -0.25511929 23 7
0.59922981 5.9198523 -1.5943254 11 0
0.61114568 6.0061841 -1.3937967 42 1
0.61904413 6.0108852 -0.95706618 35 3
0.85049719 8.2160673 -1.0141968 14 4
0.63711542 6.1234283 -0.5386225 6 5
2.1275766 20.310846 -1.0702704 9 6
1.5353177 14.58317 -0.25595698 24 7
0.63638133 5.8771124 -1.5839727 11 0
0.65390223 6.0095215 -1.3955964 52 1
6.5682693 60.26593 3.1771069 1 9
0.86978602 7.9548144 -1.555475 3 2
0.65994185 6.0065327 -0.95706618 39 3
0.89430833 8.0875978 -0.99908489 19 4
1.4384646 12.946575 -1.1396484 18 5
2.2799706 20.422928 -1.0769694 9 6
0.67930758 5.8800845 -1.5860431 12 0
0.69733787 6.0085592 -1.3964962 52 1
0.92762268 7.944325 -1.5547118 3 2
0.70395696 6.0015335 -0.95706618 35 3
0.96981305 8.2308226 -1.0176091 16 4
1.5376285 12.991352 -1.1445292 18 5
2.7153428 22.805399 -1.2036225 10 6
1.2702001 10.620686 -0.18670586 12 7
0.71799076 5.8560238 -1.5808668 12 0
0.74069756 6.0151496 -1.3991956 56 1
0.97805834 7.9086003 -1.5489874 4 2
0.74478906 5.996603 -0.95706618 35 3
1.6002977 12.81148 -1.5852765 10 4
0.75785065 6.0413947 -0.53269589 5 5
1.9438798 15.430697 -0.81508023 8 6
0.76825696 5.9314666 -1.6026076 12 0
0.78212702 6.0138335 -1.4000953 52 1
1.0301924 7.8782206 -1.5444082 4 2
8.007165 61.150421 5.395638 4 10
0.7876637 5.9990907 -0.95831764 33 3
1.0917635 8.2816153 -1.0256525 9 4
0.80210042 6.0517578 -0.5340904 6 5
2.0665689 15.529601 -0.82104653 17 6
0.80834007 5.916388 -1.6000193 13 0
0.82144427 5.9889202 -1.3955964 45 1
1.0832943 7.8572206 -1.5417367 3 2
8.418623 60.982498 5.3858762 4 10
0.82952887 5.9934454 -0.95831764 33 3
1.6115115 11.598644 -1.4378146 11 4
0.84873921 6.0775824 -0.53687936 6 5
3.1467803 22.447403 -1.1879216 20 6
0.84770042 5.8972154 -1.596396 12 0
0.86601758 6.002327 -1.4000953 52 1
8.4011974 58.085049 3.0757844 0 9
1.1443156 7.8922119 -1.5501324 3 2
8.8635902 61.056324 5.3977294 4 10
0.87077898 5.9835992 -0.95769191 37 3
1.2339693 8.4482393 -1.0483202 6 4
0.88084066 6.0085816 -0.53130138 5 5
2.2800016 15.477498 -0.81989515 8 6
0.89086479 5.9045258 -1.6000193 14 0
0.90848124 5.9999881 -1.4009951 59 1
8.577878 56.58498 2.9993739 0 9
1.2003655 7.8997684 -1.5531853 3 2
9.2824574 60.945679 5.3935456 4 10
0.91386729 5.9931564 -0.96019489 33 3
1.2739809 8.3158007 -1.0329647 4 4
0.92458355 6.014102 -0.53234726 5 5
2.001905 12.976471 -0.68811321 17 6
0.92501366 5.8601599 -1.5896666 13 0
0.95052314 6.0013638 -1.4027947 66 1
8.9451256 56.35014 2.9901628 0 9
1.2462364 7.8330288 -1.5417367 3 2
0.95693362 5.9944324 -0.96144634 33 3
1.6658627 10.400331 -1.2932776 9 4
0.9667635 6.0155377 -0.53304452 8 5
2.1182306 13.121889 -0.69659162 8 6
0.96432745 5.8440299 -1.5870785 12 0
0.99239743 5.9945817 -1.4027947 56 1
9.3004255 56.118484 2.9811609 0 9
1.2831205 7.7255917 -1.5222743 9 2
10.131665 60.870869 5.3987751 4 10
0.99511689 5.9721918 -0.95894337 35 3
1.7721766 10.590109 -1.3183827 10 4
1.0060973 5.9929223 -0.53165001 5 5
3.0075729 17.857653 -0.94906032 9 6
1.0089965 5.8658881 -1.594843 14 0
1.033841 5.991529 -1.4036945 78 1
9.6491013 55.804214 2.9679723 0 9
1.3584718 7.84025 -1.5466977 4 2
10.214153 58.888447 5.2289958 1 10
1.0374601 5.9689922 -0.9595691 35 3
1.8240991 10.46242 -1.3040022 9 4
1.0489421 5.9916406 -0.53217298 14 5
3.5480881 20.204679 -1.0750854 19 6
1.0649204 5.9423699 -1.6176192 13 0
1.0777133 5.9956737 -1.406394 77 1
10.003024 55.538929 2.9575052 0 9
1.4138713 7.8344393 -1.547461 7 2
10.64908 58.949032 5.240849 1 10
1.0805136 5.9693785 -0.96082056 35 3
1.4683915 8.0880547 -1.009322 7 4
1.0936012 5.9998527 -0.53356743 14 5
2.3572404 12.894316 -0.68696183 17 6
1.1102717 5.9556813 -1.6233131 11 0
1.1195418 5.9880042 -1.406394 59 1
10.403754 55.538418 2.9612734 0 9
1.4754162 7.8610387 -1.5547118 3 2
10.587282 56.355091 5.0166845 1 10
1.1228951 5.9655719 -0.96144634 33 3
1.531081 8.1107664 -1.0134655 9 4
1.1402837 6.0175195 -0.53583348 12 5
2.0019853 10.534747 -0.56198359 10 6
2.4981239 13.108047 -0.23291981 19 7
1.1400698 5.8870931 -1.6067487 11 0
1.1628046 5.9876938 -1.4081936 56 1
1.5452815 7.9276271 -1.5699766 3 2
10.930884 56.025581 4.9940238 0 10
1.1637545 5.9537106 -0.96082056 37 3
1.593773 8.1310501 -1.0173653 9 4
1.1772692 5.9839978 -0.53356743 14 5
2.0704625 10.495039 -0.56062281 20 6
1.1860884 5.9036121 -1.6134779 13 0
1.2061176 5.9870715 -1.4099932 63 1
11.220066 55.595264 2.9723685 0 9
1.3189102 6.5234389 -1.2936851 4 2
1.2060759 5.9493127 -0.96144634 39 3
1.6441727 8.0886002 -1.0134655 9 4
1.2206068 5.9834428 -0.53426468 15 5
2.1464779 10.494027 -0.56135553 20 6
1.2142785 5.8327756 -1.596396 18 0
1.2478858 5.9785051 -1.4099932 59 1
11.676064 55.695911 4.9786849 0 10
1.2500163 5.9523473 -0.96332359 33 3
1.7091907 8.1177168 -1.0185841 19 4
1.2578189 5.9533324 -0.53234726 23 5
3.7361777 17.63789 -0.94487345 9 6
2.7803946 13.091976 -0.23361792 19 7
1.2618899 5.8562603 -1.6051958 13 0
1.2912393 5.9772673 -1.4117929 59 1
12.341586 57.033894 3.0581994 0 9
1.6735339 7.7208443 -1.5356308 4 2
12.048982 55.540993 4.9722352 1 10
1.2923772 5.9473367 -0.96394926 39 3
1.7658213 8.1055861 -1.0185841 14 4
1.3093661 5.9952421 -0.53687936 24 5
2.3269908 10.619111 -0.56972927 10 6
1.3077848 5.8699355 -1.6114074 13 0
1.3337866 5.9719105 -1.4126925 63 1
1.7582234 7.8529587 -1.5642521 4 2
12.589441 56.137909 5.0334182 1 10
1.335428 5.9499655 -0.96582651 45 3
1.8214937 8.0891876 -1.0180966 19 4
1.3459244 5.9626327 -0.5347876 27 5
2.3599887 10.429652 -0.56041348 20 6
1.361128 5.9192619 -1.6274542 11 0
1.3643351 5.9190183 -1.4023448 27 1
1.3583132 5.8741541 -1.1719489 31 2
13.977518 60.398949 5.4238758 5 10
1.3608737 5.8712215 -0.9545632 37 3
1.3612218 5.8587761 -0.73852831 31 4
1.3658104 5.8599529 -0.52642071 51 5
1.3943928 5.8757815 -1.6181368 20 0
1.4006667 5.8884945 -1.397396 76 1
1.3992894 5.8645282 -1.1719489 34 2
14.421951 60.396797 5.4325919 5 10
1.4018294 5.8615775 -0.9545632 39 3
1.4071805 5.8703647 -0.74120939 31 4
1.4085476 5.8580241 -0.52711791 48 5
2.5414076 10.545196 -0.56847322 20 6
1.4427235 5.8959279 -1.6264189 18 0
1.4389541 5.8672171 -1.3946966 70 1
1.4495796 5.8927441 -1.1795813 25 2
4.3492436 17.667028 1.5918124 1 10
1.4597428 5.9206934 -0.96582651 45 3
2.5872085 10.470087 -1.3242323 16 4
1.4780881 5.9682059 -0.53792524 39 5
2.5668161 10.333361 -0.55800605 10 6
3.6101468 14.501094 -0.26084366 25 7
1.4762934 5.8557405 -1.6181368 10 0
1.5056585 5.9590535 -1.4189912 59 1
1.9484538 7.694572 -1.5428816 19 2
1.5102113 5.950829 -0.97239673 46 3
2.1451299 8.4279785 -1.0678192 5 4
1.5172529 5.9480896 -0.53705364 36 5
5.148046 20.137863 -1.0893207 29 6
1.5146631 5.8399463 -1.6165838 9 0
1.5491271 5.9599833 -1.4216906 49 1
14.878482 57.16029 3.0954628 0 9
2.0110383 7.7149782 -1.5497508 18 2
1.5522184 5.9420524 -0.97270966 45 3
2.740366 10.467989 -1.3286197 13 4
1.5617769 5.9489145 -0.53809953 33 5
4.673625 17.764282 -0.9626677 27 6
1.557887 5.8385625 -1.6191721 10 0
1.5906979 5.9490237 -1.4216906 47 1
2.0734901 7.7329874 -1.5562382 3 2
1.5967394 5.9425173 -0.97458684 43 3
2.8082235 10.429432 -1.3261824 22 4
1.6017121 5.932096 -0.53757662 39 5
3.5174234 13.00007 -0.7058028 8 6
1.5970767 5.8219552 -1.6176192 13 0
1.6363233 5.9528055 -1.4252899 59 1
2.1185613 7.6861477 -1.5497508 24 2
1.6402909 5.9388418 -0.9758383 43 3
2.8841379 10.421053 -1.3276447 16 4
1.6489444 5.9418879 -0.53949404 42 5
4.2609091 15.322774 -0.83350253 26 6
4.0519242 14.541737 -0.26349643 25 7
1.631391 5.7883515 -1.6114074 13 0
1.6767796 5.9374866 -1.4243901 52 1
2.1689596 7.6598358 -1.547461 10 2
1.6827899 5.9310455 -0.97646403 43 3
2.9497635 10.375842 -1.3244762 20 4
1.6909356 5.9321465 -0.53966838 39 5
4.372159 15.308019 -0.83433986 26 6
1.6733727 5.7823882 -1.6129603 11 0
1.722532 5.9406095 -1.4279894 45 1
2.2547143 7.7557354 -1.5699766 3 2
1.7313343 5.943809 -0.98053133 46 3
3.0399203 10.415976 -1.3322757 24 4
1.737904 5.9393196 -0.54141146 39 5
3.7810402 12.896721 -0.70433736 8 6
1.7142533 5.7724156 -1.6134779 13 0
1.7673006 5.9396448 -1.4306886 63 1
2.3200285 7.7774315 -1.5776089 3 2
1.7733537 5.9334702 -0.98084426 45 3
3.7577403 12.549086 -1.6084318 10 4
1.7833358 5.9403996 -0.54263163 42 5
3.9274561 13.033022 -0.23759706 30 7
1.7618254 5.7843323 -1.6202073 10 0
1.8121339 5.9383464 -1.4333881 63 1
1.817052 5.9284987 -0.98209572 43 3
3.8033092 12.385915 -1.5908825 19 4
1.8241752 5.9259014 -0.54245734 39 5
6.1780143 20.032206 -1.0986365 19 6
1.7992859 5.7626719 -1.6176192 13 0
1.8605287 5.9478693 -1.438787 56 1
1.8619487 5.9269762 -0.98397291 40 3
1.8696976 5.9263225 -0.54367751 45 5
4.0906305 12.942303 -0.71135038 17 6
4.1223249 13.018856 -0.23836498 20 7
1.8447708 5.7665296 -1.6222779 11 0
1.9043863 5.9421582 -1.4405866 66 1
2.510622 7.8149891 -1.5955449 4 2
1.9044888 5.9175949 -0.98459864 40 3
3.4446964 10.684117 -1.3783424 3 4
1.9171555 5.9320827 -0.54542065 50 5
4.1864219 12.930531 -0.71229243 8 6
1.8801693 5.7388244 -1.6181368 11 0
1.9482518 5.9361258 -1.4423862 66 1
2.6000903 7.903573 -1.6172972 3 2
1.9507015 5.9191642 -0.98710161 38 3
3.4750173 10.525971 -1.3610369 2 4
1.954764 5.9072051 -0.54437476 48 5
4.2816133 12.916158 -0.71312982 8 6
1.9416901 5.7896633 -1.6362541 9 0
1.9958551 5.9408512 -1.4468851 70 1
2.6464331 7.8591795 -1.6119545 3 2
1.9970285 5.9203753 -0.98960453 35 3
3.5363441 10.465722 -1.3564059 13 4
2.0013158 5.9126348 -0.54611784 50 5
4.3620558 12.857581 -0.71155971 17 6
1.9826893 5.7777939 -1.6367717 11 0
2.0410824 5.9378304 -1.4495846 73 1
2.038569 5.9103794 -0.99023032 40 3
4.3785324 12.665894 -1.64548 2 4
2.0490644 5.917346 -0.54786098 50 5
3.6195333 10.434918 -0.57883573 19 6
4.5170541 12.993119 -0.2401102 31 7
2.0168531 5.7495813 -1.6326306 12 0
2.0879099 5.9421859 -1.4540836 73 1
2.0797815 5.8960037 -0.99023032 35 3
3.6406271 10.303668 -1.3417815 19 4
2.0929854 5.910409 -0.54855824 50 5
4.5676293 12.877157 -0.71606064 17 6
2.0752044 5.7862773 -1.6471245 11 0
2.130661 5.9311328 -1.4549835 66 1
2.7884629 7.7452617 -1.6001244 4 2
2.1262507 5.8962069 -0.99273324 42 3
3.7832766 10.47404 -1.3673741 28 4
2.1409788 5.9143877 -0.55030131 50 5
4.6560555 12.841199 -0.71585125 17 6
2.103585 5.7389984 -1.6378069 11 0
2.1760488 5.9270887 -1.4576828 59 1
2.1728268 5.8960476 -0.99523622 42 3
3.8459961 10.419438 -1.363718 21 4
2.1853328 5.9108896 -0.5513472 50 5
4.7698708 12.873933 -0.71951485 17 6
2.1449518 5.7277923 -1.6388422 12 0
2.2228467 5.9263501 -1.461282 63 1
2.2233448 5.9088535 -0.99992919 47 3
3.9186487 10.392333 -1.363718 23 4
4.301507 11.401669 1.9300886 3 12
2.2335844 5.9141278 -0.55309033 50 5
8.4689999 22.38891 -1.254493 10 6
4.9070215 12.945057 -0.24164602 21 7
2.1969962 5.7473454 -1.6486773 13 0
2.2687089 5.9256415 -1.4648812 59 1
2.2680848 5.9024072 -1.0014936 42 3
4.0424604 10.498103 -1.3812673 18 4
2.2733819 5.8946738 -0.55274171 46 5
4.9721088 12.872151 -0.72317833 8 6
2.2338507 5.7206793 -1.6455716 14 0
2.3167322 5.9237747 -1.4684805 52 1
3.0058804 7.674047 -1.6020325 6 2
2.3153155 5.8988976 -1.0036837 43 3
4.1142001 10.465931 -1.3807799 14 4
2.320318 5.8934903 -0.55413622 46 5
7.9036198 20.033752 -1.1286774 10 6
2.2665792 5.6869998 -1.6403952 14 0
2.3594735 5.9110775 -1.4693804 43 1
3.0964427 7.7416606 -1.6207317 13 2
2.3652558 5.9045949 -1.0074381 45 3
3.2492111 8.0990028 -1.0714754 10 4
2.3703196 5.8993325 -0.55622798 52 5
5.1528373 12.798723 -0.72307366 35 6
2.3229675 5.7121959 -1.6523008 11 0
2.4036262 5.901679 -1.47118 43 1
3.1520331 7.7276759 -1.6222582 13 2
2.4113686 5.9029875 -1.009941 43 3
3.3154454 8.1000061 -1.074644 13 4
2.419004 5.9010758 -0.55797106 52 5
5.2754922 12.850187 -0.72799325 8 6
2.3699317 5.7158823 -1.6579949 13 0
2.4527068 5.9067793 -1.4765787 47 1
3.2089221 7.7127323 -1.6237847 9 2
2.4631569 5.9115367 -1.0143212 43 3
4.8925486 11.724743 -1.5599277 2 4
2.4632165 5.8913975 -0.55866832 52 5
5.3642974 12.811205 -0.72788858 17 6
2.3992455 5.6742878 -1.6507479 13 0
2.5075619 5.921813 -1.484677 33 1
3.2442825 7.6467686 -1.6146259 13 2
2.5089993 5.9051065 -1.0161984 43 3
3.4648957 8.1430273 -1.0865872 4 4
2.5105371 5.8887191 -0.56006277 52 5
4.4505625 10.424113 -0.59401315 9 6
5.5149093 12.898324 -0.24485727 22 7
2.4372742 5.6538501 -1.6497126 14 0
2.5534799 5.914897 -1.4873765 26 1
3.3311014 7.7014151 -1.6310353 3 2
2.5533044 5.8946972 -1.0174499 43 3
3.5106006 8.0931425 -1.0831748 9 4
2.5521472 5.8751502 -0.56041139 52 5
8.7260351 20.049389 -1.1459483 20 6
5.6511626 12.96583 -0.24688175 22 7
2.4805691 5.6455412 -1.6523008 12 0
2.6174693 5.9486547 -1.5004236 12 1
3.3881962 7.689342 -1.6333251 3 2
2.5941668 5.8789883 -1.0177628 38 3
3.5614011 8.0557261 -1.0814687 22 4
4.2101717 9.5187359 1.6485065 3 12
2.6092353 5.8936253 -0.56389767 52 5
5.7465811 12.961786 -0.74306601 8 6
5.7253022 12.889513 -0.24618365 22 7
2.5347226 5.6637921 -1.6626536 12 0
2.6650727 5.9467049 -1.5044726 1 1
3.398371 7.5687866 -1.6127177 10 2
2.6464875 5.8859572 -1.0221429 35 3
3.6234837 8.0475903 -1.0836623 23 4
2.6525645 5.8829942 -0.56459486 48 5
3.7254732 8.2471666 -0.47426847 12 6
2.5822132 5.6635375 -1.66783 12 0
2.9266713 6.4101319 -1.6268461 2 1
3.4775667 7.6061859 -1.6256927 7 2
2.6955361 5.8875637 -1.0255845 43 3
3.7168205 8.1032925 -1.0946305 16 4
2.7018869 5.8824377 -0.566338 52 5
5.9497805 12.935759 -0.7462061 8 6
2.6174529 5.6388192 -1.6657594 11 0
3.0441632 6.5491071 -1.6673372 1 1
3.523124 7.5657043 -1.6222582 10 2
2.7399125 5.8757629 -1.0268359 45 3
3.2931619 7.052567 -0.9556995 5 4
2.7477725 5.8765445 -0.56755817 57 5
6.0179224 12.846878 -0.74348468 17 6
2.6683114 5.6448617 -1.6730064 11 0
3.0948098 6.5382652 -1.6700366 1 1
3.4643831 7.3091478 -1.5722662 16 2
2.7832296 5.8641167 -1.0280875 43 3
4.8698444 10.242026 -1.3924793 13 4
2.7964399 5.8734083 -0.56912696 54 5
4.9517369 10.3862 -0.60301495 9 6
3.4826782 7.2917614 -0.14105035 7 7
2.6875484 5.5843182 -1.660583 11 0
3.1539161 6.5445886 -1.677235 1 1
3.7857749 7.8487215 0.45668361 2 9
3.6548712 7.5705857 -1.6340883 15 2
2.8423157 5.8796191 -1.0343448 47 3
3.886035 8.0279293 -1.0951179 19 4
2.8436134 5.8640032 -0.57017285 54 5
6.8632197 14.134246 -0.82345402 8 6
2.7264717 5.5654182 -1.660583 12 0
3.1119914 6.3439527 -1.631345 4 1
3.7916236 7.7157989 -1.6711053 3 2
2.8920155 5.877357 -1.0374736 42 3
4.0016465 8.1216908 -1.1116923 11 4
2.8950646 5.8654475 -0.57226461 54 5
3.979521 8.0519495 -0.47070965 24 6
6.3868976 12.90589 -0.25134957 23 7
2.7928398 5.6015735 -1.6771475 11 0
3.2328002 6.4755049 -1.6709365 1 1
3.786566 7.5714936 -1.6455369 7 2
2.9418244 5.8746858 -1.0406022 42 3
4.0591426 8.0953283 -1.111936 21 4
2.943094 5.8593383 -0.57365906 54 5
4.021275 7.9954243 -0.46903491 25 6
2.828382 5.575048 -1.6750768 12 0
3.2337997 6.3659072 -1.6484413 2 1
3.8339901 7.5343747 -1.6432471 7 2
2.9917336 5.8716049 -1.0437309 40 3
4.1146579 8.0650244 -1.1116923 15 4
2.9911845 5.8528399 -0.57505357 50 5
5.3180232 10.392326 -0.61180741 9 6
5.3573141 10.455605 -0.20506579 14 7
2.8884995 5.5963664 -1.6875002 11 0
3.3461599 6.4747481 -1.6826339 5 1
7.0645332 13.658014 0.80586916 2 9
3.9054472 7.5440402 -1.6512611 3 2
3.0417404 5.8681149 -1.0468596 40 3
4.1672006 8.0290575 -1.1107173 15 4
3.0438142 5.8570967 -0.57749397 56 5
4.1712546 8.0129032 -0.47343111 24 6
2.9239042 5.5692239 -1.6854297 12 0
3.2552636 6.192492 -1.6151485 2 1
3.9631047 7.5294442 -1.6539325 15 2
3.0843787 5.8525157 -1.0477982 37 3
4.2259326 8.0050354 -1.1114485 25 4
3.0902166 5.8462729 -0.57853985 52 5
5.4813538 10.356853 -0.61411017 9 6
5.538363 10.446925 -0.20639215 22 7
2.93173 5.4929495 -1.6683476 13 0
3.4571579 6.4692459 -1.6934315 2 1
4.0415196 7.550055 -1.6646177 18 2
3.1326241 5.84477 -1.0503011 39 3
4.2981577 8.0093184 -1.1160794 18 4
3.149823 5.8596544 -0.58202606 56 5
5.5611024 10.332401 -0.61494756 18 6
3.0022593 5.531775 -1.6864649 12 0
3.4436188 6.33708 -1.6650877 8 1
4.1072712 7.5457978 -1.6699605 21 2
7.130939 13.095378 1.3045471 1 10
3.1913126 5.8557138 -1.0562457 40 3
4.352067 7.9756308 -1.115592 20 4
3.2002099 5.8550048 -0.58376914 56 5
5.667613 10.356401 -0.6187157 26 6
3.0230689 5.4785442 -1.6766298 14 0
3.5264108 6.3828206 -1.6835337 2 1
4.1623363 7.5245395 -1.6714869 18 2
3.2397742 5.8471136 -1.0587486 40 3
4.4711986 8.0596209 -1.1316788 10 4
3.2477291 5.8470197 -0.58516365 56 5
5.7350636 10.312346 -0.61840177 35 6
7.1395802 12.822031 -0.25616643 24 7
3.0621827 5.4612088 -1.6776651 14 0
3.5564232 6.334878 -1.677235 2 1
4.227891 7.5217018 -1.677211 10 2
3.2901089 5.8461561 -1.062503 42 3
4.5148096 8.012496 -1.1292415 14 4
3.2933292 5.8351884 -0.58620954 56 5
5.8513064 10.354796 -0.62332129 26 6
5.8835654 10.399168 -0.20855626 15 7
3.1155434 5.4709969 -1.6869825 13 0
3.5867767 6.2908363 -1.6718361 10 1
3.3474727 5.8544946 -1.0681347 40 3
5.8669453 10.244272 -1.4495142 16 4
3.3488259 5.840292 -0.5889985 58 5
5.9910932 10.431465 -0.63043898 8 6
7.3754983 12.826385 -0.2582607 24 7
3.1691325 5.47364 -1.6947472 11 0
3.6424515 6.2835546 -1.6767852 6 1
4.3502398 7.4925008 -1.6840802 3 2
3.4031792 5.8542995 -1.0725149 43 3
7.1743646 12.331738 1.7517501 1 11
4.7105289 8.0902567 -1.1494718 7 4
3.4025736 5.8368349 -0.59109026 58 5
6.095798 10.440071 -0.63357919 8 6
3.2180164 5.4674726 -1.6999235 11 0
3.6794043 6.2438989 -1.6731859 9 1
4.3917685 7.4408908 -1.6795008 3 2
3.4630737 5.8604088 -1.0781465 37 3
4.7214093 7.9802928 -1.1385034 19 4
3.460505 5.8397613 -0.59387922 58 5
6.1175756 10.311377 -0.62834555 8 6
6.2039714 10.444534 -0.21204674 15 7
3.2362781 5.4117131 -1.6895708 11 0
3.7048867 6.1879644 -1.6650877 15 1
4.4506764 7.4218345 -1.6821721 3 2
3.5110199 5.8479438 -1.0803366 33 3
7.293859 12.134228 -1.7383444 7 4
3.5053008 5.822288 -0.59457648 58 5
6.2120962 10.306048 -0.63064831 8 6
6.2912016 10.424937 -0.21253541 15 7
3.2960474 5.4253111 -1.7009588 10 0
3.7631869 6.1869226 -1.6718361 17 1
4.5064678 7.3972888 -1.6836987 3 2
3.5579326 5.8334088 -1.0822138 28 3
4.9296198 8.0728483 -1.161415 7 4
3.5645959 5.8305907 -0.59788835 65 5
4.9342918 8.0583496 -0.4952029 11 6
4.9508047 8.07582 -0.16534409 15 7
3.3023915 5.3512044 -1.6849121 13 0
3.7161503 6.0146112 -1.6322449 23 1
3.6375227 5.880465 -1.3440586 3 2
3.615238 5.8376055 -1.0875325 22 3
4.9753947 8.0213661 -1.1589775 10 4
3.6136231 5.8191042 -0.59928286 67 5
7.9058871 12.716179 -0.78472537 17 6
3.3418169 5.3335128 -1.6864649 12 0
3.6969419 5.8934293 -1.6061505 32 1
3.6628182 5.8299932 -1.3383343 20 2
3.6537979 5.8088818 -1.0869068 25 3
3.6494367 5.7952137 -0.84089851 20 4
3.6584587 5.8028002 -0.6001544 45 5
9.6387901 15.264751 -0.9461295 9 6
3.3676724 5.2943435 -1.6812886 12 0
3.6825366 5.7826562 -1.5827556 35 1
3.6665254 5.7486463 -1.3253593 30 2
3.6634886 5.737257 -1.0781465 31 3
