# .PCD v0.7 - Point Cloud Data file format
VERSION 0.7
FIELDS x y z intensity ring
SIZE 4 4 4 4 2
TYPE F F F F U
COUNT 1 1 1 1 1
WIDTH 1312
HEIGHT 1
VIEWPOINT 0 0 0 1 0 0 0
POINTS 1312
DATA ascii
-2.4288208 6.958971 0.90500182 2 11
-2.1896186 6.2771387 -0.81628096 11 4
-2.4354064 6.9896002 1.17232 3 12
-2.3497872 6.7514677 -0.62542957 8 5
-2.4142435 6.940556 1.4283962 2 13
-5.197576 14.959029 -0.82994366 8 6
-2.4350302 7.0161057 1.714577 3 14
-2.3919442 6.9036279 1.9577073 1 15
-1.577345 4.591352 -1.3008245 12 0
-2.4190352 7.0493593 0.13009024 4 8
-1.6866999 4.9180412 -1.2003388 15 1
-1.794958 5.2456284 -1.0776893 16 2
-2.3970389 7.0091577 0.64809006 1 10
-1.9526993 5.7163844 -0.95675331 16 3
-2.3737683 6.9569707 0.90256441 2 11
-2.1393354 6.2734833 -0.81384355 11 4
-2.3738117 6.9690342 1.1660627 3 12
-2.3581426 6.9349375 1.4238168 2 13
-2.3859925 7.0329332 1.714577 3 14
-2.3362565 6.898201 1.9514956 1 15
-1.5440232 4.5985894 -1.2997893 11 0
-2.376121 7.0850348 0.13043928 4 8
-1.6548016 4.9370875 -1.2021384 14 1
-1.7582929 5.2580318 -1.0776893 14 2
-2.3379426 6.9954867 0.6453011 1 10
-1.910242 5.7223825 -0.95550185 16 3
-2.3176069 6.9507751 0.89963961 2 11
-2.0691276 6.209168 -0.80360651 11 4
-2.3375781 7.0229225 1.17232 3 12
-2.3096733 6.95123 1.4238168 2 13
-2.3159795 6.9824238 1.6983805 3 14
-2.2807581 6.892334 1.945284 1 15
-1.5034519 4.5835581 -1.2925425 11 0
-2.319119 7.0744419 0.12995063 4 8
-1.6178684 4.9411125 -1.2003388 15 1
-1.7218518 5.2680125 -1.0773077 14 2
-2.289048 7.0116377 0.6453011 1 10
-1.8694082 5.7296185 -0.9545632 15 3
-2.2554789 6.921092 0.89378983 2 11
-2.0337164 6.2480006 -0.80677515 13 4
-2.2652771 6.9635315 1.1598053 3 12
-2.2513919 6.9373074 1.4177109 2 13
-2.2302241 6.8966708 1.9421781 1 15
-1.4663218 4.5752888 -1.287366 12 0
-2.2635767 7.0714145 0.12960157 4 8
-1.5830102 4.948298 -1.199439 15 1
-1.6784688 5.2593303 -1.0731099 16 2
-2.2412682 7.0270567 0.6453011 1 10
-1.8251654 5.7293549 -0.95237315 13 3
-2.2239583 6.9896355 0.9006145 2 11
-1.9989609 6.2862921 -0.80994374 11 4
-2.2034523 6.9377575 1.1529222 3 12
-2.2017457 6.9449859 1.4161844 2 13
-2.1791143 6.9028611 1.93959 1 15
-1.4349234 4.5872569 -1.2878836 13 0
-2.1867263 6.9992433 0.12799595 4 8
-1.5437819 4.9443469 -1.1958399 17 1
-1.6452113 5.2821674 -1.0753995 14 2
-2.1815002 7.0082893 0.64216352 1 10
-1.7733936 5.7042308 -0.94611579 20 3
-2.1621568 6.9632835 0.89525223 1 11
-1.9426705 6.2602797 -0.80482519 9 4
-2.191221 7.0699549 1.17232 3 12
-2.1485651 6.9451828 1.4131315 2 13
-2.1280265 6.9086747 1.9370018 1 15
-1.4011719 4.59162 -1.2863307 12 0
-2.1494689 7.0525961 0.12869404 4 8
-1.5001413 4.9251771 -1.1886414 19 1
-1.6060145 5.2860103 -1.073873 14 2
-2.1244125 6.9966588 0.63972312 1 10
-1.7306639 5.7070198 -0.94455141 15 3
-2.1100388 6.9668097 0.89378983 2 11
-1.8833938 6.2223897 -0.79824424 11 4
-2.0995111 6.9451561 1.1491677 3 12
-2.098892 6.956254 1.4123683 2 13
-2.0841706 6.9249406 1.6695868 3 14
-2.0791874 6.9215131 1.9364842 1 15
-1.3663274 4.5920315 -1.2837424 14 0
-2.1001801 7.06743 0.12869404 4 8
-1.4646109 4.9317937 -1.1877415 15 1
-1.5696272 5.2989764 -1.0742546 14 2
-2.0811734 7.0304227 0.64146626 1 10
-1.6986172 5.7454844 -0.94893163 15 3
-2.0557315 6.9623308 0.89135242 2 11
-1.8337246 6.2144446 -0.79556316 12 4
-2.0414133 6.9406023 1.4062624 2 13
-2.0632033 7.0328188 1.6920818 3 14
-2.0281012 6.926589 1.9338959 1 15
-1.3345006 4.5993705 -1.2832248 12 0
-2.0364413 7.0277824 0.12771671 4 8
-1.4353436 4.9566236 -1.1913408 20 1
-1.526987 5.2869029 -1.0696753 12 2
-2.02001 6.9984837 0.63728279 1 10
-1.6485293 5.7189507 -0.94267422 15 3
-2.0028012 6.9570866 0.88891506 2 11
-1.7946779 6.2382278 -0.79702556 9 4
-2.0100992 6.9962258 1.1529222 3 12
-1.9919584 6.9467888 1.4047359 2 13
-2.0024247 7.0017323 1.6812842 3 14
-1.9771948 6.9272299 1.9302725 1 15
-1.3044597 4.6160107 -1.2852954 12 0
-1.9916735 7.0572243 0.12799595 4 8
-1.3943573 4.9440165 -1.1859419 18 1
-1.4655873 5.2104983 -1.0521209 13 2
-1.9646327 6.9893994 0.63519108 1 10
-1.6123006 5.7436333 -0.94486433 13 3
-1.9445379 6.9364944 0.8845278 2 11
-1.7430503 6.2219319 -0.79336947 11 4
-1.9409864 6.937799 1.1410331 3 12
-1.9434154 6.9605246 1.4047359 2 13
-1.9399065 6.9667301 1.6695868 3 14
-1.9189578 6.9054999 1.9204375 2 15
-1.2711773 4.6212802 -1.2842602 12 0
-1.9444751 7.07867 0.12813558 4 8
-1.3567125 4.9423547 -1.1832426 19 1
-1.9426284 7.0864711 0.385088 2 9
-1.4219179 5.1940928 -1.0467782 13 2
-1.9115837 6.9875708 0.63379657 1 10
-1.5638337 5.7242608 -0.93985838 13 3
-1.8950194 6.9460697 0.8840403 2 11
-1.6933051 6.210968 -0.79044467 12 4
-1.8919853 6.9492745 1.1407202 3 12
-1.8865386 6.9436092 1.39863 2 13
-1.892437 6.979774 1.6695868 3 14
-1.8641499 6.894484 1.9137081 1 15
-1.2398825 4.6337743 -1.2852954 11 0
-1.9045117 7.1226511 0.12869404 4 8
-1.315137 4.9253473 -1.1769439 21 1
-1.4062437 5.277637 -1.0616612 15 2
-1.8627547 7.0007458 0.63379657 1 10
-1.5233108 5.7290459 -0.93891978 15 3
-1.8375068 6.9204359 0.87916553 2 11
-1.6549906 6.2418256 -0.79288203 11 4
-1.8446391 6.9619918 1.1407202 3 12
-1.8370138 6.9528141 1.3978667 2 13
-1.8201263 6.918222 1.9168139 1 15
-1.2063683 4.6346278 -1.2832248 12 0
-1.8416606 7.0854535 0.12778652 4 8
-1.2845225 4.9455018 -1.1796434 15 1
-1.3673956 5.2797236 -1.0601349 13 2
-1.8160573 7.0171208 0.6341452 1 10
-1.4887143 5.7605786 -0.9423613 16 3
-1.7921243 6.9446282 0.88062793 2 11
-1.6149439 6.262557 -0.7941007 9 4
-1.7959902 6.9747005 1.1407202 3 12
-1.791599 6.9727631 1.3993932 2 13
-1.7948023 7.0055161 1.6695868 3 14
-1.768913 6.9195313 1.9137081 1 15
-1.1758751 4.6504292 -1.2852954 11 0
-1.8048776 7.1485481 0.12869404 4 8
-1.2385215 4.9090004 -1.1688457 18 1
-1.3295474 5.2853327 -1.0593716 13 2
-1.7699386 7.0412216 0.63519108 1 10
-1.4426937 5.7478399 -0.93860692 18 3
-1.7397373 6.9415665 0.87867808 2 11
-1.564435 6.2467194 -0.7906884 10 4
-1.7362225 6.9584332 1.3940506 2 13
-1.7458508 7.0178752 1.6695868 3 14
-1.71777 6.9204617 1.9106023 1 15
-1.1392382 4.6416392 -1.2806368 13 0
-1.7197082 7.0172491 0.12611109 4 8
-1.2028316 4.9118476 -1.167496 42 1
-1.2958735 5.3078375 -1.062043 16 2
-1.7056277 6.9914665 0.6296131 1 10
-1.3959831 5.7309022 -0.93422669 16 3
-1.6837307 6.9226799 0.87477821 1 11
-1.5217212 6.2613473 -0.79117584 13 4
-1.6853924 6.9453459 1.1319599 3 12
-1.6820607 6.9474869 1.3894712 2 13
-1.6797417 6.953825 1.6515907 3 14
-1.6594638 6.8909664 1.8992143 1 15
-1.1018845 4.6288066 -1.2749426 12 0
-1.669127 7.0171194 0.12590165 4 8
-1.1599557 4.8841023 -1.1589478 26 1
-1.6966275 7.1493587 0.385088 2 9
-1.2493057 5.2725964 -1.0532657 15 2
-1.6448506 6.9527931 0.625081 1 10
-1.355581 5.7345037 -0.9332881 15 3
-1.638391 6.9417095 0.87575316 2 11
-1.4852599 6.3027325 -0.79507565 12 4
-1.6281137 6.9143562 1.1250768 3 12
-1.6308219 6.9475932 1.3871815 2 13
-1.6489239 7.0412793 1.6695868 3 14
-1.6129595 6.9039831 1.8997319 2 15
-1.0707862 4.638082 -1.2754604 9 0
-1.6245892 7.0480871 0.12625071 4 8
-1.1354313 4.9298649 -1.1679459 20 1
-1.2186133 5.3079786 -1.0586084 15 2
-1.6010534 6.979363 0.62647545 1 10
-1.314629 5.7399774 -0.93266243 15 3
-1.5907773 6.9568486 0.87624067 2 11
-1.4372458 6.2955303 -0.79288203 11 4
-1.5761849 6.9320078 1.3818389 2 13
-3.6403687 16.023117 -0.8611359 8 6
-1.5997263 7.0526195 1.6695868 3 14
-1.5630158 6.9075384 1.8976613 2 15
-1.0325164 4.6230006 -1.2692486 11 0
-1.5675049 7.0241265 0.12562242 4 8
-1.1005486 4.9397655 -1.1683958 23 1
-1.178122 5.3010244 -1.0555553 15 2
-1.5510693 6.9906411 0.62647545 1 10
-1.2718148 5.7415228 -0.93141097 15 3
-1.5361649 6.9406495 0.8728283 1 11
-1.4005378 6.3383636 -0.79702556 9 4
-1.5251012 6.9135327 1.1213224 3 12
-1.5294428 6.9505115 1.3833653 2 13
-1.5354133 6.9950914 1.6533903 3 14
-1.5110694 6.9072232 1.8945554 2 15
-1.0059274 4.6565323 -1.2764956 10 0
-1.5188875 7.0429831 0.12576205 4 8
-1.0705512 4.9682837 -1.1733446 18 1
-1.1360365 5.2901239 -1.0517392 15 2
-1.5114232 7.0441566 0.6303103 1 10
-1.2325279 5.7541246 -0.93203664 15 3
-1.4864594 6.9514642 0.8728283 1 11
-1.3529385 6.3324552 -0.79507565 9 4
-1.4611404 6.8505988 1.1094334 3 12
-1.4784306 6.9494977 1.3810756 2 13
-1.501103 7.0742669 1.6695868 3 14
-1.4588143 6.8987036 1.889379 2 15
-0.97023648 4.648313 -1.2723545 10 0
-1.4709122 7.0531583 0.12576205 4 8
-1.0326625 4.9603739 -1.1697454 20 1
-1.0960101 5.2785115 -1.0479231 13 2
-1.4444165 6.9686961 0.62264061 1 10
-1.1909287 5.7507749 -0.93015939 15 3
-1.4302665 6.9186535 0.86746609 2 11
-1.30308 6.3145285 -0.79166335 9 4
-1.4267172 6.9442649 1.3780226 2 13
-1.4188193 6.924212 1.6317949 3 14
-1.413373 6.9160438 1.8914497 2 15
-0.9343735 4.6339784 -1.2666605 12 0
-1.4232143 7.0710969 0.12590165 4 8
-0.99925846 4.9691982 -1.1701953 26 1
-1.0660776 5.3206844 -1.0547922 13 2
-1.3961663 6.9744587 0.62229198 1 10
-1.1523027 5.7666969 -0.93141097 15 3
-1.3881429 6.9596181 0.8713659 2 11
-1.2581314 6.3135176 -0.79044467 12 4
-1.366547 6.8700929 1.1094334 3 12
-1.3755959 6.9345579 1.3742064 2 13
-1.3757313 6.9607143 1.6380936 3 14
-1.3657994 6.929534 1.8924849 2 15
-0.90531701 4.6574559 -1.2713192 9 0
-1.3738173 7.0808601 0.12590165 4 8
-0.96343005 4.970314 -1.1688457 34 1
-1.0225754 5.2952275 -1.0483047 13 2
-1.3459351 6.9762106 0.62159473 1 10
-1.1168687 5.7998185 -0.93547827 11 3
-1.3290305 6.914556 0.86454117 2 11
-1.2132723 6.3182483 -0.78995717 12 4
-1.3234645 6.9247093 1.3703903 2 13
-1.3249192 6.958662 1.6353942 3 14
-1.3173921 6.9388995 1.8924849 2 15
-0.86638534 4.6294823 -1.2620018 11 0
-1.3243501 7.0902781 0.12590165 4 8
-0.93049699 4.9864964 -1.1710953 15 1
-0.98845309 5.3176789 -1.0513576 13 2
-1.2957441 6.9776015 0.62089753 1 10
-1.0702313 5.7744546 -0.93015939 15 3
-1.2756737 6.8963375 0.86112887 2 11
-1.166247 6.3109484 -0.7880072 12 4
-1.2704948 6.8885026 1.1094334 3 12
-1.2743819 6.9299178 1.3696271 2 13
-1.2831455 6.998188 1.6425927 3 14
-1.2654465 6.9289236 1.8873086 2 15
-0.83370221 4.6335163 -1.261484 13 0
-1.2689819 7.0597658 0.12520356 4 8
-0.88568348 4.9372458 -1.158048 22 1
-0.95016253 5.3126884 -1.0490679 11 2
-1.2490968 6.9982457 0.62194335 1 10
-1.0347182 5.8029976 -0.93360102 13 3
-1.2266122 6.8931355 0.85966641 2 11
-1.1127914 6.2661643 -0.78142631 10 4
-1.2235734 6.8969922 1.1094334 3 12
-1.2191391 6.8999796 1.3619947 2 13
-2.8220928 15.98857 -0.85087812 8 6
-1.2322326 6.9954596 1.6398932 3 14
-1.2182535 6.9373765 1.8873086 2 15
-0.80444759 4.6524091 -1.2651075 11 0
-1.2128642 7.0290413 0.12450547 3 8
-0.8573525 4.973887 -1.1652465 17 1
-1.1521837 6.6983008 0.35619855 2 9
-0.9127177 5.3172569 -1.0486863 15 2
-1.1987418 6.9908762 0.6205489 1 10
-0.99184531 5.7964506 -0.93141097 9 3
-1.1794648 6.9074006 0.86039764 2 11
-1.084129 6.3557806 -0.79166335 10 4
-1.1760819 6.9313459 1.366574 2 13
-1.1723235 6.938561 1.6245965 3 14
-1.1588831 6.8809419 1.8697089 2 15
-0.77447486 4.6731586 -1.2692486 9 0
-1.0815456 6.5401664 0.11570945 50 8
-0.82070166 4.968215 -1.162547 22 1
-1.0761579 6.5288215 0.34677809 26 9
-0.87175047 5.3002524 -1.0441068 13 2
-1.151199 7.0069385 0.6212461 1 10
-0.94464338 5.7622972 -0.92484063 7 3
-1.1292907 6.9037123 0.85893518 2 11
-1.0346092 6.3318491 -0.78776348 10 4
-1.0582925 6.5053043 -0.57662237 33 5
-1.1289263 6.9471383 1.3681006 2 13
-1.0513879 6.4843006 -0.34426597 23 6
-1.1300793 6.9850512 1.6335946 3 14
-1.0524614 6.5125017 -0.11515098 40 7
-1.1135846 6.9060297 1.8743677 1 15
-0.72700667 4.584959 -1.2438843 20 0
-1.0327386 6.5278058 0.1153604 43 8
-0.78113008 4.9430261 -1.1553485 16 1
-1.0293046 6.5282845 0.3463594 26 9
-0.8341164 5.302331 -1.0433437 13 2
-1.0960646 6.9754405 0.61775988 1 10
-0.9019472 5.7531385 -0.92233771 13 3
-1.0822932 6.9192724 0.85991013 2 11
-0.99528509 6.3702979 -0.79166335 10 4
-1.0131541 6.514504 -0.57679671 40 5
-1.0779876 6.9393301 1.3650476 2 13
-1.0060933 6.4914823 -0.34426597 23 6
-1.0753343 6.9542522 1.6245965 3 14
-1.0069699 6.5196905 -0.11515098 37 7
-1.0653477 6.9136353 1.8743677 3 15
-0.70828605 4.6777864 -1.2676958 12 0
-0.74660462 4.9483585 -1.1553485 18 1
-1.0639728 7.0685635 0.37462083 2 9
-0.8011604 5.3352056 -1.0486863 13 2
-1.0473434 6.9829216 0.61775988 1 10
-0.86556089 5.7846928 -0.92640501 15 3
-1.0304477 6.9031 0.85698533 2 11
-0.94434774 6.3338962 -0.78630108 10 4
-1.0283611 6.9389195 1.3635212 2 13
-1.0324451 7.0001483 1.6335946 3 14
-1.0184598 6.9304605 1.8769557 2 15
-0.67698878 4.6921778 -1.2702839 14 0
-1.0218247 7.0997519 0.12520356 4 8
-0.71203804 4.9534502 -1.1553485 21 1
-1.014599 7.075819 0.37462083 2 9
-0.76222879 5.3290071 -1.0463966 15 2
-0.99631381 6.9742851 0.61636543 1 10
-0.80983055 5.6830349 -0.90919721 18 3
-0.98110896 6.9022641 0.85601032 2 11
-0.89731568 6.3206811 -0.78386366 10 4
-0.98240483 6.937448 1.1097462 3 12
-0.98209059 6.9614811 1.366574 2 13
-2.2345529 15.879542 -0.84041083 8 6
-0.98571676 7.0226235 1.6371938 3 14
-0.9684428 6.9259229 1.87385 2 15
-0.64421469 4.6967897 -1.2702839 13 0
-0.9635641 7.0433125 0.12408661 3 8
-0.67902184 4.9698858 -1.158048 15 1
-0.72474229 5.3322535 -1.046015 13 2
-0.94652784 6.9731731 0.61566812 1 10
-0.76907295 5.6807203 -0.90794575 16 3
-0.93289816 6.9089451 0.85601032 2 11
-0.85157537 6.3149877 -0.7824012 10 4
-0.93450904 6.9759512 1.3681006 2 13
-0.92945838 6.9752474 1.6245965 3 14
-0.91498715 6.8942137 1.8634971 2 15
-0.60891998 4.6820149 -1.2651075 13 0
-0.90973938 7.0141726 0.12345833 3 8
-0.63129258 4.8740096 -1.1346531 34 1
-0.68599099 5.3255 -1.0437253 13 2
-0.89477581 6.9558973 0.61357641 1 10
-0.72889268 5.6820321 -0.90732002 16 3
-0.88363439 6.9074135 0.85503536 2 11
-0.80646145 6.3129025 -0.78142631 10 4
-0.88084322 6.9433522 1.3604681 2 13
-0.88464183 7.0125008 1.6317949 3 14
-0.86611181 6.8946829 1.8619443 3 15
-0.57692581 4.6919041 -1.2666605 11 0
-0.8631826 7.0402007 0.12380737 3 8
-0.60577798 4.9479327 -1.1508496 32 1
-0.86619061 7.0955157 0.37462083 2 9
-0.65021861 5.3418531 -1.046015 11 2
-0.84763169 6.9738421 0.61462229 1 10
-0.68492901 5.6516843 -0.9016884 16 3
-0.83634585 6.9212971 0.85601032 1 11
-0.759516 6.2947297 -0.77850145 10 4
-0.83281833 6.9532313 1.3612314 2 13
-0.83197737 6.9875445 1.6245965 3 14
-0.81772935 6.8986435 1.8614267 2 15
-0.54259944 4.682384 -1.263037 13 0
-0.80804151 6.9944072 0.12289985 3 8
-0.57256001 4.9636569 -1.153549 27 1
-0.61447746 5.3599153 -1.0486863 13 2
-0.79756498 6.9677129 0.61357641 1 10
-0.65934449 5.7780113 -0.92108625 16 3
-0.78710818 6.9190774 0.85503536 1 11
-0.7166751 6.3097401 -0.77972013 12 4
-0.7883153 6.9621739 1.1097462 3 12
-0.77985477 6.9198585 1.3535991 2 13
-0.77710539 6.9389567 1.6119993 4 14
-0.77169108 6.9233832 1.866603 2 15
-0.51031274 4.6898999 -1.2640723 13 0
-0.76091999 7.0157824 0.12317909 3 8
-0.53831041 4.9714079 -1.1544489 28 1
-0.7670399 7.1069174 0.37462083 2 9
-0.57305342 5.3269868 -1.0414355 9 2
-0.75018162 6.9849963 0.61462229 1 10
-0.62424666 5.8315778 -0.92890793 9 3
-0.73920268 6.9283524 0.85552287 2 11
-0.66840225 6.2751112 -0.77484536 12 4
-0.73969096 6.9675074 1.1097462 3 12
-0.73317587 6.9407525 1.356652 2 13
-1.6685507 15.848539 -0.8351773 8 6
-0.73433745 6.9984798 1.6245965 3 14
-0.7201252 6.8978596 1.8583208 2 15
-0.47560525 4.674129 -1.2588959 15 0
-0.7066769 6.9691963 0.12227156 3 8
-0.50280762 4.9672894 -1.1526492 23 1
-0.53545743 5.326951 -1.0406723 13 2
-0.69821614 6.9583449 0.61183333 1 10
-0.58155119 5.8161378 -0.92577928 15 3
-0.69003171 6.9254422 0.85454792 2 11
-0.6186803 6.2203641 -0.76753318 12 4
-0.6910339 6.9725013 1.1097462 3 12
-0.6866318 6.9652395 1.3604681 2 13
-0.68287992 6.9645276 1.6155984 4 14
-0.67139 6.8969507 1.8567679 1 15
-0.44296208 4.6773353 -1.2588959 14 0
-0.66261005 7.0096798 0.12289985 3 8
-0.47122335 5.0036612 -1.1602976 15 1
-0.49625668 5.2991967 -1.0345664 13 2
-0.64814007 6.9471788 0.61043882 1 10
-0.53590715 5.7550545 -0.91545457 13 3
-0.64287561 6.9299788 0.85454792 1 11
-0.57505929 6.2225556 -0.76728946 15 4
-0.64355749 6.9770436 1.1097462 3 12
-0.63548309 6.9424925 1.3551255 2 13
-0.63777411 7.0079393 1.6245965 3 14
-0.62321299 6.8878922 1.8531444 2 15
-0.41077825 4.6763926 -1.2578605 13 0
-0.61121714 6.9862461 0.12241118 3 8
-0.43291825 4.9582191 -1.14905 14 1
-0.61927724 7.1213145 0.37462083 2 9
-0.46111259 5.3240471 -1.0387642 15 2
-0.60152328 6.9593701 0.61113608 1 10
-0.49724102 5.7763686 -0.91827041 15 3
-0.59244484 6.9105639 0.85162306 2 11
-0.52795219 6.1709452 -0.76046479 16 4
-0.58821225 6.9466572 1.3551255 2 13
-1.3306557 15.780264 -0.82994366 8 6
-0.58678961 6.9732804 1.6155984 4 14
-0.57511127 6.8920751 1.8531444 2 15
-0.37967467 4.6984024 -1.263037 13 0
-0.56493807 7.0061898 0.12269042 3 8
-0.40109748 4.9960852 -1.1571481 15 1
-0.42439392 5.3211913 -1.0376194 13 2
-0.55481553 6.9872336 0.61322778 1 10
-0.45713079 5.769773 -0.91670603 16 3
-0.54414356 6.8986049 0.84967309 2 11
-0.49278662 6.2754097 -0.77289546 12 4
-0.54174358 6.9143572 1.098483 3 12
-0.54000509 6.9545093 1.3558888 2 13
-1.2232118 15.788956 -0.82994366 8 6
-0.54108953 7.0160666 1.6245965 3 14
-0.52848005 6.899683 1.8541797 2 15
-0.34768704 4.7008777 -1.263037 13 0
-0.51571494 7.0059752 0.12262061 3 8
-0.36594144 4.9831514 -1.153549 15 1
-0.38737708 5.3259826 -1.0380009 15 2
-0.50637686 6.9789252 0.6121819 1 10
-0.41996893 5.8161693 -0.92358917 16 3
-0.49568766 6.8982754 0.84918565 2 11
-0.45190182 6.304359 -0.7760641 10 4
-0.49852207 6.988904 1.1097462 3 12
-0.49154869 6.9423566 1.3528358 2 13
-0.48855183 6.9691305 1.6128991 4 14
-0.48110279 6.9147673 1.8572855 2 15
-0.31124714 4.6492195 -1.2485431 15 0
-0.46546268 6.9894519 0.12227156 3 8
-0.33140191 4.9894738 -1.1544489 17 1
-0.35096031 5.3403115 -1.0402907 13 2
-0.45581815 6.9544568 0.60974157 1 10
-0.37601575 5.7677088 -0.91545457 13 3
-0.44777021 6.90553 0.84967309 2 11
-0.40403795 6.2479305 -0.76875186 10 4
-0.44971484 6.9922142 1.1097462 3 12
-0.44406644 6.9612932 1.3558888 2 13
-1.0026425 15.804495 -0.82994366 8 6
-0.44307974 7.0229373 1.6245965 3 14
-0.4307695 6.88518 1.8484857 3 15
-0.27877966 4.6512794 -1.2485431 18 0
-0.41951376 7.0404387 0.12310927 3 8
-0.29771408 5.0111189 -1.1589478 15 1
-0.42144418 7.135756 0.37462083 2 9
-0.31435975 5.3543911 -1.0425804 15 2
-0.40795767 6.9694033 0.61078745 1 10
-0.33436346 5.7465286 -0.91170013 11 3
-0.39977881 6.9124513 0.8501606 2 11
-0.33218452 5.7610946 -0.70854843 6 4
-0.38958684 6.7979698 1.0784594 4 12
-0.39456624 6.9485435 1.3528358 2 13
-0.39229035 6.9947295 1.6173981 4 14
-0.38204509 6.8764462 1.8453798 3 15
-0.2460988 4.6492538 -1.2475078 15 0
-0.36867192 7.0112448 0.1225508 3 8
-0.26129711 4.9858298 -1.1526492 17 1
-0.27727297 5.3623371 -1.0437253 11 2
-0.35867688 6.9601426 0.60974157 1 10
-0.29383034 5.7408319 -0.91044867 11 3
-0.35131282 6.911109 0.84967309 2 11
-0.31706145 6.2589107 -0.76948309 12 4
-0.34526899 6.9354415 1.3497829 2 13
-0.34115553 6.9505835 1.6066004 4 14
-0.33431023 6.8847346 1.8469328 2 15
-0.21514185 4.6836653 -1.2563076 21 0
-0.31898674 6.9976668 0.12227156 3 8
-0.22701351 4.9992132 -1.1553485 17 1
-0.23825422 5.3288393 -1.0368562 11 2
-0.31025448 6.9664583 0.6100902 1 10
-0.25435773 5.7565575 -0.91263872 15 3
-0.30392495 6.9332247 0.85211051 2 11
-0.27604556 6.3224511 -0.77703899 15 4
-0.29891068 6.9014225 1.0941027 3 12
-0.29852059 6.9769125 1.3574153 2 13
-0.29458967 6.9995246 1.6173981 4 14
-0.2873607 6.9139237 1.8541797 2 15
-0.18341567 4.7101479 -1.263037 14 0
-0.27166834 7.0396876 0.12296966 3 8
-0.19195728 4.9967823 -1.1544489 17 1
-0.20178604 5.3499908 -1.0406723 11 2
-0.26161188 6.9684544 0.6100902 1 10
-0.21085933 5.6693621 -0.89855969 15 3
-0.25463745 6.9113727 0.84918565 2 11
-0.2318998 6.324224 -0.77703899 15 4
-0.24952437 6.9709783 1.3558888 2 13
-0.2439428 6.9507742 1.6057006 4 14
-0.23782055 6.8790779 1.8443446 3 15
-0.14991349 4.6920052 -1.2578605 15 0
-0.22264171 7.0454092 0.12303946 3 8
-0.1571933 5.0018954 -1.1553485 15 1
-0.16479293 5.3630428 -1.042962 11 2
-0.21259145 6.9581623 0.60904431 1 10
-0.17151314 5.6785941 -0.89981115 16 3
-0.20614055 6.9050455 0.84821075 2 11
-0.1879783 6.3336258 -0.77801394 15 4
-0.20332932 6.9325666 1.098483 3 12
-0.20050919 6.9607763 1.3535991 2 13
-0.19661584 6.9951634 1.6155984 4 14
-0.18984298 6.8825016 1.8448622 2 15
-0.1174405 4.704525 -1.2609664 15 0
-0.17335166 7.0427942 0.12296966 3 8
-0.12217204 4.9989753 -1.1544489 15 1
-0.12688439 5.3444357 -1.0391458 11 2
-0.16335198 6.931591 0.60660398 1 10
-0.13182175 5.6776786 -0.89949834 14 3
-0.15820481 6.9182234 0.84967309 2 11
-0.14466044 6.3744755 -0.78288871 15 4
-0.15105566 6.9227505 1.3459667 2 13
-0.33565438 15.632938 -0.81947649 8 6
-0.14859529 7.0353312 1.6245965 3 14
-0.1417066 6.879797 1.843827 2 15
-0.084698036 4.7110248 -1.2625194 11 0
-0.12347783 7.0038447 0.12227156 3 8
-0.087473698 5.0113964 -1.1571481 14 1
-0.089699134 5.3530436 -1.0406723 9 2
-0.11515789 6.9445152 0.6076498 1 10
-0.091793418 5.6547589 -0.89574385 14 3
-0.1098396 6.9151897 0.84918565 2 11
-0.087648287 5.5794063 -0.68514949 6 4
-0.10761047 7.0058351 1.1097462 3 12
-0.10283858 6.9314885 1.3474932 2 13
-0.10070713 7.03618 1.6245965 3 14
-0.093860477 6.8941398 1.8474505 3 15
-0.05187279 4.7172966 -1.2640723 13 0
-0.075797878 7.0045233 0.12227156 3 8
-0.052446999 5.007988 -1.1562485 14 1
-0.052989077 5.3260455 -1.0353296 13 2
-0.066902734 6.9690576 0.60974157 1 10
-0.053563837 5.6829066 -0.90012401 15 3
-0.062625915 6.8998966 0.84723574 2 11
-0.055086683 6.3123531 -0.77508909 13 4
-0.059315819 6.9352942 1.098483 3 12
-0.054506823 6.9398899 1.3490196 2 13
-0.11931198 15.53622 -0.8142429 8 6
-0.051211469 6.9860458 1.6128991 4 14
-0.046747185 6.8675733 1.8402034 3 15
-0.019737627 4.7117448 -1.2625194 12 0
-0.026929297 7.0128803 0.12241118 3 8
-0.018397886 5.0199213 -1.1589478 14 1
-0.02304378 6.9484262 0.36415362 2 9
-0.015874885 5.3498449 -1.0399091 13 2
-0.019542119 6.9972448 0.6121819 1 10
-0.013970432 5.716723 -0.90544277 11 3
-0.01445074 6.9001656 0.84723574 2 11
-0.01211007 6.3066268 -0.77435786 12 4
-0.0072630267 6.9361744 1.3482565 2 13
-0.010776096 15.436812 -0.80900931 8 6
-0.0024417564 6.9862332 1.6128991 4 14
0.0011953802 6.8677325 1.8402034 3 15
0.013086908 4.6866541 -1.2557901 16 0
0.022030495 7.0128975 0.12241118 3 8
0.016594131 5.0043373 -1.1553485 14 1
0.021427173 5.3380456 -1.0376194 11 2
0.029108049 6.9493937 0.60799843 1 10
0.02584156 5.6949525 -0.90200126 15 3
0.033760656 6.9080391 0.84821075 2 11
0.032183029 6.3581691 -0.78069508 12 4
0.041184075 6.9399819 1.3490196 2 13
0.046670772 7.0367455 1.6245965 3 14
0.049255032 6.8830113 1.8443446 3 15
0.045579027 4.6632671 -1.2495784 19 0
0.070908241 7.0045743 0.12227156 3 8
0.051349986 4.9865618 -1.1512995 14 1
0.058890071 5.3554344 -1.0410539 15 2
0.078068338 6.9888663 0.61148465 1 10
0.065078549 5.6492028 -0.89480525 15 3
0.081653923 6.8798451 0.84479833 2 11
0.075518772 6.270452 -0.7699706 12 4
0.089427128 6.923821 1.3459667 2 13
0.20475088 15.435458 -0.80900931 8 6
0.094564043 7.0362649 1.6245965 3 14
0.097197071 6.8747735 1.8422741 3 15
0.078036562 4.6570406 -1.2480254 18 0
0.11858532 7.0039296 0.12227156 3 8
0.085925817 4.9724426 -1.1481502 17 1
0.095024973 5.3372426 -1.0376194 13 2
0.12613799 6.9483099 0.60799843 1 10
0.10359974 5.6525793 -0.89543104 15 3
0.12892988 6.9029474 0.84772325 2 11
0.12030952 6.32336 -0.77655149 10 4
0.13261583 6.9066195 1.0941027 3 12
0.13838729 6.9544334 1.3520726 2 13
0.30981219 15.433707 -0.80900931 8 6
0.14368413 7.0354333 1.6245965 3 14
0.14443175 6.8951983 1.8479681 2 15
0.1097798 4.6583333 -1.2485431 13 0
0.16671412 6.9709454 0.12171309 3 8
0.1197233 4.9697943 -1.1477003 14 1
0.1326703 5.3521509 -1.0406723 11 2
0.17372581 6.9592409 0.60904431 1 10
0.14435929 5.7030616 -0.90356559 16 3
0.1763003 6.8701282 0.84382337 2 11
0.16401508 6.3481917 -0.77972013 12 4
0.18375702 6.970942 -0.6100902 7 5
0.18519732 6.9337053 1.3482565 2 13
0.18965971 6.9641643 1.6084001 4 14
0.19256909 6.894022 1.8479681 2 15
0.14265239 4.6690388 -1.251649 28 0
0.21415675 6.9696488 0.12171309 3 8
0.15483981 4.9824719 -1.1508496 16 1
0.220164 7.044888 0.36938724 2 9
0.16835667 5.3275766 -1.0360929 11 2
0.22192451 6.9459105 0.60799843 1 10
0.18552232 5.7749982 -0.91514176 15 3
0.22357526 6.8846412 0.84577334 2 11
0.21008816 6.4004607 -0.78630108 10 4
0.2343926 6.9557891 1.3528358 2 13
0.24067351 7.032784 1.6245965 3 14
0.23982298 6.902205 1.8505563 3 15
0.17442806 4.6679597 -1.251649 13 0
0.26326439 6.9799738 0.12192252 3 8
0.18830581 4.9696188 -1.1481502 16 1
0.2655251 6.9433894 0.36415362 2 9
0.20531894 5.3203859 -1.034948 13 2
0.26966184 6.9561844 0.60904431 1 10
0.22560325 5.7676406 -0.91420311 13 3
0.27069101 6.8591099 0.84284848 2 11
0.25427896 6.4147511 -0.78825098 10 4
0.28189278 6.9579554 1.3535991 2 13
0.28853869 7.0309825 1.6245965 3 14
0.2865535 6.8656187 1.8412387 3 15
0.20650087 4.6550484 -1.2485431 17 0
0.31165591 6.9979968 0.12227156 3 8
0.22282332 4.9642897 -1.1472504 17 1
0.31727314 7.041183 0.36938724 2 9
0.24063836 5.2992525 -1.0311319 13 2
0.31748998 6.9382095 0.6076498 1 10
0.26531038 5.7758374 -0.91576743 15 3
0.31847796 6.8809042 0.84577334 2 11
0.29738861 6.3771267 -0.78386366 13 4
0.32897094 6.9244413 1.3474932 2 13
0.73523986 15.419296 -0.80900931 8 6
0.33761716 7.0287967 1.6245965 3 14
0.33402929 6.8789458 1.8453798 3 15
0.23841222 4.626441 -1.2412962 22 0
0.36129087 6.9635725 0.12171309 3 8
0.25773102 4.9508915 -1.1445509 17 1
0.36741892 7.0107446 0.3679218 2 9
0.27957818 5.2993064 -1.0315135 13 2
0.36502421 6.895968 0.60416359 1 10
0.30711395 5.763875 -0.91420311 13 3
0.36795202 6.8605447 0.84357965 2 11
0.34472123 6.4065509 -0.78776348 13 4
0.37894142 6.9297509 1.3490196 2 13
0.84825635 15.413492 -0.80900931 8 6
0.38511246 6.9756112 1.6128991 4 14
0.38357943 6.8608823 1.8412387 3 15
0.27296504 4.6632352 -1.251649 13 0
0.4100852 6.9849067 0.12213194 3 8
0.29183125 4.9411902 -1.1427513 16 1
0.41678119 7.0359941 0.36938724 2 9
0.31622943 5.3070798 -1.0334216 13 2
0.41530064 6.9290509 0.60730124 1 10
0.34610602 5.7577071 -0.91357738 11 3
0.41583663 6.877696 0.84601706 2 11
0.38606513 6.3485084 -0.78093886 10 4
0.42051113 6.8950815 1.0941027 3 12
0.42682749 6.9190989 1.3474932 2 13
0.95315319 15.407362 -0.80900931 8 6
0.43089786 6.9260726 1.6021013 4 14
0.43112123 6.8716087 1.8448622 4 15
0.30608431 4.6824741 -1.2573429 11 0
0.45988816 6.9978371 0.12241118 3 8
0.3262246 4.9507561 -1.1454507 16 1
0.34779057 5.2224689 -1.0173936 14 2
0.46458271 6.95787 0.6100902 1 10
0.37914747 5.6487198 -0.8966825 12 3
0.46330732 6.866703 0.84504211 2 11
0.40716258 6.0189395 -0.74072188 7 4
0.46863765 6.8919783 1.0941027 3 12
0.47498491 6.9317031 1.3505462 2 13
0.48596615 7.0201001 1.6245965 3 14
0.47975245 6.8780675 1.8474505 3 15
0.33890614 4.6821499 -1.2578605 14 0
0.50873107 6.9944558 0.12241118 3 8
0.36035433 4.9425273 -1.1441011 14 1
0.39087161 5.3099794 -1.034948 15 2
0.50991768 6.9107437 0.60625535 1 10
0.41945001 5.6577549 -0.89855969 12 3
0.51241428 6.879138 0.84699202 2 11
0.47149104 6.3148675 -0.77752644 10 4
0.51231152 6.8294425 1.0847167 3 12
0.52366483 6.9321327 1.3513094 2 13
0.53496379 7.0165362 1.6245965 3 14
0.5271672 6.8668456 1.8453798 3 15
0.37112671 4.6738925 -1.2563076 12 0
0.55436951 6.9508667 0.12171309 3 8
0.39485091 4.9398913 -1.1441011 14 1
0.42761713 5.3032074 -1.0341848 13 2
0.55911434 6.9189315 0.60730124 1 10
0.46501067 5.729507 -0.91044867 13 3
0.55913711 6.8595653 0.84504211 2 11
0.51039386 6.2481098 -0.76972687 9 4
0.57042867 6.9087424 1.3474932 2 13
0.57973105 6.9621387 1.6128991 4 14
0.5750972 6.8629975 1.8453798 3 15
0.40291584 4.6615648 -1.2537196 9 0
0.60564852 6.9787021 0.12227156 3 8
0.42865288 4.9292483 -1.1423014 14 1
0.466342 5.3196502 -1.0380009 15 2
0.60740393 6.9148593 0.60730124 1 10
0.50534594 5.7300568 -0.91107446 11 3
0.60981357 6.8871317 0.84894192 2 11
0.5641762 6.3590794 -0.78386366 10 4
0.62163347 6.9790311 1.1097462 3 12
0.61864692 6.904592 1.3474932 2 13
1.3829765 15.374742 -0.80900931 8 6
0.6328786 7.0083828 1.6245965 3 14
0.62561733 6.8876743 1.8531444 2 15
0.43670839 4.672102 -1.2573429 12 0
0.65136224 6.9424491 0.12171309 3 8
0.46305507 4.9261355 -1.1423014 15 1
0.50180548 5.2986746 -1.0345664 11 2
0.65641338 6.9183846 0.60799843 1 10
0.54795879 5.7539196 -0.91545457 13 3
0.65410227 6.8431849 0.8440671 2 11
0.60420501 6.3095365 -0.77825767 12 4
0.67034113 6.9745212 1.1097462 3 12
0.66947883 6.9274626 1.3528358 2 13
1.4902861 15.364711 -0.80900931 8 6
0.67566842 6.9534836 1.6128991 4 14
0.6787492 6.9599166 -0.12206213 5 7
0.67161381 6.8619905 1.8474505 3 15
0.46815366 4.6574068 -1.2542372 13 0
0.70581871 7.009481 0.12296966 3 8
0.49899971 4.9382944 -1.1459007 15 1
0.53845358 5.3009958 -1.0357113 13 2
0.70429599 6.9096684 0.6076498 1 10
0.58911568 5.7697086 -0.91858327 13 3
0.70188123 6.8504229 0.84552956 2 11
0.65148741 6.3367596 -0.78215748 12 4
0.71779978 6.9697967 1.1097462 3 12
0.71579713 6.9030919 1.3490196 2 13
0.718907 6.8630247 1.8490034 2 15
0.49654639 4.6233792 -1.2459549 13 0
0.75259131 6.9845009 0.12262061 3 8
0.53344089 4.942533 -1.1477003 14 1
0.76951724 7.1066494 0.37462083 2 9
0.57756865 5.3166251 -1.0395275 13 2
0.75174022 6.9086766 0.60799843 1 10
0.6358124 5.8243661 -0.92796934 13 3
0.75141799 6.8611422 0.84747952 2 11
0.69806558 6.3637505 -0.78605735 12 4
0.76363498 6.9058652 1.3505462 2 13
0.77707237 6.9938636 1.6245965 3 14
0.76680571 6.8578377 1.8490034 2 15
0.5329836 4.6562672 -1.2557901 16 0
0.79419756 6.9275622 0.12171309 3 8
0.56659514 4.9270725 -1.1450008 15 1
0.61599761 5.3320737 -1.0433437 13 2
0.79857743 6.8913851 0.60695255 1 10
0.67111611 5.7826219 -0.92202479 7 3
0.79809976 6.8558688 0.84747952 2 11
0.74316967 6.3646374 -0.78678852 15 4
0.81382626 6.9592381 1.1097462 3 12
0.8136602 6.9159646 1.3535991 2 13
1.8147912 15.402169 -0.81277746 8 6
0.82313198 6.9650455 1.6191977 4 14
0.81460649 6.862051 1.8515915 3 15
0.56513101 4.6563673 -1.2568253 13 0
0.84253842 6.9218493 0.12171309 3 8
0.60011959 4.9231014 -1.1450008 14 1
0.85531074 6.9962392 0.36938724 2 9
0.65153503 5.3140025 -1.0406723 13 2
0.84643841 6.8936996 0.6076498 1 10
0.71967846 5.8444552 -0.93266243 9 3
0.84448677 6.8383088 0.84601706 2 11
0.78172648 6.3120127 -0.78093886 15 4
0.86239439 6.9533863 1.1097462 3 12
0.85900688 6.8867373 1.3490196 2 13
0.86640835 6.9165893 1.6092998 4 14
0.86345398 6.8638639 1.853662 3 15
0.60016209 4.6656165 -1.2604488 11 0
0.89084148 6.9157987 0.12171309 3 8
0.63533312 4.9186811 -1.1450008 14 1
0.68836534 5.3073769 -1.0402907 13 2
0.89780265 6.9032722 0.60904431 1 10
0.76173741 5.841114 -0.93297523 11 3
0.89528787 6.8558674 0.84894192 2 11
0.82603127 6.3083701 -0.78118259 12 4
0.91065681 6.9078231 1.3543624 2 13
2.0281596 15.343294 -0.81110275 8 6
0.91467732 6.9103713 1.6092998 4 14
0.91407758 6.8689995 1.8567679 3 15
0.63349688 4.6670561 -1.2620018 13 0
0.94354284 6.9330235 0.12213194 3 8
0.65807664 4.8291669 -1.1252052 14 1
0.72712576 5.3081508 -1.0414355 13 2
0.94110119 6.8613052 0.60590672 1 10
0.80249745 5.8356538 -0.93297523 13 3
0.94270092 6.8374858 0.84747952 2 11
0.8684231 6.2906504 -0.77972013 12 4
0.95616186 6.8818507 1.3505462 2 13
0.96505213 6.9192586 1.6128991 4 14
0.96013254 6.8490586 1.8531444 2 15
0.66688544 4.6682568 -1.2635547 12 0
0.99410707 6.9501953 0.1225508 3 8
0.70284086 4.9016151 -1.1432012 15 1
0.7657575 5.3205676 -1.0448701 13 2
0.99182439 6.8742881 0.6076498 1 10
0.84615499 5.8574271 -0.9373554 11 3
0.99206221 6.8505569 0.84991688 2 11
0.91003442 6.2687187 -0.77777022 12 4
1.0078238 6.9338007 1.1097462 3 12
1.005882 6.8866634 1.3528358 2 13
1.0161574 6.9316339 1.6173981 4 14
1.010105 6.8652997 1.8593562 2 15
0.69664013 4.6502357 -1.2599311 13 0
1.0354809 6.8956256 0.12171309 3 8
0.72894347 4.8485408 -1.1319537 23 1
0.80786842 5.3480926 -1.0513576 11 2
1.0409768 6.8831377 0.60904431 1 10
0.88436234 5.8337998 -0.93453962 9 3
1.0392643 6.8395395 0.84942937 1 11
0.96403128 6.3369541 -0.78703225 12 4
0.91029394 5.9697223 0.95644045 10 12
0.9110834 5.9539604 1.170804 11 13
0.91173059 5.9304976 1.3852487 10 14
0.72878844 4.6433506 -1.2594135 12 0
0.94810772 6.0269527 0.10649458 16 8
0.77853978 4.9434347 -1.1553485 15 1
0.94294167 5.9737377 0.31694657 16 9
0.84579653 5.3462014 -1.0521209 11 2
0.94126916 5.9429369 0.52642071 18 10
0.92816263 5.8469939 -0.93766832 15 3
0.94039553 5.9107122 0.73487222 12 11
0.95110679 5.9713206 -0.74242812 10 4
0.9410522 5.894948 0.94549 21 12
0.9565832 5.9788308 -0.52973258 14 5
0.94207054 5.8815441 1.157829 15 13
0.95256191 5.9337807 -0.3149578 10 6
0.94444352 5.8701158 1.3726513 13 14
0.94700199 5.8664317 1.5922549 23 15
0.7640053 4.6553059 -1.2640723 13 0
0.97782552 5.9452062 0.10516821 15 8
0.80543643 4.8917303 -1.1445509 21 1
0.97649121 5.9177446 0.3143298 19 9
0.87861502 5.3130488 -1.0467782 11 2
0.97752929 5.9047709 0.52363169 18 10
0.96604985 5.8228326 -0.93485248 13 3
0.97577673 5.8687558 0.7304849 13 11
0.98299062 5.9057903 -0.73511589 10 4
0.97828358 5.8648529 0.94173563 16 12
0.99102002 5.9348431 -0.52642071 11 5
0.98246038 5.8709512 1.1570657 15 13
0.98537564 5.875772 -0.31223634 10 6
0.98437834 5.8635511 1.3726513 13 14
0.9840802 5.8368177 1.5860431 19 15
0.79518002 4.6422429 -1.2620018 14 0
1.0162429 5.9265871 0.10495877 20 8
0.83956516 4.8859882 -1.1445509 21 1
1.0143794 5.8971815 0.31359708 21 9
0.91676301 5.318553 -1.0490679 13 2
1.013978 5.8703165 0.52119136 19 10
1.0083575 5.8316932 -0.9373554 11 3
1.0146819 5.8561101 0.72975373 12 11
1.0241997 5.8987832 -0.73511589 13 4
1.0195321 5.8658438 0.94298708 16 12
1.0232012 5.8747826 -0.52171427 13 5
1.0220734 5.8562136 1.1555393 12 13
1.0274104 5.8807335 -0.31286436 10 6
1.0215931 5.8354216 1.3677025 7 14
1.0231192 5.8261786 1.5850078 14 15
0.82540393 4.6291151 -1.2599311 15 0
1.0519689 5.8878508 0.1044003 23 8
0.87348974 4.8839965 -1.1454507 20 1
1.0548229 5.8860245 0.31338775 21 9
0.95317471 5.3081594 -1.0483047 13 2
1.0503906 5.8436685 0.51944822 18 10
1.0476426 5.8167357 -0.93610394 13 3
1.0534253 5.8371625 0.72829127 11 11
1.0600903 5.8682342 -0.73219109 10 4
1.0594031 5.8527517 0.94204849 16 12
1.0627679 5.8596544 -0.52101701 16 5
1.062613 5.852984 1.1563026 12 13
1.0662959 5.8616276 -0.31223634 10 6
1.0598582 5.8147273 1.3645531 5 14
1.0631318 5.8269067 -0.10338806 126 7
1.0634185 5.8169942 1.5844903 12 15
0.85417509 4.6042457 -1.2547548 15 0
1.08866 5.8567715 0.10398144 27 8
0.91647917 4.9256754 -1.1566983 14 1
1.0962527 5.8804808 0.31349242 19 9
0.98732555 5.2859359 -1.0452517 11 2
1.0970172 5.8675284 0.52223718 16 10
1.0871344 5.8034554 -0.93516535 9 3
1.0978153 5.8491755 0.73072863 11 11
1.1035981 5.8743472 -0.73389727 12 4
1.0973167 5.8296824 0.93954557 16 12
1.1043859 5.8560085 -0.52136564 16 5
1.1063621 5.8608561 1.1593555 13 13
1.1109006 5.8736653 -0.31328306 10 6
1.1087717 5.8512239 1.3749009 7 14
1.1067637 5.8350601 -0.10366729 116 7
1.1083307 5.8322024 1.5907019 11 15
0.88776273 4.6057582 -1.2568253 15 0
1.1348298 5.8765163 0.1044701 25 8
0.94492489 4.8885446 -1.1494999 14 1
1.1391782 5.8824883 0.31401578 15 9
1.0264454 5.2904792 -1.0475414 13 2
1.1421317 5.8812413 0.52415466 13 10
1.1098926 5.7045908 -0.92046052 13 3
1.1408995 5.8530602 0.73219109 8 11
1.1423037 5.8548083 -0.73243481 12 4
1.1463228 5.864531 0.9464286 10 12
1.1484318 5.869864 -0.52328306 20 5
1.1510251 5.8722558 1.1631716 12 13
1.1434127 5.8226514 -0.31098029 10 6
1.1560911 5.8817844 1.383899 7 14
1.1528822 5.85466 -0.10415597 100 7
1.1587447 5.873601 1.6041605 12 15
0.92292625 4.6146026 -1.2609664 16 0
1.1861868 5.925519 0.10548234 18 8
0.98017991 4.8875608 -1.1508496 16 1
1.181551 5.8863473 0.3146438 11 9
1.0585649 5.2641215 -1.0437253 13 2
1.1981144 5.9473438 0.53077847 13 10
1.12527 5.580719 -0.9016884 18 3
1.1980076 5.9307733 0.74291557 7 11
1.1918095 5.8894963 -0.73779708 12 4
1.1949271 5.88904 -0.5257234 20 5
1.3863569 6.8202605 1.3528358 2 13
1.2077075 5.9360776 -0.31746995 10 6
1.4053379 6.895143 1.6245965 3 14
1.3882278 6.7930169 1.8578032 1 15
0.95744741 4.6233478 -1.2651075 15 0
1.3246068 6.385057 0.1138246 51 8
1.0150082 4.8884082 -1.1526492 16 1
1.3328393 6.4078703 0.34300989 28 9
1.0848774 5.2066321 -1.0338032 11 2
1.4212019 6.8147926 0.60904431 1 10
1.1932882 5.7119489 -0.92421496 13 3
1.4268357 6.8179879 0.85527909 2 11
1.2770432 6.0969124 -0.76485211 15 4
1.4388188 6.8573399 1.1097462 3 12
1.3119668 6.2473435 -0.55849403 26 5
1.4440655 6.8644595 1.3635212 2 13
1.3454909 6.3848157 -0.34196317 23 6
1.4522392 6.885417 1.6245965 3 14
1.3529593 6.4036369 -0.11424346 45 7
1.4504184 6.8530893 1.8769557 2 15
0.98079449 4.5749941 -1.2537196 17 0
1.3822982 6.4423695 0.11501136 50 8
1.0532082 4.9002547 -1.1571481 21 1
1.3789425 6.4103656 0.34363794 28 9
1.1248417 5.2202377 -1.0380009 15 2
1.470425 6.8124948 0.60974157 1 10
1.2300551 5.6940398 -0.92265058 15 3
1.4748907 6.8158789 0.8562541 1 11
1.3679327 6.3109541 -0.79288203 11 4
1.4854621 6.8473868 1.1097462 3 12
1.3915083 6.4035234 -0.57331049 50 5
1.4861073 6.827354 1.3581785 2 13
1.3931713 6.3950243 -0.34300989 23 6
1.5002731 6.8751111 1.6245965 3 14
1.4031835 6.4194322 -0.11469722 35 7
1.4879494 6.8015385 1.8655677 2 15
1.0109942 4.5565424 -1.2506137 22 0
1.0840155 4.8735704 -1.1526492 17 1
1.160082 5.1984401 -1.0353296 22 2
1.5304279 6.8523545 0.61427367 1 10
1.2635648 5.6482434 -0.91670603 13 3
1.5265501 6.8126326 0.85722905 1 11
1.4221799 6.34168 -0.79800051 9 4
1.5356159 6.8363142 1.1097462 3 12
1.538375 6.8318672 1.3612314 2 13
1.5494319 6.8641992 1.6245965 3 14
1.542884 6.8130593 1.8717794 2 15
1.0449405 4.5587883 -1.2532018 22 0
1.5814358 6.8938599 0.12345833 3 8
1.1153948 4.8544884 -1.1499498 17 1
1.198086 5.2019014 -1.0376194 24 2
1.5782259 6.8415046 0.61427367 1 10
1.3339789 5.7780929 -0.93923265 13 3
1.5684115 6.7827439 0.85479164 1 11
1.4717964 6.3548031 -0.80092543 9 4
1.5821105 6.8257036 1.1097462 3 12
1.5887008 6.8324342 1.3635212 2 13
3.5150716 15.105117 -0.81277746 8 6
1.5973153 6.8532147 1.6245965 3 14
1.5857108 6.7873497 1.8676383 2 15
1.0914997 4.617372 -1.2713192 17 0
1.6295288 6.8826509 0.12345833 3 8
1.1520046 4.8619542 -1.153549 15 1
1.6505113 6.95503 0.37462083 2 9
1.2389104 5.2125115 -1.0414355 18 2
1.631216 6.8577385 0.616714 1 10
1.3724512 5.7609539 -0.93798119 13 3
1.6120399 6.7561817 0.85284173 2 11
1.5030278 6.2944374 -0.79458821 9 4
1.6297243 6.8144922 1.1097462 3 12
1.633337 6.8138261 1.3619947 2 13
3.6148446 15.056905 -0.81152141 8 6
1.6560516 6.8873715 1.6353942 3 14
1.643011 6.8174319 1.8790263 2 15
1.1227933 4.6058855 -1.2702839 13 0
1.6917642 6.9293866 0.12450547 3 8
1.1886945 4.8651514 -1.1562485 15 1
1.6990229 6.9433384 0.37462083 2 9
1.2738684 5.1980147 -1.0402907 13 2
1.672405 6.8190937 0.61427367 1 10
1.4182911 5.7742519 -0.94173563 13 3
1.6677063 6.77946 0.85722905 2 11
1.5545269 6.3146319 -0.79848802 9 4
1.6808701 6.8022566 1.3619947 2 13
3.7083516 14.984773 -0.80900931 8 6
1.7050318 6.879425 1.6362939 3 14
1.6989487 6.8395433 1.8883438 2 15
1.1549212 4.5979342 -1.2702839 13 0
1.7400992 6.917407 0.12450547 3 8
1.2245337 4.8642931 -1.158048 18 1
1.7474552 6.9313078 0.37462083 2 9
1.3187773 5.2232585 -1.0471598 15 2
1.7248514 6.8265691 0.61601681 1 10
1.4629296 5.7814455 -0.94455141 15 3
1.7149919 6.7676525 0.85722905 2 11
1.5941818 6.2863073 -0.79629439 11 4
1.7247114 6.7910733 1.1097462 3 12
1.7205664 6.7599154 1.3558888 2 13
3.8257008 15.008838 -0.8117308 8 6
1.7392957 6.8185644 1.6245965 3 14
1.7394776 6.7994413 1.8805792 3 15
1.1898947 4.6009812 -1.2733897 13 0
1.8011696 6.959609 0.12548281 4 8
1.2584629 4.8556256 -1.158048 18 1
1.3646649 5.254065 -1.0551738 9 2
1.7824986 6.8529248 0.61950302 1 10
1.4982681 5.7560601 -0.94204849 15 3
1.7620198 6.7596641 0.8577165 2 11
1.6425422 6.2923117 -0.79848802 9 4
1.770897 6.7791762 1.1097462 3 12
1.775678 6.7781253 1.3619947 2 13
3.9470205 15.055864 -0.81570828 8 6
1.7997216 6.8552623 1.6362939 3 14
1.7906317 6.8061271 1.8857557 3 15
1.2196937 4.5871754 -1.2718368 11 0
1.8425128 6.9198103 0.12499414 3 8
1.2904792 4.8431816 -1.1571481 16 1
1.3962439 5.2254429 -1.0513576 11 2
1.8188106 6.8021383 0.61601681 1 10
1.549657 5.7874398 -0.94893163 15 3
1.8112215 6.7548685 0.85869151 2 11
1.6940801 6.3135786 -0.80263156 11 4
1.8181812 6.7666478 1.1097462 3 12
1.8238192 6.7734637 1.3635212 2 13
1.834329 6.7936153 1.6245965 3 14
1.8426448 6.8102431 1.8904144 2 15
1.2516907 4.5785475 -1.2718368 12 0
1.9066174 6.9646401 0.12604128 4 8
1.3263215 4.8415723 -1.1589478 21 1
1.4420485 5.2496448 -1.0582268 11 2
1.8820968 6.8469086 0.6212461 1 10
1.5884477 5.7707672 -0.94799298 16 3
1.8593932 6.7458854 0.8591789 2 11
1.7222784 6.2441897 -0.79531944 11 4
1.8653771 6.7537894 1.1097462 3 12
1.8752487 6.7757039 1.366574 2 13
4.1365809 14.926148 -0.8117308 8 6
1.9015113 6.8520002 1.6416928 3 14
1.8880774 6.7897677 1.8883438 2 15
1.2893713 4.5901566 -1.2775309 13 0
1.9508584 6.935761 0.12576205 4 8
1.3643135 4.8472013 -1.162547 18 1
1.4733305 5.2205553 -1.0544106 11 2
1.9330968 6.8451071 0.62229198 1 10
1.6378371 5.7918506 -0.95331174 15 3
1.9031028 6.7254333 0.85820401 1 11
1.7723259 6.2549314 -0.79824424 11 4
1.9321699 6.7964392 1.3734432 2 13
1.9453815 6.8157701 1.8992143 1 15
1.3130924 4.5552864 -1.2702839 15 0
2.0046813 6.9453754 0.1261809 4 8
1.4015994 4.8527803 -1.1661462 19 1
1.985895 6.8667932 0.37462083 2 9
1.5175688 5.2405777 -1.0605165 9 2
1.9741035 6.8126535 0.6205489 1 10
1.6772203 5.7805686 -0.95331174 15 3
1.9687665 6.780952 0.86697859 1 11
1.8165205 6.2484422 -0.79897547 13 4
1.9583164 6.7274289 1.1097462 3 12
1.9761851 6.7755919 1.3719168 2 13
4.3554235 14.913707 -0.8142429 8 6
1.9852158 6.7801223 1.8930025 1 15
1.358857 4.5962629 -1.2842602 11 0
2.0553131 6.9430747 0.12639034 4 8
1.4357059 4.8468652 -1.1670461 19 1
1.5509721 5.2225976 -1.05899 11 2
2.0238848 6.806345 0.6212461 1 10
1.7125881 5.7557635 -0.95112169 13 3
2.0035858 6.7251887 0.86161631 2 11
1.8595312 6.233706 -0.79873174 11 4
2.0155625 6.7352972 1.366574 2 13
4.4880981 14.978598 -0.81947649 8 6
2.0381281 6.7805443 1.8971437 1 15
1.3911512 4.5845723 -1.2837424 7 0
2.0991306 6.9090557 0.12604128 4 8
1.4760207 4.8551121 -1.171545 21 1
1.5779996 5.1775632 -1.0521209 13 2
2.0725381 6.7916884 0.6212461 1 10
1.7589207 5.7603655 -0.95393753 15 3
2.065588 6.7562399 0.86746609 2 11
1.9069959 6.2297306 -0.79995042 9 4
3.08564 10.061273 -0.92071325 13 5
2.0671654 6.7319622 1.3688638 2 13
2.0826111 6.7528644 1.8935202 2 15
1.4112905 4.5339203 -1.2723545 10 0
2.152087 6.905313 0.12625071 4 8
1.5130459 4.8518667 -1.1733446 16 1
1.6278962 5.2073622 -1.0605165 22 2
2.130609 6.8112812 0.62438375 1 10
1.7936015 5.7268953 -0.9504959 13 3
2.1245761 6.7753797 0.87185335 2 11
1.9617327 6.2522521 -0.80458146 11 4
3.1599491 10.046537 -0.9214105 13 5
2.1152918 6.7211123 1.3696271 2 13
4.6993918 14.913656 -0.81947649 8 6
2.1326184 6.7473693 1.8961084 3 15
1.4387996 4.5110736 -1.2687311 12 0
2.1990261 6.8863106 0.1261809 4 8
1.5504402 4.8523235 -1.1760441 14 1
1.6618128 5.1883926 -1.05899 16 2
2.189054 6.8303928 0.62752134 1 10
1.8341454 5.7161145 -0.95080876 15 3
2.1754651 6.7717228 0.87331581 2 11
1.995617 6.2081661 -0.80068165 11 4
3.2019019 9.9369993 -0.91339219 13 5
2.1681838 6.7248678 1.3734432 2 13
2.1909778 6.7672372 1.9059435 2 15
1.4720575 4.5064278 -1.2702839 11 0
2.2507744 6.8821955 0.12639034 4 8
1.5891267 4.8561978 -1.1796434 15 1
1.695549 5.1692019 -1.0574635 16 2
2.2205288 6.7657261 0.62298924 1 10
1.882637 5.7294445 -0.95518899 15 3
2.2251689 6.7639132 0.87429076 2 11
2.0624921 6.2657356 -0.80994374 11 4
2.1924524 6.6527276 1.1094334 3 12
3.2736945 9.9219723 -0.91408944 13 5
2.2347744 6.7692242 1.385655 2 13
4.9071693 14.846586 -0.81947649 8 6
2.2399893 6.7572784 1.9074965 1 15
1.4991915 4.4832168 -1.2666605 15 0
2.2835298 6.8208041 0.12555261 4 8
1.6068946 4.7969432 -1.1679459 18 1
1.7472181 5.2037678 -1.067004 15 2
2.2842085 6.7991629 0.62752134 1 10
1.9238498 5.7199063 -0.95581466 15 3
2.2723358 6.7482133 0.87429076 2 11
2.1023822 6.2398963 -0.80848128 11 4
3.3607321 9.9517298 -0.91897017 13 5
2.2844918 6.7608967 1.3871815 2 13
2.2926953 6.7579408 1.9121553 2 15
1.5448388 4.5146809 -1.2785661 14 0
2.3492417 6.8576646 0.12652995 4 8
1.651718 4.8187895 -1.1760441 20 1
1.7828667 5.1895862 -1.0666224 13 2
2.3303246 6.7792821 0.62717271 1 10
1.9624499 5.7026 -0.95518899 15 3
2.3232682 6.7434468 0.87575316 2 11
2.0682609 5.9998612 -0.77923268 12 4
2.317347 6.7148323 1.1250768 3 12
3.4374976 9.9549894 -0.9214105 13 5
2.3290703 6.7373614 1.385655 2 13
5.1139765 14.776626 -0.81947649 8 6
2.3663657 6.8336577 1.6695868 3 14
2.3366516 6.7326441 1.909567 1 15
1.5839801 4.5256658 -1.2847778 13 0
2.3866096 6.815093 0.12604128 4 8
1.6782296 4.7869115 -1.1710953 25 1
1.7882268 5.0921221 -1.0490679 11 2
2.4027071 6.8342733 0.63379657 1 10
1.9992542 5.6835198 -0.9542504 11 3
2.3770313 6.7499447 0.87867808 2 11
2.1199949 6.0133591 -0.78288871 15 4
2.3721995 6.7249837 1.129457 3 12
3.5108888 9.9420233 -0.92245638 13 5
2.3786666 6.7283411 1.3871815 2 13
5.2810364 14.92977 -0.82994366 8 6
2.3814907 6.7251229 1.6470916 3 14
2.393404 6.7475357 1.9183668 1 15
1.6238546 4.540246 -1.2920247 13 0
2.4516561 6.8472147 0.1269488 4 8
1.7180015 4.7955585 -1.1760441 32 1
1.7766304 4.9483223 -1.021973 14 2
2.4639866 6.8590126 0.63763142 1 10
2.0442319 5.6842942 -0.95675331 13 3
2.4227488 6.7294512 0.87819058 1 11
2.1958635 6.0959044 -0.79556316 12 4
2.4432116 6.7751565 1.1407202 3 12
3.5937471 9.9547482 -0.9259426 13 5
2.4417481 6.7600045 1.3971035 2 13
5.3851447 14.892534 -0.82994366 8 6
2.4615486 6.799952 1.6695868 3 14
2.4332087 6.7106843 1.9126729 1 15
1.6581649 4.536056 -1.2940953 14 0
2.482909 6.7848611 0.12611109 4 8
1.7567992 4.7980871 -1.1796434 21 1
1.8036913 4.9155254 -1.0177752 15 2
2.5214279 6.8678274 0.64007175 1 10
2.0920405 5.6921349 -0.96050775 11 3
2.4792664 6.7384548 0.88160288 1 11
2.2726531 6.1735706 -0.80775005 9 4
2.4904516 6.7579341 1.1407202 3 12
2.3887753 6.4750562 -0.60381496 7 5
2.4861627 6.7354255 1.3955771 2 13
5.4889827 14.854576 -0.82994366 8 6
2.5089579 6.7826023 1.6695868 3 14
2.4806669 6.6953464 1.9131904 1 15
1.6891141 4.5225606 -1.2935777 12 0
2.5638273 6.8572702 0.12778652 4 8
1.802541 4.8185596 -1.1877415 16 1
1.9275538 5.1417956 -1.0673856 11 2
2.559514 6.8239412 0.63763142 1 10
2.1268675 5.6644454 -0.95831764 15 3
2.523459 6.7135482 0.88062793 2 11
2.3310702 6.198431 -0.81311232 13 4
2.4594789 6.5294981 -0.61043882 7 5
2.5386691 6.7326002 1.39863 2 13
5.5925465 14.815896 -0.82994366 8 6
2.5550709 6.7653661 1.6695868 3 14
2.5328193 6.6923194 1.9173316 1 15
1.7275338 4.5287075 -1.298754 12 0
2.6033134 6.8209772 0.12743747 4 8
1.8361393 4.8058577 -1.1877415 15 1
1.9470719 5.0882173 -1.05899 13 2
2.6070917 6.8059063 0.63763142 1 10
2.1696167 5.6609049 -0.96019489 15 3
2.5776279 6.7184577 0.88355285 1 11
2.3728633 6.1782999 -0.81262481 15 4
2.5833919 6.7229543 1.1407202 3 12
2.4907005 6.474977 -0.60695255 7 5
2.5912502 6.7293701 1.401683 2 13
5.7191215 14.844578 -0.83371186 8 6
2.6022365 6.7473645 1.6695868 3 14
2.5783138 6.6749239 1.9173316 1 15
1.7716353 4.5510488 -1.3085891 9 0
1.8702252 4.7968793 -1.1886414 17 1
2.0061231 5.1348453 -1.0715834 16 2
2.6678648 6.8251162 0.64111763 1 10
2.2134032 5.6566567 -0.96207207 15 3
2.6360528 6.7298727 0.88745266 2 11
2.4047222 6.1361299 -0.80921251 17 4
2.630264 6.7047548 1.1407202 3 12
2.5347137 6.4578743 -0.60695255 7 5
2.6355598 6.707922 1.4009198 2 13
2.6481042 6.7294955 1.6695868 3 14
2.638315 6.690908 1.9271667 1 15
1.799082 4.5277977 -1.3054833 11 0
2.7429137 6.8996453 0.12960157 4 8
1.9108711 4.8018131 -1.1931404 16 1
2.0395725 5.1174245 -1.0708202 14 2
2.7213547 6.8211288 0.64251208 1 10
2.25405 5.6469646 -0.96301067 13 3
2.6818004 6.7117734 0.88745266 2 11
2.4533994 6.1339369 -0.81116241 12 4
2.5975173 6.4844093 -0.61113608 11 5
2.6823258 6.6893587 1.4009198 2 13
5.9158082 14.745779 -0.83266515 8 6
2.7313316 6.8012624 1.6920818 3 14
2.6938899 6.6978865 1.9344137 1 15
1.8248433 4.5008044 -1.3013422 11 0
2.7726641 6.831666 0.12869404 4 8
1.9355519 4.7666879 -1.1877415 16 1
2.079839 5.1117911 -1.0727283 14 2
2.7568896 6.772438 0.63972312 1 10
2.2988734 5.6416664 -0.96488786 11 3
2.7417555 6.7218199 0.89135242 1 11
2.4616575 6.0321155 -0.79995042 15 4
2.6446066 6.4675007 -0.61131036 19 5
2.7453153 6.7104449 1.4093152 2 13
2.7902784 6.806787 1.6983805 3 14
