# .PCD v0.7 - Point Cloud Data file format
VERSION 0.7
FIELDS x y z intensity ring
SIZE 4 4 4 4 2
TYPE F F F F U
COUNT 1 1 1 1 1
WIDTH 1336
HEIGHT 1
VIEWPOINT 0 0 0 1 0 0 0
POINTS 1336
DATA ascii
0.15881518 6.2311664 -0.76533955 22 4
0.17377537 6.5922818 1.2818549 2 13
0.16508183 6.2212696 -0.32615772 22 6
0.17974977 6.5581055 1.757899 2 15
0.13928007 4.638217 -1.2433668 16 0
0.19022982 6.2621574 0.10935678 42 8
0.15169552 4.9650216 -1.1468004 13 1
0.17029925 5.4492974 -1.0597532 11 2
0.20927593 6.6592627 0.5828976 1 10
0.1899685 5.9784236 -0.94736725 11 3
0.21078284 6.5613155 0.80604392 1 11
0.20109761 6.2259731 -0.76485211 25 4
0.21568359 6.606091 1.0468596 4 12
0.22104958 6.6987519 -0.58638382 7 5
0.22007568 6.6341138 1.2902504 2 13
0.20851046 6.2199655 -0.32615772 22 6
0.22625698 6.5779285 1.763593 1 15
0.17194116 4.6448536 -1.2454373 13 0
0.23364457 6.2526832 0.10921716 42 8
0.18664427 4.9716315 -1.1486001 14 1
0.20743808 5.4244337 -1.0551738 11 2
0.25422841 6.6178212 0.57941139 1 10
0.23223676 5.9907684 -0.9495573 15 3
0.25611877 6.5477824 0.80458146 1 11
0.24494787 6.2343349 -0.76607072 27 4
0.25991973 6.5570521 1.0393507 4 12
0.26701546 6.648109 1.2933035 2 13
0.25112042 6.1984019 -0.325111 22 6
0.27193439 6.5703979 1.76204 2 15
0.20402442 4.6358204 -1.2433668 13 0
0.27720523 6.2489023 0.10918226 44 8
0.22030786 4.9468455 -1.1432012 14 1
0.29938999 6.6701217 0.34991825 2 9
0.24601245 5.4385433 -1.0582268 11 2
0.30223411 6.6556916 0.5828976 1 10
0.27387398 5.9850554 -0.94893163 15 3
0.30163869 6.5418696 0.80409402 1 11
0.28846577 6.2324729 -0.76607072 27 4
0.3078956 6.6024356 1.0468596 4 12
0.31008905 6.5754848 1.2795652 2 13
0.29571423 6.2244277 -0.32657638 22 6
0.31798452 6.5721989 1.7630754 2 15
0.23628515 4.6323533 -1.2428491 8 0
0.32164454 6.2627912 0.10946149 44 8
0.25543973 4.9568639 -1.1459007 14 1
0.34967434 6.7396741 0.35368642 2 9
0.28520089 5.4602203 -1.0628061 13 2
0.34660676 6.6136265 0.57941139 1 10
0.31554392 5.9810243 -0.94861871 13 3
0.34709477 6.5356393 0.80360651 1 11
0.33164978 6.2243609 -0.76533955 25 4
0.35811356 6.6123667 1.2871976 2 13
0.33807465 6.2022691 -0.32552966 22 6
0.3636426 6.5659609 1.76204 2 15
0.26671958 4.597805 -1.2340492 11 0
0.36500672 6.2544041 0.10935678 42 8
0.28810543 4.9218884 -1.1382524 16 1
0.39084411 6.6373782 0.34845284 2 9
0.32331347 5.458096 -1.0628061 11 2
0.39134905 6.5871792 0.57731962 1 10
0.35729164 5.9786758 -0.94861871 13 3
0.39271367 6.5330567 0.80360651 1 11
0.37485701 6.2179308 -0.76485211 25 4
0.40435809 6.6684761 1.0581229 4 12
0.40354875 6.5979481 1.2849078 2 13
0.38075036 6.1897907 -0.32500634 22 6
0.40851358 6.5478373 1.757899 2 15
0.30119109 4.6324587 -1.2438843 15 0
0.40866181 6.2517037 0.10935678 42 8
0.32143766 4.9042001 -1.1346531 17 1
0.36348921 5.4870486 -1.068912 10 2
0.4373267 6.5842867 0.57731962 1 10
0.39928803 5.9799776 -0.94924444 13 3
0.43804443 6.526195 0.803119 3 11
0.41772699 6.2072392 -0.76387709 25 4
0.44610015 6.5945396 1.0468596 4 12
0.44986522 6.5988879 1.2856711 2 13
0.42313468 6.1750259 -0.32437828 22 6
0.45314613 6.529408 1.753758 1 15
0.33269161 4.6186819 -1.2407786 11 0
0.45229697 6.2486982 0.10935678 42 8
0.34452656 4.7482896 -1.0991108 14 1
0.40092391 5.47263 -1.0666224 9 2
0.4856177 6.6128654 0.58010858 1 10
0.44073281 5.9731045 -0.94861871 11 3
0.483742 6.5249577 0.80336279 4 11
0.46207833 6.2180295 -0.76558328 27 4
0.49212787 6.5912647 1.0468596 4 12
0.49562874 6.591671 1.2849078 2 13
0.46713987 6.1838708 -0.32500634 22 6
0.50180703 6.5665364 1.7646283 1 15
0.36964753 4.6759481 -1.2568253 10 0
0.4962267 6.2493753 0.1094266 42 8
0.39034396 4.9050617 -1.1360028 15 1
0.43660656 5.438386 -1.0605165 9 2
0.53113323 6.6013703 0.57941139 1 10
0.48051295 5.9462547 -0.94486433 11 3
0.53072822 6.539228 0.80555642 3 11
0.50547713 6.2146521 -0.76558328 28 4
0.54195696 6.5919633 1.2856711 2 13
0.51161188 6.1963825 -0.32584369 22 6
0.54779851 6.5647984 1.7651459 1 15
0.39880124 4.6328344 -1.2459549 12 0
0.53898239 6.2357974 0.10925207 44 8
0.42928413 4.9565787 -1.1486001 13 1
0.47592917 5.4508524 -1.0635694 9 2
0.57790112 6.6054406 0.58010858 1 10
0.52235961 5.9466906 -0.94549 13 3
0.5784604 6.559093 0.80848128 1 11
0.54797757 6.2010851 -0.7643646 25 4
0.58691716 6.5762858 1.2833813 2 13
0.55539298 6.1986275 -0.32615772 22 6
0.59435964 6.6205268 1.5346161 4 14
0.59257162 6.5492702 1.76204 1 15
0.43239078 4.6434011 -1.2495784 10 0
0.58141279 6.2319841 0.10925207 44 8
0.45879182 4.8991332 -1.1360028 15 1
0.51449364 5.4631233 -1.0666224 9 2
0.62325174 6.5933108 0.57941139 1 10
0.56077677 5.9213653 -0.94204849 15 3
0.6200878 6.5233846 0.80458146 1 11
0.59200716 6.2050133 -0.76533955 25 4
0.63620102 6.607204 1.2902504 2 13
0.59622759 6.180788 -0.32542503 22 6
0.63751185 6.5489306 1.7630754 1 15
0.46686837 4.6691852 -1.2573429 8 0
0.62570465 6.2357321 0.10939168 44 8
0.49368551 4.9114094 -1.1396021 14 1
0.55538893 5.4867439 -1.071965 10 2
0.67213655 6.6285601 0.5828976 1 10
0.59710282 5.868175 -0.93422669 11 3
0.6668213 6.530746 0.80604392 1 11
0.63524258 6.2107134 -0.76655823 27 4
0.68438053 6.6339674 1.2963563 2 13
0.64018863 6.1844211 -0.32584369 22 6
0.68562359 6.5673771 1.7692871 1 15
0.49883717 4.660049 -1.2557901 10 0
0.66965312 6.235188 0.10946149 44 8
0.52921212 4.9194679 -1.1423014 15 1
0.58902776 5.4397926 -1.0635694 13 2
0.71581835 6.5999374 0.5808059 1 10
0.64531827 5.9306326 -0.94486433 13 3
0.71325994 6.5338249 0.80701888 1 11
0.67858309 6.2061272 -0.76655823 27 4
0.72422796 6.5704846 1.2849078 2 13
0.6866411 6.209578 -0.3274138 22 6
0.73145264 6.5624309 1.7692871 1 15
0.53267252 4.6679697 -1.2588959 9 0
0.71407324 6.238308 0.10960111 44 8
0.56620944 4.9388862 -1.1477003 15 1
0.7709989 6.7045531 0.35368642 2 9
0.62879008 5.4511504 -1.0666224 11 2
0.76690429 6.6383219 0.58464068 1 10
0.68875253 5.9436426 -0.94768006 15 3
0.75748515 6.5168548 0.80555642 1 11
0.72166395 6.1992669 -0.76631445 25 4
0.76656616 6.5650086 1.0468596 4 12
0.77328289 6.5925665 1.2902504 2 13
0.72997242 6.2046332 -0.3274138 22 6
0.77861357 6.568675 1.772393 1 15
0.56059968 4.6257806 -1.2485431 9 0
0.75700146 6.2372737 0.10967092 44 8
0.60114419 4.9386821 -1.1486001 13 1
0.66063917 5.403872 -1.0582268 11 2
0.8108052 6.6130304 0.5828976 1 10
0.72606421 5.9133286 -0.94361275 13 3
0.80230868 6.5154891 0.80604392 1 11
0.7656582 6.1999874 -0.76704568 27 4
0.81123197 6.5596385 1.0468596 4 12
0.81783181 6.5753183 1.2879608 2 13
0.77367336 6.2114124 -0.32804179 22 6
0.81705856 6.5133848 1.7589344 1 15
0.59379172 4.6352711 -1.2521666 8 0
0.80052739 6.2318368 0.10967092 44 8
0.63599002 4.94414 -1.1508496 17 1
0.69834924 5.399128 -1.0582268 13 2
0.85068154 6.5678406 0.57941139 1 10
0.77089125 5.9355412 -0.94799298 11 3
0.85033941 6.5294132 0.80848128 1 11
0.80814958 6.1885862 -0.76631445 25 4
0.86166894 6.5538764 1.2849078 2 13
0.8191039 6.2217011 -0.32887918 22 6
0.86504579 6.5266738 1.7641107 1 15
0.6272049 4.6328177 -1.2526842 10 0
0.84508878 6.2340221 0.10981054 44 8
0.66951597 4.9259453 -1.1477003 13 1
0.7344327 5.3824501 -1.0559371 9 2
0.90305924 6.6010652 0.5828976 1 10
0.81602949 5.9494429 -0.95112169 13 3
0.89266443 6.4997177 0.80555642 1 11
0.85295904 6.194593 -0.76777691 24 4
0.91279256 6.5865946 1.2925402 2 13
0.85975641 6.1879849 -0.3274138 22 6
0.92020786 6.6146307 1.5418144 4 14
0.91761297 6.5624075 1.7754986 1 15
0.66198337 4.6455388 -1.2573429 12 0
0.88769722 6.2139587 0.10956621 78 8
0.70002395 4.8941441 -1.1414016 15 1
0.76790166 5.3420773 -1.0490679 11 2
0.95479792 6.6340413 0.58638382 1 10
0.84908193 5.8849468 -0.94173563 13 3
0.93687308 6.4774475 0.80360651 1 11
0.89612532 6.1804724 -0.76680195 19 4
0.96103543 6.5876651 1.2940667 2 13
0.90206677 6.1759038 -0.32709977 22 6
0.96059614 6.5367279 1.7703223 1 15
0.69435042 4.6349511 -1.2557901 10 0
0.93520975 6.2352958 0.11005487 63 8
0.73734546 4.9044261 -1.1450008 14 1
1.0056813 6.6733861 0.35368642 2 9
0.80693245 5.3482342 -1.0513576 13 2
1.0010538 6.6191592 0.58568656 1 10
0.90183043 5.9490309 -0.95299888 13 3
0.98684037 6.5021505 0.80750632 1 11
0.94104266 6.1858411 -0.76826441 22 4
1.0022511 6.5497446 1.2879608 2 13
0.94744867 6.177187 -0.32751846 22 6
1.0105873 6.5506892 1.7760164 1 15
0.72567332 4.6340618 -1.2568253 11 0
0.97576714 6.2169328 0.10984544 63 8
0.77167177 4.9109788 -1.1477003 13 1
0.85311604 5.4046731 -1.0635694 11 2
1.0461727 6.6202469 0.58638382 1 10
0.94188428 5.9468203 -0.95362461 11 3
1.0310732 6.4952831 0.80750632 1 11
0.98391753 6.1912265 -0.76972687 21 4
1.0493867 6.5662169 1.2925402 2 13
0.99218714 6.1944327 -0.32877451 22 6
1.0524751 6.534306 1.7734282 1 15
0.75738305 4.6250696 -1.2557901 11 0
1.0210918 6.2218084 0.11005487 55 8
0.80656999 4.909318 -1.1486001 14 1
0.89593858 5.4295788 -1.0696753 12 2
1.085874 6.5734658 0.5828976 1 10
0.98531383 5.9517932 -0.95550185 11 3
1.0796428 6.5075102 0.80994374 1 11
1.0258155 6.1763735 -0.76875186 24 4
1.1042528 6.6129518 1.3032255 2 13
1.0311229 6.161747 -0.3274138 22 6
1.0955034 6.5115585 1.7692871 1 15
0.7909556 4.627286 -1.2578605 9 0
1.0658507 6.2224126 0.11019449 57 8
0.83950633 4.895884 -1.1468004 14 1
1.142894 6.6512609 0.35368642 2 9
0.92582673 5.3767571 -1.0605165 13 2
1.1364772 6.5932136 0.585338 1 10
1.0261658 5.940877 -0.95487607 13 3
1.127759 6.515461 0.81189364 1 11
1.0733125 6.1944895 -0.77192044 27 4
1.1389427 6.5393205 1.2902504 2 13
1.0785789 6.179976 -0.32877451 22 6
1.1422681 6.5113635 1.7713577 1 15
0.81612653 4.5817118 -1.2469902 12 0
1.110671 6.2226949 0.11033412 63 8
0.87572443 4.9014139 -1.1494999 13 1
0.96819419 5.3972163 -1.0658592 11 2
1.1831799 6.5890412 0.58568656 1 10
1.0690151 5.9413447 -0.95612758 11 3
1.1837844 6.5660372 0.81920576 1 11
1.1119488 6.161449 -0.76875186 25 4
1.1978817 6.6046157 1.304752 2 13
1.1256224 6.193912 -0.32992589 22 6
1.1894366 6.5127316 1.7739457 1 15
0.85337371 4.6043944 -1.2547548 10 0
1.1555468 6.2226529 0.11047374 57 8
0.90991902 4.8951812 -1.1494999 15 1
1.0065731 5.3941846 -1.0666224 9 2
1.2357359 6.6158733 0.58882421 1 10
1.1137407 5.951211 -0.95894337 15 3
1.2193484 6.5029831 0.81238109 1 11
1.161165 6.1867037 -0.77289546 28 4
1.2352263 6.5497909 1.2955931 2 13
1.1669824 6.1760893 -0.32940254 22 6
1.2366767 6.5137591 1.776534 1 15
0.88659352 4.6040154 -1.2563076 8 0
1.1993904 6.2224979 0.11061335 52 8
0.94407171 4.8887091 -1.1494999 14 1
1.0372921 5.3563695 -1.0605165 11 2
1.2765774 6.5797033 0.58638382 1 10
1.1481955 5.9124665 -0.95393753 15 3
1.2635847 6.4945326 0.81238109 1 11
1.2001473 6.1570139 -0.77021432 25 4
1.2839407 6.5564208 1.2986461 2 13
1.2086107 6.1660433 -0.32929787 22 6
1.2809829 6.5051908 1.776534 1 15
0.90921283 4.5543013 -1.2444019 10 0
1.2435867 6.217895 0.11068317 46 8
0.98459417 4.9184761 -1.158048 16 1
1.0711809 5.3316741 -1.0570819 13 2
1.3331213 6.6294589 0.59161317 1 10
1.184763 5.8810687 -0.95018309 15 3
1.3143921 6.512794 0.81579345 1 11
1.250283 6.1895638 -0.77533287 28 4
1.3261967 6.535985 1.2963563 2 13
1.2556068 6.1770282 -0.33034459 22 6
1.3337126 6.532052 1.7863692 1 15
0.93941998 4.5402756 -1.2423315 9 0
1.2861538 6.2051449 0.11061335 46 8
1.0145533 4.8904934 -1.1530992 14 1
1.1059736 5.3125343 -1.0547922 15 2
1.3671788 6.5614758 0.58638382 1 10
1.2306352 5.8958588 -0.95393753 15 3
1.3517023 6.4645982 0.81091869 1 11
1.2926506 6.1767983 -0.77484536 28 4
1.3814859 6.5726776 1.3055153 2 13
1.2987 6.1681118 -0.33034459 22 6
1.3756821 6.5055718 1.7817104 1 15
0.98242372 4.5864992 -1.2568253 10 0
1.3327956 6.2116566 0.11089259 52 8
1.0511254 4.8947225 -1.1557984 15 1
1.145519 5.3161983 -1.0570819 13 2
1.41295 6.5517716 0.58638382 1 10
1.2450709 5.7635498 -0.93391389 9 3
1.4135944 6.5326114 0.82066822 1 11
1.3359735 6.1635103 -0.77435786 28 4
1.4234729 6.5396037 1.3009357 2 13
1.3459811 6.1784091 -0.3313913 22 6
1.4379522 6.5895209 1.5571113 4 14
1.4280845 6.5278916 1.7905102 1 15
1.0139644 4.5736933 -1.2552725 8 0
1.376995 6.2061048 0.1109624 49 8
1.0895066 4.9022946 -1.1593977 14 1
1.182178 5.3061552 -1.0567002 13 2
1.4580616 6.5337152 0.58568656 1 10
1.2677529 5.6715975 -0.92046052 11 3
1.459163 6.5225844 0.82066822 1 11
1.3850502 6.1811519 -0.77777022 37 4
1.478574 6.5716453 1.3093314 2 13
1.3857646 6.1491365 -0.33034459 22 6
1.4781715 6.5325799 1.7946514 1 15
1.041555 4.5476727 -1.2500961 13 0
1.4258407 6.2155833 0.11131145 49 8
1.1237023 4.8945694 -1.1593977 13 1
1.2183553 5.2899075 -1.0551738 13 2
1.5125902 6.5622067 0.58917278 1 10
1.3402001 5.8050399 -0.94361275 11 3
1.5075891 6.519712 0.82164317 1 11
1.4277214 6.1693974 -0.77752644 30 4
1.5288566 6.5802865 1.3131475 2 13
1.4232306 6.1159678 -0.32908851 22 6
1.5149515 6.484477 1.7842987 1 15
1.0710562 4.53089 -1.2475078 11 0
1.4662745 6.1979504 0.11117183 46 8
1.1609906 4.899879 -1.162547 16 1
1.2579612 5.2967734 -1.0582268 13 2
1.5611355 6.5631156 0.59021866 1 10
1.4062122 5.9072404 -0.96175921 13 3
1.5565393 6.5286074 0.82408053 1 11
1.4744427 6.1747274 -0.7794764 28 4
1.5729278 6.5618157 1.3116212 2 13
1.4769385 6.1566348 -0.33181 22 6
1.5613164 6.4834056 1.7868867 1 15
1.1055299 4.5385103 -1.251649 10 0
1.5123523 6.1992192 0.11138126 49 8
1.191543 4.8805037 -1.1598476 17 1
1.3023803 5.3183722 -1.0643326 13 2
1.6019762 6.5368571 0.58882421 1 10
1.4427125 5.8780947 -0.9586305 13 3
1.6020765 6.5175829 0.82408053 1 11
1.5202349 6.1799679 -0.78142631 27 4
1.6147326 6.5395212 1.3093314 2 13
1.5218018 6.1539297 -0.33222869 22 6
1.6130565 6.4985967 1.7941337 1 15
1.142361 4.5512929 -1.2573429 12 0
1.5594941 6.2040248 0.1116605 46 8
1.2279633 4.8815155 -1.1620972 15 1
1.3442807 5.328187 -1.0681487 11 2
1.649524 6.5332413 0.58952147 1 10
1.480806 5.8563895 -0.95675331 13 3
1.6377931 6.4677525 0.81920576 1 11
1.5643145 6.1730537 -0.78191376 24 4
1.664219 6.5433102 1.3123844 2 13
1.5657161 6.1470256 -0.33243802 22 6
1.6911292 6.6297369 1.5796063 4 14
1.6569475 6.4815626 1.7925807 1 15
1.1779742 4.5581698 -1.261484 12 0
1.6047693 6.2007303 0.11180011 46 8
1.2673873 4.8935757 -1.1670461 17 1
1.3794714 5.3110709 -1.0666224 13 2
1.6950943 6.5215659 0.58952147 1 10
1.5216552 5.8459086 -0.95675331 13 3
1.6929208 6.4945788 0.82408053 1 11
1.6093765 6.1696653 -0.78288871 27 4
1.7168201 6.5581217 1.317727 2 13
1.6065636 6.1282182 -0.33201933 22 6
1.7129704 6.5109391 1.8039688 1 15
1.2107582 4.5535693 -1.2625194 12 0
1.6505952 6.1990371 0.11197464 44 8
1.3055315 4.8996735 -1.1706454 16 1
1.4215841 5.3202782 -1.0704385 14 2
1.7601392 6.5827141 0.59614527 1 10
1.5757143 5.8847551 -0.96488786 11 3
1.746443 6.5132804 0.82798034 1 11
1.6544676 6.1659484 -0.78386366 24 4
1.7615451 6.5421844 1.3169638 2 13
1.6545069 6.1361365 -0.33306605 22 6
1.7835307 6.6054788 1.5796063 4 14
1.7583835 6.4988217 1.8039688 1 15
1.2501625 4.5729575 -1.2702839 10 0
1.6911924 6.1777186 0.11180011 38 8
1.3355893 4.8754029 -1.1670461 16 1
1.4545294 5.2950802 -1.0673856 11 2
1.8187265 6.6163731 0.60032874 1 10
1.6230475 5.8964663 -0.96864235 11 3
1.7887101 6.4894466 0.826518 1 11
1.7048603 6.1810398 -0.78727603 30 4
1.8124087 6.5486488 1.3207799 2 13
1.6962382 6.1205869 -0.33285671 22 6
1.8109601 6.512444 1.8112158 1 15
1.2820572 4.5641184 -1.2702839 10 0
1.7353598 6.1696124 0.11186992 38 8
1.381209 4.9072289 -1.1769439 16 1
1.8849247 6.6879158 0.36415362 2 9
1.4935933 5.2923541 -1.068912 12 2
1.8475424 6.5421586 0.59475076 1 10
1.6598755 5.8697844 -0.96613932 11 3
1.8350528 6.4806204 0.82700545 1 11
1.7490557 6.1728058 -0.78776348 27 4
1.8494929 6.5056214 1.314674 2 13
1.7454855 6.1316481 -0.33411276 22 6
1.8510728 6.4810677 1.8060393 1 15
1.3138872 4.555057 -1.2702839 10 0
1.7839382 6.1765585 0.11221898 46 8
1.4111034 4.8824902 -1.1733446 20 1
1.5294143 5.2780261 -1.0681487 11 2
1.8909509 6.5214472 0.59405357 1 10
1.7052203 5.8732295 -0.96864235 13 3
1.8868983 6.4905267 0.82993031 1 11
1.7954345 6.1718812 -0.78922594 34 4
1.904763 6.526475 1.3215431 2 13
1.7949758 6.1423173 -0.33536884 22 6
1.8984482 6.4754024 1.80811 1 15
1.3379786 4.5198398 -1.263037 11 0
1.8349711 6.1907949 0.11270764 43 8
1.4495883 4.8874664 -1.1769439 15 1
1.5673411 5.2709837 -1.068912 14 2
1.9478003 6.5462785 0.59753978 1 10
1.7450507 5.8573961 -0.96801656 11 3
1.9355693 6.4886088 0.83139277 1 11
1.8418822 6.17061 -0.7906884 34 4
1.9570382 6.5355873 1.3261225 2 13
1.8389605 6.133462 -0.33557817 22 6
1.9486165 6.4786406 1.8127686 2 15
1.3762356 4.5325713 -1.2692486 10 0
1.8769832 6.1740074 0.11263783 43 8
1.4870768 4.8884134 -1.1796434 15 1
1.6121191 5.2862039 -1.0742546 14 2
1.9887991 6.5172768 0.59614527 1 10
1.7910956 5.8620729 -0.97083241 15 3
1.9877898 6.4977164 0.83431756 1 11
1.8849162 6.1576009 -0.7906884 25 4
2.0060785 6.5330253 1.3284123 2 13
1.8829094 6.1242929 -0.33578753 22 6
2.0129707 6.5392108 1.5796063 4 14
1.9955034 6.4704175 1.8143215 1 15
1.4032521 4.5080962 -1.2651075 11 0
1.9236099 6.1722078 0.11284725 43 8
1.5211681 4.8779125 -1.1796434 18 1
1.6571856 5.301054 -1.0795974 12 2
2.0390084 6.5184455 0.59753978 1 10
1.8296154 5.841886 -0.96958095 9 3
2.0224159 6.4495859 0.82993031 1 11
1.9314245 6.1556563 -0.7921508 28 4
2.0516386 6.5188613 1.3284123 2 13
1.9280173 6.1186185 -0.33620623 22 6
2.058574 6.5249982 1.5796063 4 14
2.0400479 6.4544859 1.8138039 2 15
1.4288201 4.479785 -1.2599311 10 0
1.9739529 6.1814871 0.11326612 46 8
1.5611166 4.8857365 -1.1841424 15 1
1.6917554 5.281877 -1.0780709 14 2
2.0893307 6.5192304 0.59893423 1 10
1.869754 5.8270884 -0.96926802 13 3
2.0892479 6.5033488 0.83870488 1 11
1.9792147 6.1571403 -0.7941007 26 4
2.0934808 6.4931688 1.3261225 2 13
1.9768217 6.1240163 -0.33725294 22 6
2.0951746 6.4713306 1.8226038 1 15
1.4564611 4.4586825 -1.2568253 11 0
2.0183001 6.1713581 0.11333593 43 8
1.5976117 4.8821273 -1.1859419 20 1
1.7334863 5.2848606 -1.0811238 14 2
2.1273339 6.48177 0.59684253 1 10
1.9134696 5.8232775 -0.97083241 15 3
2.1271548 6.4659767 0.83578002 1 11
2.0209069 6.1394019 -0.7936132 20 4
2.1461465 6.5007663 1.3307021 2 13
2.0232909 6.1214437 -0.33788097 22 6
2.1427305 6.4638824 1.8246742 1 15
1.4961282 4.4740562 -1.2640723 11 0
2.0702226 6.1836648 0.1138246 45 8
1.636606 4.8856382 -1.1895411 17 1
1.7703393 5.2726297 -1.0811238 14 2
2.1852264 6.5045323 0.60032874 1 10
1.9465203 5.7873092 -0.96707797 15 3
2.1608412 6.4171052 0.83139277 1 11
2.0649867 6.1289067 -0.7941007 27 4
2.2065616 6.5302639 1.3398608 2 13
2.0749345 6.133657 -0.33934638 22 6
2.1896665 6.4542537 1.8262272 1 15
1.5173194 4.434257 -1.2557901 11 0
2.108161 6.1539264 0.11354536 42 8
1.6694106 4.8704066 -1.1886414 17 1
1.8134848 5.2787099 -1.0849401 12 2
2.2409461 6.5192657 0.60311776 1 10
2.0061595 5.8296146 -0.97646403 15 3
2.2185175 6.4394007 0.83626753 1 11
2.1154876 6.1368618 -0.79702556 24 4
2.2482488 6.5035667 1.3375711 2 13
2.1190114 6.122797 -0.33955571 22 6
2.2397399 6.4534106 1.8303684 1 15
1.5571761 4.4490829 -1.263037 10 0
2.1550393 6.1503811 0.11375479 42 8
1.703374 4.8586326 -1.1886414 15 1
1.8515921 5.2696257 -1.0857033 10 2
2.2890477 6.5109801 0.60381496 1 10
1.9543363 5.5527387 -0.93234956 13 3
2.2871714 6.4911566 0.84504211 1 11
2.1635563 6.1369209 -0.79897547 23 4
2.3106112 6.5358386 1.3474932 2 13
2.1710341 6.134213 -0.34102112 23 6
2.2899075 6.4521813 1.8345095 1 15
1.5881987 4.4381032 -1.263037 9 0
2.2073636 6.1615434 0.11424346 42 8
1.7319918 4.8319464 -1.1850421 15 1
1.8923181 5.2676563 -1.0879929 10 2
2.3411832 6.5135913 0.6055581 1 10
2.0786643 5.7768731 -0.97239673 13 3
2.3162861 6.4302077 0.83919233 1 11
2.2090425 6.1291356 -0.79995042 20 4
2.3561838 6.5195479 1.3474932 2 13
2.2138031 6.1189084 -0.34102112 23 6
2.3362141 6.4396701 1.8355448 1 15
1.6158237 4.4178371 -1.2604488 12 0
2.2544508 6.1572495 0.11445288 48 8
1.7831095 4.8673134 -1.1967396 15 1
1.9290497 5.2543163 -1.0879929 10 2
2.4003394 6.5344925 0.60904431 1 10
2.1264436 5.7826147 -0.9758383 15 3
2.3720903 6.4436874 0.8430922 1 11
2.2531505 6.1172905 -0.80043793 28 4
2.3907559 6.4734745 1.3413873 2 13
2.2633963 6.122036 -0.34206784 23 6
2.3885009 6.4431281 1.8412387 1 15
1.6527127 4.4227352 -1.2651075 11 0
2.3043849 6.1600909 0.11480194 48 8
1.8102152 4.8364949 -1.1922406 15 1
1.9629246 5.2333694 -1.0864664 10 2
2.4417033 6.506382 0.60799843 1 10
2.1757901 5.7916684 -0.97990561 13 3
2.4086328 6.4046741 0.84016734 1 11
2.3055866 6.1274228 -0.80385023 31 4
2.4511368 6.4970369 1.3497829 2 13
2.3180768 6.1378489 -0.34384724 23 6
2.4354737 6.4317179 1.8427917 1 15
1.6883709 4.4237237 -1.2687311 12 0
2.3501921 6.1513243 0.11494155 50 8
1.8383697 4.8091779 -1.1886414 15 1
1.9923897 5.2012048 -1.0826503 12 2
2.4827855 6.4780159 0.60695255 1 10
2.211925 5.7652712 -0.97802842 13 3
2.4632511 6.4136462 0.84357965 1 11
2.3540041 6.1260018 -0.8058002 20 4
2.5155308 6.5395269 1.1097462 3 12
2.5020845 6.4944215 1.3528358 2 13
2.363024 6.1271076 -0.34416127 23 6
2.5332632 6.5651007 1.6245965 3 14
2.3885725 6.1837072 -0.11570945 5 7
2.483103 6.4217653 1.8448622 2 15
1.7164075 4.4046288 -1.2666605 12 0
2.3694901 6.0774279 0.1138595 33 8
1.8690652 4.7889643 -1.1868417 17 1
2.0406125 5.2204356 -1.0895194 10 2
2.5366621 6.4827895 0.60904431 1 10
2.2489564 5.7445636 -0.97708976 15 3
2.52858 6.4521775 0.85089183 1 11
2.3778656 6.0613708 -0.79946297 20 4
2.3708482 6.0341878 -0.56720954 33 5
2.5516715 6.4877586 1.3551255 2 13
2.3768837 6.0402565 -0.34018376 22 6
2.3744683 6.0217786 -0.11298689 35 7
2.526757 6.4047146 1.8448622 2 15
1.7541996 4.412591 -1.2723545 10 0
2.4066823 6.0477328 0.11361516 45 8
1.8915274 4.7507844 -1.1805431 21 1
2.0740983 5.1987681 -1.0879929 14 2
2.5881135 6.4838781 0.61078745 1 10
2.3095288 5.7800851 -0.98585016 14 3
2.5765116 6.44174 0.85186678 1 11
2.4116938 6.0266151 -0.79702556 28 4
2.418849 6.0322833 -0.56860405 43 5
2.5928495 6.4629517 1.3535991 2 13
2.421972 6.0309291 -0.34060243 23 6
2.6246769 6.5290918 1.6245965 3 14
2.4303265 6.042582 -0.11368498 42 7
2.590889 6.4353042 1.8588384 1 15
1.7835081 4.396657 -1.2713192 10 0
2.4804459 6.1085992 0.11508117 50 8
1.9334476 4.759129 -1.1859419 15 1
2.1192245 5.2059822 -1.0925723 12 2
2.6393316 6.4804125 0.6121819 1 10
2.3542995 5.7747955 -0.98772728 14 3
2.6154175 6.4088931 0.84991688 1 11
2.5017323 6.1272507 -0.81262481 28 4
2.6468275 6.4664969 1.3581785 2 13
2.5056643 6.1155219 -0.3463594 23 6
2.628413 6.3991895 1.853662 1 15
1.803079 4.3573227 -1.2635547 12 0
2.545989 6.1465578 0.11612831 46 8
1.9711019 4.7563171 -1.1886414 15 1
2.1562679 5.1928744 -1.0929539 8 2
2.7089694 6.5207062 0.61775988 1 10
2.3975892 5.7655163 -0.98897886 14 3
2.6646764 6.401473 0.85137933 1 11
2.5520766 6.1279626 -0.81506222 27 4
2.688885 6.4406128 1.356652 2 13
2.5475276 6.0960369 -0.34625471 23 6
2.683471 6.4056311 1.8609091 1 15
1.8417192 4.3642063 -1.2692486 11 0
2.5950601 6.1433721 0.11640756 48 8
2.0072958 4.749619 -1.190441 16 1
2.1947651 5.1831174 -1.0940988 12 2
2.7544234 6.5016365 0.61775988 1 10
2.4393241 5.7522745 -0.98960453 14 3
2.7279174 6.4265685 0.85722905 1 11
2.5978992 6.1173048 -0.81603718 28 4
2.7410979 6.4482312 1.1097462 3 12
2.7476256 6.4541988 1.3635212 2 13
2.588455 6.07443 -0.34604537 23 6
2.7349579 6.4027276 1.8655677 2 15
1.8683225 4.34237 -1.2666605 13 0
2.6410496 6.132452 0.11654717 48 8
2.0357764 4.7247524 -1.1877415 18 1
2.2215612 5.1460385 -1.0895194 14 2
2.799746 6.4822483 0.61775988 1 10
2.4802096 5.7369165 -0.9899174 12 3
2.7774444 6.4183002 0.85869151 1 11
2.648433 6.1172347 -0.81847459 23 4
2.798867 6.4492688 1.366574 2 13
2.6419404 6.0818577 -0.34751078 23 6
2.7803624 6.3852501 1.8660854 1 15
1.9164379 4.3699126 -1.2785661 10 0
2.690228 6.1285124 0.11682641 48 8
2.0608759 4.6925826 -1.1832426 21 1
2.257431 5.1304049 -1.0895194 12 2
2.8449323 6.4625444 0.61775988 1 10
2.5249767 5.730309 -0.99179459 15 3
2.8269911 6.4096513 0.86015391 1 11
2.6958802 6.1094942 -0.81993699 24 4
2.8485878 6.4403443 1.3688638 2 13
2.6988914 6.0961366 -0.34939486 23 6
2.8509419 6.4335136 1.6245965 3 14
2.8381932 6.3957019 1.8748853 1 15
1.9516281 4.3670092 -1.2816719 9 0
2.7476451 6.1424394 0.1174547 48 8
2.0935862 4.6780806 -1.1832426 17 1
2.2915866 5.1109371 -1.0887562 12 2
2.9062893 6.4788833 0.6212461 1 10
2.5616839 5.7053332 -0.99054313 15 3
2.8667877 6.3788948 0.85869151 1 11
2.7466071 6.1086297 -0.8223744 22 4
2.9031608 6.4417796 1.3734432 2 13
2.7454915 6.0862494 -0.34991825 23 6
2.8986893 6.4109387 1.8852381 1 15
1.9868692 4.3638282 -1.2847778 11 0
2.7993391 6.1454315 0.11787355 50 8
2.1213412 4.6527128 -1.1805431 22 1
2.2863681 5.0077105 -1.0700569 14 2
2.9646997 6.4874291 0.62403512 1 10
2.5971742 5.6805782 -0.98929167 12 3
2.9184015 6.377284 0.86112887 1 11
2.7974532 6.1073532 -0.82481176 23 4
2.9693625 6.4677424 1.3833653 2 13
2.7968566 6.0892019 -0.35117432 23 6
2.9471104 6.401587 1.8883438 1 15
2.014904 4.3466964 -1.2837424 10 0
2.8371212 6.1148562 0.11766412 45 8
2.1628103 4.6593757 -1.1859419 21 1
2.3270679 5.0040879 -1.0727283 18 2
2.9919779 6.4309716 0.6205489 1 10
2.6526127 5.696332 -0.99523622 14 3
3.0014288 6.4395199 0.87234086 1 11
2.8456714 6.1025634 -0.82676172 26 4
3.0116527 6.4438248 1.3826021 2 13
2.8511498 6.0948529 -0.3526397 23 6
2.988447 6.3738618 1.8862734 1 15
2.0427246 4.3272839 -1.2821896 13 0
2.8882873 6.1129789 0.11801317 47 8
2.2086091 4.6723533 -1.1931404 15 1
2.3703487 5.0054636 -1.0765444 14 2
3.0538652 6.4459357 0.62403512 1 10
2.6965477 5.6865988 -0.99680054 15 3
3.0360949 6.3968902 0.86941594 1 11
2.8984234 6.1040659 -0.82968652 23 4
3.0633121 6.4368267 1.385655 2 13
2.897063 6.0820141 -0.3530584 23 6
3.0312073 6.3493557 1.8852381 1 15
2.082927 4.3338113 -1.2884012 8 0
2.9430301 6.1178946 0.11850184 47 8
2.2479348 4.6708679 -1.1967396 15 1
2.4598007 5.1019754 -1.100968 10 2
2.7421908 5.6800885 -0.9989906 14 3
3.0979559 6.411284 0.87429076 1 11
2.9513323 6.1051311 -0.83261144 23 4
3.1184499 6.4364834 1.3902344 2 13
2.9481676 6.0796113 -0.35410511 23 6
3.0940382 6.3662648 1.8966261 1 15
2.1037951 4.3000751 -1.2827072 16 0
2.9927018 6.1115685 0.11878107 47 8
2.2839205 4.6620593 -1.1985391 14 1
2.4918995 5.0776281 -1.0994414 12 2
3.1558578 6.4277086 0.62647545 1 10
2.7687106 5.634213 -0.99429762 12 3
3.1251171 6.3538742 0.86941594 1 11
3.0061522 6.1093135 -0.83602375 27 4
3.1633091 6.4145555 1.3902344 2 13
3.0029151 6.0839543 -0.35557052 23 6
3.1392639 6.3462405 1.8971437 1 15
2.1570113 4.3319759 -1.2966834 12 0
3.0424314 6.1048446 0.11906032 47 8
2.3198881 4.6529784 -1.2003388 14 1
2.5185175 5.0425429 -1.0956253 14 2
3.220247 6.4447308 0.6303103 1 10
2.8203499 5.6394796 -0.99867773 12 3
3.1949379 6.385715 0.87672812 1 11
3.0558436 6.1023765 -0.83797371 26 4
3.2097752 6.3958249 1.3909976 2 13
3.0560708 6.0842609 -0.35682657 23 6
3.1971502 6.3540626 1.9059435 1 15
2.1820838 4.3085756 -1.2940953 10 0
3.0929565 6.1018305 0.11940937 49 8
2.3550317 4.644032 -1.2021384 15 1
2.5794551 5.077795 -1.1070738 10 2
3.2441847 6.383584 0.62647545 1 10
2.8658333 5.6342382 -1.0011806 10 3
3.2455356 6.3779721 0.87867808 1 11
3.1081183 6.1026626 -0.84089851 24 4
3.2717564 6.4184179 1.1410331 3 12
3.2639461 6.3948121 1.3955771 2 13
3.1137719 6.0953312 -0.35871068 24 6
3.2368069 6.325274 1.903873 1 15
2.2157838 4.3022108 -1.2966834 12 0
3.1454134 6.101965 0.11982822 49 8
2.3874812 4.6296253 -1.2025883 14 1
2.6040499 5.0409317 -1.1028761 8 2
3.3186593 6.421535 0.63240206 1 10
2.9131961 5.6321449 -1.0043093 12 3
3.2852216 6.3486814 0.87770307 1 11
3.1623697 6.1060419 -0.84431088 26 4
3.3291016 6.4142694 1.4047359 2 13
3.1533453 6.0704522 -0.35850134 24 6
3.2940514 6.3305168 1.9121553 1 15
2.2441185 4.2853184 -1.2961658 14 0
3.2035849 6.1122947 0.12045651 52 8
2.4171269 4.6098166 -1.2016885 15 1
2.5826125 4.9170675 -1.0795974 10 2
3.377121 6.4270167 0.63519108 1 10
2.9496241 5.6086898 -1.0036837 12 3
3.3431485 6.3542819 0.88160288 1 11
3.2057061 6.0878887 -0.84479833 20 4
3.3543632 6.3567319 1.3971035 2 13
3.2113819 6.080637 -0.36038542 24 6
3.378386 6.3941436 1.6695868 3 14
3.3551362 6.3420987 1.922508 1 15
2.2825813 4.2802868 -1.2997893 12 0
3.2625487 6.1127782 0.12094518 54 8
2.4672611 4.6207695 -1.2093369 21 1
2.6962934 5.0412359 -1.1112716 8 2
3.4384191 6.4260845 0.63763142 1 10
3.008419 5.6177402 -1.0093153 12 3
3.3862202 6.3179231 0.88014042 1 11
3.2569327 6.0741558 -0.84626079 26 4
3.420557 6.3659687 1.4047359 2 13
3.255034 6.0528469 -0.36017609 24 6
3.426275 6.3686109 1.6695868 3 14
3.4165714 6.3399549 1.9297549 1 15
2.3197751 4.277833 -1.3039304 11 0
3.3174284 6.1150379 0.12143384 54 8
2.4920211 4.5897312 -1.2057376 17 1
2.7511747 5.0607123 -1.1196673 6 2
3.5041463 6.4404254 0.64146626 1 10
3.0409222 5.5867224 -1.0074381 10 3
3.4348445 6.3051867 0.88160288 1 11
3.3144631 6.0791559 -0.8501606 30 4
3.4743295 6.3591623 1.4085521 2 13
3.3191485 6.0726113 -0.36268821 24 6
3.4670677 6.3301086 1.9338959 1 15
2.3245938 4.2179551 -1.2904718 12 0
3.3658364 6.1022339 0.12164328 50 8
2.5307345 4.5863132 -1.2093369 16 1
2.786438 5.0413823 -1.1196673 8 2
3.536335 6.3955016 0.63937455 1 10
3.0769813 5.5601716 -1.0064995 14 3
3.5268655 6.3678818 0.89378983 1 11
3.3692353 6.0807633 -0.85357296 21 4
3.5327826 6.3628287 1.414658 2 13
3.3672833 6.0597668 -0.36331624 24 6
3.5327916 6.3445697 1.9458016 1 15
2.3709805 4.2319598 -1.2997893 11 0
3.4190245 6.1001158 0.12206213 47 8
2.5531597 4.5515366 -1.2048379 18 1
2.8139596 5.0103164 -1.1169959 10 2
3.5867553 6.3810782 0.64042038 1 10
3.1428351 5.5890312 -1.0155727 12 3
3.5701318 6.3437257 0.89378983 1 11
3.4291375 6.0882287 -0.85796028 28 4
3.5850549 6.3624468 1.1566767 3 12
3.5771174 6.3380103 1.414658 2 13
3.4320176 6.0784478 -0.36582837 24 6
3.5768476 6.3220572 1.9463193 1 15
2.40451 4.2241178 -1.3023775 13 0
3.4674671 6.0865231 0.12227156 48 8
2.5599563 4.4917259 -1.1935903 30 1
2.8547091 5.0007787 -1.1192856 10 2
3.6577692 6.4049616 0.6453011 1 10
3.1729555 5.5515189 -1.0127568 14 3
3.6222143 6.3324342 0.89573973 1 11
3.4843051 6.0888653 -0.86137259 26 4
3.6436107 6.3543916 1.4238168 2 13
3.4664197 6.0404797 -0.36499101 24 6
3.6093404 6.2768354 1.9401076 1 15
2.4320064 4.2038836 -1.3013422 14 0
3.522903 6.0846629 0.12272533 45 8
2.638135 4.554687 -1.2151856 15 1
3.7852254 6.5298524 0.3955552 2 9
2.8934901 4.9875216 -1.1208121 10 2
3.7163994 6.4033928 0.64774144 1 10
3.2215543 5.5463147 -1.0158856 14 3
3.6803019 6.331018 0.8991521 1 11
3.5327132 6.0746894 -0.86283505 27 4
3.6878841 6.3287992 1.4238168 2 13
3.5205798 6.0368361 -0.36624706 24 6
3.6735384 6.2865133 1.9509782 1 15
2.463254 4.1901336 -1.3023775 13 0
3.5886157 6.0995631 0.12352814 45 8
2.6451564 4.4941726 -1.203938 20 1
2.9302332 4.9705825 -1.1215754 12 2
3.7468405 6.3532667 0.6453011 1 10
3.2461393 5.4998727 -1.0115054 14 3
3.726433 6.3085871 0.89963961 1 11
3.5891752 6.0738049 -0.86624736 23 4
3.7677922 6.3709855 1.17232 3 12
3.7359817 6.3096547 1.4253433 2 13
3.5982726 6.0722508 -0.36991057 24 6
3.7871649 6.3884654 1.714577 3 14
3.7114193 6.2507472 1.9478723 1 15
2.4934373 4.1744933 -1.3028952 12 0
3.6403086 6.0921607 0.12387718 46 8
2.6904697 4.499011 -1.2102367 22 1
2.9700503 4.9606285 -1.123865 10 2
3.7992961 6.3406267 0.64669561 1 10
3.2784226 5.4691777 -1.009941 12 3
3.787667 6.3137183 0.90402687 1 11
3.6396654 6.0622153 -0.86819732 23 4
3.8110678 6.3451929 1.17232 3 12
3.8082738 6.3305254 1.4360286 2 13
3.65188 6.0681524 -0.37116665 24 6
3.77882 6.2666984 1.9608132 1 15
2.5298095 4.1706381 -1.3070362 11 0
3.6910498 6.0802746 0.12415642 46 8
2.7453084 4.5205693 -1.2210344 21 1
3.014812 4.9565458 -1.1276813 10 2
3.8775804 6.372488 0.65262216 1 10
3.324744 5.4596543 -1.0124439 15 3
3.8399172 6.300683 0.90597677 1 11
3.6973786 6.0644183 -0.87209707 26 4
3.855273 6.3184323 1.17232 3 12
3.8430889 6.2910533 1.4329756 2 13
3.7170739 6.079998 -0.37346941 24 6
3.824496 6.2434597 1.9618485 1 15
2.5740638 4.177547 -1.3148009 9 0
3.7544026 6.088398 0.12485451 42 8
2.7747524 4.4979777 -1.2201345 20 1
3.041086 4.9220161 -1.1246282 12 2
3.9219747 6.3452625 0.65262216 1 10
3.3596609 5.4312701 -1.0115054 14 3
3.9005258 6.3007288 0.90987664 1 11
3.7542591 6.0620861 -0.87550944 27 4
3.899287 6.2913651 1.17232 3 12
3.903477 6.290761 1.4390815 2 13
3.7689128 6.069171 -0.37441146 24 6
3.9047315 6.2756567 1.9804834 1 15
2.6052155 4.1627498 -1.3158361 10 0
3.8053079 6.0755973 0.12513375 48 8
2.7791867 4.4355597 -1.2084371 18 1
3.0962429 4.9339256 -1.1322607 10 2
3.9810076 6.341351 0.65506256 1 10
3.4237659 5.449501 -1.019327 12 3
3.9676671 6.3103137 0.91523886 0 11
3.8218522 6.0760579 -0.88135916 28 4
3.9745152 6.3065405 1.4490036 2 13
3.8133225 6.0460892 -0.37462083 24 6
3.9515414 6.2531447 1.9820364 1 15
2.6487236 4.167285 -1.323083 9 0
3.8669467 6.0792561 0.12576205 44 8
2.7661448 4.3469968 -1.1895411 17 1
3.1179512 4.8923225 -1.1276813 14 2
4.0508847 6.353725 0.65924603 1 10
3.4638524 5.4287963 -1.0199529 12 3
4.0073514 6.2757683 0.9142639 0 11
3.8727298 6.0626092 -0.88330907 27 4
3.9951632 6.2422609 1.4406079 2 13
3.8554363 6.0193219 -0.37462083 24 6
4.0138836 6.2546687 1.9913538 1 15
2.6808927 4.1535621 -1.3246359 8 0
3.9223137 6.0722685 0.1261809 48 8
2.7488289 4.2539272 -1.1692957 14 1
3.1605659 4.8836198 -1.1307341 14 2
4.0908122 6.3186002 0.65854877 1 10
3.5048931 5.4094539 -1.0208914 14 3
4.0683436 6.2742896 0.91816372 0 11
3.9387269 6.0720639 -0.88867134 23 4
4.0493407 6.2306809 1.4444242 2 13
3.9322119 6.045836 -0.37797031 25 6
4.0553427 6.2232575 1.9903185 1 15
2.7246501 4.1573653 -1.331883 8 0
3.9799645 6.0681467 0.12666957 49 8
2.9185052 4.4480753 -1.2282327 15 1
3.2269251 4.9106588 -1.1421827 14 2
4.1764174 6.3531504 0.66517264 1 10
3.5186853 5.3485484 -1.0140083 14 3
4.1338797 6.2788949 0.92303848 0 11
3.9941218 6.0643144 -0.8915962 20 4
4.1338301 6.2645278 1.4589256 2 13
3.9985404 6.0549011 -0.3802731 25 6
4.1200104 6.2270169 2.0006714 1 15
2.7429056 4.122159 -1.3267065 12 0
4.0355315 6.0601873 0.12708843 49 8
2.9494874 4.4275918 -1.2282327 19 1
3.2567711 4.8814783 -1.1406562 14 2
4.1697879 6.2476101 0.65715432 1 10
3.5702026 5.3452077 -1.0180756 15 3
4.1798201 6.2531829 0.92352599 0 11
4.0606365 6.0725856 -0.89695841 17 4
4.2263393 6.315618 1.2036068 2 12
4.203692 6.2746587 1.4680845 2 13
4.0429387 6.0301561 -0.38048244 25 6
4.1860003 6.2317805 2.0115416 1 15
2.7899988 4.130125 -1.3355063 10 0
4.1023798 6.0683122 0.12785633 49 8
2.9846931 4.4133501 -1.2300324 21 1
3.3050833 4.8797541 -1.1456172 17 2
4.2513003 6.2744274 0.66308087 1 10
3.6096494 5.3234224 -1.0187013 15 3
4.236752 6.2435589 0.92645079 0 11
4.1040473 6.0457315 -0.89720219 15 4
4.2703304 6.2859569 1.2036068 2 12
4.2672687 6.2743797 1.4749537 2 13
4.1141539 6.0447154 -0.38320392 25 6
4.2905283 6.2991252 1.7595671 3 14
4.2239628 6.1944242 2.0089536 1 15
2.8220437 4.115325 -1.3370593 12 0
4.1582227 6.05931 0.12827519 51 8
3.0132256 4.3891921 -1.2291325 21 1
3.3390675 4.8565631 -1.1456172 14 2
4.3401632 6.3102584 0.6700533 1 10
3.6579235 5.3143663 -1.0218301 12 3
4.2982512 6.2399869 0.93035066 0 11
4.1776958 6.0626993 -0.90402687 11 4
4.3141079 6.2559934 1.2036068 2 12
4.3221192 6.2605939 1.4787698 2 13
4.1721473 6.0388503 -0.3846693 25 6
4.334403 6.2690158 1.7595671 3 14
4.3176847 6.2378516 2.0327649 1 15
2.8242178 4.0574694 -1.3246359 15 0
4.218708 6.0563879 0.12883367 51 8
3.0527074 4.3808398 -1.2327318 20 1
3.3807585 4.8444018 -1.1482886 14 2
4.32024 6.1883211 0.66029191 1 10
3.7096455 5.3097491 -1.0258973 14 3
4.3576345 6.232604 0.93376297 0 11
4.2540493 6.0821881 -0.91133898 11 4
7.4985495 10.705075 -1.1434834 18 5
4.3724804 6.2399139 1.4810596 2 13
4.2233787 6.0226583 -0.38550669 25 6
4.3589039 6.2043967 2.0317297 1 15
2.8725381 4.0660563 -1.3339534 12 0
4.2885923 6.0659761 0.12967138 39 8
3.1034696 4.388061 -1.2408301 17 1
4.4457698 6.2813153 0.40330091 2 9
3.4303832 4.843111 -1.1536313 12 2
4.4140239 6.2295365 0.6679616 2 10
3.744339 5.280499 -1.0252717 14 3
4.4102273 6.2149835 0.93571293 2 11
4.2998543 6.0571971 -0.91207021 12 4
4.4101877 6.2080321 1.2061099 5 12
4.4181004 6.2168717 -0.66726434 9 5
4.4170742 6.2108364 1.4814411 5 13
4.297749 6.038589 -0.38843751 25 6
4.4498105 6.2499352 1.7712647 3 14
4.4500432 6.2456465 -0.13385996 6 7
4.4155712 6.1926904 2.0379412 3 15
2.898603 4.0427628 -1.332918 12 0
4.3344445 6.0431433 0.129811 52 8
3.136301 4.3694539 -1.2417299 18 1
4.4534745 6.2022376 0.40016076 7 9
3.4861805 4.8515372 -1.1612636 10 2
4.4550796 6.195334 0.66761297 6 10
3.7790394 5.2532878 -1.0249587 12 3
4.444314 6.1735406 0.93400675 10 11
4.344358 6.0302525 -0.91255772 11 4
4.4407926 6.1618433 1.2029812 19 12
4.4730492 6.2020359 -0.66900748 9 5
4.4649224 6.1862154 1.4829676 18 13
4.3387527 6.0091953 -0.38843751 25 6
4.4613781 6.1744895 1.7586673 7 14
4.5263462 6.2598 -0.1348373 6 7
4.4666786 6.1750131 2.0420823 15 15
2.9294631 4.027626 -1.334471 13 0
4.4094791 6.0580063 0.13078834 48 8
3.174 4.3590317 -1.2448791 24 1
4.5107803 6.1903653 0.40141684 2 9
3.5222812 4.8302512 -1.1620268 12 2
4.5558534 6.2453489 0.67632854 1 10
3.8272719 5.2427301 -1.0280875 11 3
4.5517106 6.2305231 0.94741231 0 11
4.3689055 5.9781036 -0.90914541 12 4
4.6026454 6.2933249 1.2348938 2 12
4.4136481 6.0238709 -0.3913683 25 6
2.946038 3.9915328 -1.3292947 13 0
4.4694853 6.0512018 0.13131191 36 8
3.2217255 4.3602767 -1.2516277 22 1
3.5687625 4.8229041 -1.1662247 8 2
4.6159391 6.2358108 0.67876893 1 10
3.8696589 5.2238193 -1.0296518 13 3
4.6305594 6.246438 0.95472455 0 11
4.4105344 5.9474573 -0.90914541 13 4
4.6464663 6.2610412 1.2348938 2 12
4.6223798 6.221776 1.5066279 2 13
4.488965 6.0377879 -0.39429915 26 6
4.6658049 6.27107 1.8045573 2 14
4.6043897 6.1817651 2.065376 1 15
2.9830964 3.9832385 -1.3334358 13 0
4.5488014 6.0694547 0.13239396 41 8
3.2497494 4.3345604 -1.2507279 20 1
3.6011648 4.7963028 -1.165843 12 2
4.6856875 6.2384787 0.68260378 1 10
3.938077 5.2393131 -1.0380992 14 3
4.688374 6.232995 0.95764935 0 11
4.4782028 5.9514194 -0.91450763 13 4
4.7209578 6.2694788 1.2430284 2 12
4.6917033 6.2238441 1.5150236 2 13
4.5406294 6.0190573 -0.39513651 13 6
4.696352 6.2142034 2.0871167 1 15
3.028362 3.9853895 -1.3412004 12 0
4.5971127 6.0455108 0.13256848 37 8
3.2704904 4.2993608 -1.2471286 21 1
3.6416998 4.780416 -1.1681327 14 2
4.7943358 6.2911897 0.6920166 1 10
3.9613817 5.1944146 -1.0346577 13 3
4.7486377 6.2222023 0.96106172 0 11
4.5280747 5.9310555 -0.91621375 9 4
4.7334347 6.1955533 1.2348938 2 12
4.7445841 6.2034111 1.5180764 2 13
4.594676 6.0030732 -0.39618322 26 6
4.7529058 6.2053161 1.8045573 2 14
4.7737107 6.2257237 2.1021285 1 15
3.0391068 3.9406705 -1.3334358 15 0
4.6756868 6.0583692 0.13358071 32 8
3.3190355 4.2989855 -1.2538772 23 1
4.8587646 6.2887759 0.41648957 2 9
3.689024 4.7713184 -1.1723305 14 2
4.8319182 6.2472649 0.69097072 1 10
4.0238414 5.1987391 -1.0412279 14 3
4.8392301 6.2477012 0.9703238 0 11
4.6105237 5.950284 -0.92425722 11 4
4.8212214 6.2177238 1.2461572 2 12
4.8129292 6.2003174 1.5257088 2 13
4.6571193 5.9952779 -0.39785796 26 6
4.8737326 6.2696142 1.8333511 2 14
4.8383079 6.2173223 2.1109281 2 15
3.0879714 3.9467444 -1.3427533 13 0
4.7351274 6.0476217 0.13406938 33 8
3.3513725 4.2787757 -1.254777 23 1
3.7234559 4.7469931 -1.1727122 10 2
4.9196916 6.2698073 0.6972459 1 10
4.0819969 5.1984863 -1.0468596 14 3
4.9023538 6.238739 0.97422361 0 11
4.6409111 5.9039059 -0.92206353 9 4
4.8938227 6.2211752 1.2536659 2 12
4.9046812 6.2282648 1.5409735 1 13
4.73842 6.0128169 -0.40120748 26 6
4.9173841 6.235436 1.8333511 2 14
4.9055357 6.2137184 2.1212809 2 15
3.0914309 3.8948257 -1.3324004 13 0
4.8095694 6.0551291 0.13497691 47 8
3.3617654 4.2308631 -1.2475786 26 1
3.7711718 4.7393193 -1.1772915 12 2
4.9881597 6.2664852 0.70073211 1 10
4.1304951 5.1853147 -1.0499883 14 3
4.9581623 6.2198834 0.97666097 0 11
4.7154312 5.9132671 -0.92864448 10 4
4.951921 6.2053862 1.2574203 2 12
4.9406905 6.1846685 1.5386838 1 13
4.8164482 6.0248313 -0.40424296 26 6
4.9995165 6.2426519 2.1430218 2 15
3.1076429 3.859606 -1.3277417 12 0
4.8732529 6.050283 0.1356052 34 8
3.4034498 4.2224627 -1.2520776 23 1
3.8218393 4.7364569 -1.1830158 8 2
5.0367904 6.2377114 0.70142943 1 10
4.2029352 5.203177 -1.0593743 14 3
5.0128613 6.2014313 0.97909838 0 11
4.7590961 5.8832903 -0.92913198 11 4
4.9841018 6.1592541 1.2549174 2 12
4.8549123 5.9953179 -0.67493409 31 5
5.010941 6.1835828 1.5470794 1 13
4.851058 5.984149 -0.4037196 26 6
5.0470867 6.2215252 1.8495475 2 14
4.8573761 5.9833994 -0.13452315 32 7
5.0711212 6.2444673 2.1554451 2 15
3.153389 3.862308 -1.3360239 12 0
4.8710904 5.961915 0.13438353 38 8
3.4185445 4.1826024 -1.2471286 21 1
3.8436191 4.6959882 -1.1795813 12 2
5.1296239 6.2649431 0.70840186 1 10
4.2391553 5.1737103 -1.0593743 14 3
5.118969 6.2430339 0.99128538 0 11
4.8191719 5.875319 -0.93303174 11 4
5.0896478 6.2006502 1.270561 2 12
4.8764148 5.9366446 -0.67214507 40 5
5.1152349 6.225173 1.5661603 1 13
4.8622727 5.9131126 -0.40120748 26 6
5.1721191 6.2854557 1.879241 2 14
4.8763862 5.9239516 -0.13392976 39 7
5.1416121 6.2417188 2.1668332 2 15
3.1901355 3.8521011 -1.3401651 11 0
4.9342828 5.9539394 0.13497691 52 8
3.4787569 4.1961384 -1.2583762 23 1
5.3267107 6.4206161 0.43721461 2 9
3.9064074 4.7052932 -1.1887401 12 2
5.2190599 6.2841597 0.7146771 1 10
4.3105245 5.1865268 -1.0681347 14 3
5.1700449 6.2163019 0.99274784 0 11
4.8651505 5.8476357 -0.93400675 13 4
5.1909533 6.2347984 1.2849529 2 12
4.9700284 5.9652181 -0.67929184 23 5
5.2113628 6.2526517 1.5821884 1 13
5.0083327 6.0047965 -0.40979058 26 6
5.2558355 6.2970676 1.8936379 2 14
5.0073361 5.9972153 -0.1363731 6 7
5.1900196 6.2115984 2.1689036 2 15
3.2219186 3.835654 -1.3422357 12 0
5.0606523 6.0203753 0.13728063 20 8
3.501694 4.1642938 -1.2561266 21 1
3.9341047 4.6718974 -1.1872137 19 2
5.27564 6.2628083 0.71642017 1 10
4.3899188 5.2076569 -1.0787722 13 3
5.2440333 6.2164745 0.99859744 0 11
4.8840952 5.787735 -0.92986321 9 4
5.2827811 6.2557597 1.2968419 2 12
5.2878385 6.2551017 1.5921104 1 13
5.0681906 5.9910326 -0.41125599 27 6
5.324852 6.289968 1.9026359 2 14
5.2345066 6.1766872 2.1694212 1 15
3.2448599 3.808656 -1.3406827 13 0
5.1401825 6.0290279 0.13829286 20 8
3.588851 4.2079511 -1.2768222 21 1
3.9793732 4.6592488 -1.1910298 12 2
5.3554721 6.268239 0.7213009 1 10
4.4415698 5.1949019 -1.0825267 13 3
5.3234396 6.2219467 1.0054221 0 11
4.9785929 5.8168402 -0.94010019 9 4
5.3263259 6.2187266 1.2968419 2 12
5.3416014 6.2299562 1.5951633 1 13
5.1645193 6.0191646 -0.41565222 27 6
5.3990993 6.2881279 1.9134337 2 14
5.3455009 6.2191062 2.1973739 1 15
3.2587392 3.771292 -1.3355063 14 0
5.2056918 6.0202231 0.13892116 15 8
3.6257899 4.1916366 -1.2795216 20 1
5.4600067 6.3076534 0.43721461 2 9
4.0298004 4.6521297 -1.1963725 12 2
5.4304166 6.2668357 0.72548437 1 10
4.4751401 5.1607819 -1.081901 13 3
5.3823595 6.2026219 1.008347 0 11
5.0711317 5.8419042 -0.94984972 9 4
5.3696113 6.1813898 1.2968419 2 12
5.4571075 6.2754745 1.6165339 1 13
5.2142787 5.9920053 -0.41628024 27 6
5.4955153 6.312964 1.9323295 2 14
5.3811679 6.1729007 2.194268 1 15
3.307905 3.7746034 -1.3448237 14 0
5.2742319 6.0162268 0.13965416 10 8
3.6266894 4.1339955 -1.2696238 22 1
4.0691433 4.6334443 -1.1986622 12 2
5.4740348 6.2287717 0.72548437 1 10
4.4997306 5.1183324 -1.0793979 16 3
5.4611683 6.2075729 1.0151716 1 11
5.1288452 5.8257284 -0.95301831 10 4
5.5107846 6.2573624 1.3206199 2 12
5.5319548 6.2725606 1.6256927 1 13
5.2853346 5.9908209 -0.41868767 27 6
5.5755701 6.3153467 1.944927 2 14
3.3771489 3.8011005 -1.3624235 16 0
5.3559628 6.0240951 0.14070129 5 8
3.6858292 4.1441588 -1.2804214 18 1
5.6792388 6.3809676 0.44768184 2 9
4.1405668 4.6489038 -1.2101108 14 2
5.5693192 6.2508726 0.73245686 1 10
4.6023984 5.1619902 -1.0953542 12 3
5.5598788 6.2315078 1.0254087 0 11
5.1948175 5.820302 -0.95789313 11 4
5.585917 6.2540965 1.3281288 2 12
5.6268625 6.2933044 1.6409575 1 13
5.3643227 5.9954505 -0.42161852 27 6
5.6418195 6.3033881 1.953025 2 14
3.4061878 3.7803028 -1.3634588 16 0
5.5548286 6.1627684 0.14482006 5 8
3.738163 4.1443748 -1.2885196 18 1
5.7225442 6.3421593 0.44768184 2 9
4.1852698 4.6351852 -1.2139269 14 2
5.6154971 6.2147932 0.73280543 1 10
4.6413999 5.1349416 -1.0962929 16 3
5.6128201 6.205296 1.0273587 0 11
5.2646317 5.8162718 -0.96325535 10 4
5.6707864 6.2627873 1.3381406 2 12
5.7339582 6.3236818 1.6592751 1 13
5.419765 5.9750724 -0.42276987 27 6
5.7747488 6.3619709 1.9836185 2 14
3.4370539 3.7627339 -1.3655293 16 0
3.7702332 4.1231465 -1.2898693 23 1
5.8529692 6.396359 0.45438081 2 9
4.2466965 4.6377082 -1.2223225 12 2
5.708807 6.2322574 0.7394293 1 10
4.7358665 5.1664844 -1.110059 13 3
5.6560044 6.1659598 1.0273587 0 11
5.3279262 5.8042388 -0.96739888 9 4
5.7571235 6.2696037 1.3481523 2 12
5.6943226 6.1968751 -0.73629165 10 5
5.8125196 6.3210678 1.6691971 2 13
5.5140781 5.9944201 -0.42685208 27 6
5.8190265 6.3214974 1.9836185 2 14
3.4612653 3.7352085 -1.3644941 16 0
3.8526533 4.1532092 -1.3078654 25 1
4.2656131 4.5935588 -1.2185063 14 2
5.7993698 6.2408695 0.74535584 1 10
4.7619543 5.1208906 -1.1075561 13 3
5.7800331 6.2135334 1.0419829 1 11
5.3967214 5.7974148 -0.97251743 12 4
5.8233843 6.2513733 1.3531584 2 12
5.8886418 6.3147945 1.6783561 2 13
5.5922637 5.9927726 -0.42957357 40 6
5.9295053 6.3519444 2.0061135 2 14
3.4978395 3.7222171 -1.3686352 16 0
3.9042513 4.1503434 -1.3155137 17 1
4.3226037 4.5886426 -1.2253754 12 2
5.850997 6.208931 0.74640173 1 10
4.8219852 5.1133871 -1.1131878 13 3
5.8679485 6.2182107 1.0497826 0 11
5.4888477 5.8144479 -0.98177958 11 4
5.9618402 6.3110838 1.375059 2 12
5.9568653 6.2992072 1.6852252 1 13
5.6490626 5.9695454 -0.43072498 26 6
6.0406914 6.3811545 2.0286086 2 14
3.5317366 3.7060986 -1.3717409 16 0
3.9358215 4.1258054 -1.3164135 21 1
4.3835669 4.5903492 -1.233771 10 2
5.9410019 6.2169056 0.75232834 1 10
4.9044523 5.1304255 -1.1241382 11 3
5.921113 6.1896019 1.0517325 0 11
5.5210705 5.7673831 -0.98031712 11 4
6.0046577 6.270359 1.375059 2 12
6.0441775 6.302814 1.697437 1 13
5.7365775 5.9799566 -0.43428379 26 6
6.1228766 6.3781924 2.0412059 2 14
3.5568798 3.6819744 -1.3717409 13 0
3.9651663 4.1003222 -1.3168634 25 1
6.0792871 6.2821088 0.45814902 2 9
4.4237013 4.5680966 -1.2360607 12 2
6.0275431 6.222116 0.75790632 1 10
4.9167762 5.0719495 -1.1188195 12 3
6.0194712 6.2051044 1.0614821 0 11
5.5767865 5.7467661 -0.98324198 11 4
6.0758133 6.2566261 1.3813165 2 12
5.9789901 6.1526294 -0.75058526 10 5
6.1389437 6.3150163 1.7119384 1 13
5.8074288 5.9698286 -0.43648189 39 6
6.2134724 6.3827677 2.0565026 2 14
3.6203527 3.6956921 -1.3862349 13 0
4.001884 4.0808864 -1.3195629 24 1
4.4444785 4.525898 -1.2330078 12 2
6.1015515 6.2111535 0.76174122 1 10
4.9576015 5.0431371 -1.1200709 15 3
6.1266785 6.2280288 1.0726941 0 11
5.6501842 5.741653 -0.98909163 10 4
6.1997313 6.2956934 1.3994628 2 12
6.100112 6.1902084 -0.76034665 10 5
6.2435212 6.3335247 1.7287296 1 13
5.8910441 5.9717956 -0.43962207 39 6
6.2414556 6.3225884 2.0511036 2 14
3.676018 3.7004788 -1.3976228 14 0
4.031651 4.0542307 -1.3200128 22 1
6.3072863 6.338191 0.46861619 2 9
4.4704275 4.489193 -1.2314813 12 2
6.1588235 6.1825237 0.7634843 1 10
4.9996643 5.0153966 -1.1216353 19 3
6.2036562 6.2188344 1.0785438 0 11
5.7055583 5.7175212 -0.99177283 9 4
6.3272824 6.3361244 1.4182349 2 12
6.0586791 6.0629115 -0.74988794 10 5
6.3431053 6.3453212 1.7439942 1 13
5.9905047 5.9884157 -0.44391361 26 6
6.3185291 6.3119178 2.0619013 2 14
3.6935346 3.6665611 -1.3945172 14 0
4.028029 3.9944272 -1.3096651 25 1
6.3513818 6.2940035 0.46861619 2 9
4.5323491 4.488265 -1.2398769 14 2
6.255641 6.1926398 0.7701081 1 10
5.0331521 4.9789805 -1.1213224 15 3
6.3400946 6.2674799 1.0946305 0 11
5.7354507 5.6677818 -0.99006665 13 4
6.4079065 6.3278847 1.4263695 2 12
6.4347696 6.3477607 1.7569693 1 13
6.0492334 5.963274 -0.44516969 26 6
6.3985362 6.3032098 2.0735989 2 14
3.732847 3.6542001 -1.3996935 14 0
4.0822887 3.9920964 -1.3182131 21 1
6.5008755 6.3528037 0.4763619 2 9
4.5972834 4.4894342 -1.2490358 12 2
6.341496 6.190567 0.77533752 1 10
5.0904131 4.9657912 -1.1263282 13 3
6.4178076 6.2563248 1.1004803 0 11
5.8786621 5.7287388 -1.0078596 9 4
6.5141935 6.343637 1.4401358 2 12
6.3187242 6.1511312 -0.77150261 10 5
6.5464735 6.3683972 1.775287 1 13
6.1408415 5.9696231 -0.4488332 39 6
6.413342 6.2323484 2.0646007 2 14
3.8110828 3.6790366 -1.4193637 14 0
4.1886134 4.0392523 -1.3434076 16 1
6.5813498 6.344449 0.47908339 2 9
4.6475306 4.4771061 -1.2543784 12 2
6.4477162 6.2069416 0.78300714 1 10
5.1297898 4.9365058 -1.1275797 16 3
6.5260663 6.2757859 1.1116923 0 11
