# .PCD v0.7 - Point Cloud Data file format
VERSION 0.7
FIELDS x y z intensity ring
SIZE 4 4 4 4 2
TYPE F F F F U
COUNT 1 1 1 1 1
WIDTH 1316
HEIGHT 1
VIEWPOINT 0 0 0 1 0 0 0
POINTS 1316
DATA ascii
-0.32134297 4.1198158 0.21656621 3 9
-0.28603703 3.6837564 -0.71820509 31 2
-0.31671485 4.0880876 0.35873303 2 10
-0.72118783 9.3513212 -1.4855019 2 3
-0.31681404 4.1267743 0.50819516 1 11
-0.91159344 11.901501 -1.4656008 2 4
-0.31341371 4.1106811 0.65295756 2 12
-0.27697048 3.6495247 -0.32021019 33 5
-0.31394637 4.1463041 0.80826694 2 13
-0.27588201 3.6605809 -0.19238698 33 6
-0.30996755 4.1417851 -0.072497301 2 7
-0.30810177 4.1362262 1.111369 1 15
-0.29491892 4.1042619 -1.1025692 2 0
-0.29452053 4.118855 0.072078437 2 8
-0.45699814 6.4067698 -1.4828774 3 1
-0.29313904 4.1299281 0.21698491 3 9
-0.25892943 3.6660798 -0.71438891 35 2
-0.28956714 4.1100736 0.36047614 2 10
-0.65699083 9.371892 -1.4880048 3 3
-0.28716919 4.1170039 0.50673276 1 11
-0.82572734 11.867969 -1.4607261 2 4
-0.28388765 4.100945 0.65108031 2 12
-0.25203457 3.6593199 -0.32090744 28 5
-0.28391364 4.1327262 0.80521399 2 13
-0.24964042 3.6524546 -0.19186363 28 6
-0.27908507 4.1043129 0.94974333 4 14
-0.28104684 4.1438479 -0.072497301 2 7
-0.27895787 4.1344218 1.1103338 1 15
-0.26588163 4.1004372 -1.1010163 4 0
-0.26472872 4.1048465 0.071799204 2 8
-0.26028678 4.0469666 -0.93624628 3 1
-0.26327959 4.1159282 0.21614751 2 9
-0.23283222 3.6599607 -0.71286243 37 2
-0.26162323 4.1239257 0.36152202 2 10
-0.59105361 9.3683643 -1.4867533 3 3
-0.25841814 4.1189084 0.50673276 1 11
-0.74261093 11.86948 -1.4602386 2 4
-0.25500736 4.0988832 0.65045458 2 12
-0.22475928 3.6331501 -0.31846708 33 5
-0.25457332 4.1267691 0.80368757 2 13
-0.22450222 3.6600888 -0.19217765 33 6
-0.26228765 4.300674 0.99473363 4 14
-0.25211048 4.1457086 -0.072497301 2 7
-0.24775355 4.0977015 1.099981 1 15
-0.23591018 4.0790501 -1.0948045 3 0
-0.23514891 4.0906224 0.071519956 1 8
-0.23225029 4.0525765 -0.93714613 3 1
-0.2356763 4.1376057 0.21719423 3 9
-0.20683137 3.6536567 -0.71133596 37 2
-0.2319303 4.1097374 0.36012751 2 10
-0.22808325 4.0668364 -0.64513582 3 3
-0.22788902 4.0889001 0.50283301 1 11
-0.65410656 11.773292 -1.4478079 2 4
-0.22703888 4.1123981 0.65233177 2 12
-0.19949876 3.63662 -0.31864139 36 5
-0.22532801 4.120604 0.80216104 2 13
-0.19894452 3.661567 -0.19217765 32 6
-0.22175227 4.1078095 0.94974333 4 14
-0.22316185 4.147368 -0.072497301 2 7
-0.21872963 4.0916152 1.0979104 1 15
-0.20713502 4.0748091 -1.0932516 2 0
-0.20658524 4.0921645 0.071519956 2 8
-0.20326883 4.0404749 -0.93399686 3 1
-0.20499086 4.1032448 0.21531016 4 9
-0.18131725 3.6550117 -0.71133596 36 2
-0.20264305 4.0993171 0.35908166 2 10
-0.19910477 4.0564914 -0.64325857 3 3
-0.20030379 4.1102185 0.50527036 1 11
-0.57324547 11.80533 -1.4512203 2 4
-0.19604056 4.0665293 0.64482296 1 12
-0.17464481 3.6359036 -0.31846708 33 5
-0.19749038 4.1416874 0.80597723 2 13
-0.17224392 3.6389265 -0.19092159 35 6
-0.19378611 4.1092238 0.94974333 4 14
-0.19420232 4.1488247 -0.072497301 2 7
-0.19132495 4.1181297 1.1046398 1 15
-0.17859785 4.0742264 -1.092734 3 0
-0.17802812 4.0774941 0.071240723 2 8
-0.17505606 4.0417953 -0.93399686 3 1
-0.17602326 4.0806003 0.21405408 4 9
-0.15610017 3.6483154 -0.70980954 36 2
-0.17258146 4.0667915 0.35611835 2 10
-0.17115673 4.0498576 -0.64200711 2 3
-0.17315301 4.131321 0.50770777 1 11
-0.49081475 11.809045 -1.4512203 2 4
-0.16982633 4.1032953 0.65045458 2 12
-0.14950225 3.6430063 -0.31898999 34 5
-0.17016944 4.182198 0.81360966 2 13
-0.1474705 3.6400144 -0.19092159 32 6
-0.16509555 4.1104765 0.94974333 4 14
-0.16523333 4.1500793 -0.072497301 2 7
-0.16214345 4.0903816 1.0968752 1 15
-0.15107568 4.0811391 -1.0942869 2 0
-0.15131614 4.1265979 0.072078437 2 8
-0.14633211 4.0097866 -0.92634839 3 1
-0.14767528 4.0857215 0.21426344 2 9
-0.13020495 3.6375442 -0.70751977 36 2
-0.14581959 4.0937562 0.3583844 2 10
-0.32614341 9.2469149 -1.4654782 3 3
-0.14349812 4.088758 0.5023455 1 11
-0.4087728 11.764499 -1.4453706 3 4
-0.13859536 4.0293612 0.6385656 1 12
-0.12408829 3.6260188 -0.3174212 33 5
-0.13956936 4.120471 0.80139786 2 13
-0.12205655 3.6409554 -0.19092159 35 6
-0.13892922 4.1660395 0.96234065 4 14
-0.13698272 4.1511083 -0.072497301 2 7
-0.13492911 4.1106987 1.1020516 1 15
-0.12259281 4.0589008 -1.0880753 2 0
-0.1216703 4.0755634 0.071170911 2 8
-0.19083743 6.4299603 -1.4851269 3 1
-0.1192737 4.0666685 0.21321672 2 9
-0.10555565 3.642271 -0.70828301 34 2
-0.11726048 4.070756 0.35629267 1 10
-0.26308161 9.2449722 -1.4648525 3 3
-0.11745732 4.1531377 0.51014513 1 11
-0.32868478 11.767009 -1.4453706 3 4
-0.11214744 4.0657544 0.64419717 1 12
-0.099569336 3.6327543 -0.31794414 34 5
-0.11130848 4.1134758 0.79987139 2 13
-0.097268745 3.6417019 -0.19092159 43 6
-0.10912319 4.1123428 0.94974333 4 14
-0.10872182 4.1519442 -0.072497301 2 7
-0.10609327 4.078691 1.0932516 2 15
-0.095639519 4.0886121 -1.0958399 3 0
-0.094757065 4.1122823 0.071799204 2 8
-0.09164311 4.0075111 -0.92544866 3 1
-0.091861658 4.0793657 0.21384473 3 9
-0.080545165 3.633091 -0.70637494 41 2
-0.089112766 4.0515404 0.35454956 2 10
-0.20083529 9.2781477 -1.4698585 3 3
-0.087616757 4.1141639 0.50527036 1 11
-0.2455714 11.723369 -1.4397645 2 4
-0.084552132 4.0703735 0.64482296 1 12
-0.073880039 3.617425 -0.31654966 54 5
-0.082271099 4.0984497 0.79681838 2 13
-0.072320953 3.6342919 -0.1905029 49 6
-0.081475534 4.1675591 0.96234065 4 14
-0.079044104 4.1166143 -0.071869008 2 7
-0.077393621 4.0677438 1.0901459 2 15
-0.066128798 4.0737386 -1.0916989 3 0
-0.065533832 4.080852 0.071240723 2 8
-0.062871851 4.0022182 -0.92409897 4 1
-0.062484007 4.0679374 0.21321672 3 9
-0.055177711 3.6335649 -0.70637494 41 2
-0.060354792 4.0680118 0.35594404 2 10
-0.13695091 9.4531612 -1.4973909 3 3
-0.058608253 4.0948267 0.50283301 1 11
-0.056319755 4.0333147 -0.49527705 3 4
-0.055423047 4.0708747 0.64482296 1 12
-0.04851675 3.6098838 -0.3158524 49 5
-0.053504284 4.0871453 0.79452866 2 13
-0.046261813 3.6307223 -0.19029355 52 6
-0.05169481 4.1134658 0.94974333 4 14
-0.048375241 4.0759201 1.0922165 2 15
-0.037562039 4.0605783 -1.0880753 2 0
-0.036579456 4.109211 0.071729392 1 8
-0.034980584 4.0084062 -0.92544866 3 1
-0.033982534 4.0562906 0.21258868 3 9
-0.029112065 3.6260142 -0.70484847 39 2
-0.031984538 4.072319 0.35629267 2 10
-0.030420737 4.053359 -0.64200711 3 3
-0.029361671 4.1030807 0.5038079 1 11
-0.02724039 4.001853 -0.4913772 3 4
-0.02658239 4.0079513 0.6348111 1 12
-0.022658741 3.606154 -0.31550378 49 5
-0.024488989 4.126688 0.80216104 2 13
-0.020867454 3.622968 -0.18987487 52 6
-0.022258211 4.1137304 0.94974333 4 14
-0.021022655 4.1533141 -0.072497301 2 7
-0.019958485 4.0838857 1.0942869 2 15
-0.0081441766 3.8888087 -1.0420054 3 0
-0.0078678224 4.0973682 0.071519956 2 8
-0.0057758521 3.6772683 -0.84896529 5 1
-0.0049652793 4.0644188 0.21300736 3 9
-0.0037846677 3.6143494 -0.70255876 39 2
-0.0028345368 4.0604887 0.35524681 2 10
-0.0012379112 3.5418503 -0.56097406 13 3
-0.00071050617 4.0714245 0.49990809 1 11
0.00060535135 3.4778819 -0.42703021 21 4
0.0021109367 4.0317435 0.6385656 1 12
0.0024563118 3.518559 -0.30783406 43 5
0.0042719822 4.0796404 0.79300219 2 13
0.004902279 3.5111783 -0.18401325 49 6
0.006461584 4.1137853 0.94974333 4 14
0.0067987447 3.5414543 -0.06181642 6 7
0.0092831673 4.0916514 1.0963575 2 15
0.019081097 4.0493388 0.07068225 1 8
0.021300849 4.0683613 0.21321672 3 9
0.019638535 3.516134 -0.68347788 39 2
0.02390665 4.0285406 0.35245782 2 10
0.021310415 3.4884503 -0.55252659 22 3
0.026061585 4.0356083 0.49552077 1 11
0.023698645 3.4817712 -0.42751768 35 4
0.027926277 4.0000405 0.63355964 1 12
0.025556983 3.486588 -0.3050451 48 5
0.03147997 4.099154 0.79681838 2 13
0.02826946 3.5210545 -0.18453661 68 6
0.033745214 4.1136522 0.94974333 4 14
0.030354913 3.5493295 -0.061956044 6 7
0.036056906 4.0509324 1.0854871 1 15
0.04074591 3.5369859 -0.94779539 38 0
0.048199397 4.0610957 0.070891678 2 8
0.042266108 3.5094266 -0.81027371 36 1
0.050016843 4.0361509 0.21154197 2 9
0.0447472 3.511977 -0.68271458 39 2
0.053124804 4.0581498 0.3550725 2 10
0.046375785 3.4961095 -0.55377805 31 3
0.055857871 4.1028056 0.5038079 1 11
0.049028751 3.5112863 -0.43117377 55 4
0.056046531 3.9641852 0.62792808 1 12
0.050505776 3.486316 -0.3050451 48 5
0.06022954 4.0595632 0.78918606 2 13
0.053343512 3.5127738 -0.18411791 56 6
0.063180961 4.1133051 0.94974333 4 14
0.056066655 3.5690162 -0.062305093 9 7
0.065167852 4.0582972 1.0875577 1 15
0.066271409 3.5481927 -0.95090121 42 0
0.077639081 4.0806398 0.071240723 2 8
0.067303076 3.5051377 -0.80937392 61 1
0.079287976 4.0556583 0.21258868 3 9
0.069720946 3.5037153 -0.68118817 39 2
0.081172898 4.0437365 0.35385233 2 10
0.071916528 3.5213625 -0.55784535 55 3
0.084061086 4.04673 0.4969832 1 11
0.073208369 3.4949811 -0.42922387 43 4
0.086346865 4.0545297 0.64232004 1 12
0.075014688 3.4938459 -0.30574232 49 5
0.089511395 4.1022253 0.79758167 2 13
0.077510193 3.4963417 -0.18328053 45 6
0.091895714 4.1127639 0.94974333 4 14
0.081161477 3.5765345 -0.062444709 7 7
0.093856484 4.0731945 1.0916989 1 15
0.091435619 3.5630932 -0.9550423 20 0
0.10561997 4.0880132 0.07138034 2 8
0.092790477 3.5435438 -0.81837195 20 1
0.10647114 4.039052 0.2117513 3 9
0.094826475 3.5502613 -0.69034702 26 2
0.10897038 4.0271378 0.35245782 2 10
0.097013369 3.562259 -0.56441563 17 3
0.11160249 4.0460644 0.4969832 1 11
0.10049006 3.5975695 -0.44189829 6 4
0.11305328 4.0222545 0.63731414 1 12
0.1015031 3.5669258 -0.31219187 42 5
0.11803313 4.0975757 0.79681838 2 13
0.10408613 3.5915613 -0.1883048 51 6
0.12060402 4.1120224 0.94974333 4 14
0.12128954 4.0628061 1.0891106 1 15
0.13079816 4.0277195 -1.0797932 3 0
0.13297626 4.0512009 0.070752062 1 8
0.13559841 4.0661569 0.21321672 3 9
0.12086592 3.5867932 -0.69759774 37 2
0.13840321 4.08604 0.35768715 2 10
0.31402409 9.1761808 -1.4542149 4 3
0.13984662 4.0451865 0.4969832 1 11
0.40442476 11.639513 -1.430015 2 4
0.140854 4.0134697 0.63606256 1 12
0.12675366 3.576086 -0.31306344 57 5
0.14494531 4.0692091 0.79147577 2 13
0.12901211 3.5867553 -0.18809544 40 6
0.1493084 4.1110802 0.94974333 4 14
0.1485834 4.0329018 1.0813459 1 15
0.15822621 4.009335 -1.0751344 3 0
0.16252859 4.0821433 0.071310528 1 8
0.25859484 6.4665976 -1.4941249 3 1
0.16237219 4.025198 0.21112327 2 9
0.14598334 3.5878236 -0.69797933 42 2
0.16578689 4.0571036 0.35524681 2 10
0.38539907 9.3513975 -1.4823732 3 3
0.1689083 4.0639458 0.49942058 1 11
0.48153499 11.537237 -1.4178281 2 4
0.1683715 4.0005474 0.63418543 3 12
0.1512095 3.5631702 -0.31201756 58 5
0.17401689 4.0837893 0.79452866 2 13
0.15387779 3.5817764 -0.1878861 40 6
0.17800552 4.1099372 0.94974333 4 14
0.1804422 4.149446 -0.072497301 2 7
0.1780038 4.0607166 1.0891106 2 15
0.18755953 4.0370793 -1.0828989 2 0
0.18952735 4.0489497 0.070752062 1 8
0.30382541 6.4665818 -1.4945749 3 1
0.19084714 4.0319467 0.21154197 2 9
0.17083877 3.5827951 -0.69721615 41 2
0.19201143 4.0120654 0.35141194 2 10
0.16151078 3.3502991 -0.53125149 1 3
0.19515772 4.0190468 0.49405837 1 11
0.56361437 11.565318 -1.4217279 2 4
0.19687751 4.0111117 0.63606256 1 12
0.17545977 3.5620582 -0.31201756 57 5
0.2021338 4.0746322 0.79300219 2 13
0.17927818 3.588594 -0.1883048 32 6
0.2059769 4.1086307 0.94974333 4 14
0.20940641 4.1480851 -0.072497301 2 7
0.20527172 4.0381522 1.0834166 1 15
0.21326406 3.989373 -1.0704756 2 0
0.21751174 4.055553 0.070891678 1 8
0.18046923 3.3430679 -0.77293181 2 1
0.21763928 4.0185876 0.21091393 2 9
0.1779134 3.2639735 -0.63539398 21 2
0.21957779 4.0026693 0.35071471 2 10
0.18235961 3.3136189 -0.52561986 1 3
0.22382538 4.04141 0.4969832 1 11
0.64345807 11.545246 -1.419778 2 4
0.22196852 3.9702332 0.62980521 3 12
0.2006591 3.5667145 -0.3125405 34 5
0.23101899 4.0809617 0.79452866 2 13
0.20256855 3.5673499 -0.18725806 22 6
0.23465554 4.1070924 0.94974333 4 14
0.23836237 4.146522 -0.072497301 2 7
0.23297432 4.0405183 1.0844518 1 15
0.19518951 3.2377009 -0.8691144 12 0
0.24606156 4.0579271 0.070961483 1 8
0.39200696 6.4462166 -1.4909756 2 1
0.24593291 4.0209579 0.21112327 2 9
0.21998027 3.5761797 -0.69645286 42 2
0.24681996 4.0010815 0.35071471 2 10
0.24903068 4.0141501 -0.63700122 3 3
0.25327229 4.0595613 0.49942058 1 11
0.71991658 11.506918 -1.4156344 3 4
0.25315544 4.0237885 0.6385656 3 12
0.22417079 3.543354 -0.31062305 45 5
0.25879192 4.0792947 0.79452866 2 13
0.22759557 3.5678418 -0.18736275 20 6
0.26332077 4.1053543 0.94974333 4 14
0.26017752 4.0233707 1.0803107 1 15
0.27019414 4.014966 -1.0782403 3 0
0.27195397 4.0201983 0.070333198 2 8
0.2690064 3.9663184 -0.91780037 3 1
0.27508333 4.0350842 0.21196064 3 9
0.24494134 3.5745568 -0.69645286 38 2
0.27692974 4.0310645 0.3535037 2 10
0.27514359 3.984724 -0.63262105 3 3
0.28050774 4.0418515 0.49747071 1 11
0.79968143 11.49369 -1.4146595 3 4
0.2765556 3.9549239 0.62792808 1 12
0.24973896 3.5536277 -0.31166893 45 5
0.28588471 4.0578046 0.79071248 2 13
0.2533429 3.5781198 -0.18799078 26 6
0.29197708 4.103416 0.94974333 4 14
0.28922841 4.0349445 1.0839342 2 15
0.296211 3.9860101 -1.0709932 3 0
0.30358699 4.0660615 0.071170911 1 8
0.47557357 6.35461 -1.47118 3 1
0.30324683 4.0330653 0.21196064 3 9
0.26915276 3.5629714 -0.69454479 36 2
0.30115399 3.9773791 0.34897158 2 10
0.30355674 3.9905844 -0.63387251 3 3
0.30780882 4.0279188 0.49600828 1 11
0.8820309 11.515537 -1.4180719 3 4
0.3065823 3.9844096 0.63293391 1 12
0.27223846 3.5299938 -0.30975151 42 5
0.31268823 4.0361366 0.78689629 2 13
0.27800679 3.5722814 -0.18778142 31 6
0.31717375 4.0663624 0.94164515 4 14
0.32442239 4.1406775 -0.072497301 2 7
0.31405598 3.9904573 1.0725461 2 15
0.32591081 4.0069513 -1.0772049 3 0
0.32833254 4.0280256 0.070542626 2 8
0.51388353 6.2773294 -1.4540836 3 1
0.32971218 4.0189643 0.2113326 3 9
0.29307485 3.5571437 -0.69378155 36 2
0.33318561 4.0268054 0.3535037 2 10
0.33071089 3.988426 -0.63387251 3 3
0.33390117 4.0099044 0.49405837 1 11
0.96372086 11.524925 -1.4200217 3 4
0.33633739 4.0137258 0.63793981 1 12
0.29720998 3.5319781 -0.31010011 37 5
0.33854392 4.0064673 0.78155369 2 13
0.30046418 3.5484149 -0.18663004 30 6
0.34555265 4.0640492 0.94164515 4 14
0.34285581 4.0074759 1.0777225 2 15
0.35097143 3.9796228 -1.0704756 2 0
0.35432899 4.0017319 0.070123769 2 8
0.54488951 6.1416903 -1.4234902 2 1
0.35811624 4.0205431 0.21154197 3 9
0.31825098 3.5589218 -0.69454479 36 2
0.35987636 4.0165067 0.35280645 2 10
0.35713154 3.9702806 -0.63136959 3 3
0.36581516 4.0509706 0.49942058 1 11
1.0425041 11.522052 -1.4205091 3 4
0.35970432 3.9601305 0.62980521 3 12
0.32276353 3.5397379 -0.31097168 43 5
0.37081048 4.0588131 0.79223901 2 13
0.32468057 3.5402639 -0.18631603 20 6
0.3710582 4.0304894 0.93444669 4 14
0.37100494 4.0069079 1.0782403 1 15
0.37966165 3.9866917 -1.0730639 2 0
0.38301876 4.007123 0.070263386 2 8
0.60521501 6.3200841 -1.4657811 3 1
0.38464749 4.0020399 0.21070457 3 9
0.34308749 3.5566134 -0.69454479 36 2
0.39116621 4.0476098 0.35576975 2 10
0.3878938 3.9991491 -0.63637549 2 3
0.3913947 4.0206575 0.49600828 1 11
1.1244648 11.530298 -1.4224591 3 4
0.39080417 3.9929113 0.63543689 3 12
0.34727293 3.5354156 -0.31079736 37 5
0.40028888 4.0678482 0.79452866 2 13
0.35017344 3.5458612 -0.18673471 19 6
0.40572381 4.0937343 0.94974333 4 14
0.39858633 4.0003753 1.0772049 1 15
0.40709159 3.9801002 -1.0720285 2 0
0.41343254 4.028223 0.07068225 2 8
0.40497968 3.9390767 -0.91420108 2 1
0.41339561 4.007205 0.21112327 2 9
0.36669779 3.5424147 -0.69225508 35 2
0.41222006 3.9754183 0.34966883 2 10
0.41539288 3.9924138 -0.63574976 2 3
0.41945463 4.017827 0.49600828 1 11
1.2117419 11.587321 -1.4305025 2 4
0.41413531 3.9468644 0.62855375 3 12
0.37152743 3.5289426 -0.31044877 40 5
0.42497197 4.0298114 0.78765959 2 13
0.37492141 3.5433302 -0.18673471 22 6
0.42691252 4.0013375 1.0782403 1 15
0.4319264 3.9502757 -1.0647817 2 0
0.44241691 4.0331893 0.070821866 1 8
0.68509549 6.2354712 -1.4482349 3 1
0.44180059 4.0081911 0.2113326 2 9
0.39055642 3.5319626 -0.6907286 35 2
0.44259754 3.9962072 0.35176057 2 10
0.44020113 3.9619305 -0.63136959 2 3
0.44397384 3.9832346 0.49210843 1 11
1.2956905 11.606199 -1.4339148 2 4
0.44475552 3.9713604 0.63293391 3 12
0.39526695 3.5183425 -0.30975151 39 5
0.45353395 4.0306473 0.78842276 2 13
0.39964768 3.5406265 -0.18673471 22 6
0.46284023 4.0876708 0.94974333 4 14
0.46801326 4.126915 -0.072497301 2 7
0.4546183 3.99634 1.0777225 2 15
0.45860052 3.9394886 -1.0627111 2 0
0.46963736 4.022058 0.07068225 1 8
0.46220034 3.952394 -0.9187001 2 1
0.46884158 3.9970744 0.21091393 2 9
0.41566175 3.5330496 -0.69149184 36 2
0.46582261 3.9534457 0.34827435 2 10
1.1114289 9.4045095 -1.4998938 2 3
0.47504255 4.0076365 0.49552077 1 11
1.3769194 11.598842 -1.4341586 3 4
0.47153774 3.9603126 0.63168246 1 12
0.42076504 3.523411 -0.31044877 37 5
0.48119596 4.0234847 0.78765959 2 13
0.42388046 3.5337842 -0.18652536 24 6
0.48531437 4.0340352 0.93804586 4 14
0.49681315 4.1235471 -0.072497301 2 7
0.4836657 4.0026584 1.0803107 1 15
0.4884617 3.9553633 -1.0678874 3 0
0.49770328 4.018681 0.07068225 1 8
0.78096783 6.2968531 -1.4648812 2 1
0.49870521 4.0095596 0.2117513 1 9
0.44250399 3.5475955 -0.69492638 39 2
0.5008201 4.009408 0.3535037 1 10
0.49645609 3.9632385 -0.63262105 2 3
0.50103211 3.9884653 0.49357089 1 11
1.4625632 11.626369 -1.4387896 2 4
0.49769095 3.9451647 0.62980521 1 12
0.44335237 3.5045745 -0.30905426 40 5
0.50976682 4.023922 0.78842276 2 13
0.44803718 3.5267761 -0.18631603 21 6
0.51346356 4.030549 0.93804586 4 14
0.51061726 3.9915195 1.0782403 1 15
0.51681197 3.9576037 -1.0694402 2 0
0.52366984 3.9992468 0.07040301 1 8
0.81933546 6.2487392 -1.4549835 3 1
0.53033 4.0337038 0.21321672 2 9
0.46495071 3.5269017 -0.69149184 37 2
0.52671093 3.9900122 0.35210916 1 10
1.2348572 9.3293247 -1.4905078 2 3
0.52729756 3.973063 0.49210843 1 11
1.5455309 11.629648 -1.4404957 3 4
0.52261215 3.9220135 0.6266765 1 12
0.46912563 3.5112684 -0.30992582 43 5
0.54201204 4.0513997 0.79452866 2 13
0.47264612 3.5235624 -0.18631603 22 6
0.53587687 3.9843764 0.92814809 4 14
0.53924638 3.9936006 1.0797932 2 15
0.54284763 3.9424167 -1.0663346 2 0
0.55759329 4.039073 0.071170911 1 8
0.87094188 6.3007789 -1.4684805 3 1
0.54970425 3.9665959 0.20986721 2 9
0.4901039 3.5274589 -0.69225508 37 2
0.54961205 3.950717 0.34897158 2 10
1.3021412 9.3361292 -1.4930108 2 3
0.5643667 4.036129 0.5003956 1 11
1.6379684 11.699178 -1.450489 2 4
0.55711734 3.969131 0.6348111 1 12
0.49446043 3.5138266 -0.31044877 36 5
0.56644624 4.0203009 0.78918606 2 13
0.49555928 3.5083108 -0.18568799 18 6
0.56969106 4.0229869 0.93804586 4 14
0.56629825 3.9840009 1.0782403 1 15
0.57118827 3.9442666 -1.0678874 3 0
0.58060461 3.9994609 0.070542626 1 8
0.91546905 6.2984023 -1.4693804 3 1
0.58026451 3.982425 0.21091393 2 9
0.51500028 3.5258942 -0.69263667 39 2
0.581218 3.9743834 0.35141194 2 10
0.57934767 3.9519722 -0.63262105 2 3
0.59310764 4.0360179 0.50088304 1 11
1.7247998 11.722809 -1.4548763 2 4
0.58135486 3.9416943 0.63105673 3 12
0.51836687 3.5103796 -0.31044877 33 5
0.59162474 3.9968278 0.78536987 2 13
0.52179867 3.5166194 -0.18631603 19 6
0.59495175 3.9856825 1.0797932 2 15
0.60161078 3.9592824 -1.0730639 3 0
0.60901964 4.003324 0.07068225 1 8
0.59985453 3.9338558 -0.9187001 3 1
0.61097378 4.0020757 0.21216999 2 9
0.54017627 3.5300698 -0.6941632 38 2
0.60471952 3.9426579 0.34897158 2 10
1.4349349 9.3446226 -1.4973909 2 3
0.61573452 4.0004954 0.4969832 1 11
1.8229423 11.816423 -1.4680382 2 4
0.6105839 3.9532635 0.63355964 3 12
0.54286128 3.5066752 -0.31044877 37 5
0.62553585 4.0314002 0.79300219 2 13
0.54694819 3.5208807 -0.18673471 22 6
0.62150729 3.9916434 0.93264711 4 14
0.62057853 3.9719968 1.0772049 1 15
0.62581986 3.9379241 -1.068405 2 0
0.63003325 3.955529 0.069914341 2 8
1.0071328 6.3159714 -1.4765787 2 1
0.63637704 3.981935 0.2113326 2 9
0.56542861 3.5300896 -0.69492638 39 2
0.63217336 3.942385 0.34932023 2 10
0.63252783 3.9358072 -0.63136959 2 3
0.63733488 3.9569023 0.49210843 1 11
1.8786833 11.650879 -1.4490266 2 4
0.63564688 3.9333041 0.63105673 1 12
0.56417227 3.4871643 -0.30905426 40 5
0.65421724 4.0348005 0.79452866 2 13
0.57023388 3.5090911 -0.18631603 19 6
0.65078336 3.98282 1.0813459 1 15
0.65424603 3.9391763 -1.069958 3 0
0.65956694 3.9669294 0.070193581 1 8
0.65211684 3.9136775 -0.91600066 2 1
0.66149491 3.9656909 0.21070457 2 9
0.58717835 3.5126047 -0.69225508 36 2
0.66231251 3.9535954 0.35071471 2 10
0.65995675 3.9353068 -0.63199526 2 3
0.67412406 4.0112019 0.49942058 1 11
1.9787679 11.749058 -1.4629197 3 4
0.66109157 3.9210942 0.62980521 3 12
0.58983123 3.4909985 -0.30975151 40 5
0.67647022 3.9952931 0.78765959 2 13
0.59544134 3.5130048 -0.18673471 19 6
0.67560709 3.9649673 1.0777225 1 15
0.67906719 3.9232104 -1.0668522 3 0
0.6927132 3.9937527 0.070752062 2 8
1.0934536 6.2976451 -1.4756789 3 1
0.68916452 3.9609761 0.21070457 2 9
0.61202216 3.5103538 -0.69263667 38 2
0.69058061 3.9568467 0.35141194 2 10
0.68400937 3.9111452 -0.62886661 2 3
0.69388723 3.959471 0.49357089 1 11
2.039825 11.627781 -1.4495142 2 4
0.68571401 3.9008195 0.62730229 3 12
0.61487991 3.49072 -0.31010011 37 5
0.709786 4.0253968 0.79452866 2 13
0.61786723 3.4969618 -0.18610668 22 6
0.70360917 3.9620564 1.0782403 1 15
0.70986748 3.937386 -1.0720285 3 0
0.72484189 4.012434 0.071170911 1 8
0.70740288 3.9119852 -0.91780037 2 1
0.71893519 3.96786 0.2113326 2 9
0.63791853 3.5137222 -0.6941632 39 2
0.71961081 3.9597702 0.35210916 2 10
0.71554613 3.9295957 -0.63262105 2 3
0.72436303 3.9701529 0.49552077 1 11
2.1152515 11.582009 -1.4456142 2 4
0.71435237 3.9037092 0.62855375 3 12
0.63851446 3.4824231 -0.30975151 37 5
0.73503613 4.0048962 0.79147577 2 13
0.64298636 3.4964917 -0.18631603 21 6
0.74544251 4.0456877 0.94974333 4 14
0.73195446 3.9608469 1.0792755 1 15
0.73306406 3.9095492 -1.0658169 3 0
0.7432366 3.9561772 0.070263386 2 8
1.1870359 6.312408 -1.4828774 2 1
0.7473582 3.9666703 0.21154197 3 9
0.66061258 3.499537 -0.69225508 36 2
0.7390995 3.9115798 0.34827435 2 10
1.7570951 9.281395 -1.4961394 2 3
0.74910098 3.9493968 0.49357089 1 11
2.2053146 11.615718 -1.4517077 3 4
0.74638486 3.9238551 0.63262105 3 12
0.6620664 3.4739661 -0.30940288 37 5
0.75856125 3.9765258 0.78689629 2 13
0.66813231 3.495841 -0.18652536 22 6
0.77366859 4.0403848 0.94974333 4 14
0.75594538 3.9366682 1.0740991 1 15
0.76366347 3.9214022 -1.0704756 2 0
0.77237147 3.9587431 0.07040301 1 8
0.75821728 3.882601 -0.91330135 3 1
0.77119946 3.9417543 0.21049525 2 9
0.68578142 3.4986932 -0.69301832 37 2
0.7694599 3.9219646 0.34966883 2 10
1.7997476 9.1564817 -1.4779931 2 3
0.77588761 3.9401753 0.49308339 1 11
2.3124516 11.732478 -1.468282 3 4
0.77567369 3.9282386 0.63418543 3 12
0.68630314 3.4692593 -0.30940288 40 5
0.78706688 3.9749851 0.78765959 2 13
0.68941265 3.4754186 -0.18568799 18 6
0.80185497 4.0348854 0.94974333 4 14
0.78680623 3.9483469 1.0787579 2 15
0.78643131 3.8932519 -1.0642639 2 0
0.79919475 3.9493344 0.070333198 2 8
1.2410132 6.127142 -1.4432859 2 1
0.79790318 3.9323599 0.21028589 3 9
0.71019018 3.4938207 -0.69301832 37 2
0.79681975 3.9164977 0.34966883 2 10
0.79294914 3.8905218 -0.62886661 2 3
0.80734944 3.9541121 0.49552077 1 11
2.3950984 11.719937 -1.4687696 3 4
0.80149615 3.9149861 0.63293391 3 12
0.71330678 3.4780462 -0.31062305 43 5
0.80453616 3.9193907 0.7777375 2 13
0.71687543 3.4861717 -0.18652536 22 6
0.83000427 4.0291891 0.94974333 4 14
0.81708699 3.9560008 1.0823812 1 15
0.81952798 3.9160304 -1.0720285 2 0
0.82920861 3.9554019 0.070542626 2 8
1.2893609 6.14503 -1.4495846 3 1
0.82697999 3.9345119 0.21070457 3 9
0.73456442 3.4887774 -0.69301832 33 2
0.82825112 3.9303355 0.35141194 2 10
1.9176254 9.084074 -1.4704841 2 3
0.83575416 3.9522641 0.49600828 1 11
2.470695 11.6738 -1.4651133 2 4
0.82716775 3.9015658 0.63168246 1 12
0.73467344 3.4593391 -0.30940288 40 5
0.84249002 3.963608 0.78765959 2 13
0.74285984 3.4888961 -0.18694405 22 6
0.85811502 4.0232964 0.94974333 4 14
0.84711087 3.9615347 1.0854871 1 15
0.84766489 3.91399 -1.0730639 2 0
0.86104184 3.969059 0.070891678 1 8
1.316931 6.0654168 -1.4329382 3 1
0.85442793 3.9286427 0.21070457 2 9
0.75806695 3.4797275 -0.69225508 33 2
0.8556698 3.9244573 0.35141194 2 10
0.85056448 3.8945103 -0.63136959 2 3
0.86332577 3.9463332 0.49600828 1 11
2.5427928 11.613605 -1.4597511 2 4
0.85015392 3.8764007 0.62855375 3 12
0.75948489 3.4600964 -0.30992582 43 5
0.87435645 3.9768043 0.79147577 2 13
0.76805794 3.4875259 -0.1871534 22 6
0.88547891 4.0173621 0.94974333 4 14
0.87140977 3.9404337 1.0813459 1 15
0.86948204 3.8834693 -1.0663346 2 0
0.88191712 3.9357882 0.07040301 2 8
0.87401283 3.8941419 -0.92139953 2 1
0.88815325 3.9539151 0.21237932 3 9
0.78259706 3.4783175 -0.69301832 33 2
0.8808549 3.9086702 0.3505404 2 10
2.0609462 9.1377039 -1.4836246 2 3
0.89016581 3.9403656 0.49600828 1 11
2.6290662 11.618804 -1.462676 2 4
0.8817538 3.8936439 0.63230819 1 12
0.78318167 3.4527667 -0.30975151 39 5
0.89774895 3.9514589 0.78765959 2 13
0.7953217 3.4977975 -0.18799078 25 6
0.89777946 3.9325283 1.0808283 2 15
0.90502685 3.9169888 -1.0772049 3 0
0.91027415 3.9334309 0.070472814 2 8
0.89961982 3.8843055 -0.92049968 2 1
0.91573519 3.9476182 0.21237932 3 9
0.80685961 3.4727697 -0.69301832 37 2
0.91421044 3.9316924 0.35315505 2 10
0.90686673 3.8939567 -0.63324684 2 3
0.92216438 3.9533868 0.49844566 1 11
2.7094402 11.60644 -1.4634072 2 4
0.91341436 3.9066279 0.63543689 3 12
0.80726743 3.4472148 -0.30975151 39 5
0.92641675 3.9529018 0.78918606 2 13
0.81241888 3.4610493 -0.18631603 24 6
0.94148231 4.0046077 0.94974333 4 14
0.92698246 3.9336867 1.0828989 2 15
0.92249566 3.8692324 -1.0658169 2 0
0.94049746 3.9386511 0.07068225 1 8
0.92354482 3.8646626 -0.91735035 3 1
0.93211317 3.8945119 0.20986721 2 9
0.8338303 3.4785073 -0.69530803 37 2
0.94535285 3.9407141 0.35454956 2 10
2.1957078 9.1387701 -1.4886307 3 3
0.94509745 3.9275522 0.49600828 1 11
2.7959855 11.6104 -1.4663321 2 4
0.93881285 3.8924747 0.63418543 3 12
0.83224785 3.445369 -0.31010011 42 5
0.95768118 3.9616046 0.79223901 2 13
0.84031993 3.470823 -0.1871534 20 6
0.96115279 3.9638476 0.94164515 4 14
0.95077425 3.9121013 1.0787579 2 15
0.95409501 3.8814585 -1.0709932 2 0
0.96797144 3.9319892 0.07068225 1 8
0.95003486 3.8562293 -0.91690052 3 1
0.9650206 3.9111791 0.21112327 2 9
0.85621226 3.4649768 -0.69378155 36 2
0.96901488 3.918545 0.35315505 2 10
2.2528112 9.0963736 -1.4842504 3 3
0.97535944 3.9324195 0.49747071 1 11
0.96600485 3.8917892 -0.49235216 3 4
0.96405649 3.8781576 0.63293391 3 12
0.85916877 3.4510751 -0.31114599 40 5
0.98626238 3.9586327 0.79300219 2 13
0.8674314 3.4764988 -0.18778142 20 6
0.98974699 3.9608219 0.94254488 4 14
0.9855718 3.9353518 1.0870401 2 15
0.98591179 3.8934307 -1.0761696 2 0
0.9944151 3.9212587 0.070612431 1 8
0.9798094 3.8608363 -0.91959995 3 1
0.99230224 3.9043465 0.21112327 2 9
0.88037986 3.4589152 -0.69378155 37 2
0.98946476 3.8846538 0.35071471 2 10
2.3240685 9.1110506 -1.4892563 2 3
0.99591053 3.8985875 0.49405837 1 11
2.9455235 11.522148 -1.4602386 2 4
0.98914796 3.8636782 0.63168246 3 12
0.88225293 3.4411325 -0.31079736 42 5
1.0109473 3.9402404 0.79071248 2 13
0.88770628 3.4548826 -0.18694405 19 6
1.0125184 3.9349432 0.93804586 4 14
1.0077153 3.9077978 1.0813459 1 15
1.006247 3.8602815 -1.0689226 2 0
1.0258071 3.9297001 0.070891678 2 8
1.0067393 3.8539016 -0.91959995 3 1
1.0185245 3.8934591 0.21091393 2 9
0.90351117 3.4488866 -0.69301832 36 2
1.0206008 3.8930702 0.35210916 2 10
1.0132332 3.8594742 -0.63199526 2 3
1.0352173 3.9376163 0.49990809 1 11
3.0228608 11.489786 -1.4587761 2 4
1.0362281 3.9330862 0.64419717 1 12
0.9066698 3.4389009 -0.31114599 31 5
1.0324186 3.9103081 0.78613311 2 13
0.91690952 3.4679103 -0.18799078 25 6
1.0522392 3.9769416 0.94974333 4 14
1.0419067 3.9268095 1.088593 1 15
1.0371733 3.8680904 -1.0730639 2 0
1.0587507 3.9458027 0.071310528 1 8
1.6525782 6.1503301 -1.4702801 3 1
1.0564125 3.9288688 0.21321672 2 9
0.93411392 3.4691963 -0.69836092 37 2
1.060722 3.9339423 0.35646698 2 10
2.4741735 9.1696825 -1.504274 2 3
1.0609603 3.926646 0.49942058 1 11
3.1061118 11.479899 -1.4602386 2 4
1.0485207 3.8725538 0.63543689 3 12
0.93482673 3.4478712 -0.3125405 39 5
1.0648366 3.9219518 0.7899493 2 13
0.93944466 3.4577341 -0.18778142 20 6
1.0799779 3.9694989 0.94974333 4 14
1.0726786 3.9345365 1.092734 1 15
1.0655322 3.8683903 -1.0751344 2 0
1.0841433 3.9306049 0.071170911 1 8
1.0623727 3.8490469 -0.92184937 3 1
1.0784928 3.9021473 0.21216999 2 9
0.95411986 3.4474542 -0.69530803 37 2
1.0858778 3.9208715 0.35594404 2 10
2.5423489 9.1674175 -1.506777 3 3
1.0947214 3.9420958 0.5023455 1 11
3.1776774 11.427335 -1.4563388 2 4
1.0818852 3.8879757 0.63919127 3 12
0.95780671 3.4374218 -0.31219187 42 5
1.103797 3.9560249 0.79834485 2 13
0.96356291 3.4510908 -0.18778142 21 6
1.1197144 3.9995878 -0.072497301 2 7
1.0928228 3.9009092 1.0854871 1 15
1.0910813 3.8532317 -1.0730639 2 0
1.1191916 3.9498754 0.071659587 1 8
1.7452047 6.1510282 -1.4761288 3 1
1.1074799 3.8981724 0.21237932 2 9
0.98192239 3.453928 -0.69797933 39 2
1.1051791 3.8823402 0.35315505 2 10
2.6100502 9.1565876 -1.5080284 3 3
1.1102349 3.8923604 0.4969832 1 11
3.2644594 11.429686 -1.4595075 2 4
1.105334 3.8649406 0.63668835 1 12
0.98123127 3.4287362 -0.31201756 43 5
1.1259801 3.9293494 0.79452866 2 13
0.98933375 3.4479475 -0.18799078 23 6
1.135294 3.9540334 0.94974333 4 14
1.1260535 3.9115541 1.0906636 1 15
1.1211892 3.8566513 -1.0761696 2 0
1.139601 3.9148858 0.071170911 1 8
1.113953 3.8242896 -0.91959995 3 1
1.1369042 3.898015 0.21279801 2 9
1.0038612 3.4373906 -0.69607127 36 2
1.1423175 3.9089532 0.35629267 2 10
2.6384072 9.0168066 -1.4880048 3 3
1.1536896 3.9376562 0.5038079 1 11
3.3464081 11.414237 -1.4604822 2 4
1.1334023 3.8609209 0.63731414 1 12
1.0045829 3.4198906 -0.31184325 37 5
1.1810838 4.0155668 0.81360966 2 13
1.0190233 3.4601157 -0.1890375 25 6
1.1628706 3.9460113 0.94974333 4 14
1.1533339 3.9035974 1.0906636 1 15
1.1513997 3.8598371 -1.0792755 2 0
1.1662225 3.907038 0.071170911 1 8
1.1462047 3.8350906 -0.92409897 3 1
1.1679909 3.905494 0.2136354 2 9
1.0311761 3.4436436 -0.69874257 39 2
1.1638571 3.8817983 0.35454956 2 10
2.6974468 8.9910717 -1.4867533 2 3
1.1804657 3.9297121 0.5038079 1 11
3.3934224 11.282242 -1.4465892 2 4
1.1653495 3.8720319 0.64044279 1 12
1.0307332 3.4204249 -0.3125405 36 5
1.1807331 3.9132452 0.79452866 2 13
1.0402429 3.445451 -0.18861879 23 6
1.1712182 3.8743744 0.93444669 4 14
1.2032306 3.9752607 -0.072497301 2 7
1.1776382 3.8882606 1.088593 1 15
1.1787759 3.8556056 -1.0803107 2 0
1.1934702 3.8988013 0.071170911 2 8
1.8668662 6.0948243 -1.4716297 3 1
1.2022535 3.9201591 0.21489146 2 9
1.0563463 3.4401133 -0.69950581 39 2
1.1914213 3.8775952 0.35489815 1 10
1.1802682 3.8365202 -0.63574976 2 3
1.2078716 3.921375 0.5038079 1 11
3.4590306 11.222838 -1.4419582 3 4
1.2005079 3.8902278 0.64482296 1 12
1.0569383 3.4207604 -0.31323773 39 5
1.2108219 3.9163716 0.79681838 2 13
1.0701758 3.4571848 -0.18966553 25 6
1.2270832 3.9591725 0.95694178 4 14
1.2093376 3.8947039 1.092734 1 15
1.2137522 3.8730903 -1.0875577 2 0
1.2350278 3.9361656 0.072008632 1 8
1.8848512 6.0035543 -1.4527339 3 1
1.2212068 3.884995 0.21342604 2 9
1.0862309 3.4513819 -0.70332199 39 2
1.2160692 3.8615818 0.35420093 1 10
2.8369803 8.9977465 -1.4942621 3 3
1.2471683 3.9507079 0.50868267 1 11
3.510988 11.115129 -1.4312336 3 4
1.2192965 3.8553841 0.64044279 1 12
1.0844042 3.4246943 -0.31428361 34 5
1.2393179 3.911567 0.79758167 2 13
1.0894558 3.4343987 -0.18882816 25 6
1.2299182 3.8725021 0.93804586 4 14
1.2364982 3.8861663 1.092734 1 15
1.2448957 3.877398 -1.0911812 2 0
1.2575833 3.9122167 0.071729392 1 8
1.9177678 5.9624228 -1.4459854 2 1
1.2397305 3.8497586 0.21196064 2 9
1.1054784 3.4287667 -0.70026904 41 2
1.2478942 3.8681674 0.35559544 2 10
2.8790801 8.9138107 -1.4836246 3 3
1.2625034 3.9041288 0.5038079 1 11
3.6013288 11.13001 -1.4363521 2 4
1.2577492 3.8824828 0.64638728 5 12
1.1052133 3.4075644 -0.31341204 43 5
1.2678076 3.9065542 0.79834485 2 13
1.1171089 3.4381061 -0.18945618 25 6
1.2707798 3.8994813 1.0989457 1 15
1.2652957 3.8484259 -1.0854871 2 0
1.283613 3.8995442 0.071659587 1 8
1.94898 5.9174237 -1.4383371 3 1
1.2678257 3.844804 0.21216999 2 9
1.1306198 3.4246941 -0.70103228 41 2
1.2861155 3.8934143 0.35873303 1 10
2.9350379 8.8747396 -1.480496 3 3
1.2897303 3.8952191 0.5038079 1 11
3.7370021 11.279843 -1.4590199 2 4
1.2736313 3.8398588 0.64075565 11 12
1.1302297 3.4035478 -0.31376067 43 5
1.2851467 3.8677981 0.79223901 6 13
1.1423434 3.4340141 -0.18966553 25 6
1.3220428 3.9695845 0.96593982 4 14
1.2949154 3.8813517 1.0963575 1 15
1.3001442 3.8633003 -1.0922165 2 0
1.3018668 3.8639572 0.071170911 1 8
2.021996 5.9978499 -1.461282 3 1
1.3125201 3.8888459 0.2151008 2 9
1.1582719 3.4278769 -0.70332199 41 2
1.3017793 3.8503673 0.35559544 2 10
2.9867902 8.8240948 -1.47549 2 3
1.3283585 3.9199619 0.50819516 1 11
3.8188462 11.262879 -1.4602386 2 4
1.3124701 3.8664145 0.64670014 4 12
1.1565279 3.4031203 -0.31445792 43 5
1.3102198 3.8531563 0.79109418 5 13
1.1701514 3.4372997 -0.19029355 25 6
1.3270937 3.8938534 0.94974333 4 14
1.3276001 3.8886704 1.1010163 1 15
1.3151333 3.8194237 -1.0823812 2 0
1.3340241 3.8698983 0.071450152 1 8
2.0574656 5.9651656 -1.4567831 3 1
1.3344222 3.8644853 0.21426344 2 9
1.1834576 3.423418 -0.70408523 41 2
1.3364434 3.8637803 0.35768715 1 10
1.3211977 3.815392 -0.63950419 2 3
1.3303343 3.8374445 0.49868938 6 11
3.9084425 11.267828 -1.4643822 3 4
1.3433189 3.8683541 0.64857739 2 12
1.1809121 3.3968449 -0.31463224 40 5
1.340313 3.8531864 0.79300219 6 13
1.1914924 3.4215021 -0.18987487 25 6
1.361083 3.8975463 1.1061926 1 15
1.3590574 3.8614085 -1.0968752 2 0
1.3616639 3.8645 0.071519956 1 8
2.1116252 5.9896183 -1.466231 3 1
1.3500605 3.8251781 0.21258868 2 9
1.208041 3.4189858 -0.70484847 41 2
1.3746661 3.8884063 0.36082479 1 10
3.1384881 8.8677349 -1.489882 2 3
1.3623891 3.8451414 0.50088304 4 11
3.8550448 10.874247 -1.4166094 3 4
1.3854755 3.9037995 0.65608621 2 12
1.2060075 3.3943603 -0.31515515 43 5
1.3665098 3.8439739 0.79300219 2 13
1.2160937 3.4170761 -0.19008422 25 6
1.3806534 3.8751864 0.94974333 4 14
1.3830363 3.8754554 1.1025692 2 15
1.3755186 3.8227413 -1.088593 1 0
1.3980979 3.8812389 0.072008632 1 8
1.3651145 3.787601 -0.92949772 2 1
1.3875781 3.8457191 0.21426344 2 9
1.2345467 3.417855 -0.70637494 39 2
1.4017788 3.8787143 0.36082479 1 10
3.1935952 8.827035 -1.4867533 3 3
1.4108344 3.8952622 0.50868267 1 11
4.0634241 11.21287 -1.4643822 3 4
1.3951797 3.8457506 0.6479516 2 12
1.2330759 3.3952215 -0.31602672 42 5
1.4187917 3.9044583 0.80750376 2 13
1.2426507 3.4160106 -0.1905029 20 6
1.4316775 3.9313734 0.96593982 4 14
1.4173421 3.8856685 1.1082631 1 15
1.4035064 3.8166716 -1.0896282 2 0
1.4348295 3.8976564 0.072497301 1 8
1.398259 3.7962649 -0.93399686 3 1
1.4157726 3.8396866 0.21447276 2 9
1.2583777 3.409153 -0.70637494 38 2
1.4205382 3.846406 0.35873303 1 10
3.2770665 8.8638124 -1.4967651 2 3
1.4297256 3.8629775 0.50575781 1 11
4.1574655 11.227041 -1.4699881 2 4
1.4192477 3.8285081 0.64670014 2 12
1.2567472 3.3865309 -0.31602672 40 5
1.4569492 3.9239056 0.81360966 2 13
1.2678589 3.4109969 -0.19071224 20 6
1.4536541 3.906671 0.96234065 4 14
1.4491047 3.8923717 -0.072497301 2 7
1.438361 3.8593879 1.1036046 1 15
1.4321538 3.812206 -1.0911812 2 0
1.4535584 3.8650839 0.072078437 1 8
2.2496397 5.9787364 -1.4747791 2 1
1.4566245 3.8670905 0.21656621 2 9
1.2863052 3.4113064 -0.70866466 38 2
1.4473565 3.836395 0.35873303 1 10
3.3207214 8.7926702 -1.4886307 3 3
1.4636776 3.8714707 0.50819516 1 11
4.208353 11.125333 -1.4604822 2 4
1.4515357 3.8332863 0.64920312 2 12
1.2831839 3.3851266 -0.31672394 42 5
1.4592428 3.8475556 0.79987139 2 13
1.2930608 3.4057961 -0.19092159 22 6
1.4693931 3.8600843 1.1067102 1 15
1.4538891 3.789489 -1.0875577 2 0
1.4776387 3.8473754 0.07193882 1 8
1.4553195 3.787287 -0.93669617 2 1
1.4850223 3.8605545 0.21677555 2 9
1.3129095 3.4095721 -0.71019113 39 2
1.4741061 3.8261964 0.35873303 2 10
3.3336859 8.6439466 -1.4673554 4 3
1.4992493 3.8833807 0.51112008 1 11
4.2887754 11.10309 -1.4614573 3 4
1.4754119 3.8156891 0.6479516 2 12
1.3060677 3.3742273 -0.31654966 52 5
1.4846501 3.8336127 0.79910809 9 13
1.3139184 3.3892369 -0.1905029 24 6
1.4883157 3.8351257 0.94974333 4 14
1.4949061 3.8461311 1.105675 1 15
1.4979239 3.8242164 -1.1004987 2 0
1.4986228 3.8220723 0.071659587 1 8
2.2816563 5.8161254 -1.4423862 4 1
1.5119361 3.8500936 0.21677555 1 9
1.3359625 3.3984959 -0.70980954 37 2
1.5124483 3.845479 0.36152202 3 10
3.4417119 8.7417736 -1.4880048 2 3
1.5219567 3.8617377 0.50965762 1 11
4.3589034 11.054412 -1.4590199 3 4
1.5339278 3.8861415 0.66171783 2 12
1.3347158 3.3779986 -0.31776983 39 5
1.5185969 3.8414111 0.80292428 9 13
1.3434254 3.394839 -0.19134027 25 6
1.5351491 3.8753717 0.96234065 4 14
1.5316927 3.8607411 1.112922 1 15
1.5159799 3.79214 -1.0942869 2 0
1.5475576 3.867213 0.072706729 1 8
1.5138516 3.7810717 -0.94029546 3 1
1.5402641 3.8431525 0.21698491 2 9
1.359656 3.3890865 -0.70980954 37 2
1.5400001 3.8366752 0.3616963 2 10
3.5247514 8.772522 -1.4973909 2 3
1.5488796 3.8510187 0.50965762 1 11
4.4745069 11.119473 -1.4716942 2 4
1.5359247 3.8130405 0.65108031 2 12
1.3599126 3.3743789 -0.31829277 45 5
1.5659441 3.881695 0.81360966 2 13
1.3670931 3.3853776 -0.19134027 23 6
1.5410539 3.8142397 0.94974333 4 14
1.5572219 3.8503923 -0.072497301 2 7
1.5600604 3.8535349 1.1139573 1 15
1.5489837 3.7975631 -1.0989457 2 0
1.5889548 3.8936198 0.073404826 1 8
1.5446333 3.781235 -0.94299489 2 1
1.5754534 3.8547657 0.21824095 1 9
1.3893838 3.3961065 -0.71324408 38 2
1.5780736 3.8534875 0.36431101 1 10
3.5379488 8.6349974 -1.4779931 3 3
1.5765635 3.8440602 0.51014513 1 11
4.5497699 11.082454 -1.4709631 2 4
1.5663468 3.8134608 0.65295756 4 12
1.3819234 3.3611166 -0.31794414 45 5
1.5825427 3.8452513 0.80826694 2 13
1.3946694 3.3870738 -0.19196831 21 6
1.5973471 3.875457 0.9677394 4 14
1.5862526 3.8428273 1.1139573 1 15
1.5814713 3.8029861 -1.1036046 2 0
1.6038047 3.8528929 0.072846346 1 8
1.5658386 3.75984 -0.94029546 3 1
1.6038653 3.8473589 0.21845031 1 9
1.409279 3.3772652 -0.71133596 37 2
1.6042669 3.8426566 0.36431101 1 10
3.61338 8.6465397 -1.4842504 3 3
1.6094882 3.8476112 0.51209503 1 11
4.5078392 10.771057 -1.4336711 3 4
1.5975093 3.8133652 0.65483475 2 12
1.4092056 3.3605745 -0.31881571 40 5
1.6101971 3.838012 0.80903018 2 13
1.4229199 3.3883042 -0.19259633 19 6
1.6319157 3.8821757 0.97223842 4 14
1.6101623 3.8285556 -0.072497301 2 7
1.6145408 3.8352203 1.1149925 1 15
1.609491 3.7954097 -1.1046398 2 0
1.630664 3.8416023 0.072846346 1 8
2.4634862 5.8008008 -1.4549835 4 1
1.635374 3.8470972 0.21907835 1 9
1.4405075 3.3854098 -0.71515214 36 2
1.6310546 3.8313632 0.36431101 1 10
3.696883 8.675622 -1.4936365 2 3
1.6246301 3.8088915 0.50843894 6 11
4.5860372 10.74663 -1.434646 3 4
1.6256464 3.8057518 0.65546048 4 12
1.4381155 3.3634784 -0.32003587 43 5
1.6462198 3.8483369 0.81360966 2 13
1.4402509 3.3635998 -0.19175896 23 6
1.6973633 3.9602463 0.99473363 4 14
1.6473721 3.838057 1.1191336 1 15
1.6436167 3.8018124 -1.1098161 2 0
1.6574419 3.8301253 0.072846346 1 8
2.4977322 5.7691526 -1.4513842 3 1
1.6558367 3.8209262 0.21824095 1 9
1.4625446 3.3716686 -0.71438891 37 2
1.6482427 3.797951 0.36221924 1 10
3.7573602 8.6496019 -1.4936365 2 3
1.6614716 3.8211222 0.51160759 4 11
4.6356111 10.656101 -1.4268464 3 4
1.6584852 3.8087993 0.65796345 2 12
1.4609767 3.3536115 -0.32003587 51 5
1.6730461 3.8367503 0.81360966 2 13
1.4652959 3.3571239 -0.19196831 23 6
1.6728095 3.8307323 0.96504009 4 14
1.6725779 3.8229229 1.1180983 1 15
1.6755692 3.8026204 -1.1134396 3 0
1.688316 3.8297327 0.073055774 1 8
2.5631199 5.8086286 -1.4657811 3 1
1.7011676 3.8534172 0.2207531 1 9
1.4854609 3.3616354 -0.71438891 37 2
1.6924475 3.8264382 0.36605412 1 10
3.8081558 8.6057615 -1.4905078 3 3
1.6890488 3.8133552 0.51209503 1 11
4.6970239 10.594441 -1.4229466 2 4
1.6819677 3.7920058 0.65702486 6 12
1.4956723 3.368824 -0.32247624 48 5
1.7125473 3.8536816 0.81971544 2 13
1.4929817 3.358022 -0.19259633 20 6
1.7327894 3.8937371 0.98393589 4 14
1.7032794 3.8220372 1.1212041 1 15
1.6832215 3.7505901 -1.1015339 2 0
1.7100931 3.8069088 0.072846346 1 8
2.6057937 5.7981567 -1.4675807 3 1
1.7198324 3.8232329 0.21970637 1 9
1.5137296 3.3619239 -0.71667862 36 2
1.7135462 3.8039291 0.36500823 1 10
3.8616467 8.564559 -1.4880048 2 3
1.7237973 3.8195632 0.51453239 1 11
4.7894468 10.607456 -1.4290401 2 4
1.7108424 3.7855704 0.65796345 6 12
1.5152835 3.3513043 -0.32177898 49 5
1.7193117 3.7990091 0.81055665 9 13
1.52463 3.3657105 -0.19364306 19 6
1.7383382 3.8357029 0.97223842 4 14
1.7307174 3.8118124 1.1217217 1 15
1.7149873 3.7510459 -1.1051573 2 0
1.7442845 3.8133652 0.07319539 2 8
2.6316073 5.7479305 -1.4594824 4 1
1.7524704 3.8259642 0.22054374 2 9
1.5414892 3.3622491 -0.71896833 34 2
1.7392281 3.7900636 0.36483395 5 10
3.9149134 8.5273027 -1.4861275 3 3
1.7497545 3.8077421 0.51453239 1 11
4.8658719 10.579171 -1.4297712 3 4
1.7398714 3.7810159 0.65921491 2 12
1.5403101 3.3442631 -0.32212761 52 5
1.7589428 3.8154402 0.81666255 2 13
1.5475028 3.3552554 -0.19364306 19 6
1.7814099 3.8588595 0.98123646 4 14
1.7574362 3.8016963 1.1222395 1 15
1.7575998 3.7760656 -1.1160278 2 0
1.7725513 3.8047209 0.07326521 1 8
2.6690245 5.7263517 -1.4585826 4 1
1.7791361 3.8136375 0.22054374 2 9
1.5665842 3.3549643 -0.71973157 35 2
1.7692041 3.7871618 0.36570549 11 10
3.9877334 8.5283966 -1.4911336 2 3
1.7771363 3.7972317 0.51477611 6 11
4.9227738 10.508988 -1.4248965 2 4
1.7997562 3.8403249 0.67172968 2 12
1.5653138 3.3370352 -0.32247624 43 5
1.7955474 3.824394 0.82124197 2 13
1.5691924 3.3407536 -0.1934337 19 6
1.8331782 3.8992369 0.99473363 4 14
1.7929837 3.8085618 1.1279335 1 15
1.7936805 3.7825928 -1.1217217 3 0
1.7973578 3.7886393 0.07319539 1 8
2.6882 5.6613364 -1.4468851 3 1
1.8098096 3.8080239 0.22096242 2 9
1.5933403 3.3510377 -0.72125804 36 2
1.8056735 3.7941961 0.36762294 4 10
4.0299706 8.4604082 -1.4842504 2 3
1.8010411 3.7793567 0.51404494 8 11
5.0165262 10.517368 -1.4307462 3 4
1.7965534 3.7631726 0.66046637 2 12
1.5920056 3.3332179 -0.32317349 46 5
1.8272834 3.8223929 0.82353163 2 13
1.5930581 3.3294392 -0.1934337 18 6
1.8384788 3.8406429 0.98303616 4 14
1.8093319 3.772989 1.1212041 1 15
1.8124834 3.7543216 -1.117063 2 0
1.8592231 3.8477011 0.074591585 1 8
2.7268074 5.6406784 -1.4464353 3 1
1.8346127 3.7917004 0.2207531 2 9
1.6172789 3.3395503 -0.72125804 37 2
1.8312509 3.7797036 0.3674486 1 10
4.1216893 8.499609 -1.4961394 3 3
1.8349736 3.7806585 0.51599485 1 11
5.0941644 10.49102 -1.431965 2 4
1.831416 3.7683051 0.66359508 2 12
1.6152371 3.3220224 -0.32317349 48 5
1.8436152 3.7883594 0.81895226 7 13
1.6232585 3.3326018 -0.19427109 19 6
1.8874419 3.8732615 0.99473363 4 14
1.8483402 3.7863059 1.1289687 1 15
1.8429095 3.7502453 -1.1196512 2 0
1.8747818 3.8134229 0.074172728 1 8
2.779026 5.6477323 -1.4531839 4 1
1.8727291 3.8042109 0.2222185 2 9
1.6417069 3.3319874 -0.72202128 36 2
1.8664058 3.7846961 0.36919171 1 10
4.1602173 8.4323854 -1.4892563 2 3
1.9046109 3.8570762 0.52818179 1 11
5.16992 10.460539 -1.4326961 2 4
1.8587748 3.7592933 0.66422081 4 12
1.6401572 3.3142366 -0.32352212 45 5
1.8804746 3.7965071 0.82353163 2 13
1.6476789 3.3250546 -0.19448043 18 6
1.9144363 3.8599904 0.99473363 4 14
1.8809443 3.7874789 1.1331098 1 15
1.8709873 3.7427976 -1.1212041 2 0
1.8870429 3.7716281 0.073614255 2 8
2.8418305 5.6774769 -1.4657811 2 1
1.8902941 3.7731881 0.22117178 2 9
1.6702101 3.3309739 -0.72431099 36 2
1.9010559 3.7897136 0.37093481 2 10
4.2207618 8.4066639 -1.489882 3 3
1.9314919 3.8436856 0.52818179 1 11
5.2401109 10.423331 -1.4324524 2 4
1.900956 3.7779872 0.66985244 2 12
1.6749034 3.3258393 -0.32578817 36 5
1.9380738 3.8467381 0.8372699 2 13
1.6780446 3.3277383 -0.1953178 22 6
1.9621434 3.8860693 -0.075987779 2 7
1.915182 3.7897727 1.1377686 1 15
1.8856838 3.7072606 -1.1144749 2 0
1.9278432 3.786875 0.074172728 2 8
2.8760884 5.6470814 -1.4630816 3 1
1.9256603 3.7776933 0.2222185 2 9
1.6969929 3.3262277 -0.72583747 36 2
1.9265629 3.7745743 0.37076053 4 10
4.2811456 8.3805113 -1.4905078 2 3
1.958277 3.8301084 0.52818179 1 11
5.2802081 10.32287 -1.4236778 2 4
1.950688 3.8103423 0.67798704 2 12
1.6962658 3.3105178 -0.32543954 42 5
1.9451776 3.7946792 0.82887435 2 13
1.7048842 3.3230498 -0.1957365 26 6
1.9681439 3.8328843 0.99473363 4 14
1.9435381 3.7833405 -0.07424254 2 7
1.9345261 3.7625656 1.1336274 1 15
1.9328274 3.7351835 -1.1268982 2 0
1.965271 3.794631 0.074591585 1 8
2.9037876 5.6043706 -1.457233 3 1
1.9538271 3.7677028 0.22242783 1 9
1.7255977 3.3247557 -0.72812718 37 2
1.9565399 3.768105 0.37145776 10 10
4.3686934 8.4065104 -1.5005195 2 3
1.9849684 3.8163438 0.52818179 1 11
5.336565 10.255824 -1.4195342 2 4
1.9480437 3.7405663 0.66797519 2 12
1.7261238 3.3130317 -0.32683402 31 5
2.0079339 3.8506379 0.84413904 2 13
1.7261935 3.3075249 -0.19552715 22 6
2.0162106 3.8582945 -0.075987779 2 7
1.9884998 3.8020368 1.1496743 1 15
1.9975461 3.7951086 -1.1491566 2 0
1.9742824 3.7493179 0.073963299 1 8
1.9443315 3.6893106 -0.96279049 2 1
1.981289 3.7578504 0.22263718 2 9
1.7564363 3.3285589 -0.73156172 36 2
1.9790751 3.7473078 0.37076053 5 10
4.388905 8.3067141 -1.4880048 2 3
2.0108995 3.8027439 0.52818179 1 11
5.4043193 10.211299 -1.4185592 3 4
1.9790058 3.737694 0.66985244 2 12
1.759473 3.3202655 -0.32875144 30 5
2.0402865 3.8469322 0.84642875 2 13
1.758027 3.3133426 -0.19657388 22 6
2.0134282 3.7867067 1.1491566 1 15
2.0005491 3.7388394 -1.1362157 2 0
2.0136259 3.7601235 0.074451968 1 8
1.9970056 3.727524 -0.97628754 2 1
2.0225763 3.77209 0.22431193 1 9
1.7759165 3.3092971 -0.73003525 37 2
2.0092485 3.742527 0.3716321 1 10
4.4654856 8.3106756 -1.4942621 2 3
2.0373988 3.7886126 0.52818179 1 11
5.4821653 10.19001 -1.420753 2 4
2.0106709 3.7342229 0.67172968 2 12
1.771639 3.2889173 -0.32683402 33 5
2.057106 3.8156753 0.84261262 2 13
1.7924981 3.3220799 -0.19782993 19 6
2.0466578 3.7915413 0.99473363 4 14
2.0444078 3.7810562 1.1517448 1 15
2.0284486 3.7281754 -1.1372509 2 0
2.0334375 3.7357912 0.07424254 2 8
3.0223503 5.5479903 -1.4585826 3 1
2.0692325 3.7968178 0.22661473 1 9
1.8096821 3.3178144 -0.73461467 36 2
2.052511 3.759887 0.37476969 1 10
4.5238452 8.283555 -1.4948879 2 3
2.0631399 3.7746568 0.52818179 1 11
5.5455499 10.137556 -1.418803 2 4
2.0550086 3.7551074 0.67798704 2 12
1.806042 3.2974381 -0.32892576 30 5
2.0591581 3.7564602 0.83269054 2 13
1.8150676 3.3098028 -0.19782993 22 6
2.0719597 3.7704372 1.1527801 1 15
2.0481701 3.7041388 -1.1341451 2 0
2.0788338 3.7564974 0.074940629 1 8
3.0468302 5.5034204 -1.452284 3 1
2.0840731 3.7613151 0.22535865 1 9
1.8451766 3.3274207 -0.73957568 38 2
2.0973871 3.7806737 0.3782559 1 10
4.5949893 8.2759495 -1.4992681 2 3
2.0894415 3.7601614 0.52818179 1 11
5.6231065 10.11519 -1.4209967 3 4
2.0888574 3.7544789 0.68049002 2 12
1.837742 3.300416 -0.33049458 27 5
2.1324496 3.8281116 0.85177141 2 13
1.8439656 3.3075175 -0.19845797 22 6
2.0993967 3.7625954 0.99473363 4 14
2.1067095 3.77106 1.1574388 2 15
2.1108966 3.7554269 -1.154333 2 0
2.1069674 3.7453797 0.075010449 2 8
3.0880444 5.4871101 -1.4536338 3 1
2.102438 3.7327533 0.22452128 1 9
1.870291 3.3178773 -0.74033892 38 2
2.106112 3.7347019 0.37511832 2 10
4.6526546 8.2436695 -1.4992681 2 3
5.6945634 10.077415 -1.4212404 2 4
2.1130729 3.7363653 0.67986429 2 12
1.863681 3.2927082 -0.33101749 26 5
2.1591229 3.8131311 0.85177141 2 13
1.8689809 3.2980387 -0.19866732 23 6
2.1425245 3.7730596 1.1626152 1 15
2.130353 3.7288575 -1.1507095 2 0
2.1290936 3.7236352 0.074870825 2 8
3.1040192 5.4265137 -1.4432859 4 1
2.1403556 3.7387831 0.22577733 1 9
1.8943846 3.306443 -0.74072057 35 2
2.1578958 3.7648494 0.37965041 2 10
4.7179556 8.2246933 -1.5017711 2 3
2.1674337 3.7753835 0.53451896 1 11
5.7786188 10.061513 -1.4246527 2 4
2.1489484 3.7386496 0.68299294 2 12
1.8939977 3.2937629 -0.332412 22 5
2.1856892 3.7979658 0.85177141 2 13
1.9138899 3.3229861 -0.20097008 25 6
2.1736417 3.7663765 1.1652035 1 15
2.1466336 3.6971879 -1.1455331 2 0
2.1744778 3.7436397 0.075568922 2 8
3.1046116 5.3406901 -1.4261897 4 1
2.1778018 3.7448471 0.22703341 2 9
1.9267211 3.3104405 -0.74453676 35 2
2.1841266 3.7496929 0.37965041 1 10
4.7618918 8.1719103 -1.4980166 2 3
