# .PCD v0.7 - Point Cloud Data file format
VERSION 0.7
FIELDS x y z intensity ring
SIZE 4 4 4 4 2
TYPE F F F F U
COUNT 1 1 1 1 1
WIDTH 1353
HEIGHT 1
VIEWPOINT 0 0 0 1 0 0 0
POINTS 1353
DATA ascii
7.3185244 18.684275 -1.0516388 9 6
2.5100043 6.3427863 -1.8277801 7 0
5.8791671 14.841527 0.27864513 25 8
2.6329491 6.6432915 -1.649791 19 1
6.3342071 15.965823 0.90017855 14 9
2.763752 6.9591379 -1.4554911 4 2
6.7832413 17.071566 1.6071519 15 10
4.1825647 10.515661 -1.7924262 5 3
6.9171386 17.373173 2.2960186 11 11
4.3284125 10.865776 -1.4361085 4 4
2.554224 6.325109 -1.8277801 5 0
2.6953349 6.6644945 -1.6596888 5 1
6.4275355 15.876779 0.89766639 14 9
2.796047 6.8996449 -1.4470955 7 2
6.993597 17.24905 1.6284178 15 10
2.965519 7.306848 -1.2489729 6 3
6.9478436 17.101929 2.2665262 12 11
4.4258418 10.888625 -1.443177 12 4
7.7778268 19.068495 -1.0792723 9 6
2.3231077 5.6390786 -1.6341835 3 0
6.4868183 15.730396 0.29700506 27 8
2.4415288 5.9177327 -1.4779284 9 1
7.2281785 17.502172 0.99239457 10 9
2.8441443 6.8799582 -1.4470955 5 2
7.1526847 17.293705 1.6373078 13 10
3.038368 7.3388982 -1.2580462 4 3
7.2251444 17.43445 2.317224 13 11
4.4302764 10.685093 -1.4202654 6 4
2.6737204 6.3636317 -1.849521 9 0
2.4948785 5.9292822 -1.4851269 3 1
7.3618112 17.478897 0.99396455 15 9
2.8905807 6.8563161 -1.4463322 3 2
7.2809782 17.261709 1.639051 12 10
3.1072009 7.3593626 -1.2652421 9 3
7.5112901 17.773048 2.3691401 8 11
4.1715655 9.8658772 -1.315214 2 4
6.4597578 15.225638 -0.86678815 17 6
2.7074287 6.3199515 -1.8422741 4 0
2.7421176 6.3916793 -1.6057006 15 1
7.4576507 17.366514 0.9905104 10 9
2.9011619 6.7493916 -1.4280145 5 2
7.4390917 17.298311 1.6474178 13 10
3.0335412 7.047183 -1.2151831 4 3
7.763217 18.017342 2.4088695 3 11
4.5837531 10.63313 -1.4217279 13 4
6.5373516 15.114177 -0.86302006 17 6
2.831887 6.4850187 -1.8961084 9 0
7.5644617 17.306137 0.32967597 31 8
2.8140013 6.4348717 -1.6214472 25 1
7.6371737 17.447592 0.99815142 15 9
2.9891801 6.8224816 -1.4478587 5 2
7.8748283 17.964916 1.7160965 12 10
3.0715508 7.0005102 -1.2108029 2 3
7.6701002 17.464701 2.3420851 13 11
4.7001925 10.697194 -1.434646 5 4
6.760344 15.334991 -0.87830216 17 6
2.8488159 6.4015512 -1.8774734 9 0
7.6818337 17.2456 0.32953632 31 8
7.7417083 17.355545 0.99595332 18 9
3.0111244 6.744081 -1.4356469 3 2
8.11057 18.156908 1.739803 8 10
4.5765114 10.235714 -1.7758442 3 3
8.0999784 18.099257 2.434706 4 11
4.5800686 10.229294 -1.3761488 4 4
6.9179711 15.400379 -0.88479173 26 6
2.8008959 6.177413 -1.8174274 5 0
7.810617 17.218407 0.33002502 31 8
7.8646221 17.313358 0.99658144 10 9
3.1089628 6.837811 -1.4600705 3 2
8.2338295 18.092588 1.7391056 5 10
3.2496319 7.1372766 -1.2420899 4 3
8.2073469 18.00938 2.4300749 5 11
7.4631186 16.361185 -2.2080288 4 4
7.8066916 17.035587 -0.32709301 36 7
2.8866065 6.2529173 -1.8453798 4 0
8.0027599 17.319574 0.33302683 31 8
8.1345806 17.580681 1.015213 11 9
3.051846 6.5896897 -1.411605 5 2
7.7897243 16.812265 1.6210967 8 10
3.2993836 7.1144142 -1.2420899 6 3
8.0537214 17.350256 2.3486662 15 11
5.0208364 10.811523 -1.4636509 6 4
8.3638926 17.993788 3.1427686 7 12
7.1684413 15.386814 -0.88960671 8 6
2.8266234 6.012331 -1.7801574 3 0
8.1234779 17.263283 0.33302683 31 8
4.0223761 8.5441198 -2.1802256 10 1
8.0230017 17.026613 0.98642826 15 9
3.1555612 6.6907449 -1.4379367 3 2
7.9307117 16.807926 1.6259774 9 10
3.2941391 6.9751039 -1.2217534 4 3
8.5275555 18.040199 2.4500613 11 11
4.885725 10.331162 -1.4032037 7 4
8.3473196 17.635006 3.0902069 15 12
2.998651 6.2642813 -1.8609091 9 0
8.2921944 17.307135 0.33498147 31 8
4.2967215 8.9639387 -2.2949507 10 1
8.0423288 16.763096 0.97439086 10 9
3.1546006 6.5694456 -1.416566 3 2
8.1082621 16.877859 1.6381793 8 10
3.4480414 7.1709113 -1.2602363 2 3
8.6653442 18.00527 2.453474 9 11
5.1971307 10.794027 -1.4709631 6 4
8.3587475 17.344963 3.0495338 14 12
5.4976335 11.382537 -0.66246861 8 6
2.969532 6.093843 -1.8163921 7 0
8.3817606 17.192778 0.33386454 31 8
8.3779087 17.16206 1.0008729 13 9
3.4397082 7.0399642 -1.5230374 11 2
8.3633041 17.101849 1.6655462 12 10
3.3717668 6.8917599 -1.2151831 3 3
8.240324 16.828041 2.3006496 12 11
5.0950131 10.39563 -1.4214841 2 4
8.5653229 17.468576 3.0814466 14 12
8.807744 17.923399 -1.0466145 9 6
3.4245291 6.9077497 -2.0658937 4 0
8.506917 17.14459 0.33407396 31 8
3.1297195 6.304781 -1.6250465 3 1
8.1536007 16.410942 0.96036488 7 9
4.8236103 9.7000942 -2.1057682 6 2
8.4236107 16.932144 1.6545646 9 10
3.4497311 6.9281759 -1.2258207 13 3
8.5771933 17.21072 2.3610969 3 11
3.5185187 7.053977 -0.96788639 1 4
8.8705292 17.775999 3.146523 16 12
8.9800148 17.956144 -1.0521622 19 6
3.1344059 6.2104549 -1.8640147 9 0
8.6354141 17.102633 0.33442301 31 8
3.1571765 6.2474384 -1.6160485 11 1
8.1833849 16.179296 0.9502117 10 9
4.861074 9.6066227 -2.0927932 4 2
8.5994701 16.979855 1.6651976 13 10
5.0273376 9.9180069 -1.7611394 3 3
8.6504507 17.058355 2.3484223 3 11
7.687901 15.147117 -2.0856721 13 4
9.0279226 17.771948 3.1571608 16 12
9.1236715 17.921688 -1.0539416 19 6
3.186511 6.2056069 -1.8691912 1 0
3.389621 6.592659 -1.7114276 14 1
8.2751112 16.080929 0.94780427 7 9
4.9242992 9.5611191 -2.0905035 12 2
8.6466141 16.781265 1.6516013 13 10
5.1100364 9.9090014 -1.7658324 8 3
8.4855013 16.440363 2.2716448 13 11
6.242413 12.08928 -1.670585 4 4
8.9876213 17.390856 3.1005316 8 12
8.3250713 16.101946 -1.5858859 34 5
9.219182 17.800798 -1.0505921 9 6
3.434576 6.5753341 -1.9877304 2 0
3.4409797 6.5791969 -1.7141271 9 1
8.814949 16.847116 0.99647671 10 9
4.99928 9.5465126 -2.0947013 22 2
8.8310843 16.849308 1.664326 11 10
5.2094684 9.9352236 -1.7767829 24 3
8.6248846 16.434954 2.2789569 8 11
7.9327869 15.10333 -2.0946906 3 4
9.0534153 17.229603 3.0826981 14 12
9.3485022 17.753542 -1.0515342 19 6
4.0491662 7.6250005 -2.3133247 9 0
8.8377733 16.62845 0.32869864 31 8
8.6621199 16.277382 0.96633118 15 9
3.936178 7.3904219 -1.6276009 4 2
8.9643002 16.823978 1.6678123 11 10
5.1848264 9.7225647 -1.745183 15 3
8.7300644 16.356829 2.2765195 8 11
8.3654642 15.667122 -2.1807303 5 4
9.4797602 17.701931 -1.0523715 19 6
3.0117779 5.577148 -1.6983706 1 0
4.2728591 7.9024935 -2.0740488 19 1
8.8116837 16.290066 0.97062278 10 9
4.1406093 7.6483293 -1.6905679 3 2
9.128993 16.848574 1.6765277 9 10
5.2282882 9.6453705 -1.7376742 13 3
9.2292967 17.012424 2.3764522 15 11
6.5773869 12.114038 -1.6925216 7 4
9.512188 17.475605 -1.0427418 19 6
3.5776234 6.5184512 -1.9923891 9 0
4.3415709 7.9005499 -2.0812473 20 1
8.8222008 16.040901 0.95942283 12 9
4.0727258 7.399086 -1.6417207 3 2
8.7725477 15.930861 1.5911152 10 10
5.3393574 9.6882162 -1.7520663 17 3
9.1781502 16.63991 2.3333108 12 11
8.5720444 15.534653 -2.1785367 3 4
9.767415 17.649929 -1.0571864 19 6
3.4799666 6.2368898 -1.9137081 5 0
4.0392613 7.2303734 -1.9120839 10 1
9.0500584 16.19318 0.97219276 10 9
4.7833304 8.5517464 -1.9046555 7 2
9.2582417 16.538561 1.6582252 13 10
5.3704367 9.5895996 -1.7408029 6 3
9.2416945 16.488741 2.3208799 11 11
6.5971413 11.760772 -1.655717 4 4
9.0325413 16.082636 -1.6137757 34 5
9.8746014 17.560404 -1.0558257 28 6
3.5661662 6.2903643 -1.9375196 7 0
4.1210914 7.2603345 -1.9273807 21 1
9.1372442 16.084448 0.96947134 15 9
4.7400575 8.3372364 -1.8642039 9 2
9.1282921 16.049118 1.6153444 5 10
5.4880643 9.6411457 -1.7570721 13 3
9.405714 16.510061 2.3330669 11 11
5.6606874 9.9323006 -1.4036912 4 4
9.8740625 17.27602 -1.0428463 19 6
3.2946112 5.7179585 -1.7682518 2 0
4.4599128 7.7310362 -2.0605516 14 1
9.2952423 16.099836 0.97428626 15 9
4.7726097 8.2597437 -1.8542819 13 2
9.2141809 15.940153 1.6108123 12 10
5.3465214 9.2418156 -1.6910567 7 3
9.6152458 16.607193 2.3562222 2 11
8.9555025 15.461496 -2.193892 6 4
10.005459 17.225668 -1.0439978 19 6
3.9152486 6.6867418 -2.0762465 9 0
4.1511016 7.0810432 -1.8949877 14 1
9.5842829 16.336016 0.9926039 10 9
4.8937731 8.3345776 -1.8787055 18 2
9.3908329 15.987104 1.6221427 1 10
4.9003534 8.3357773 -1.5314937 6 3
9.616189 16.344618 2.3284359 13 11
5.6608658 9.6179218 -1.370299 7 4
9.7732019 16.558552 -1.0076766 9 6
4.0052962 6.732296 -2.0990226 3 0
4.3041492 7.2260103 -1.9417773 9 1
9.7064962 16.289278 0.99375522 13 9
4.2434835 7.1156855 -1.610428 3 2
10.154688 17.014387 1.7335278 8 10
5.6435652 9.4521589 -1.7436188 24 3
9.7292585 16.282192 2.3289232 1 11
6.9698305 11.65497 -1.6674166 4 4
10.217366 17.044964 -1.0414857 19 6
2.5365109 4.1981964 -1.3142831 7 0
4.4591379 7.3716259 -1.9890171 10 1
9.9058361 16.362923 1.0024431 10 9
4.4639649 7.3679786 -1.6745398 3 2
4.3161259 7.1155548 -1.318117 4 3
9.2767372 15.275565 -2.1943796 5 4
10.319491 16.945923 -1.0398108 19 6
10.483574 17.195095 -0.35152635 39 7
2.4950209 4.0651336 -1.2780485 5 0
15.421993 25.107342 0.5143224 62 8
4.5339622 7.3785014 -1.999365 21 1
9.9591494 16.194693 0.99637198 10 9
4.9659972 8.0689631 -1.8416885 10 2
5.0807014 8.2456646 -1.5339966 9 3
9.3247833 15.115824 -2.1807303 5 4
10.394466 16.803825 -1.0355194 9 6
2.5172095 4.0377779 -1.2749426 7 0
4.2882018 6.8705568 -1.8697932 15 1
4.7703691 7.6312275 -1.749337 4 2
5.2995281 8.467864 -1.5821784 7 3
9.5523558 15.245482 -2.2090039 5 4
10.532768 16.764677 -1.0376127 9 6
2.5598035 4.0429587 -1.2821896 8 0
4.33606 6.8404541 -1.8697932 7 1
4.4920721 7.0756397 -1.6291273 10 2
4.3963809 6.9169064 -1.2980933 2 3
7.607059 11.954494 -1.7398069 6 4
10.059121 15.78359 -1.637482 35 5
10.520636 16.488689 -1.0250521 9 6
2.5963247 4.0379887 -1.2863307 8 0
4.3489008 6.7559419 -1.8549464 18 1
4.4477425 6.8989034 -1.5955449 4 2
4.6352406 7.1814728 -1.353784 3 3
6.5612335 10.153782 -1.4843687 3 4
2.6202276 4.0132942 -1.2842602 8 0
2.8691559 4.3895454 -1.2106866 11 1
4.4818187 6.8463302 -1.5905839 3 2
4.5683212 6.9705029 -1.3199942 4 3
5.4710946 8.33846 -1.2245432 3 4
10.169101 15.475098 -1.6200509 35 5
11.373327 17.287931 -1.0845058 9 6
2.6581554 4.0114694 -1.2894366 8 0
4.3823867 6.6060238 -1.8302019 20 1
2.8942983 4.3562694 -1.0166303 7 2
4.6922436 7.054379 -1.341895 2 3
9.75494 14.649066 -2.1609874 8 4
10.231725 15.347631 -1.6137757 34 5
2.686096 3.9928143 -1.2894366 8 0
4.3064761 6.3942375 -1.7798127 21 1
4.8720417 7.2258191 -1.6940023 7 2
6.2233143 9.2195005 -1.7617651 4 3
8.0425596 11.896695 -1.7632058 7 4
11.233432 16.579247 -1.0495454 9 6
2.725193 3.9919887 -1.2951305 9 0
16.481701 24.125069 0.50999421 61 8
4.4136763 6.4580927 -1.8059071 21 1
4.6373801 6.7752652 -1.5959265 3 2
5.1229191 7.4762421 -1.4354428 5 3
9.9155598 14.454248 -2.1522129 12 4
11.235719 16.335857 -1.0390781 9 6
2.758498 3.9808059 -1.2977188 8 0
16.608688 23.950268 0.50873768 61 8
4.5830617 6.6064539 -1.8562962 19 1
4.718173 6.7910953 -1.6073751 4 2
9.7487917 14.016228 -2.7041266 8 3
10.125131 14.541059 -2.1756117 15 4
10.552033 15.131627 -1.61395 34 5
11.335765 16.237373 -1.0378221 28 6
2.8040018 3.9867344 -1.3060009 8 0
16.766279 23.82065 0.50845838 61 8
4.4607787 6.3352909 -1.7888107 6 1
4.7156897 6.6873918 -1.5905839 4 2
9.9375439 14.076929 -2.729156 3 3
10.203485 14.437594 -2.1707368 13 4
11.060875 15.610275 -1.0026524 18 6
2.8317664 3.9670615 -1.3060009 8 0
16.914089 23.686445 0.50803953 60 8
4.5683484 6.3927832 -1.8140053 14 1
4.7839432 6.6870751 -1.5982162 6 2
9.81919 13.710252 -2.6709626 7 3
10.391953 14.488607 -2.189261 11 4
11.564393 16.087643 -1.0383455 38 6
2.8587036 3.9476941 -1.3060009 8 0
17.018021 23.483585 0.50622451 60 8
4.5179663 6.2321634 -1.7771133 3 1
4.8431993 6.67099 -1.6024141 4 2
4.9463 6.8055029 -1.3325089 3 3
10.453131 14.361136 -2.1809738 7 4
10.89452 14.951085 -1.6184822 35 5
11.477501 15.733825 -1.0206559 19 6
2.9074757 3.9551549 -1.3153185 8 0
17.176815 23.357761 0.50608486 60 8
4.5093145 6.1274748 -1.7564179 14 1
4.362144 5.9209957 -1.4295411 3 2
9.7821627 13.258515 -2.6096401 3 3
5.5242386 7.4792242 -1.141672 6 4
10.89676 14.736889 -1.6034913 34 5
11.331876 15.302985 -0.99794209 18 6
2.9465675 3.9502454 -1.3204948 8 0
17.348303 23.240658 0.50622451 60 8
5.097661 6.8265967 -1.966972 25 1
5.2039156 6.9587574 -1.6890413 3 2
5.390069 7.1998076 -1.4244925 4 3
10.188336 13.594273 -2.0859158 7 4
11.731174 15.61311 -1.0234821 19 6
2.9775715 3.9341996 -1.3220477 9 0
17.493217 23.096668 0.50573581 60 8
4.6426792 6.1276002 -1.7748638 14 1
5.3342566 7.0301719 -1.715373 7 2
10.229198 13.466709 -2.6784713 5 3
10.458416 13.753517 -2.1215017 15 4
11.236776 14.755737 -1.6226655 35 5
11.918601 15.634068 -1.0302857 28 6
3.017905 3.9301722 -1.3277417 8 0
17.636978 22.951782 0.50524718 60 8
5.1616507 6.7049603 -1.6447737 3 2
10.189118 13.221292 -2.6437428 4 3
10.580856 13.714747 -2.126864 12 4
12.031117 15.555224 -1.0305998 19 6
3.0595164 3.9272952 -1.3339534 8 0
17.785421 22.821735 0.50503772 60 8
4.9375033 6.3311009 -1.8535968 10 1
5.3014035 6.7903767 -1.6745398 6 2
10.331177 13.218559 -2.657196 3 3
10.72039 13.69682 -2.1356385 13 4
11.377723 14.520984 -1.61395 34 5
11.752131 14.982662 -0.99794209 18 6
3.0909679 3.912442 -1.3360239 8 0
17.919512 22.66564 0.50433964 60 8
5.3864698 6.8009076 -1.68637 7 2
8.3638544 10.548772 -2.1322021 3 3
10.798564 13.604873 -2.1327136 13 4
11.478814 14.441203 -1.61395 34 5
11.599012 14.576748 -0.97627503 9 6
3.1351204 3.9118721 -1.3432709 8 0
18.074808 22.536867 0.50426984 60 8
5.5211229 6.8717999 -1.7134649 3 2
5.7284465 7.1222024 -1.4476447 6 3
10.878342 13.510598 -2.1297889 13 4
12.327739 15.272477 -1.0286109 28 6
3.1696661 3.8988838 -1.3463767 7 0
18.221621 22.397713 0.50399059 60 8
5.3506665 6.5652456 -1.6463001 3 2
10.633215 13.032972 -2.6640792 3 3
11.047734 13.526576 -2.1444132 8 4
12.423937 15.173676 -1.0277736 28 6
3.2164714 3.9005091 -1.354659 5 0
5.009542 6.0684309 -1.8167046 14 1
5.622849 6.8041029 -1.7157546 4 2
8.6151257 10.413892 -2.1406496 4 3
11.129234 13.433833 -2.1419756 11 4
12.486102 15.039592 -1.0244241 9 6
3.265254 3.9052002 -1.3639765 5 0
4.5234156 5.4061146 0.12303946 3 8
5.7408361 6.8489428 -1.7371252 4 2
4.5035686 5.3709517 0.61322778 1 10
4.3196812 5.1479969 -1.0643803 1 3
4.4576192 5.3086214 0.85113555 3 11
4.227447 5.0327229 -0.80701888 5 4
4.2880111 5.0867667 -0.11612831 5 7
3.3249228 3.9206181 -1.377435 4 0
4.1896968 4.9368262 0.11302178 20 8
4.2187252 4.9692731 -1.5049226 15 1
4.1664829 4.9042654 0.33725294 11 9
4.2104039 4.9524598 -1.2635372 12 2
4.1511402 4.8810248 0.56058574 12 10
4.2044425 4.9402037 -1.0274616 15 3
4.129034 4.8481698 0.78191376 13 11
4.1916738 4.9199791 -0.7936132 13 4
4.1911311 4.9123912 -0.56494349 22 5
4.1857924 4.9009352 -0.3377763 11 6
4.1804724 4.8895202 -0.11228879 26 7
3.3874862 3.9383192 -1.3919289 4 0
4.2044921 4.8847222 0.11249821 37 8
4.2723851 4.9618526 -1.5116711 25 1
4.2019229 4.8765712 0.33735761 26 9
4.2576966 4.9378138 -1.2673534 14 2
4.190321 4.8579602 0.56128299 19 10
4.2465739 4.9197035 -1.029339 17 3
4.174459 4.832746 0.78410745 15 11
4.2337065 4.8996081 -0.79507565 12 4
4.2375059 4.8988175 -0.56668663 23 5
4.2382135 4.8927283 -0.33924171 11 6
4.2315369 4.8798556 -0.11274255 30 7
3.4415691 3.9451435 -1.4027992 6 0
4.2639384 4.8861256 0.11319631 34 8
4.315896 4.9421773 -1.5148203 24 1
4.2494712 4.8644047 0.33850899 23 9
4.3054223 4.9249773 -1.2715513 14 2
4.2346282 4.8405848 0.56267744 19 10
4.3033791 4.9174409 -1.0349705 14 3
4.2294903 4.8296065 0.78825098 12 11
4.2808905 4.8848634 -0.79751301 13 4
4.2873678 4.8870907 -0.5687784 23 5
4.2925034 4.8877797 -0.34091645 11 6
4.2681427 4.8531985 -0.11281236 21 7
3.4824195 3.9375458 -1.4084933 7 0
4.308548 4.8682179 0.11347555 54 8
5.5624185 6.2827539 -1.9372785 14 1
4.3005457 4.854053 0.33986974 38 9
6.5160623 7.3495436 -1.9092349 9 2
4.2806993 4.8265543 0.56442058 22 10
7.5239339 8.4773884 -1.7952422 3 3
4.2578292 4.7940269 0.78727603 7 11
11.592015 13.047223 -2.1429508 8 4
12.575746 14.119668 -0.99092907 9 6
3.5382016 3.9447765 -1.4198813 8 0
4.3170528 4.8097429 0.11281236 8 8
5.1426554 5.7275624 -1.7771133 15 1
4.3276567 4.8164811 0.33934638 7 9
5.106225 5.679009 -1.4844941 3 2
4.3009667 4.7817383 0.56267744 7 10
11.156343 12.394731 -2.6412399 4 3
4.291194 4.764185 0.78727603 3 11
10.776572 11.960206 -1.9767209 3 4
12.620462 13.972242 -0.9867422 18 6
3.5760543 3.9314122 -1.4240224 8 0
4.279182 4.7011123 0.1109624 8 8
5.4239326 5.9566417 -1.8598953 17 1
4.3544483 4.7787719 0.33882302 7 9
5.8521314 6.4178967 -1.6882781 6 2
4.3436413 4.7619014 0.56389767 6 10
6.8891234 7.5472016 -1.6184711 8 3
4.1958261 4.5934038 0.76387709 2 11
11.748944 12.857727 -2.1385634 7 4
12.709599 13.874964 -0.9861142 9 6
3.6322308 3.9375904 -1.4354105 8 0
4.2766318 4.6329198 0.11005487 5 8
5.3093796 5.7496929 -1.8068069 32 1
4.3958368 4.7570567 0.33945104 7 9
5.9007921 6.3812079 -1.6894228 9 2
4.3213091 4.671495 0.55675089 3 10
10.924402 11.801417 -2.5470665 5 3
4.130661 4.4591489 0.74632788 2 11
10.95736 11.824585 -1.9794021 6 4
12.412656 13.376331 -1.5965189 34 5
13.349883 14.371223 -1.027983 19 6
3.6728294 3.9262445 -1.4405869 8 0
4.2186766 4.5065994 0.10775116 2 8
5.2867851 5.6456318 -1.7856615 7 1
4.341536 4.6329799 0.33275205 2 9
9.1749697 9.7840319 -2.6072142 3 2
4.1766109 4.4523091 0.5340904 1 10
10.806432 11.51171 -2.5007617 4 3
4.1236353 4.3896914 0.73950326 3 11
11.878386 12.640354 -2.1297889 12 4
12.300928 13.071706 -1.5703722 33 5
12.737746 13.521703 -0.9735536 9 6
3.7054682 3.9061139 -1.4426575 8 0
4.1536608 4.3755198 0.10530782 2 8
5.6754389 5.9681368 -1.6008875 9 2
4.144423 4.3566394 0.52607203 1 10
11.68331 12.272975 -2.68379 1 3
4.1076279 4.3119283 0.73121613 1 11
12.015642 12.608854 -2.1385634 11 4
12.496424 13.095056 -1.5836197 34 5
4.1696734 4.3602633 -0.10530782 4 7
3.7554138 3.9038191 -1.4514573 9 0
4.1425033 4.3031936 0.10426068 2 8
5.5935392 5.8084927 -1.8616948 7 1
4.1286182 4.2842789 0.31181765 2 9
5.6951618 5.9057584 -1.5947818 13 2
7.3153119 7.5778742 -1.6682173 3 3
11.879904 12.293411 -2.0990777 17 4
12.58527 13.009691 -1.5836197 34 5
13.517298 13.953645 -1.0181438 9 6
3.8028114 3.8982494 -1.4592218 8 0
4.9341369 5.0526676 -1.6304452 3 1
5.7640491 5.896337 -1.6027957 12 2
7.4800148 7.6436749 -1.6938726 1 3
12.111318 12.359049 -2.1246703 11 4
12.499981 12.74231 -1.5616566 33 5
3.8428414 3.8860099 -1.4643983 8 0
5.6525288 5.7100444 -1.8549464 8 1
7.6184669 7.6852403 -2.1034784 4 2
11.722788 11.813157 -2.635921 9 3
11.243844 11.318662 -1.9589281 5 4
12.586432 12.656923 -1.5616566 33 5
13.809874 13.867842 -1.0256802 9 6
3.886292 3.8754563 -1.4706099 8 0
3.8781333 3.8632731 -1.263775 7 1
10.57073 10.519204 -2.8987703 3 2
5.8923545 5.8574958 -1.3159269 4 3
11.557853 11.473447 -1.9996324 2 4
12.549986 12.445295 -1.5463171 32 5
3.913959 3.8502684 -1.4711276 9 0
3.9071202 3.8395176 -1.2646748 7 1
7.6536398 7.5107179 -2.0843976 4 2
5.8597536 5.7443056 -1.2996577 11 3
11.537826 11.298669 -1.9828143 5 4
13.942613 13.620296 -1.0214933 19 6
14.035455 13.696637 -0.3423115 38 7
3.9670889 3.8484073 -1.4809626 8 0
3.9534216 3.8311334 -1.2709734 8 1
7.542232 7.2987304 -2.0401299 3 2
5.9195948 5.7224817 -1.3040378 24 3
11.08808 10.70763 -1.8926311 4 4
4.0106111 3.836643 -1.4871743 8 0
3.9885252 3.811518 -1.2736728 9 1
11.562784 11.034204 -3.1067524 8 2
11.877337 11.322503 -2.5990024 3 3
11.195622 10.661451 -1.8982371 7 4
4.0513487 3.8218086 -1.4923507 8 0
4.0235453 3.7916009 -1.2763723 9 1
7.3245716 6.8926797 -1.955029 22 2
7.9851222 7.506402 -1.735797 3 3
8.058732 7.5676551 -1.3573809 5 4
12.982696 12.174521 -1.5571245 33 5
14.221885 13.322584 -1.021284 9 6
14.412666 13.487142 -0.34454539 39 7
4.083591 3.7986929 -1.4944212 8 0
4.06705 3.7793357 -1.2817712 8 1
7.3609972 6.8306971 -1.9519762 15 2
11.214303 10.395482 -2.4219186 4 3
11.509427 10.657858 -1.9260232 3 4
13.610335 12.57246 -0.97104144 9 6
14.465323 13.348222 -0.34356809 39 7
4.1228242 3.7818444 -1.4990799 9 0
4.1163235 3.771915 -1.2889696 9 1
8.4803123 7.7598968 -2.2343736 4 2
12.127893 11.085938 -2.6024442 7 3
12.662462 11.562417 -2.1054149 8 4
13.928115 12.686949 -0.98737025 9 6
14.599572 13.284593 -0.34454539 39 7
4.1763453 3.7775939 -1.5089152 8 0
4.1570134 3.7561524 -1.2934686 9 1
7.4483671 6.7206755 -1.950068 3 2
7.5859346 6.8376017 -1.6175325 9 3
12.705995 11.440527 -2.0993216 10 4
14.476972 13.003133 -1.0198185 19 6
14.72173 13.209054 -0.34524351 39 7
4.2228007 3.7663481 -1.516162 8 0
4.2078705 3.7490778 -1.3011169 10 1
4.6342154 4.1245875 -1.2059129 4 2
12.294348 10.930799 -2.6055727 4 3
12.885013 11.439847 -2.1156518 15 4
14.484418 12.832768 -1.0141662 18 6
14.783633 13.079453 -0.34454539 39 7
4.2715483 3.7579312 -1.5244442 5 0
4.2552505 3.7396429 -1.3078654 9 1
11.540672 10.128033 -2.9846346 4 2
7.9735942 6.9901967 -1.6794806 3 3
11.672293 10.221925 -1.9050617 2 4
14.104359 12.321376 -0.98150867 9 6
14.872313 12.978528 -0.34454539 39 7
4.3093524 3.738148 -1.5285853 5 0
4.3048162 3.7302654 -1.3150638 9 1
8.3481588 7.2263055 -2.1462197 6 2
8.08076 6.987443 -1.6919955 3 3
11.76441 10.158345 -1.9084741 2 4
14.962558 12.874384 -0.34454539 39 7
4.396347 3.7614791 -1.5503261 4 0
4.3626966 3.7287338 -1.3249618 7 1
8.4103518 7.1780453 -2.1492727 4 2
12.557791 10.706431 -2.6137073 2 3
13.111817 11.16693 -2.114677 15 4
14.601678 12.405053 -1.0041177 18 6
15.049844 12.77224 -0.34454539 39 7
4.5051928 3.8004489 -1.5793139 4 0
4.4184275 3.7232985 -1.3339597 7 1
6.8108687 5.7312226 -1.7302561 3 2
12.432631 10.450721 -2.5724087 6 3
13.131689 11.026612 -2.1054149 7 4
13.744762 11.512805 -0.93963981 9 6
15.178519 12.700224 -0.34545293 39 7
4.0295877 3.3513725 -1.4043522 3 0
4.4742918 3.7172678 -1.3429577 7 1
7.8902574 6.5459666 -1.9928092 3 2
8.3135366 6.8897858 -1.7101418 4 3
13.293978 11.005556 -2.1190643 12 4
13.747801 11.35298 -0.93440622 9 6
15.266814 12.593948 -0.34545293 39 7
4.7385759 3.8853889 -1.6419481 6 0
4.5513921 3.7279243 -1.3582544 7 1
12.187606 9.9718876 -3.0609579 5 2
8.4642487 6.9180446 -1.7314169 3 3
13.611938 11.109541 -2.1573315 6 4
15.153499 12.341288 -1.0242147 9 6
15.36988 12.499676 -0.34580198 39 7
4.5711298 3.6963496 -1.5751728 1 0
4.6373 3.7458391 -1.3762506 7 1
7.7597113 6.2590671 -1.9378562 3 2
7.8047686 6.2886682 -1.5874972 4 3
12.255445 9.8606758 -1.9313855 3 4
13.435803 10.787229 -0.90300471 9 6
4.520411 3.6021445 -1.5487732 2 0
4.6731319 3.7198434 -1.3789499 8 1
11.952233 9.5038366 -2.968225 4 2
9.1830988 7.2914972 -1.8571903 3 3
12.754792 10.116584 -1.9989011 2 4
13.960618 11.045226 -0.93294084 9 6
5.5678725 4.3736191 -1.8971437 9 0
4.7572479 3.7328391 -1.3960463 9 1
8.5845642 6.7263246 -2.1198881 4 2
8.8946695 6.9617901 -1.7889848 3 3
12.360769 9.6607723 -1.926267 4 4
14.314572 11.163676 -0.95136315 9 6
15.731381 12.250957 -0.3480359 39 7
5.6234684 4.3525863 -1.9054259 9 0
4.8424191 3.7439985 -1.4131424 8 1
12.293605 9.4947205 -3.0193617 3 2
12.06333 9.303443 -2.4128454 6 3
13.262939 10.217532 -2.0556922 8 4
15.605607 11.991932 -1.031437 19 6
15.791141 12.121357 -0.34747744 39 7
5.6429992 4.3081598 -1.90232 14 0
4.8950362 3.7330711 -1.4212408 9 1
9.0169888 6.8666205 -2.2030807 4 2
7.4207606 5.6449242 -1.4767416 3 3
13.509016 10.265059 -2.0832345 10 4
14.276128 10.820477 -0.93880254 9 6
15.832922 11.98739 -0.34663972 39 7
5.470717 4.1165004 -1.8345095 10 0
4.9786158 3.7421291 -1.4378871 13 1
9.1557779 6.8718553 -2.2252147 7 2
9.2285748 6.9189425 -1.8268418 5 3
13.601008 10.185968 -2.0864034 8 4
15.980332 11.9244 -0.3480359 39 7
5.6824284 4.2139912 -1.8955908 11 0
5.0390697 3.7328002 -1.447785 16 1
12.222965 9.0412273 -2.9552498 6 2
13.116633 9.6916456 -2.5830462 6 3
9.4360886 6.9645162 -1.4400083 1 4
15.11743 11.129251 -0.98381138 9 6
16.06319 11.812546 -0.3480359 39 7
5.7709789 4.2175336 -1.915261 10 0
5.0854683 3.7124667 -1.4536338 15 1
12.225504 8.9117222 -2.9407485 3 2
12.423855 9.0463533 -2.4341204 6 3
14.079026 10.24028 -2.1375885 12 4
15.446948 11.20641 -1.0001402 9 6
5.6419482 4.0631194 -1.8629795 9 0
5.1270795 3.6882553 -1.4581327 14 1
9.093585 6.5319963 -2.1763675 10 2
12.335841 8.8511477 -2.4047108 3 3
13.091735 9.3831329 -1.9776958 2 4
5.8198476 4.1298409 -1.9121553 18 0
5.1781416 3.6704025 -1.4653312 12 1
8.4472485 5.9809899 -2.0118902 3 2
8.8057575 6.22791 -1.7082645 9 3
13.111516 9.25945 -1.9708712 2 4
5.8050809 4.060235 -1.8981789 13 0
5.2317595 3.6551604 -1.4734293 14 1
13.283877 9.2669573 -3.1483483 3 2
13.751646 9.5825777 -2.6546934 5 3
12.685464 8.8297653 -1.8977495 3 4
5.6519399 3.8946471 -1.8391682 13 0
5.2956758 3.6450648 -1.4842271 15 1
12.616923 8.6713753 -2.9758573 3 2
9.0921698 6.2418656 -1.7467474 5 3
9.0861454 6.2307329 -1.3527498 12 4
5.8244433 3.9538319 -1.8862734 11 0
5.3564777 3.6320655 -1.4941249 14 1
5.4281883 3.6751614 -1.2742226 6 2
13.682829 9.2535315 -2.6162102 4 3
13.778023 9.3073997 -2.0415554 12 4
17.18502 11.578352 -1.0859712 9 6
5.7427011 3.8400548 -1.8510739 12 0
5.4173536 3.6183968 -1.5040227 12 1
5.4733138 3.6502473 -1.2788019 6 2
11.813758 7.8698659 -2.2482765 3 3
14.814428 9.8576012 -2.1848738 8 4
16.887671 11.207407 -1.0622107 19 6
5.8145452 3.8296194 -1.8655677 12 0
5.478301 3.6040487 -1.5139207 10 1
5.5232763 3.6281185 -1.2845262 6 2
9.0639887 5.947144 -1.7170249 9 3
14.899488 9.7648172 -2.1873109 8 4
17.26141 11.282651 -1.0807376 9 6
5.8071041 3.7668555 -1.8546973 13 0
5.5638409 3.6049223 -1.5305669 7 1
5.5880332 3.6150608 -1.2936851 6 2
14.35145 9.273715 -2.7063167 7 3
13.906544 8.9759045 -2.0322933 3 4
16.970289 10.924037 -1.0577098 19 6
5.8153505 3.7147856 -1.8490034 11 0
5.6480117 3.6037292 -1.5467634 4 1
5.6330047 3.5886195 -1.2982645 5 2
8.3095255 5.2876363 -1.5599647 22 3
14.29388 9.0851765 -2.0795786 3 4
17.103497 10.841654 -1.0612687 28 6
5.8460484 3.6771822 -1.8505563 13 0
5.7885399 3.6367805 -1.5782566 2 1
5.6938839 3.5731544 -1.3066601 5 2
8.310173 5.2089252 -1.5533944 15 3
14.000222 8.7619057 -2.0279062 8 4
17.197224 10.737674 -1.0625247 9 6
5.8036137 3.5955868 -1.8293331 11 0
5.762115 3.5601466 -1.3165821 5 2
8.4556055 5.2182102 -1.5737309 7 3
13.949697 8.5986986 -2.012063 6 4
17.339827 10.6592 -1.0667117 9 6
5.7939372 3.5338602 -1.8184627 21 0
6.3889942 3.8922117 -1.7271742 23 1
5.8556018 3.5616598 -1.3322284 5 2
14.52221 8.8226967 -2.6912987 10 3
14.781559 8.9696674 -2.1229641 8 4
17.193394 10.404486 -1.0532088 19 6
6.0602818 3.6385069 -1.8940378 9 0
6.3892708 3.8314776 -1.7199757 25 1
5.9460154 3.5600281 -1.3471116 5 2
13.218685 7.9049582 -2.4394393 1 3
15.774323 9.4220572 -2.2560456 9 4
17.425194 10.379255 -1.0629433 28 6
5.8260818 3.442791 -1.8132863 22 0
6.4091506 3.7828169 -1.7181761 24 1
6.0073171 3.5414064 -1.3555073 3 2
14.511401 8.5444603 -2.667208 11 3
14.393675 8.4616156 -2.0500863 2 4
16.730965 9.8238564 -1.6974453 37 5
17.426519 10.219997 -1.0587565 28 6
5.9896455 3.4846573 -1.8567679 12 0
6.4381208 3.7410614 -1.7190759 24 1
6.1609554 3.5742555 -1.3845102 3 2
11.340362 6.571135 -2.0758855 2 3
14.641648 8.4738188 -2.0771413 3 4
16.833641 9.7267475 -1.7009314 37 5
17.587397 10.150001 -1.0641994 9 6
5.9266458 3.392848 -1.8298507 13 0
6.2559996 3.5770469 -1.663738 15 1
6.2812386 3.5856619 -1.4058808 7 2
11.296726 6.4409266 -2.0596163 2 3
16.156349 9.2004776 -2.2828567 9 4
18.064234 10.257747 -1.0886927 9 6
5.9249382 3.3371716 -1.8220862 14 0
6.3453584 3.5695951 -1.6808342 20 1
6.3643179 3.57441 -1.4188558 7 2
9.6840506 5.4322133 -1.7586365 1 3
15.832261 8.8701229 -2.2282593 9 4
17.978481 10.043718 -1.0792723 19 6
6.0308919 3.3416042 -1.8474505 13 0
6.5815525 3.6422129 -1.7366221 20 1
6.4263024 3.5519001 -1.4272513 5 2
9.7121553 5.3613968 -1.7570721 13 3
9.9375334 5.4767704 -1.3932104 3 4
18.042923 9.9191933 -1.0790628 9 6
5.955122 3.2468398 -1.8174274 13 0
6.7841825 3.694252 -1.783412 9 1
6.5371852 3.553834 -1.4463322 7 2
9.9403076 5.3971448 -1.7914877 14 3
15.415586 8.3595304 -2.1531878 8 4
18.220665 9.8518763 -1.0855525 19 6
5.9452953 3.1878409 -1.8075923 14 0
6.8235512 3.6541593 -1.7870111 28 1
6.6183519 3.539813 -1.4589256 8 2
15.113319 8.0731564 -2.7138255 6 3
16.055096 8.5618286 -2.2341089 9 4
18.181501 9.6713552 -1.0792723 9 6
6.0260625 3.1758394 -1.825192 14 0
6.6046529 3.4763494 -1.7231251 21 1
6.6545496 3.4966822 -1.4612154 8 2
15.579643 8.1760321 -2.7867239 8 3
14.266291 7.4772749 -1.9776958 3 4
18.326258 9.5766602 -1.0836685 9 6
6.0686703 3.1443567 -1.8314036 15 0
6.5820312 3.4059741 -1.7109778 13 1
6.7660122 3.4951921 -1.4802963 8 2
15.653899 8.0761242 -2.7898526 5 3
15.101638 7.7811937 -2.0859158 2 4
18.399773 9.452136 -1.0840871 19 6
6.100801 3.1071763 -1.8345095 15 0
6.8071342 3.4624286 -1.7631663 15 1
6.8462648 3.4763145 -1.4925081 8 2
10.963632 5.5597639 -1.9469837 18 3
16.538687 8.3760452 -2.2762759 11 4
18.506315 9.3441639 -1.0864946 19 6
6.1114473 3.0603845 -1.8314036 15 0
6.7800012 3.3907325 -1.7501192 25 1
6.9400301 3.4647098 -1.5077728 8 2
11.101988 5.5352478 -1.964817 8 3
11.003127 5.4787664 -1.5092301 19 4
18.61422 9.2401724 -1.0891113 29 6
6.1252031 3.0153043 -1.8293331 15 0
7.0407643 3.4614327 -1.8113058 16 1
7.0039878 3.4372873 -1.5165499 6 2
15.570336 7.6312079 -2.7463639 5 3
11.118613 5.4421477 -1.5199546 18 4
11.073792 5.4106231 -1.0782908 32 5
18.730528 9.1395388 -1.0922515 39 6
6.1217575 2.9606903 -1.8220862 15 0
7.1402135 3.4486387 -1.8306518 14 1
7.1233101 3.4343481 -1.5371574 3 2
14.816976 7.1341219 -2.6046343 3 3
11.13644 5.3452516 -1.0807312 16 5
18.833502 9.0275459 -1.0945543 39 6
6.1213369 2.9079359 -1.8158745 16 0
7.0426283 3.3410764 -1.7996083 20 1
7.2819648 3.4483895 -1.5661603 3 2
7.34303 3.4726017 -1.2865171 4 3
14.927083 7.0496244 -2.026931 2 4
17.805489 8.3938246 -1.7221974 38 5
18.950275 8.9213734 -1.0976944 39 6
6.1344862 2.8618629 -1.8138039 15 0
7.3395815 3.4193866 -1.8693433 13 1
7.2809381 3.3858817 -1.5608176 3 2
7.4513006 3.4603579 -1.3012221 6 3
14.992142 6.9527588 -2.0291247 2 4
17.870892 8.2726536 -1.7228948 38 5
19.06286 8.812314 -1.1006253 39 6
6.1859307 2.8334477 -1.8231214 18 0
8.2741518 3.7777288 -1.7680362 7 2
7.5327902 3.4344807 -1.3112338 6 3
17.596714 8.0118742 -2.3740151 9 4
17.946346 8.1559324 -1.7246377 38 5
19.178478 8.7037773 -1.1037654 39 6
6.2302279 2.8012867 -1.8303684 18 0
7.1892781 3.2279708 -1.8194041 21 1
8.2734499 3.7078283 -1.7623119 12 2
7.6178885 3.4092436 -1.3218714 6 3
14.937329 6.6755381 -2.0088944 8 4
17.999207 8.0288305 -1.7242892 57 5
19.297153 8.5956898 -1.1071149 29 6
6.246099 2.7561603 -1.8293331 16 0
7.1777544 3.162775 -1.810856 23 1
8.2937403 3.6476111 -1.7611672 19 2
7.7210822 3.3909311 -1.3356376 6 3
15.067199 6.6077604 -2.0201063 7 4
19.334732 8.4511614 -1.1058589 19 6
6.2474599 2.7048118 -1.8241568 16 0
7.2050261 3.114908 -1.8122058 21 1
8.3550577 3.6051736 -1.7687995 15 2
7.8298335 3.3736801 -1.3503424 5 3
15.897054 6.8397779 -2.1249142 3 4
19.488714 8.356905 -1.1113018 29 6
6.2910833 2.6717052 -1.8314036 14 0
7.3252716 3.1063757 -1.8369503 30 1
7.8647461 3.3286712 -1.6600385 3 2
7.9587293 3.3635364 -1.3684888 5 3
18.124475 7.6486249 -2.4154506 9 4
19.576036 8.2330322 -1.1129766 19 6
6.3184986 2.6314337 -1.8339919 13 0
7.3503766 3.0566599 -1.8378501 14 1
7.9276848 3.2902403 -1.6684339 6 2
7.9801927 3.3071358 -1.368176 7 3
18.316833 7.5795903 -2.4339747 18 4
19.7309 8.1365213 -1.1185242 39 6
6.3599663 2.5967515 -1.8407211 14 0
7.4202614 3.0251303 -1.8499974 20 1
8.7851505 3.5744298 -1.8435967 7 2
8.3581276 3.395587 -1.4288726 7 3
18.417126 7.4709406 -2.4403119 18 4
19.844624 8.0217781 -1.1217691 29 6
6.3671803 2.5479779 -1.8376153 14 0
7.4538665 2.9783144 -1.8531467 23 1
8.990428 3.5850015 -1.8813769 6 2
8.5174379 3.3912256 -1.4520249 6 3
15.569016 6.1893678 -2.0571547 3 4
19.861143 7.8676033 -1.1195709 19 6
6.3830137 2.5027623 -1.8370978 13 0
7.4690332 2.9240768 -1.8517971 20 1
8.2362337 3.217797 -1.7188075 4 2
8.6623678 3.379056 -1.4726743 9 3
18.712019 7.2879839 -2.4656608 15 4
19.232149 7.4789705 -1.805344 37 5
19.828074 7.6947937 -1.1146513 29 6
6.4093475 2.4616024 -1.8396858 10 0
7.4364977 2.8516273 -1.83875 14 1
8.3257828 3.1876369 -1.7329274 4 2
8.8051023 3.3658659 -1.4930108 8 3
18.385929 7.013556 -2.4161818 11 4
19.28389 7.344532 -1.805344 37 5
19.771715 7.5184755 -1.1085804 29 6
6.3680959 2.3961477 -1.8231214 11 0
7.4794521 2.8098521 -1.8445988 16 1
8.1934147 3.0715458 -1.7008715 10 2
8.9042368 3.3327024 -1.5058383 9 3
18.340269 6.8535008 -2.403995 11 4
19.728264 7.3447213 -1.1032422 39 6
6.3538513 2.3402805 -1.8143215 9 0
7.4769378 2.7494962 -1.8391999 21 1
8.6053944 3.1576457 -1.7817745 7 2
9.0237379 3.3057923 -1.5221075 7 3
18.424953 6.7389321 -2.4088695 11 4
19.672092 7.1678386 -1.0972759 29 6
6.3991132 2.3063455 -1.8226038 9 0
7.4794478 2.691292 -1.8351506 23 1
8.2927837 2.9774137 -1.7127017 3 2
9.1153984 3.2673762 -1.5336838 8 3
10.219816 3.657213 -1.3327633 12 4
19.597492 6.9860554 -1.0903674 29 6
6.3968382 2.2551951 -1.8174274 9 0
7.5164347 2.6454835 -1.8396497 25 1
8.9222431 3.1350226 -1.838254 4 2
9.2399473 3.2412205 -1.5508915 7 3
10.207627 3.5726604 -1.3278885 11 4
19.384344 6.7617273 -1.0759227 9 6
6.3755164 2.1989996 -1.8070747 9 0
7.5176864 2.5885458 -1.8356007 21 1
8.9661932 3.0803115 -1.8428333 10 2
9.5052624 3.2599394 -1.5915645 3 3
10.205416 3.4940944 -1.3244762 12 4
19.484003 6.6442933 -1.0788535 29 6
6.3870506 2.1532054 -1.8060393 9 0
7.5854411 2.5527852 -1.847748 24 1
8.8529577 2.9741931 -1.815357 9 2
10.283865 3.4489222 -1.7179635 13 3
10.208852 3.415833 -1.321795 9 4
19.449205 6.484973 -1.0744573 29 6
6.424315 2.1146939 -1.812251 5 0
7.6201768 2.5039151 -1.8517971 22 1
9.1263752 2.9917746 -1.8668753 10 2
10.314505 3.3752832 -1.7189021 2 3
10.20473 3.3334472 -1.318139 11 4
19.374662 6.3026962 -1.0677582 28 6
6.4462786 2.0721569 -1.8143215 5 0
7.5428376 2.4202898 -1.8288521 23 1
8.2976866 2.6577091 -1.6936207 3 2
10.341002 3.3062043 -1.7195278 3 3
10.273141 3.2766049 -1.3239887 9 4
13.659673 4.3488498 -1.2541711 22 5
19.312429 6.137392 -1.0620013 19 6
6.4823518 2.0351744 -1.8205333 4 0
7.5516996 2.36656 -1.8270525 24 1
9.2904282 2.9043241 -1.8920621 10 2
10.73343 3.3492596 -1.7808502 3 3
10.38618 3.2349372 -1.3356882 4 4
19.246065 5.9687033 -1.056035 28 6
6.511179 1.9943959 -1.8246742 4 0
7.5289011 2.3018165 -1.8176044 20 1
9.2485075 2.8204997 -1.8794687 13 2
10.476866 3.1891043 -1.7345455 1 3
10.518676 3.1958144 -1.3498249 5 4
19.226091 5.81569 -1.0526855 28 6
6.5360498 1.9522078 -1.8277801 3 0
7.5485229 2.2503126 -1.8185043 21 1
9.2698555 2.7564192 -1.8798503 12 2
10.582197 3.1406186 -1.7483118 1 3
10.698706 3.1691024 -1.3700553 6 4
19.120636 5.6383829 -1.0447305 28 6
6.5383897 1.9032936 -1.8246742 4 0
7.5490775 2.1932132 -1.8149052 21 1
9.2544622 2.6834207 -1.8729813 10 2
10.189671 2.9488106 -1.6801064 2 3
10.876963 3.1394744 -1.3900418 6 4
18.866802 5.4242282 -1.0288203 28 6
6.5697794 1.8640139 -1.8298507 3 0
7.5263319 2.1311553 -1.8059071 21 1
9.2748594 2.6192801 -1.8733629 13 2
11.198688 3.1562517 -1.8427982 12 3
11.06051 3.1110575 -1.4107596 4 4
29.136219 8.1569118 -1.585675 11 6
6.5975285 1.8222203 -1.8339919 3 0
7.5184817 2.0723491 -1.8005083 22 1
9.2678661 2.549314 -1.8684019 12 2
11.288489 3.0987706 -1.8540615 12 3
11.587427 3.1721342 -1.4751067 4 4
29.329803 7.9962225 -1.5932113 11 6
6.6060481 1.7762668 -1.8329566 4 0
7.5625277 2.0292048 -1.8077066 21 1
9.2475071 2.4744053 -1.8607695 10 2
11.380462 3.0387475 -1.8656377 13 3
11.871537 3.1632137 -1.5084988 6 4
29.508471 7.8240266 -1.5999104 11 6
6.6033363 1.7261927 -1.8288155 4 0
7.6443944 1.9940628 -1.8239032 14 1
9.2797556 2.4137385 -1.8638223 10 2
11.439639 2.9691482 -1.8718951 13 3
12.104718 3.1350048 -1.5353101 7 4
29.736437 7.6626973 -1.6093309 11 6
17.426104 4.4742618 4.8207641 2 15
6.6414399 1.6867114 -1.8360624 4 0
7.6751289 1.9449581 -1.8279523 13 1
9.1612377 2.314744 -1.8367275 7 2
11.373896 2.8674757 -1.8578159 19 3
10.952468 2.7531047 -1.3866295 1 4
17.949337 4.4952388 3.5967495 2 13
29.975208 7.5014586 -1.6193793 10 6
6.6720967 1.6437644 -1.8412387 3 0
7.6737113 1.886265 -1.8243531 11 1
8.7958241 2.1572073 -1.760404 7 2
11.353827 2.7761652 -1.8512456 21 3
12.514248 3.0529613 -1.5816205 6 4
30.187277 7.3253903 -1.6279624 10 6
6.6683788 1.5935522 -1.8370978 3 0
7.7018576 1.836262 -1.8279523 10 1
8.7460928 2.0787752 -1.7474288 10 2
11.376775 2.6977444 -1.8518714 21 3
12.666617 2.9965973 -1.5981947 3 4
14.366875 3.3908927 -1.2914737 24 5
14.338256 3.3735728 -0.77195543 43 6
6.6322904 1.5360621 -1.8241568 2 0
7.7296791 1.7859578 -1.8315514 11 1
8.7026482 2.005965 -1.7359804 10 2
11.54311 2.6543291 -1.8759624 6 3
14.279662 3.2731035 -1.7987916 5 4
14.38437 3.2891781 -1.2909508 60 5
14.335574 3.270123 -0.77059472 35 6
6.5539994 1.4709979 -1.7998277 3 0
7.7663784 1.7388371 -1.8374002 9 1
9.2433729 2.0627551 -1.8409253 12 2
11.603778 2.583127 -1.8828454 12 3
14.264791 3.1676595 -1.7941607 6 4
30.960896 6.8355269 -1.6616668 10 6
6.5792117 1.4284855 -1.8039688 3 0
7.7859473 1.6862252 -1.8391999 9 1
9.2230072 1.9907138 -1.8340561 10 2
11.596426 2.496644 -1.8787781 13 3
15.885815 3.4114232 -1.9950013 8 4
15.958284 3.4153411 -1.4277853 29 5
6.600368 1.3849026 -1.8070747 3 0
7.8166022 1.6358232 -1.8436987 7 1
9.2943373 1.9383008 -1.8455048 12 2
11.613573 2.4156249 -1.8787781 14 3
15.893692 3.2972097 -1.9930513 17 4
15.950522 3.2973871 -1.4249964 28 5
6.5947285 1.3357216 -1.8029336 3 0
7.8335629 1.5823708 -1.8450485 7 1
9.2941685 1.8706596 -1.8428333 9 2
10.779922 2.1638286 -1.7414287 3 3
15.795643 3.1620202 -1.9779397 7 4
20.519293 4.0815392 -1.0964384 19 6
6.6171651 1.2922411 -1.8065571 2 0
7.821465 1.5231736 -1.8396497 7 1
9.3378382 1.8117114 -1.8489393 7 2
10.54652 2.0404887 -1.7013814 7 3
15.552248 3.0005255 -1.9447912 13 4
20.24913 3.8810518 -1.0805283 19 6
6.5842562 1.2381586 -1.795169 2 0
7.7284789 1.4491386 -1.8153551 7 1
9.3731127 1.7524383 -1.8535187 7 2
10.6961 1.9939947 -1.7232823 6 3
14.433009 2.6802144 -1.8024478 1 4
32.287319 5.9607978 -1.7207018 8 6
6.5963335 1.1940004 -1.7962043 2 0
7.7113152 1.3916537 -1.8090565 7 1
9.4237633 1.6939054 -1.8611511 7 2
11.512797 2.0631838 -1.8524972 13 3
15.048887 2.6887474 -1.8770318 10 4
32.505138 5.7666278 -1.7301222 8 6
6.606411 1.148254 -1.7967219 3 0
7.7093215 1.3357919 -1.806357 6 1
9.4740534 1.6347505 -1.8687835 7 2
11.515241 1.9807498 -1.85062 14 3
15.157291 2.5990536 -1.8882437 19 4
32.721809 5.5697379 -1.7395427 8 6
6.6028333 1.1001996 -1.7936161 3 0
7.7107697 1.2806574 -1.8045573 7 1
9.5104151 1.5727379 -1.8737445 4 2
11.548277 1.9035282 -1.8537486 13 3
15.304349 2.5144198 -1.9043305 19 4
33.024036 5.3842258 -1.7535686 7 6
6.6141696 1.0546815 -1.7946514 3 0
7.7233725 1.2274066 -1.8054571 7 1
9.5483103 1.5105993 -1.8790871 6 2
11.690069 1.8431649 -1.874398 11 3
15.258778 2.3976462 -1.8965309 15 4
33.289742 5.1892438 -1.7657107 7 6
6.6175508 1.0079017 -1.7936161 3 0
7.7240458 1.1722914 -1.8036577 7 1
9.397501 1.4195592 -1.8474127 4 2
11.837437 1.7817901 -1.895986 9 3
15.445938 2.316678 -1.9177362 9 4
33.495049 4.9819803 -1.7747123 7 6
6.6206021 0.96112281 -1.7925807 3 0
7.7397561 1.1194546 -1.8054571 7 1
9.4052391 1.3536427 -1.8470311 4 2
11.851541 1.6993918 -1.8962989 8 3
15.385095 2.1978402 -1.9082304 12 4
33.742592 4.7782483 -1.7860171 7 6
6.579309 0.90827423 -1.7796398 18 0
7.7087717 1.060084 -1.7964592 7 1
9.379447 1.2831588 -1.8401619 4 2
11.906177 1.622479 -1.9031819 8 3
15.390226 2.0890508 -1.9070116 16 4
34.068081 4.581964 -1.8015084 6 6
6.5969815 0.86382788 -1.7827457 15 0
7.7430377 1.009765 -1.8027576 7 1
9.4037533 1.2196668 -1.8432151 4 2
11.956394 1.5443797 -1.9094393 8 3
15.581635 2.0043497 -1.9289482 10 4
34.344913 4.3753266 -1.8144878 6 6
6.6124382 0.81893528 -1.7853339 12 0
7.7344251 0.95377952 -1.7991585 7 1
9.3769636 1.1496905 -1.8363459 4 2
12.000218 1.4649457 -1.9147581 9 3
15.59919 1.8959922 -1.9294356 9 4
34.755348 4.1812506 -1.8345847 6 6
6.6352634 0.77476823 -1.7899926 3 0
7.7447677 0.9002099 -1.8000585 7 1
9.3806715 1.085381 -1.8355827 4 2
12.060936 1.3890994 -1.9228927 7 3
15.65149 1.7915657 -1.9343103 9 4
35.021152 3.9715881 -1.8471454 5 6
6.6192598 0.72726774 -1.7842987 3 0
9.3782616 1.0188049 -1.8336746 4 2
12.017314 1.299132 -1.9144453 4 3
15.687007 1.6875355 -1.9372352 9 4
35.318127 3.7557204 -1.8613808 5 6
6.6510806 0.68380177 -1.7915455 3 0
7.7176704 0.78937536 -1.7910603 42 1
38.230495 3.9035511 2.0139925 4 9
9.4201365 0.9585228 -1.8405437 4 2
38.31839 3.8854809 3.3696153 1 10
11.962987 1.2109364 -1.9044335 5 3
15.743833 1.5825523 -1.9428412 7 4
35.740368 3.554765 -1.8823153 4 6
6.6401958 0.63704056 -1.7874043 3 0
7.7636032 0.74071497 -1.8005083 7 1
9.4265985 0.89273453 -1.8405437 4 2
11.935749 1.1240556 -1.8988018 5 3
38.427383 3.6054068 4.7390118 1 11
15.851087 1.4844124 -1.9547845 10 4
38.445736 3.5868235 6.1156497 3 12
38.508804 3.572371 7.5174932 0 13
36.118317 3.3378789 -1.9009469 4 6
6.6560268 0.59169406 -1.7905102 3 0
7.7549963 0.68529594 -1.7973589 7 1
9.385519 0.82443035 -1.8313849 4 2
11.943123 1.0427911 -1.8988018 5 3
15.979723 1.3839995 -1.9694086 10 4
36.673515 3.1375964 -1.9289988 3 6
6.6290941 0.54384685 -1.782228 4 0
7.7458858 0.63138509 -1.7942096 5 1
9.3793049 0.75793368 -1.8290951 27 2
11.934361 0.95811671 -1.8962989 5 3
16.091673 1.2833956 -1.9820831 10 4
37.096733 2.9130743 -1.9501425 3 6
6.6327295 0.4975538 -1.782228 3 0
7.7578778 0.57787228 -1.7960092 5 1
9.3687038 0.691284 -1.8260422 22 2
11.921057 0.8733381 -1.8931701 5 3
16.197254 1.1780874 -1.9940264 8 4
37.554447 2.6853411 -1.9731705 2 6
6.6514611 0.45228496 -1.7863692 3 0
7.7461691 0.52264851 -1.79241 5 1
9.4320679 0.62978512 -1.8374907 4 2
11.91898 0.78956985 -1.8919187 5 3
16.256586 1.0683651 -2.0003636 8 4
38.301758 2.4701598 -2.0114803 1 6
6.6544561 0.4058412 -1.7863692 3 0
7.7321219 0.4675025 -1.7883608 6 1
9.4440737 0.56439006 -1.8390172 4 2
11.912371 0.7056396 -1.8900415 5 3
16.323097 0.95833701 -2.0076756 8 4
38.80061 2.2304416 -2.0368111 1 6
6.6571279 0.35937124 -1.7863692 3 0
7.7410355 0.41381913 -1.7897105 4 1
9.4320993 0.49762127 -1.8359643 4 2
11.863743 0.61968201 -1.8815941 24 3
16.347233 0.84528726 -2.0098693 6 4
39.561256 1.9971693 -2.0759583 0 6
6.6633334 0.31306833 -1.7874043 3 0
7.7476292 0.35994732 -1.7906104 4 1
9.403964 0.43032029 -1.8298583 4 2
11.928955 0.53960389 -1.8912928 5 3
16.364635 0.73166573 -2.011332 5 4
40.356426 1.7549646 -2.1169896 0 6
6.6383324 0.26546434 -1.7801574 3 0
7.7752671 0.30685261 -1.7964592 3 1
9.4400902 0.36595061 -1.8363459 3 2
11.964014 0.45751876 -1.8962989 5 3
16.391163 0.61822414 -2.0140131 3 4
41.194008 1.5033169 -2.1603239 0 6
6.6709166 0.22013299 -1.7884396 3 0
7.7655334 0.25218403 -1.7937597 3 1
9.422739 0.30106285 -1.8325297 3 2
11.966851 0.37607723 -1.8962989 5 3
16.325634 0.50165111 -2.0054822 5 4
42.017807 1.2470771 -2.2030299 0 6
6.6722608 0.17472032 -1.7884396 3 0
7.7456408 0.19876985 -1.7888107 3 1
9.3892841 0.23439051 -1.8256606 3 2
11.93364 0.29164925 -1.8906672 4 3
16.314779 0.39017421 -2.0037761 16 4
42.959972 0.97491378 -2.2520165 0 6
6.6559339 0.12780111 -1.7837809 2 0
7.7741175 0.14519972 -1.7951094 3 1
9.406395 0.16911757 -1.8287135 3 2
11.945259 0.20850769 -1.8922316 4 3
16.350845 0.2768451 -2.0079193 5 4
6.6489372 0.081236415 -1.7817104 2 0
7.7593527 0.090740301 -1.7915101 3 1
9.4191256 0.10357396 -1.8310033 3 2
94.035286 1.0176113 8.2275019 59 10
11.950375 0.12515037 -1.8928572 4 3
16.370247 0.16286568 -2.0101132 3 4
45.034481 0.39299986 -2.3602471 0 6
6.6686606 0.034920432 -1.7868867 2 0
7.7675924 0.036608029 -1.7933098 2 1
9.3999863 0.037734725 -1.8271869 3 2
11.931204 0.041649017 -1.8897287 4 3
16.363043 0.048552282 -2.0091381 3 4
6.6494231 -0.011605444 -1.7817104 2 0
7.7559662 -0.017597759 -1.7906104 2 1
9.4392853 -0.028007006 -1.8348193 3 2
11.915401 -0.041592762 -1.8872255 3 3
16.353058 -0.065645725 -2.0079193 2 4
6.668498 -0.058195103 -1.7868867 2 0
7.7712436 -0.071887948 -1.7942096 2 1
9.4388599 -0.093904436 -1.8348193 3 2
11.934572 -0.12498309 -1.8903543 3 3
16.306547 -0.17930707 -2.0023134 2 4
6.6814504 -0.1049606 -1.7905102 3 0
7.7744493 -0.12620254 -1.7951094 2 1
9.4104929 -0.15933198 -1.8294767 3 2
11.933409 -0.20829841 -1.8903543 3 3
16.314772 -0.29616883 -2.0035322 2 4
6.6708722 -0.15254815 -1.787922 2 0
7.7577615 -0.18146703 -1.7915101 3 1
9.4484053 -0.22596399 -1.8371091 3 2
11.903966 -0.29300553 -1.8859742 3 3
16.308338 -0.40995955 -2.0030446 2 4
6.6735063 -0.19923081 -1.7889572 2 0
7.7796798 -0.23633164 -1.796909 2 1
9.4269238 -0.29295918 -1.833293 3 2
11.893732 -0.37585351 -1.8847226 2 3
16.314999 -0.52412093 -2.0042634 1 4
6.635273 -0.24446405 -1.7791222 3 0
7.750577 -0.28961909 -1.7906104 2 1
9.393321 -0.35592946 -1.8271869 3 2
11.890899 -0.45680225 -1.8847226 2 3
16.267302 -0.6363005 -1.9989011 1 4
6.6527548 -0.29046556 -1.7842987 3 0
7.7562132 -0.34271255 -1.79241 2 1
9.4141426 -0.42255443 -1.8317665 3 2
11.903207 -0.54052144 -1.8872255 3 3
16.290356 -0.74828804 -2.0023134 1 4
6.6389885 -0.33631667 -1.7811928 3 0
7.7614164 -0.39725077 -1.7942096 2 1
9.3560667 -0.4854185 -1.8210812 3 2
11.863635 -0.62174678 -1.8815941 3 3
16.264912 -0.86094779 -1.999876 2 4
6.6287646 -0.38221216 -1.7791222 3 0
7.7351084 -0.45006719 -1.7888107 3 1
9.3720484 -0.55187786 -1.8248973 3 2
11.855062 -0.70432043 -1.8809682 3 3
16.238689 -0.97328871 -1.9974388 2 4
6.6105118 -0.4274826 -1.774981 4 0
7.7434459 -0.50481772 -1.7915101 3 1
9.348484 -0.61437064 -1.8210812 3 2
11.822398 -0.78317028 -1.876588 2 3
16.261209 -1.0886205 -2.0010948 2 4
6.6228652 -0.47357097 -1.7791222 3 0
7.7223368 -0.55625349 -1.7874612 3 1
9.3752956 -0.68189847 -1.8271869 3 2
11.836344 -0.8671298 -1.8797168 3 3
16.243523 -1.1985506 -1.999876 3 4
6.661767 -0.52312255 -1.7905102 3 0
7.7124376 -0.60969085 -1.7861114 4 1
9.3429089 -0.74514818 -1.8218443 3 2
11.826064 -0.9494251 -1.8790911 3 3
16.232782 -1.3117617 -1.9996324 2 4
6.6387048 -0.56797057 -1.7853339 3 0
7.707993 -0.66351855 -1.7861114 3 1
9.3453035 -0.81103432 -1.8233709 3 2
11.819148 -1.0319628 -1.8790911 4 3
16.239052 -1.4264449 -2.0015824 2 4
6.6076469 -0.61180973 -1.7780869 3 0
7.7148147 -0.71839797 -1.7888107 3 1
9.312048 -0.87368894 -1.8180283 3 2
11.805754 -1.1138934 -1.8781524 4 3
16.236599 -1.540529 -2.0025573 2 4
6.622438 -0.65983987 -1.7832633 3 0
7.71349 -0.77262801 -1.7897105 2 1
9.3311148 -0.94123894 -1.8229893 4 2
11.815378 -1.1980789 -1.8809682 3 3
16.245199 -1.6558564 -2.0049946 2 4
6.6138282 -0.70564681 -1.782228 3 0
7.6962819 -0.82521248 -1.7870111 3 1
9.2755175 -1.0010923 -1.8134488 3 2
11.814582 -1.281388 -1.8822197 3 3
16.251003 -1.7711637 -2.0071883 2 4
6.6202579 -0.75311261 -1.7853339 3 0
7.7096949 -0.88113499 -1.7915101 3 1
9.3172503 -1.0698037 -1.8229893 4 2
11.801423 -1.3633839 -1.8815941 3 3
16.246128 -1.8854883 -2.0081632 2 4
6.595799 -0.7958433 -1.7801574 3 0
7.6919107 -0.93218565 -1.7888107 2 1
9.3097525 -1.1331991 -1.8229893 4 2
11.811728 -1.4440205 -1.8847226 3 3
16.201744 -1.9893241 -2.0042634 1 4
6.5827098 -0.83859402 -1.7780869 3 0
7.708755 -0.98614687 -1.7942096 3 1
9.294034 -1.1955398 -1.8214628 4 2
11.778117 -1.5213497 -1.8809682 2 3
16.250452 -2.1105649 -2.012063 2 4
6.5803704 -0.88619262 -1.7791222 4 0
7.6725335 -1.0373673 -1.7874612 3 1
9.2930231 -1.2630728 -1.8229893 4 2
11.739527 -1.6018536 -1.876588 1 3
16.232967 -2.2265265 -2.0118194 2 4
6.5968122 -0.93651623 -1.7853339 4 0
7.6822772 -1.0947179 -1.7915101 3 1
9.2856913 -1.3298179 -1.8233709 3 2
11.786424 -1.6942499 -1.8859742 2 3
16.228817 -2.3414996 -2.0132816 1 4
6.5633626 -0.97855896 -1.7780869 4 0
7.6628838 -1.1465929 -1.7888107 3 1
9.2958374 -1.3959075 -1.8271869 3 2
11.751179 -1.7709054 -1.8822197 2 3
16.192448 -2.4517684 -2.0108442 2 4
6.5794549 -1.0267859 -1.7842987 3 0
7.6741548 -1.2017405 -1.7933098 2 1
9.2858658 -1.4607702 -1.8271869 3 2
11.699505 -1.8467406 -1.8759624 1 3
16.183228 -2.5631714 -2.0118194 2 4
6.5644999 -1.0714489 -1.782228 4 0
7.667501 -1.2556014 -1.7937597 3 1
9.2757082 -1.5239428 -1.8271869 3 2
11.752931 -1.9372561 -1.8865999 2 3
16.202148 -2.6822486 -2.0164504 2 4
6.5570545 -1.116107 -1.782228 4 0
7.6530142 -1.3067789 -1.79241 3 1
9.2222729 -1.5813624 -1.8187915 3 2
11.758589 -2.0226083 -1.8897287 3 3
16.191339 -2.7938197 -2.0174253 2 4
6.5871463 -1.1686054 -1.7925807 3 0
7.6628909 -1.3635889 -1.796909 2 1
9.2731419 -1.6551381 -1.8310033 3 2
11.732882 -2.1005099 -1.8878514 3 3
16.189026 -2.9099481 -2.019619 3 4
6.5636292 -1.2117578 -1.7884396 3 0
7.6340227 -1.4135044 -1.79241 3 1
9.2494802 -1.7192994 -1.8287135 3 2
11.740854 -2.1887584 -1.8916059 3 3
16.207342 -3.030194 -2.0244937 3 4
6.5625982 -1.2590065 -1.7905102 3 0
7.643105 -1.4704466 -1.796909 2 1
9.2414179 -1.7829622 -1.8294767 3 2
11.717926 -2.2671235 -1.8903543 3 3
16.193588 -3.1447816 -2.0254686 3 4
