# .PCD v0.7 - Point Cloud Data file format
VERSION 0.7
FIELDS x y z intensity ring
SIZE 4 4 4 4 2
TYPE F F F F U
COUNT 1 1 1 1 1
WIDTH 1301
HEIGHT 1
VIEWPOINT 0 0 0 1 0 0 0
POINTS 1301
DATA ascii
6.7010808 -16.153913 -2.1473379 17 4
19.421392 -46.980129 -2.6642144 1 6
2.8284266 -6.9101539 -2.0006714 2 0
3.671546 -8.9833994 -2.2405124 4 1
13.609818 -33.333218 1.8869207 10 9
4.6668777 -11.44154 -2.4019036 6 2
6.0055151 -14.745479 -2.521724 10 3
6.4198875 -15.786557 -2.0924966 5 4
18.992428 -46.866531 -2.6501884 1 6
2.7959404 -6.9691758 -2.0120592 2 0
3.6775818 -9.1806669 -2.2832532 7 1
13.507385 -33.753773 1.9053431 9 9
4.5825148 -11.462904 -2.3996141 6 2
5.9009609 -14.783377 -2.5210981 10 3
6.5204525 -16.360229 -2.1624498 13 4
18.769453 -47.261559 -2.6650517 1 6
2.7429786 -6.9777374 -2.0089536 2 0
3.6461525 -9.2895622 -2.3039486 10 1
13.411393 -34.204258 1.92544 8 9
4.5016608 -11.492789 -2.3992324 7 2
5.7810621 -14.781899 -2.5139022 14 3
18.596926 -47.797218 -2.6878703 1 6
2.7011406 -7.0147452 -2.0141299 2 0
3.600791 -9.3657207 -2.316546 9 1
13.311194 -34.658764 1.9457463 7 9
4.4248328 -11.533102 -2.4011405 6 2
5.6713643 -14.805296 -2.5110862 12 3
6.5622778 -17.157944 -2.255558 16 4
18.432056 -48.370071 -2.7127824 1 6
2.6575553 -7.0478926 -2.018271 2 0
3.539439 -9.4015732 -2.3192453 7 1
13.213733 -35.135948 1.9673088 4 9
4.3386884 -11.549008 -2.3980875 6 2
5.5311012 -14.746502 -2.4945042 17 3
6.3601851 -16.983978 -2.2267969 13 4
18.237738 -48.883057 -2.7343447 1 6
2.605612 -7.0590243 -2.0162005 1 0
3.4885421 -9.4662819 -2.329143 9 1
13.116471 -35.61116 1.9888712 3 9
4.2579417 -11.572745 -2.3969426 7 2
26.284332 -71.515732 6.6660194 39 10
5.4987068 -14.969233 -2.5257909 6 3
6.1840768 -16.871399 -2.2063227 13 4
18.060854 -49.433784 -2.7582099 1 6
2.5614421 -7.0874982 -2.0193064 1 0
3.4451919 -9.5484657 -2.34354 10 1
13.007043 -36.088924 2.0104337 2 9
4.1750517 -11.596648 -2.395798 6 2
25.943989 -72.101685 6.70402 40 10
5.446857 -15.154112 -2.5505078 7 3
6.1133418 -17.036421 -2.2224095 16 4
17.709249 -49.541737 -2.7572677 1 6
2.5131874 -7.10885 -2.0203414 2 0
3.384933 -9.590662 -2.3480392 10 1
4.0959458 -11.631067 -2.3969426 7 2
25.293146 -71.863823 6.6653228 39 10
5.333066 -15.169406 -2.5467534 6 3
6.0139832 -17.134878 -2.2297218 2 4
17.273973 -49.409637 -2.7431371 1 6
2.4742277 -7.1572604 -2.0291414 2 0
3.308996 -9.5882702 -2.3417406 9 1
4.0184813 -11.670517 -2.3992324 7 2
5.2167602 -15.17638 -2.5417476 6 3
8.7150326 -25.396654 -3.2968099 2 4
16.849157 -49.296574 -2.7302625 1 6
2.4186349 -7.1578884 -2.0244827 3 0
3.2307649 -9.577899 -2.3336422 7 1
3.9369075 -11.698287 -2.3992324 7 2
5.0830011 -15.130036 -2.527981 6 3
8.5312071 -25.438057 -3.2943723 2 4
16.445118 -49.234924 -2.7204232 1 6
2.3765228 -7.1943636 -2.0301766 2 0
3.1972308 -9.6959057 -2.3570371 8 1
3.844306 -11.68565 -2.3912184 4 2
4.9527802 -15.081707 -2.514215 7 3
8.4258804 -25.703032 -3.3211837 2 4
16.032125 -49.108395 -2.7073393 1 6
2.3363225 -7.242034 -2.0389764 3 0
3.1378257 -9.7439594 -2.3633358 8 1
3.7686379 -11.730896 -2.3950348 6 2
4.8099709 -14.999293 -2.4948173 3 3
8.3103838 -25.961632 -3.3470199 2 4
15.633095 -49.044048 -2.6977093 1 6
2.29267 -7.2802801 -2.0451882 3 0
3.0650496 -9.7507553 -2.3597367 7 1
3.6889999 -11.764412 -2.3965611 6 2
4.7157636 -15.066442 -2.5004489 4 3
8.1395903 -26.053123 -3.3514073 2 4
15.234555 -48.972729 -2.6878703 1 6
2.2440579 -7.3034949 -2.0472586 3 0
2.994616 -9.7644634 -2.3579369 8 1
3.6044817 -11.782371 -2.3950348 6 2
4.6370015 -15.185901 -2.5148406 4 3
7.9725599 -26.158682 -3.3577445 2 4
14.838362 -48.900146 -2.6781356 1 6
2.1896892 -7.3078799 -2.044153 3 0
2.9152083 -9.7477903 -2.3489389 8 1
3.5131576 -11.777144 -2.3889287 4 2
4.5449634 -15.265235 -2.5226626 4 3
7.808969 -26.278399 -3.3660314 3 4
14.450719 -48.847416 -2.6696575 1 6
2.1440327 -7.3415322 -2.0493293 3 0
2.8361785 -9.7304878 -2.3399408 10 1
3.4352367 -11.816466 -2.3919816 6 2
4.445437 -15.321256 -2.5267298 4 3
7.6606598 -26.454309 -3.3816309 3 4
14.035224 -48.689941 -2.6556313 1 6
2.0969565 -7.3711867 -2.0534704 4 0
2.7575331 -9.7125578 -2.3309429 9 1
3.3537312 -11.843939 -2.392745 6 2
4.3501859 -15.393738 -2.533613 4 3
7.4984169 -26.587389 -3.3918679 3 4
13.635047 -48.573299 -2.6440129 1 6
2.0547268 -7.4191585 -2.0627878 3 0
2.6844695 -9.7127886 -2.3264439 8 1
3.2740765 -11.870277 -2.3935082 6 2
4.2736125 -15.525836 -2.5505078 3 3
7.322082 -26.673548 -3.3962553 3 4
13.2625 -48.512783 -2.6357439 1 6
2.009208 -7.4516249 -2.0679643 3 0
2.6152573 -9.7195454 -2.3237445 7 1
3.1860414 -11.873882 -2.3896918 6 2
4.1835108 -15.623987 -2.5617712 3 3
7.1639228 -26.810986 -3.4074671 3 4
12.871144 -48.40731 -2.625067 1 6
1.9571369 -7.4654703 -2.0679643 3 0
2.5493109 -9.7451067 -2.3255439 8 1
3.1076243 -11.904793 -2.3916001 7 2
4.0979795 -15.732388 -2.5749116 4 3
6.9745822 -26.852661 -3.4064922 3 4
12.489339 -48.292702 -2.6141813 1 6
1.9062763 -7.4786186 -2.0679643 3 0
2.4829199 -9.7622337 -2.3255439 8 1
3.0244372 -11.926198 -2.3916001 7 2
3.9987094 -15.802744 -2.5817947 4 3
6.8178787 -27.003447 -3.4196541 3 4
12.104211 -48.188881 -2.6039233 1 6
1.8605165 -7.5179992 -2.0752113 3 0
2.4147062 -9.7793293 -2.3255439 9 1
2.9443893 -11.960366 -2.3942714 6 2
3.9014835 -15.883989 -2.5905552 4 3
6.6386495 -27.088945 -3.4245288 3 4
11.714521 -48.054882 -2.5922003 1 6
1.8043789 -7.5157766 -2.0710702 4 0
2.3518221 -9.8186913 -2.3309429 8 1
2.8544347 -11.953896 -2.3889287 6 2
3.8078933 -15.98386 -2.6024442 4 3
6.4658961 -27.204159 -3.4333034 3 4
11.339694 -47.970276 -2.583303 1 6
1.7553676 -7.5432429 -2.0752113 4 0
2.2814558 -9.8272772 -2.329143 10 1
2.7738883 -11.976873 -2.3896918 6 2
3.7292473 -16.140285 -2.6237192 3 3
6.2722535 -27.233162 -3.4313536 3 4
10.968738 -47.853622 -2.5729406 1 6
1.7048316 -7.5587854 -2.0762465 4 0
2.2145104 -9.8425779 -2.329143 10 1
2.6859105 -11.97679 -2.3858757 6 2
3.6173389 -16.169785 -2.6243448 3 3
6.1031704 -27.348846 -3.4406157 3 4
10.599778 -47.773045 -2.5645669 1 6
1.6528453 -7.5742774 -2.0772817 4 0
2.1440859 -9.8501825 -2.3273437 10 1
2.6059787 -12.012517 -2.3893104 7 2
3.5152266 -16.244843 -2.6324794 4 3
5.928844 -27.468405 -3.4503653 3 4
10.231224 -47.6838 -2.5558791 1 6
1.6031163 -7.6007547 -2.081423 4 0
2.0720582 -9.8496552 -2.3237445 10 1
2.5200379 -12.02081 -2.3874023 6 2
3.408201 -16.299921 -2.6374853 4 3
5.7320704 -27.485806 -3.4474404 3 4
9.8603859 -47.572182 -2.5461445 1 6
1.5561814 -7.6420488 -2.089705 4 0
2.0040197 -9.8676996 -2.3246443 10 1
2.4383931 -12.049655 -2.3896918 6 2
3.2954977 -16.329128 -2.6384242 4 3
5.5486674 -27.567965 -3.4528024 3 4
9.4919996 -47.459682 -2.5365148 1 6
1.5057709 -7.667892 -2.0938461 4 0
1.9328344 -9.869976 -2.3219447 9 1
2.3451884 -12.020139 -2.3805332 6 2
3.1863227 -16.376944 -2.6424911 4 3
5.3606086 -27.629416 -3.4557273 3 4
9.133976 -47.387508 -2.5291877 1 6
1.4522023 -7.6782169 -2.0938461 4 0
1.8646051 -9.8870573 -2.3228445 10 1
2.2655649 -12.059373 -2.3851125 6 2
3.078459 -16.433739 -2.648123 2 3
5.1756067 -27.709097 -3.4610896 3 4
8.7726879 -47.287132 -2.5204999 0 6
1.4006382 -7.6995721 -2.096952 7 0
1.7955351 -9.8998346 -2.3228445 10 1
2.1799262 -12.067167 -2.3835862 6 2
2.9678569 -16.478159 -2.6518774 3 3
4.9785261 -27.725014 -3.4586523 3 4
8.4093971 -47.162395 -2.5106609 1 6
1.3475158 -7.7129683 -2.0979872 4 0
1.7243724 -9.90061 -2.3201451 9 1
2.0997505 -12.093332 -2.3858757 6 2
2.8556263 -16.497978 -2.6518774 4 3
4.7848511 -27.759096 -3.4586523 3 4
8.0655842 -47.086643 -2.5036476 0 6
1.3000972 -7.7524467 -2.1062696 5 0
1.6550144 -9.9005842 -2.3174458 8 1
2.0152736 -12.107697 -2.3858757 6 2
2.7474921 -16.560383 -2.6587603 5 3
4.5951419 -27.787104 -3.4581647 3 4
7.7149954 -47.009762 -2.4966347 1 6
1.2441061 -7.7498889 -2.1031637 4 0
1.5877023 -9.9234428 -2.3201451 9 1
1.9325045 -12.119194 -2.3854942 7 2
2.6402884 -16.613819 -2.6643922 5 3
4.3985643 -27.80282 -3.4562147 3 4
7.4652071 -47.509064 -2.520395 0 6
1.1966041 -7.7925487 -2.1124811 3 0
1.518351 -9.9224615 -2.3174458 8 1
1.8484406 -12.136271 -2.3862574 7 2
2.5272033 -16.651375 -2.6675208 5 3
4.2121797 -27.851746 -3.4586523 3 4
7.2447448 -48.302689 -2.559752 1 6
1.1421727 -7.8007126 -2.1124811 3 0
1.4490421 -9.9328203 -2.3174458 8 1
1.7594391 -12.119737 -2.3805332 6 2
2.4125922 -16.680344 -2.6693981 5 3
4.0289636 -27.959064 -3.4684017 6 4
7.0118647 -49.083641 -2.5984805 0 6
1.0924829 -7.8429365 -2.1217985 3 0
1.37752 -9.9272528 -2.3138466 8 1
1.6763954 -12.143394 -2.382823 6 2
2.2982352 -16.712435 -2.6719007 3 3
3.8460705 -28.076981 -3.4796138 6 4
6.7818551 -49.962627 -2.6424427 0 6
1.0392222 -7.8618636 -2.1249044 3 0
1.3086913 -9.9404926 -2.3147464 9 1
1.5952303 -12.166203 -2.3851125 6 2
2.1900511 -16.770784 -2.6787841 3 3
3.6581442 -28.16614 -3.4874134 3 4
6.4206953 -49.845203 -2.6338596 1 6
0.9837631 -7.8534207 -2.1207633 3 0
1.2405155 -9.945302 -2.3138466 8 1
1.5088069 -12.165354 -2.382823 6 2
2.0753388 -16.805269 -2.6819129 3 3
3.4653723 -28.182507 -3.4864385 3 4
6.0619349 -49.801575 -2.6292541 1 6
0.9307276 -7.8754449 -2.1249044 3 0
1.1719648 -9.961462 -2.3156462 8 1
1.4256643 -12.19119 -2.3858757 4 2
1.958879 -16.827198 -2.6831641 3 3
3.2776768 -28.284889 -3.4961882 3 4
5.7015953 -49.733547 -2.623497 1 6
0.87657738 -7.8894305 -2.1269751 4 0
1.1006809 -9.9539051 -2.312047 8 1
1.3422357 -12.216456 -2.3889287 6 2
1.8477985 -16.89937 -2.6925502 3 3
3.0848556 -28.350498 -3.5015504 3 4
5.340579 -49.64505 -2.6167982 1 6
0.82347655 -7.9145727 -2.1321514 3 0
1.0311629 -9.9613476 -2.312047 8 1
1.2555121 -12.21186 -2.3862574 7 2
1.7321875 -16.935442 -2.6963046 3 3
2.8856542 -28.359491 -3.5000877 3 4
4.9814878 -49.557911 -2.6103084 1 6
0.76857537 -7.9239745 -2.1331868 3 0
0.96271712 -9.9799423 -2.3147464 8 1
1.1730337 -12.249641 -2.3919816 6 2
1.6184082 -16.994316 -2.7038136 3 3
2.6920927 -28.426378 -3.5059376 3 4
4.6242342 -49.47216 -2.604028 1 6
0.71531469 -7.9522367 -2.1393983 3 0
0.89163303 -9.970891 -2.311147 9 1
1.0885826 -12.245609 -2.3896918 6 2
1.5019984 -16.99707 -2.7025621 3 3
2.4998143 -28.515669 -3.5147123 3 4
4.2765293 -49.377136 -2.5974338 1 6
0.66052902 -7.9492202 -2.1373277 3 0
0.82374257 -9.9767294 -2.311147 9 1
1.0043486 -12.268565 -2.392745 6 2
1.3868251 -17.050457 -2.7094455 5 3
2.306299 -28.53994 -3.5156872 6 4
3.9627619 -49.796021 -2.6179495 0 6
0.60589695 -7.9651952 -2.1404335 3 0
0.75377822 -9.9783506 -2.3102474 9 1
0.92140323 -12.282948 -2.3942714 6 2
1.2727882 -17.08708 -2.7138255 3 3
2.111963 -28.622654 -3.5239744 3 4
3.7106557 -51.01704 -2.6807528 0 6
0.5529995 -7.9884067 -2.1456099 3 0
0.68477285 -9.9676971 -2.3066483 10 1
0.83403277 -12.265575 -2.3896918 6 2
1.1542668 -17.107374 -2.7157025 5 3
1.9168202 -28.632404 -3.5234866 3 4
0.49817812 -8.0074987 -2.1497512 3 0
0.61444861 -9.9605646 -2.3039486 10 1
0.75053531 -12.306373 -2.3965611 6 2
1.0376679 -17.162338 -2.7232115 3 3
1.7218733 -28.728315 -3.5337238 3 4
3.1457067 -53.580082 -2.8128486 0 6
0.44332796 -8.0300703 -2.1549275 3 0
0.54489821 -9.964612 -2.3039486 9 1
0.66248578 -12.272103 -2.3889287 6 2
0.9180398 -17.173109 -2.7238371 5 3
1.5093079 -28.513651 -3.5059376 3 4
2.8423219 -54.969028 -2.8846536 0 6
0.38725671 -8.0329695 -2.1549275 3 0
0.47606131 -9.9837446 -2.3075478 9 1
0.57826847 -12.307808 -2.3950348 6 2
0.7990433 -17.198833 -2.7269659 5 3
1.3065681 -28.444172 -3.4961882 3 4
0.33180299 -8.0509195 -2.1590683 3 0
0.40603316 -9.9790373 -2.3057485 9 1
0.49201733 -12.303698 -2.3935082 6 2
0.68051332 -17.243467 -2.7332232 3 3
1.1107427 -28.524012 -3.5049627 3 4
0.27552375 -8.0511084 -2.158551 2 0
0.33543757 -9.954361 -2.2994497 9 1
0.40636837 -12.314682 -2.3950348 6 2
0.56024295 -17.251749 -2.7338493 3 3
0.91208756 -28.54694 -3.5069125 3 4
0.21967883 -8.0663538 -2.1621742 3 0
0.26604015 -9.9603567 -2.3003495 9 1
0.32008091 -12.305443 -2.392745 6 2
0.43958801 -17.247339 -2.7325976 3 3
0.71237379 -28.536739 -3.5049627 3 4
0.16414189 -8.1063204 -2.1725271 3 0
0.19634472 -9.9541779 -2.2985499 9 1
0.23383024 -12.289712 -2.3893104 7 2
0.32004726 -17.29739 -2.7401063 3 3
0.51263291 -28.513229 -3.5015504 3 4
0.10775011 -8.1227226 -2.1766684 3 0
0.1266977 -9.9436131 -2.2958505 10 1
0.14807349 -12.294971 -2.3900738 7 2
0.19910094 -17.2834 -2.7376034 3 3
0.31291249 -28.456564 -3.4942381 3 4
0.051113985 -8.1348667 -2.179774 3 0
0.057298739 -9.9481535 -2.2967501 9 1
0.062363978 -12.321227 -2.3950348 6 2
0.078255937 -17.244862 -2.7313461 3 3
0.11400155 -28.398502 -3.4869258 3 4
-0.0056901234 -8.1504812 -2.1839154 3 0
-0.012139578 -9.9366188 -2.2940509 9 1
-0.023648387 -12.317435 -2.3942714 6 2
-0.042224687 -17.280544 -2.7369776 3 3
-0.08422482 -28.386696 -3.4854636 3 4
-0.063124165 -8.2197866 -2.2025502 4 0
-0.081477985 -9.932395 -2.2931509 9 1
-0.10967174 -12.320897 -2.3950348 6 2
-0.16279013 -17.271929 -2.7357264 3 3
-0.28196481 -28.341747 -3.4801013 3 4
-0.69204956 -61.953106 -3.2470276 6 6
-0.11946393 -8.2462101 -2.2097969 3 0
-0.14908272 -9.9316101 -2.2931509 10 1
-0.19350567 -12.317901 -2.3946528 7 2
-0.28035083 -17.27042 -2.7357264 3 3
-0.47480497 -28.335201 -3.4796138 3 4
-1.111869 -61.843124 -3.2415848 6 6
-0.1754546 -8.1717815 -2.1901269 4 0
-0.21832791 -9.9264297 -2.2922513 9 1
-0.27756619 -12.326114 -2.3965611 6 2
-0.39871758 -17.303658 -2.7413578 3 3
-0.57899332 -24.387928 -2.9953051 19 4
-1.5293248 -61.694359 -3.2342577 5 6
-0.23489621 -8.3055735 -2.2263615 4 0
-0.28577787 -9.9208193 -2.2913516 10 1
-0.36337885 -12.316026 -2.3950348 6 2
-0.51962882 -17.304403 -2.7419839 3 3
-0.75025475 -24.556044 -3.0165102 16 4
-1.9564432 -61.570385 -3.2283962 5 6
-0.29695997 -8.419569 -2.2574198 5 0
-0.35433295 -9.899106 -2.2868524 9 1
-0.44834962 -12.28572 -2.3896918 6 2
-0.64071393 -17.30825 -2.7432351 3 3
-0.917723 -24.445072 -3.0035923 19 4
-2.3822076 -61.45145 -3.2229533 5 6
-0.35638505 -8.4327335 -2.2615609 7 0
-0.42359972 -9.9002857 -2.2877522 9 1
-0.53402251 -12.28033 -2.3893104 9 2
-0.76153064 -17.303354 -2.7432351 3 3
-1.0880886 -24.432121 -3.0028608 21 4
-2.8062239 -61.325581 -3.2173009 4 6
-0.41486675 -8.4223213 -2.2594905 5 0
-0.49270642 -9.8970871 -2.2877522 9 1
-0.61924744 -12.266499 -2.3874023 6 2
-0.88271469 -17.305508 -2.7444866 3 3
-1.2074474 -23.430714 -2.8807478 17 4
-0.47289595 -8.4057178 -2.255867 6 0
-0.56156695 -9.8895149 -2.2868524 9 1
-0.70531934 -12.269717 -2.3889287 6 2
-1.0023644 -17.279202 -2.7413578 3 3
-1.3687913 -23.384062 -2.8761168 25 4
-1.7563671 -29.738388 -2.6063054 18 5
-0.52973676 -8.373292 -2.2481024 4 0
-0.63084322 -9.8892431 -2.2877522 9 1
-0.79020506 -12.286183 -2.3931265 7 2
-1.1191883 -17.260153 -2.7394807 3 3
-1.5187669 -23.171892 -2.8512554 21 4
-0.58617836 -8.361783 -2.2460318 4 0
-0.69731778 -9.8730564 -2.285053 9 1
-0.87456131 -12.260784 -2.3893104 7 2
-1.2379607 -17.228275 -2.7357264 5 3
-1.6645603 -22.996685 -2.8310251 17 4
-1.730009 -23.502073 -1.2350241 21 6
-0.6470657 -8.390233 -2.2548318 6 0
-0.76652825 -9.8718348 -2.2859526 9 1
-0.95692658 -12.240846 -2.3866391 6 2
-1.3558192 -17.227325 -2.7369776 5 3
-1.7966264 -22.626329 -2.7869084 22 4
-1.8582997 -23.248762 -2.0404902 31 5
-1.9006717 -23.623138 -1.2420369 21 6
-0.707555 -8.4260597 -2.265702 9 0
-0.83337677 -9.862504 -2.285053 9 1
-1.040859 -12.216262 -2.3832045 7 2
-1.4757181 -17.213505 -2.736352 5 3
-1.9318292 -22.396023 -2.760097 22 4
-2.0584092 -23.527718 -1.2377455 21 6
-0.76601249 -8.4170666 -2.2646666 7 0
-0.90256494 -9.8603268 -2.2859526 9 1
-1.1256069 -12.226488 -2.3866391 6 2
-1.593215 -17.206995 -2.7369776 5 3
-2.0715373 -22.204105 -2.7381606 22 4
-2.2211337 -23.540998 -1.239211 10 6
-0.82328707 -8.4116573 -2.2646666 7 0
-0.96813458 -9.8384409 -2.2823534 9 1
-1.210162 -12.210519 -2.3851125 6 2
-1.7117347 -17.179728 -2.7344749 5 3
-2.186224 -21.826052 -2.6933126 22 4
-2.3930833 -23.600428 -1.2431885 10 6
-0.88098347 -8.3960991 -2.2620785 6 0
-1.0347513 -9.8120613 -2.2778544 8 1
-1.2970361 -12.21739 -2.3881655 6 2
-1.8316302 -17.167358 -2.7344749 3 3
-2.3161094 -21.601034 -2.6674764 17 4
-3.3946579 -31.299246 -1.6499435 20 6
-0.94108284 -8.403183 -2.265702 5 0
-1.1049703 -9.8200903 -2.2814536 10 1
-1.3816352 -12.202185 -2.3870206 7 2
-1.952776 -17.16593 -2.736352 3 3
-2.442513 -21.371336 -2.6411526 21 4
-2.6471932 -23.019781 -2.0272424 32 5
-2.7402391 -23.719473 -1.2513529 10 6
-0.99949676 -8.3944893 -2.2651844 6 0
-1.1721121 -9.8005276 -2.278754 9 1
-5.707634 -47.583138 2.5116026 0 9
-1.4658494 -12.184445 -2.3854942 7 2
-2.0716193 -17.144035 -2.7351005 5 3
-2.5624721 -21.113348 -2.6114166 17 4
-2.8100004 -22.918692 -1.2101121 10 6
-1.0561407 -8.371974 -2.2610431 6 0
-1.2419736 -9.8037043 -2.2814536 9 1
-5.9551144 -46.8764 2.476433 0 9
-1.5503795 -12.17002 -2.3847308 7 2
-2.1922593 -17.136992 -2.736352 5 3
-2.6794579 -20.858675 -2.5821679 21 4
-1.1125211 -8.3490772 -2.2569022 6 0
-1.309867 -9.7909336 -2.2805538 9 1
-6.1324692 -45.717232 2.417398 0 9
-1.6355664 -12.160847 -2.3851125 6 2
-2.3097279 -17.105608 -2.7338493 5 3
-2.8050139 -20.691925 -2.5638874 13 4
-3.1270165 -22.857435 -1.2090654 10 6
-1.1702445 -8.3372812 -2.255867 6 0
-1.3760136 -9.7661133 -2.2769547 8 1
-6.4576306 -45.716812 2.4197009 0 9
-1.7182215 -12.13358 -2.3820596 6 2
-2.4268672 -17.07342 -2.7313461 5 3
-2.9482784 -20.663979 -2.5629125 24 4
-3.2075191 -22.397064 -1.9794812 33 5
-3.2478151 -22.566193 -1.1948301 10 6
-1.230958 -8.3461084 -2.2605255 7 0
-1.4453018 -9.763979 -2.278754 8 1
-6.7850571 -45.782433 2.4255624 0 9
-1.8079849 -12.170153 -2.3916001 7 2
-2.541568 -17.046738 -2.7297816 5 3
-3.1098177 -20.75872 -2.5772932 22 4
-3.3235114 -22.106173 -1.9557748 33 5
-3.3280423 -22.057734 -1.1690807 30 6
-1.2877388 -8.3375368 -2.2605255 7 0
-1.5123255 -9.7577667 -2.279654 8 1
-7.0235696 -45.212925 2.397929 0 9
-1.8886759 -12.130075 -2.3862574 7 2
-3.4872603 -22.371347 1.9808756 4 10
-2.6617341 -17.036385 -2.7310331 5 3
-3.4854412 -22.257565 2.7661908 6 11
-3.2581177 -20.782179 -2.5828991 14 4
-3.4670954 -22.03974 -1.9519401 33 5
-3.4816387 -22.03199 -1.1689759 40 6
-1.3440651 -8.3169003 -2.2574198 7 0
-1.5816582 -9.7546654 -2.2814536 9 1
-7.3478031 -45.266586 2.403372 1 9
-1.9699366 -12.109187 -2.3847308 7 2
-7.333838 -44.981979 3.9873753 1 10
-2.7773156 -17.015924 -2.7307205 5 3
-3.1529548 -19.23291 -2.3930268 2 4
-2.8964555 -17.648966 2.8327157 4 12
-3.6234636 -22.030725 -1.9533345 33 5
-3.6302249 -21.999899 -1.1685573 40 6
-3.6516635 -22.034056 -0.38985187 36 7
-1.4025716 -8.3189888 -2.2605255 7 0
-1.6473687 -9.739831 -2.2805538 8 1
-7.6562963 -45.170864 2.4010692 0 9
-2.0577142 -12.114495 -2.3885472 7 2
-7.664566 -45.076366 4.0002742 1 10
-2.893719 -16.982491 -2.7285304 5 3
-3.2235923 -18.858795 -2.3491538 13 4
-3.7652543 -21.95842 -1.9491509 34 5
-2.7100134 -15.771346 3.1105683 2 13
-3.7830443 -21.970083 -1.1683481 40 6
-3.8104074 -22.059925 -0.39075938 36 7
-1.4596115 -8.3032866 -2.2589729 6 0
-1.7153254 -9.7280922 -2.2805538 9 1
-7.946919 -45.023293 2.396045 0 9
-2.1428616 -12.115674 -2.3916001 7 2
-7.9582047 -44.904053 3.9898157 1 10
-3.0078659 -16.954618 -2.7272787 5 3
-3.3419442 -18.761564 -2.3398917 23 4
-3.9303885 -21.932028 -1.16772 40 6
-3.9643216 -22.032785 -0.39075938 36 7
-1.515748 -8.2912588 -2.2584553 7 0
-1.7829074 -9.7238588 -2.2823534 8 1
-8.1903133 -44.581699 2.3755293 0 9
-2.2238386 -12.081111 -2.387784 7 2
-8.2676392 -44.870396 3.9917331 1 10
-3.1179097 -16.888527 -2.7200828 8 3
-3.3860841 -18.287489 -2.2835879 12 4
-4.0852375 -21.91387 -1.1682433 30 6
-4.1046476 -21.954184 -0.38985187 36 7
-1.5757581 -8.2918625 -2.2615609 7 0
-1.8529383 -9.722661 -2.285053 8 1
-8.5223303 -44.633293 2.381391 0 9
-2.3084922 -12.06722 -2.3881655 6 2
-8.5252352 -44.521973 3.9659348 1 10
-3.1549747 -16.44537 -2.6521902 9 3
-3.2777777 -17.03727 -2.1302764 8 4
-3.4218957 -17.719683 -1.5789135 33 5
-4.2404013 -21.896582 -1.1688714 30 6
-4.2578139 -21.924994 -0.38985187 36 7
-1.6250077 -8.2370672 -2.2496552 6 0
-1.9177432 -9.6941938 -2.2814536 9 1
-8.9494228 -45.156544 2.4125831 1 9
-2.3915341 -12.045032 -2.3870206 7 2
-3.0498469 -15.318652 -2.473855 5 3
-3.3500028 -16.780371 -2.1010277 27 4
-4.3884439 -21.842949 -1.1676153 20 6
-4.4210434 -21.945702 -0.39075938 36 7
-1.6867312 -8.2463408 -2.2553494 9 0
-1.9869398 -9.6882057 -2.2832532 8 1
-9.2340975 -44.985016 2.4067216 0 9
-2.4782121 -12.051551 -2.3916001 7 2
-2.8225687 -13.689816 -2.2138608 11 3
-3.6658835 -17.670818 -1.5789135 33 5
-3.6194482 -17.401173 -0.9314754 18 6
-4.5635219 -21.863407 -0.38985187 36 7
-1.7428234 -8.2346687 -2.2553494 7 0
-2.0496035 -9.6592064 -2.279654 8 1
-10.181603 -47.900665 2.5664508 0 9
-2.5606508 -12.026276 -2.3900738 7 2
-10.35413 -48.587238 4.3462825 0 10
-2.875181 -13.468864 -2.1813223 20 3
-3.2295866 -15.090385 -1.8948246 7 4
-3.7442818 -17.450649 -1.5614822 33 5
-3.8085217 -17.689835 -0.9483276 18 6
-4.7122335 -21.831837 -0.38985187 36 7
-1.7994423 -8.2185259 -2.2543139 7 0
-2.1194944 -9.6560831 -2.2823534 8 1
-10.442274 -47.533741 2.5505407 1 9
-2.6470928 -12.029658 -2.3942714 6 2
-10.593151 -48.060425 4.3056679 1 10
-2.9484968 -13.366036 -2.1678691 19 3
-3.1744218 -14.342589 -1.8036665 13 4
-3.8444366 -17.326832 -1.5527666 33 5
-3.9002221 -17.534826 -0.9414193 18 6
-1.8502303 -8.1834774 -2.2481024 7 0
-2.1868939 -9.6490345 -2.284153 8 1
-10.549255 -46.470253 2.4973674 0 9
-2.7244804 -11.98217 -2.3885472 7 2
-3.0355899 -13.318162 -2.1634889 20 3
-3.5382025 -15.473425 -1.9489347 21 4
-4.0098214 -17.493773 -1.5701978 33 5
-3.9983897 -17.40206 -0.93576699 18 6
-1.9069834 -8.1625023 -2.2460318 7 0
-2.2541077 -9.6255493 -2.2823534 8 1
-10.872391 -46.354683 2.4952738 0 9
-2.8053732 -11.951389 -2.3862574 7 2
-11.208884 -47.677032 4.284925 0 10
-3.1290052 -13.288407 -2.1622374 27 3
-3.33424 -14.126851 -1.7822174 18 4
-4.1089187 -17.368408 -1.5614822 33 5
-4.1048284 -17.297213 -0.93168473 27 6
-1.9661852 -8.1583805 -2.24862 6 0
-2.3239958 -9.6209431 -2.285053 8 1
-11.149713 -46.087406 2.4850161 1 9
-2.8935962 -11.942457 -2.3885472 7 2
-3.2053804 -13.199054 -2.1512871 18 3
-3.7877023 -15.561388 -1.966484 13 4
-4.2867384 -17.571575 -1.5823996 33 5
-4.2083955 -17.198294 -0.92791665 18 6
-2.0244896 -8.1500797 -2.2501729 7 0
-2.3892219 -9.59692 -2.2832532 8 1
-11.525931 -46.262386 2.4986234 1 9
-2.9757695 -11.926294 -2.3893104 7 2
-3.2961094 -13.180761 -2.1519127 20 3
-5.2315373 -20.858446 -2.6404214 12 4
-4.4967327 -17.88903 -1.6137757 34 5
-4.4126978 -17.515926 -0.94665289 18 6
-5.4791222 -21.685104 -0.39041033 36 7
-2.0775261 -8.1267519 -2.2475846 6 0
-2.4544907 -9.5804348 -2.2832532 8 1
-3.0599341 -11.909033 -2.3900738 7 2
-3.4003599 -13.205256 -2.1597345 26 3
-5.5594058 -21.543148 -2.7318234 22 4
-5.585947 -21.583721 -1.9505454 33 5
-5.6014028 -21.596807 -1.1692901 30 6
-2.1410916 -8.1382074 -2.2548318 6 0
-2.5193276 -9.5555286 -2.2814536 8 1
-12.130962 -45.946327 2.490459 1 9
-3.1369781 -11.864603 -2.3854942 7 2
-3.4833603 -13.146824 -2.1541028 16 3
-5.7117028 -21.511488 -2.7327986 26 4
-5.751873 -21.601957 -1.9557748 33 5
-5.754612 -21.566824 -1.1698134 40 6
-2.1912956 -8.0988197 -2.2481024 7 0
-2.5849555 -9.533946 -2.2805538 8 1
-12.447241 -45.8451 2.4896216 1 9
-3.2238531 -11.85757 -2.3885472 7 2
-3.5818079 -13.146961 -2.1581702 23 3
-5.869061 -21.497898 -2.7362108 31 4
-5.884057 -21.508497 -1.9508941 33 5
-5.9034514 -21.520346 -1.1694994 30 6
-5.9537349 -21.659191 -0.39208576 36 7
-2.2488177 -8.0870457 -2.2491376 7 0
-2.6535444 -9.5231771 -2.2823534 9 1
-3.3050165 -11.837242 -2.3889287 6 2
-3.6600354 -13.082328 -2.1515999 17 3
-6.1009245 -21.704735 -1.9725088 33 5
-6.0969048 -21.646917 -1.1786058 40 6
-2.3022208 -8.0659781 -2.2475846 6 0
-2.7118742 -9.4824114 -2.2769547 8 1
-3.3935282 -11.834639 -2.3931265 7 2
-3.7616422 -13.092531 -2.1575444 19 3
-5.5157981 -19.16013 -2.4481115 1 4
-6.2744045 -21.738182 -1.9794812 33 5
-6.2534285 -21.623013 -1.1796526 41 6
-6.2718344 -21.644188 -0.39334235 36 7
-2.3677087 -8.0812254 -2.2563846 7 0
-2.7791052 -9.4669867 -2.2778544 9 1
-3.4716315 -11.795593 -2.3900738 7 2
-3.866363 -13.111423 -2.1650534 19 3
-6.37501 -21.576975 -2.7625346 12 4
-6.4116187 -21.603722 -1.1810133 41 6
-6.4227839 -21.599876 -0.39334235 36 7
-2.4162831 -8.038599 -2.2491376 7 0
-2.8440046 -9.4436235 -2.2769547 8 1
-3.5448146 -11.740998 -2.3839676 7 2
-3.9463618 -13.046295 -2.1587958 19 3
-6.5243392 -21.528147 -2.7620471 28 4
-6.5593767 -21.54888 -1.18049 41 6
-6.5734234 -21.55451 -0.39334235 36 7
-2.4746194 -8.0289183 -2.2512081 7 0
-2.9110141 -9.4272614 -2.2778544 8 1
-3.6362555 -11.754108 -2.3916001 7 2
-4.043263 -13.045547 -2.1631761 23 3
-6.7106595 -21.518984 -1.1813273 41 6
-6.7237415 -21.508095 -0.39334235 36 7
-2.5274684 -8.006361 -2.2496552 6 0
-2.9715896 -9.396081 -2.2751548 8 1
-3.7033923 -11.681649 -2.3820596 6 2
-4.1408134 -13.037713 -2.1666176 17 3
-6.870451 -21.502052 -1.1830021 41 6
-6.8737302 -21.460629 -0.39334235 36 7
-2.5829122 -7.9825573 -2.2481024 7 0
-3.0375483 -9.3708677 -2.2742553 8 1
-3.7915251 -11.676051 -2.3862574 7 2
-4.2425642 -13.034044 -2.1709976 17 3
-6.0272665 -18.484135 -2.387177 26 4
-7.0315957 -21.475115 -1.1842581 41 6
-7.0545454 -21.507122 -0.39508757 36 7
-2.6337163 -7.9496584 -2.2439611 5 0
-3.1004398 -9.3420353 -2.2724555 8 1
-3.8799362 -11.663524 -2.3893104 7 2
-4.3415728 -13.028472 -2.175065 19 3
-6.1517611 -18.428425 -2.3854709 15 4
-6.1884832 -18.506161 -1.7072067 37 5
-7.1826181 -21.429291 -1.1844676 41 6
-7.2045217 -21.45735 -0.39508757 36 7
-2.6872895 -7.9255905 -2.2424083 6 0
-3.1680887 -9.3275442 -2.2742553 9 1
-3.9472239 -11.601529 -2.3820596 6 2
-4.418684 -12.964962 -2.1694334 20 3
-6.3265586 -18.488897 -1.7096471 38 5
-7.3399711 -21.413912 -1.1863515 41 6
-7.3450513 -21.380054 -0.3945989 36 7
-2.719028 -7.8432307 -2.2242911 4 0
-3.2315061 -9.3057642 -2.2742553 8 1
-4.0332818 -11.588525 -2.3851125 6 2
-4.5181932 -12.959912 -2.1738136 20 3
-7.4576454 -21.355413 -2.7774026 4 4
-6.4522619 -18.445404 -1.7096471 38 5
-7.4919329 -21.369688 -1.1867702 51 6
-7.5328131 -21.450315 -0.39683282 35 7
-2.7556429 -7.7730742 -2.2097969 4 0
-3.29509 -9.2793045 -2.2733555 8 1
-4.110095 -11.555252 -2.3839676 7 2
-4.6063027 -12.928858 -2.1738136 18 3
-6.5137944 -18.242477 -2.3784022 2 4
-7.6439543 -21.336998 -1.187817 51 6
-7.6580534 -21.329447 -0.39557624 36 7
-2.8085253 -7.7500134 -2.2087619 4 0
-3.3597901 -9.2560749 -2.2733555 8 1
-4.1886501 -11.514475 -2.3816779 7 2
-4.712225 -12.932686 -2.1800709 18 3
-6.6920352 -18.336416 -2.3966827 6 4
-6.7433705 -18.447083 -1.7183627 38 5
-7.8033104 -21.300508 -1.1888638 41 6
-7.8315721 -21.34305 -0.39683282 35 7
-2.8518288 -7.7012324 -2.2004797 4 0
-3.4270384 -9.2397013 -2.2751548 9 1
-4.2635102 -11.476496 -2.3797698 6 2
-4.8159885 -12.942892 -2.1872668 17 3
-6.822659 -18.296692 -2.3976579 5 4
-7.9558125 -21.267477 -1.1900151 41 6
-2.8905189 -7.6455021 -2.1901269 4 0
-3.4898508 -9.2161608 -2.2751548 8 1
-4.3449206 -11.450123 -2.3805332 6 2
-4.9202657 -12.945886 -2.1935244 15 3
-6.954102 -18.268377 -2.400095 5 4
-8.1097975 -21.226345 -1.1908525 41 6
-2.9563479 -7.6575756 -2.1994443 3 0
-3.5569179 -9.198843 -2.2769547 9 1
-4.4177942 -11.407469 -2.377862 7 2
-5.0054131 -12.904728 -2.1922729 24 3
-7.0850658 -18.228636 -2.4013138 9 4
-8.2569914 -21.178093 -1.1912712 41 6
-2.9588406 -7.5114555 -2.1632097 3 0
-3.6180193 -9.1707926 -2.2760546 8 1
-4.5002127 -11.383651 -2.3793883 9 2
-5.0735669 -12.814369 -2.1828868 16 3
-7.2148328 -18.19475 -2.4032638 15 4
-8.4319649 -21.188595 -1.1951439 30 6
-3.0097659 -7.487031 -2.1621742 4 0
-3.6775882 -9.1344652 -2.2733555 8 1
-4.5803099 -11.353776 -2.3797698 6 2
-5.1939845 -12.855562 -2.1960273 17 3
-7.3483815 -18.1605 -2.4054573 20 4
-7.3798814 -18.201794 -1.7183627 38 5
-8.5954628 -21.168072 -1.197342 10 6
-3.0590301 -7.4586873 -2.1601038 3 0
-3.7397866 -9.1049623 -2.2724555 8 1
-4.6602077 -11.32334 -2.3801515 7 2
-5.296402 -12.850036 -2.2013459 19 3
-7.4711995 -18.099583 -2.4042385 19 4
-7.5067739 -18.149828 -1.7183627 38 5
-3.0961168 -7.4015055 -2.1497512 3 0
-3.8047664 -9.0822277 -2.2733555 8 1
-4.7315474 -11.272428 -2.3763354 7 2
-5.3844504 -12.809106 -2.2007203 23 3
-7.6066141 -18.068939 -2.4071634 17 4
-7.605423 -18.030893 -1.7120874 38 5
-3.1446807 -7.372602 -2.1476805 3 0
-3.8680787 -9.0554447 -2.2733555 9 1
-4.8093557 -11.237315 -2.3759537 6 2
-5.4675179 -12.756678 -2.1982174 21 3
-7.7474499 -18.050053 -2.4117944 11 4
-7.7169623 -17.953081 -1.7096471 38 5
-3.1899121 -7.3362956 -2.1435394 3 0
-3.9312034 -9.0282192 -2.2733555 8 1
-4.8920112 -11.218716 -2.3790066 6 2
-5.5558028 -12.722786 -2.198843 18 3
-7.8740702 -17.997345 -2.4120383 9 4
-7.8549027 -17.927967 -1.712436 38 5
-9.2294693 -20.995443 -0.4003233 35 7
-3.2444682 -7.3250117 -2.1466453 3 0
-3.9909847 -8.9976873 -2.2724555 8 1
-4.9813752 -11.209407 -2.3843493 4 2
-5.6693869 -12.739637 -2.2085421 17 3
-7.9826531 -17.912506 -2.4078948 5 4
-7.9620023 -17.832668 -1.7086011 37 5
-3.28917 -7.288095 -2.1425042 3 0
-4.0537019 -8.9696064 -2.2724555 8 1
-5.0530319 -11.160049 -2.3812964 4 2
-5.7565565 -12.696149 -2.2079163 16 3
-8.1206417 -17.88526 -2.4117944 6 4
-8.0995007 -17.805668 -1.7113901 38 5
-3.3399692 -7.264955 -2.1425042 3 0
-4.1162243 -8.9410877 -2.2724555 8 1
-5.1250625 -11.112022 -2.3786252 7 2
-5.9046874 -12.784771 -2.2304428 16 3
-8.3378019 -18.028124 -2.4388494 4 4
-8.2085333 -17.716148 -1.7082524 37 5
-3.374223 -7.2064686 -2.1321514 3 0
-4.1818514 -8.9191923 -2.2742553 9 1
-5.2066875 -11.084857 -2.3805332 6 2
-6.0518074 -12.866578 -2.2520308 18 3
-8.3602657 -17.75038 -2.4091134 1 4
-8.3371124 -17.669224 -1.7092985 76 5
-8.5553303 -18.107119 -1.0495454 9 6
-3.4194632 -7.1722741 -2.1290457 3 0
-4.247375 -8.8968134 -2.2760546 9 1
-5.2737823 -11.026984 -2.3759537 6 2
-6.1286874 -12.797291 -2.2473378 16 3
-8.4427776 -17.605665 -2.397414 1 4
-8.4899635 -17.680315 -1.7159222 38 5
-8.681529 -18.046953 -1.0495454 9 6
-3.4728258 -7.1551785 -2.1311162 3 0
-4.3042727 -8.8564301 -2.2733555 9 1
-5.3641829 -11.022607 -2.382823 6 2
-6.2511325 -12.828084 -2.2601655 18 3
-8.5921888 -17.577654 -1.7117388 76 5
-3.5026302 -7.0932674 -2.1197281 3 0
-4.3679099 -8.8339148 -2.2751548 9 1
-5.4253192 -10.953221 -2.3759537 6 2
-6.2992845 -12.700955 -2.2454607 16 3
-8.7306318 -17.580038 -2.4100883 19 4
-8.7329283 -17.561577 -1.7159222 57 5
-8.9295311 -17.925537 -1.0495454 9 6
-10.326165 -20.702038 -0.40381378 35 7
-3.5520651 -7.0686417 -2.1197281 3 0
-4.4329796 -8.8101683 -2.2769547 9 1
-11.770468 -23.382635 1.3719349 13 9
-5.4997468 -10.91604 -2.3759537 6 2
-6.4727821 -12.830624 -2.2761219 17 3
-8.8316584 -17.476141 -2.4042385 38 4
-8.8751087 -17.539289 -1.7197571 57 5
-9.0062037 -17.775257 -1.0443118 9 6
-3.57724 -6.9995742 -2.1062696 3 0
-4.4946208 -8.7832584 -2.2778544 9 1
-5.5632839 -10.85292 -2.3706112 6 2
-6.4521527 -12.570718 -2.2379518 17 3
-6.7332411 -13.095851 -1.8080537 5 4
-8.9936876 -17.46982 -1.7190598 57 5
-9.1758318 -17.800718 -1.0495454 9 6
-10.705954 -20.733524 -0.40730426 35 7
-3.6325831 -6.9840808 -2.1093752 3 0
-4.5501542 -8.7370453 -2.2742553 10 1
-5.6380076 -10.812076 -2.3702295 7 2
-6.5273085 -12.496212 -2.2329459 16 3
-9.3103237 -17.801439 -2.4666357 10 4
-9.1283722 -17.431318 -1.7215002 57 5
-9.3029795 -17.7346 -1.0495454 9 6
-3.6704118 -6.9380589 -2.1031637 3 0
-4.6110396 -8.7050667 -2.2742553 10 1
-5.7225914 -10.78533 -2.3732824 7 2
-11.430161 -21.533257 2.1328754 2 10
-6.6366315 -12.492206 -2.2404547 13 3
-9.4408989 -17.748276 -2.4683421 12 4
-11.036516 -20.730474 3.7196991 21 12
-9.2667007 -17.398817 -1.7246377 57 5
-11.045142 -20.720518 4.5641518 16 13
-10.994392 -20.582026 -0.40730426 35 7
-3.7224205 -6.9190707 -2.1052344 4 0
-4.6753964 -8.6795254 -2.2760546 9 1
-11.121646 -20.63788 1.228639 19 9
-5.780961 -10.71848 -2.3671765 7 2
-11.142974 -20.642925 2.0523434 14 10
-6.7778239 -12.55103 -2.2592268 17 3
-11.156347 -20.641838 2.8809915 18 11
-9.5966825 -17.741299 -2.476629 6 4
-11.19335 -20.684402 3.7250178 7 12
-9.3936319 -17.344213 -1.7256837 38 5
-11.230694 -20.718845 4.5809426 19 13
-11.138507 -20.540218 -1.2245568 41 6
-3.7601626 -6.8766227 -2.1000578 4 0
-4.7362399 -8.6509199 -2.2769547 10 1
-11.312481 -20.645559 1.233768 20 9
-5.8537617 -10.674417 -2.3664134 7 2
-11.334014 -20.659184 2.0615819 4 10
-6.8538733 -12.482628 -2.2554724 19 3
-11.238736 -20.44319 -2.8644173 14 4
-9.5249224 -17.304308 -1.728124 100 5
-11.241683 -20.406338 4.5286608 2 13
-11.320201 -20.531919 -1.2287437 31 6
-3.7930605 -6.8231883 -2.0917757 3 0
-4.7965193 -8.6176434 -2.2769547 9 1
-5.9262843 -10.634325 -2.3664134 7 2
-6.9386811 -12.435686 -2.2554724 25 3
-11.512891 -20.599895 -2.8975658 12 4
-25.538555 -45.583721 -2.7383223 0 6
-3.8318141 -6.7837553 -2.0876343 3 0
-4.858902 -8.5915804 -2.278754 9 1
-5.9965115 -10.585859 -2.364887 7 2
-6.9902468 -12.325086 -2.2442091 16 3
-11.507771 -20.265575 -2.8614924 4 4
-8.4713202 -14.888012 3.329617 2 13
-3.8790803 -6.7568388 -2.0876343 3 0
-4.9226484 -8.564208 -2.2805538 9 1
-6.0586329 -10.527782 -2.3610706 7 2
-7.1410375 -12.393607 -2.2654841 15 3
-11.682707 -20.243198 -2.8697793 6 4
-3.9016256 -6.690228 -2.0752113 4 0
-4.9788642 -8.5271358 -2.279654 9 1
-6.1359477 -10.492007 -2.3625972 7 2
-7.200438 -12.297426 -2.2570367 22 3
-11.833276 -20.185474 -2.8729482 8 4
-3.9541445 -6.6727991 -2.0783172 3 0
-5.0362849 -8.4888172 -2.278754 9 1
-6.1951909 -10.429743 -2.3580177 7 2
-7.3374915 -12.338115 -2.2736187 16 3
-12.003367 -20.151829 -2.8800166 6 4
-3.9795506 -6.6126246 -2.0679643 4 0
-5.0939474 -8.4543409 -2.278754 9 1
-6.25771 -10.369429 -2.3542016 7 2
-7.4295778 -12.296733 -2.275496 17 3
-12.169026 -20.117214 -2.8868413 6 4
-4.0276341 -6.5879774 -2.0689995 3 0
-5.1589494 -8.428545 -2.2814536 10 1
-6.3237896 -10.315448 -2.3519118 7 2
-7.5400434 -12.28497 -2.2830048 17 3
-12.354903 -20.106186 -2.8975658 6 4
-26.977819 -43.783298 -2.6951973 0 6
-4.0653753 -6.5465689 -2.0648584 4 0
-5.211493 -8.3823938 -2.278754 10 1
-6.3956513 -10.271049 -2.3519118 7 2
-7.6695142 -12.302439 -2.2961452 17 3
-12.518088 -20.056494 -2.9029281 6 4
-4.1089172 -6.5147614 -2.0638232 3 0
-5.2740483 -8.3523979 -2.2805538 10 1
-6.4696126 -10.233914 -2.3534384 7 2
-7.7573023 -12.256624 -2.2973969 17 3
-12.686499 -20.01388 -2.9095089 4 4
-26.467157 -41.65733 -2.5865479 0 6
-4.1385837 -6.4638648 -2.0565763 3 0
-5.32657 -8.3097429 -2.278754 9 1
-6.5377169 -10.183544 -2.3522935 6 2
-7.8747187 -12.252024 -2.3067827 16 3
-12.881515 -20.018877 -2.9229145 2 4
-25.89325 -40.132298 -2.5030198 0 6
-4.1930852 -6.4493904 -2.061235 2 0
-5.3929582 -8.2854204 -2.2823534 9 1
-6.5925698 -10.112984 -2.3465691 7 2
-7.9579024 -12.193441 -2.3061571 17 3
-8.1695843 -12.503481 -1.83389 7 4
-4.216723 -6.3877153 -2.0508821 2 0
-5.4442234 -8.2378139 -2.279654 10 1
-6.6781812 -10.089633 -2.3519118 9 2
-8.0842991 -12.200161 -2.3180461 15 3
-13.247554 -19.969408 -2.9424136 4 4
-4.2644401 -6.362937 -2.0524352 2 0
-5.5016012 -8.199605 -2.279654 9 1
-6.7550273 -10.052542 -2.3542016 7 2
-8.1902246 -12.174566 -2.3239908 6 3
-13.419911 -19.925831 -2.9497259 2 4
-4.3087578 -6.3330102 -2.0524352 2 0
-5.5609035 -8.1642199 -2.2805538 9 1
-6.8272533 -10.008383 -2.3549647 7 2
-8.3028679 -12.157874 -2.3318124 8 3
-13.614712 -19.913593 -2.9619126 2 4
-4.3462787 -6.2932377 -2.0493293 2 0
-5.6244144 -8.1348152 -2.2832532 10 1
-6.9019241 -9.971365 -2.3572545 7 2
-9.3946533 -13.557492 -2.6124558 7 3
-13.796406 -19.880035 -2.9711747 2 4
-4.3646255 -6.2287021 -2.0379412 2 0
-5.679656 -8.096343 -2.2832532 10 1
-6.9894271 -9.9486408 -2.3633604 7 2
-9.493618 -13.498036 -2.6137073 7 3
-13.972547 -19.844097 -2.9799495 2 4
-24.551769 -34.778587 -2.231082 0 6
-4.4113622 -6.2028022 -2.0394943 2 0
-5.7247381 -8.0406189 -2.278754 9 1
-7.0569839 -9.9008341 -2.3633604 7 2
-9.5864248 -13.434712 -2.6140203 5 3
-14.792853 -20.700583 -3.1239989 10 4
-24.671642 -34.448273 -2.2206147 0 6
-4.4410462 -6.1553988 -2.0338001 3 0
-5.7793345 -8.0014668 -2.278754 9 1
-7.1259322 -9.851326 -2.3633604 7 2
-9.676507 -13.362659 -2.6130815 6 3
-14.893801 -20.544767 -3.1157119 10 4
-24.911528 -34.2752 -2.2206147 0 6
-4.4816284 -6.1211271 -2.0327649 4 0
-5.8350544 -7.9609246 -2.278754 9 1
-7.2154427 -9.8298264 -2.3702295 7 2
-9.7403145 -13.254987 -2.6052599 4 3
-14.456939 -19.651974 -2.9955487 4 4
-25.268757 -34.261189 -2.231082 0 6
-4.5219483 -6.0865889 -2.0317297 3 0
-5.8904901 -7.9199944 -2.278754 9 1
-7.2745094 -9.7666178 -2.3671765 7 2
-9.8231678 -13.173993 -2.602757 5 3
-14.686403 -19.674646 -3.0145605 2 4
-4.5573516 -6.0456166 -2.0286238 3 0
-5.9479861 -7.8817892 -2.279654 8 1
-7.3408208 -9.716876 -2.3671765 7 2
-9.8816319 -13.065861 -2.5946224 4 3
-14.861753 -19.622274 -3.0223601 2 4
-25.902958 -34.125896 -2.2453172 0 6
-4.5772772 -5.9868312 -2.0193064 3 0
-5.9991293 -7.8380246 -2.278754 9 1
-7.4228077 -9.6840897 -2.3717558 7 2
-9.9401407 -12.954243 -2.586175 4 3
-15.016741 -19.548996 -3.0267472 4 4
-26.199064 -34.020184 -2.2503417 0 6
-4.6142249 -5.9486237 -2.0172358 3 0
-6.0537009 -7.7959533 -2.278754 9 1
-7.4552851 -9.5870895 -2.3606889 4 2
-10.024265 -12.87674 -2.5846107 4 3
-15.108926 -19.387316 -3.0179727 4 4
-26.455606 -33.861637 -2.2520165 0 6
-4.6604209 -5.9223385 -2.0193064 3 0
-6.1103916 -7.7565622 -2.279654 9 1
-7.5220361 -9.5348063 -2.3606889 6 2
-10.101678 -12.790938 -2.5814819 4 3
-15.256217 -19.296934 -3.0204101 7 4
-26.815414 -33.832645 -2.2624836 0 6
-4.690804 -5.8760715 -2.0146475 2 0
-6.1570926 -7.7045827 -2.2769547 10 1
-7.5516138 -9.4360762 -2.3492403 4 2
-10.18949 -12.718564 -2.5811689 4 3
-15.369445 -19.163635 -3.0162666 9 4
-27.176111 -33.800259 -2.2729506 0 6
-4.7003055 -5.8064666 -2.0017066 3 0
-6.2143025 -7.6685476 -2.278754 9 1
-7.6032982 -9.3692112 -2.3454244 4 2
-10.240952 -12.605982 -2.5724087 4 3
-15.440664 -18.986189 -3.0048108 7 4
-27.430796 -33.645454 -2.2750442 0 6
-4.7480831 -5.7824693 -2.0048125 3 0
-6.2652111 -7.6219678 -2.2778544 9 1
-7.6560426 -9.300746 -2.341608 4 2
-10.316144 -12.518939 -2.5692801 4 3
-15.551363 -18.851898 -3.0006673 9 4
-27.766832 -33.576267 -2.2834179 0 6
-4.7809176 -5.7402749 -2.0017066 4 0
-6.3007989 -7.5570884 -2.2715557 8 1
-7.6931052 -9.2139158 -2.3332126 4 2
-10.394422 -12.436003 -2.5670898 4 3
-15.65329 -18.707857 -2.9950612 7 4
-28.095541 -33.494846 -2.2911639 0 6
-4.8109035 -5.6949506 -1.9975655 3 0
-6.3634706 -7.5248203 -2.2751548 9 1
-7.7496305 -9.1509943 -2.3309228 4 2
-10.488654 -12.372174 -2.5689671 4 3
-15.768103 -18.57996 -2.9921365 7 4
-28.45812 -33.449997 -2.3016307 0 6
-4.8430018 -5.6524243 -1.9944596 4 0
-6.4209218 -7.4861298 -2.2769547 7 1
-7.7954187 -9.0758181 -2.3255801 6 2
-10.582499 -12.307634 -2.5708442 4 3
-15.868939 -18.436323 -2.9867742 7 4
-28.724871 -33.289833 -2.3043525 0 6
-4.8544674 -5.5863957 -1.9830716 4 0
-6.5113993 -7.4852271 -2.2904515 10 1
-7.8621731 -9.0284681 -2.3271067 4 2
-10.666029 -12.235315 -2.5708442 4 3
-15.989424 -18.316118 -2.9853115 7 4
-29.080988 -33.242352 -2.3147149 0 6
-4.8898253 -5.5503254 -1.9820364 4 0
-6.6021562 -7.486042 -2.3043985 11 1
-7.9328065 -8.9821901 -2.3293962 6 2
-10.732868 -12.139839 -2.5664639 4 3
-16.103205 -18.194967 -2.9833617 7 4
-29.407795 -33.146091 -2.3222513 0 6
-4.9258814 -5.5131702 -1.981001 3 0
-6.6659493 -7.4528403 -2.3084476 8 1
-7.9885249 -8.9221354 -2.3278699 6 2
-10.804706 -12.054733 -2.5639613 4 3
-16.195366 -18.043688 -2.9770246 7 4
-29.736914 -33.060978 -2.3304157 0 6
-4.9607 -5.4766507 -1.9799658 3 0
-6.7269959 -7.4188447 -2.312047 9 1
-8.0347795 -8.8487082 -2.3232903 6 2
-10.87797 -11.967314 -2.5614581 5 3
-16.299557 -17.9067 -2.9731247 6 4
-30.034288 -32.926353 -2.3356493 0 6
-4.9893055 -5.4296327 -1.9758247 3 0
-6.7139463 -7.2988062 -2.2895517 9 1
-8.0963621 -8.7923975 -2.3232903 6 2
-10.95529 -11.880458 -2.559581 4 3
-16.405317 -17.772055 -2.9697125 6 4
-30.404785 -32.857182 -2.3461165 0 6
-5.0139198 -5.3805346 -1.9706483 3 0
-6.7195425 -7.2033062 -2.2742553 7 1
-8.145669 -8.7198887 -2.3194742 6 2
-11.005586 -11.769055 -2.5520723 4 3
-16.477444 -17.602016 -2.9604504 6 4
-30.767359 -32.78685 -2.3563743 0 6
-5.032783 -5.3257442 -1.9634014 4 0
-6.7589536 -7.1448941 -2.2706561 7 1
-8.2279463 -8.6856146 -2.3255801 6 2
-11.082042 -11.686204 -2.5508208 4 3
-16.575319 -17.460642 -2.956063 6 4
-31.091892 -32.672527 -2.3637013 0 6
-5.0751877 -5.2960577 -1.9654719 4 0
-6.6157556 -6.8964353 -2.20632 4 1
-8.2747812 -8.6138058 -2.321764 6 2
-11.127754 -11.571535 -2.5426862 4 3
-16.669281 -17.315899 -2.9511883 6 4
-31.360834 -32.497795 -2.3668416 1 6
-5.1174231 -5.2660389 -1.9675424 4 0
-6.5169835 -6.6992235 -2.1577303 5 1
-8.3167858 -8.5404034 -2.3171847 6 2
-11.17317 -11.461572 -2.5351772 4 3
-16.786989 -17.19626 -2.9507008 6 4
-18.456333 -18.886511 -2.3103244 25 5
-18.381464 -18.790205 -1.3775871 22 6
-5.1395907 -5.2173223 -1.9623661 4 0
-6.5049639 -6.5964308 -2.1388347 4 1
-8.3762064 -8.4821329 -2.3171847 6 2
-11.248747 -11.379077 -2.5342386 4 3
-16.882702 -17.060434 -2.9470446 4 4
-18.60503 -18.755003 -1.3844955 22 6
-5.156776 -5.162179 -1.9551191 4 0
-6.5232978 -6.5232978 -2.1298366 4 1
-8.4143019 -8.4054956 -2.3118417 6 2
-11.318949 -11.295268 -2.5326743 4 3
-16.971867 -16.912731 -2.9419262 6 4
-18.811567 -18.706795 -1.3903571 22 6
-5.1972928 -5.1323876 -1.9571897 5 0
-6.5356412 -6.4472671 -2.119489 3 1
-8.4895601 -8.3630829 -2.3164213 6 2
-11.374999 -11.193806 -2.5276685 4 3
-17.076681 -16.787077 -2.9402201 4 4
-19.041525 -18.672903 -1.3976842 22 6
-5.2108517 -5.0744157 -1.9489075 4 0
-6.5483637 -6.3702312 -2.1091411 4 1
-8.5477409 -8.3036089 -2.3164213 4 2
-11.414596 -11.076974 -2.5192208 4 3
-17.153557 -16.628759 -2.9333954 4 4
-19.263309 -18.628372 -1.4043832 22 6
-5.2419701 -5.0338988 -1.9473546 6 0
-6.5701766 -6.3027749 -2.1019428 4 1
-8.5969944 -8.2355862 -2.3141315 6 2
-11.465958 -10.972435 -2.5135894 4 3
-17.246267 -16.486656 -2.9294956 4 4
-19.530127 -18.650362 -2.362618 24 5
-19.488287 -18.584406 -1.4112916 22 6
-5.2896104 -5.0091352 -1.9520133 4 0
-6.5941978 -6.2380033 -2.095644 4 1
-8.6614141 -8.184968 -2.3164213 4 2
-11.514524 -10.869727 -2.5079577 4 3
-17.346504 -16.352232 -2.9270582 4 4
-19.732384 -18.581854 -2.3713334 23 5
-19.70162 -18.53343 -1.4175718 22 6
-5.298172 -4.9492779 -1.9426959 5 0
-6.6336551 -6.1903162 -2.0947442 5 1
-8.6982374 -8.1055622 -2.3110785 6 2
-11.581452 -10.780999 -2.5060804 4 3
-17.428331 -16.206747 -2.9221833 4 4
-19.934622 -18.511433 -2.380049 23 5
-19.947666 -18.504107 -1.4259456 22 6
-5.3183866 -4.8990803 -1.9375196 5 0
-6.6394262 -6.1095452 -2.0830467 5 1
-8.7575035 -8.0472956 -2.3118417 6 2
-11.630242 -10.675838 -2.5004489 4 3
-17.514715 -16.06053 -2.9177961 4 4
-20.136841 -18.439089 -2.3887646 23 5
-20.179522 -18.458755 -1.4332726 22 6
-5.3553185 -4.8644295 -1.9385546 5 0
-6.6602688 -6.0434017 -2.0762982 7 1
-8.8105602 -7.9833274 -2.3110785 6 2
-11.676661 -10.569201 -2.4945042 4 3
-17.626408 -15.937867 -2.9177961 4 4
-20.392254 -18.412889 -2.4037554 23 5
-20.414679 -18.413742 -1.440809 22 6
-5.3790736 -4.8179026 -1.9349313 6 0
-6.6819649 -5.9785671 -2.0699997 7 1
-8.8543673 -7.9111586 -2.3080258 4 2
-11.736899 -10.475585 -2.4916885 4 3
-17.688351 -15.770828 -2.9097526 6 4
-20.627794 -18.346436 -1.4467753 23 6
-5.4024434 -4.7712793 -1.9313078 5 0
-6.7060056 -5.9163003 -2.0646007 6 1
-8.906436 -7.8465552 -2.3072627 4 2
-11.81568 -10.398611 -2.4929399 4 3
-17.753296 -15.607635 -2.9024405 6 4
-20.868 -18.300741 -1.4546257 23 6
-5.4225082 -4.7220297 -1.926649 6 0
-6.7221494 -5.8475976 -2.0569522 5 1
-8.9566727 -7.7831755 -2.3064992 4 2
-11.875742 -10.308882 -2.4907498 4 3
-17.819824 -15.446907 -2.8956158 6 4
-21.115948 -18.265421 -1.4632088 23 6
-5.442801 -4.6749406 -1.922508 6 0
-6.7484865 -5.7902851 -2.0529034 6 1
-8.998867 -7.7102351 -2.3034463 4 2
-11.945924 -10.224436 -2.490437 4 3
-17.883818 -15.290423 -2.889035 4 4
-21.367559 -18.223835 -1.471792 23 6
-5.4649854 -4.6280909 -1.9188845 4 0
-6.760478 -5.7191172 -2.0443552 4 1
-9.031477 -7.6294889 -2.2981036 4 2
-12.001913 -10.12805 -2.4873083 4 3
-17.962805 -15.142173 -2.8846476 4 4
-21.602797 -18.165483 -1.4792236 23 6
-5.5030942 -4.5947766 -1.9209551 5 0
-6.7762961 -5.6518102 -2.0371568 4 1
-9.1026211 -7.5813308 -2.3026831 4 2
-12.082954 -10.052861 -2.4894984 4 3
-18.029917 -14.984674 -2.8785541 6 4
-21.881308 -18.140425 -1.4895861 23 6
-5.5201216 -4.5439696 -1.9157786 5 0
-6.8065548 -5.59694 -2.0344574 2 1
-9.1206388 -7.4917798 -2.2942874 4 2
-12.138886 -9.9603586 -2.4869955 4 3
-18.069597 -14.805599 -2.8683171 6 4
-22.109421 -18.07703 -1.4967039 23 6
-5.5539231 -4.5087247 -1.9168139 4 0
-6.8233047 -5.5332956 -2.0281587 4 1
-9.1757708 -7.4303951 -2.2950509 4 2
-12.201985 -9.8703976 -2.485744 4 3
-18.092756 -14.619879 -2.8561301 6 4
-22.405588 -18.085487 -2.5191495 20 5
-22.354815 -18.018753 -1.5047635 23 6
-5.5701814 -4.4577703 -1.9116375 4 0
-6.8450241 -5.4721394 -2.0232098 3 1
-9.1985216 -7.3457131 -2.2881815 4 2
-12.271976 -9.7895784 -2.4863696 4 3
-18.130716 -14.442505 -2.846137 4 4
-22.647373 -18.001629 -1.5161728 23 6
-5.6003957 -4.4197521 -1.9116375 3 0
-6.843854 -5.3952589 -2.0119622 5 1
-9.2372379 -7.2716036 -2.2851286 4 2
-12.353995 -9.7146559 -2.4891856 3 3
-18.170843 -14.273386 -2.8371184 6 4
-22.535097 -17.65708 -1.5003673 11 6
-5.6265392 -4.3769889 -1.9100846 2 0
-6.8567319 -5.328218 -2.0047638 5 1
-9.2815752 -7.2021217 -2.2836022 4 2
-12.376239 -9.5930758 -2.4801123 4 3
-18.205696 -14.096355 -2.8271253 4 4
-22.635689 -17.482233 -1.498902 11 6
-5.6278319 -4.3152676 -1.9002496 3 0
-6.8721051 -5.2636285 -1.9984653 5 1
-9.3285093 -7.1347656 -2.2828391 4 2
-12.452325 -9.5136395 -2.4819896 4 3
-18.279272 -13.94525 -2.8229818 6 4
-23.431002 -17.83672 -1.5432827 23 6
-5.6554832 -4.2725573 -1.8992143 3 0
-6.9127035 -5.2166686 -1.999365 5 1
-9.356143 -7.0529213 -2.2774963 4 2
-12.510615 -9.417161 -2.4801123 4 3
-18.30002 -13.760036 -2.8112822 6 4
-23.68586 -17.764467 -1.5516566 24 6
-5.6789761 -4.228354 -1.8971437 4 0
-6.9161177 -5.1438575 -1.989917 3 1
-9.3874598 -6.9717436 -2.2729168 6 2
-12.537978 -9.301343 -2.4726036 4 3
-18.320677 -13.576393 -2.7998266 4 4
-24.003647 -17.742319 -1.5643219 24 6
-5.7052407 -4.1863198 -1.8961084 4 0
-6.9471436 -5.0919938 -1.9885672 2 1
-9.4125195 -6.8914485 -2.2675743 4 2
-12.588243 -9.206459 -2.4701006 4 3
-18.387758 -13.428257 -2.7956829 6 4
-24.256218 -17.674974 -1.5729049 24 6
-5.7179513 -4.136066 -1.890932 5 0
-6.9532113 -5.0240445 -1.9804692 1 1
-9.4444809 -6.8140793 -2.2637579 4 2
-12.636186 -9.1067991 -2.4669719 4 3
-18.380461 -13.232038 -2.7808149 4 4
-24.53639 -17.618202 -1.5830581 23 6
-5.7466874 -4.0960464 -1.890932 4 0
-6.9881158 -4.9753795 -1.9804692 1 1
-9.4534187 -6.7206793 -2.2545993 4 2
-12.68979 -9.0115013 -2.4650946 5 3
-18.399529 -13.051717 -2.7698467 6 4
-21.620726 -15.313992 -2.3179941 87 5
-21.857693 -15.464658 -1.4032319 11 6
-5.7656579 -4.0491657 -1.8878261 4 0
-7.0131087 -4.9197578 -1.9777697 2 1
-9.5065374 -6.6590261 -2.2561257 4 2
-12.732973 -8.9090977 -2.4613402 4 3
-18.446272 -12.892239 -2.7632658 4 4
-21.886475 -15.256866 -1.3982075 11 6
-5.7842531 -4.0022211 -1.8847204 4 0
-7.0072045 -4.8429785 -1.9665221 3 1
-9.5274096 -6.5774322 -2.2504015 4 2
-12.757541 -8.7975521 -2.454457 4 3
-18.493313 -12.733878 -2.7569287 4 4
-22.095175 -15.179919 -1.4049066 11 6
-5.8049769 -3.9584026 -1.8826498 4 0
-7.0126271 -4.7765198 -1.9588737 4 1
-9.5260191 -6.4787393 -2.2393346 4 2
-12.779434 -8.681632 -2.4469483 4 3
-18.497431 -12.551971 -2.7447417 4 4
-22.134449 -14.980516 -1.4007196 11 6
-5.8452997 -3.9263978 -1.886791 3 0
-7.0263829 -4.714417 -1.9534749 4 1
-9.544919 -6.3945942 -2.2332287 4 2
-12.805253 -8.5691357 -2.440378 4 3
-18.521893 -12.380613 -2.7354796 3 4
-5.8596783 -3.8769677 -1.8826498 3 0
-7.06075 -4.6663251 -1.9539249 6 1
-9.5794973 -6.3213139 -2.2309389 4 2
-12.843324 -8.4653969 -2.4363105 4 3
-18.55316 -12.214982 -2.7274361 5 4
-5.8736548 -3.8275256 -1.8785087 3 0
-7.0833569 -4.610538 -1.9512255 8 1
-9.6025515 -6.2431197 -2.2263594 4 2
-12.857574 -8.3498068 -2.4281759 5 3
-18.571362 -12.041959 -2.7176867 5 4
-22.507868 -14.560994 -1.4049066 11 6
-5.8995709 -3.7874575 -1.8785087 4 0
-7.0948906 -4.549593 -1.9458266 7 1
-9.5301638 -6.1018291 -2.1996462 3 2
-12.882268 -8.2385569 -2.4219186 5 3
-18.582634 -11.870391 -2.7074497 5 4
-22.733622 -14.482916 -1.4126523 11 6
-5.9389315 -3.754437 -1.8826498 3 0
-7.1198874 -4.4957905 -1.9440269 7 1
-9.4618797 -5.9676938 -2.1744595 3 2
-12.917992 -8.1380453 -2.4181643 5 3
