# .PCD v0.7 - Point Cloud Data file format
VERSION 0.7
FIELDS x y z intensity ring
SIZE 4 4 4 4 2
TYPE F F F F U
COUNT 1 1 1 1 1
WIDTH 1307
HEIGHT 1
VIEWPOINT 0 0 0 1 0 0 0
POINTS 1307
DATA ascii
-1.2597077 5.8960867 -1.1719489 12 2
-1.4341679 6.718389 0.601026 16 10
-1.2306191 5.7747321 -0.93516535 22 3
-1.4374601 6.7569118 0.84821075 10 11
-1.2600476 5.928051 -0.74413431 25 4
-1.547863 7.2946334 1.1810803 11 12
-1.2382271 5.84547 -0.52276015 13 5
-2.0459554 9.6669235 1.9206835 23 13
-1.2045505 5.8012547 -1.5875961 39 0
-1.2455682 6.0093374 0.10712288 9 8
-1.1962095 5.7762752 -1.3618537 42 1
-1.3351183 6.4583912 0.34562668 9 9
-1.2308148 5.9643426 -1.1837791 17 2
-1.393667 6.7594595 0.60381496 9 10
-1.3408002 6.514545 -1.0534298 9 3
-1.4014388 6.8212276 0.85503536 7 11
-1.115249 5.4330649 -0.68100595 13 4
-1.3466145 6.5718327 1.062503 4 12
-1.1937946 5.8364048 -0.52119136 5 5
-1.8086032 8.8500195 1.7558244 7 13
-1.5429573 7.5770969 1.7852116 4 14
-1.1605424 5.7042537 -0.10160792 14 7
-1.1655416 5.8170986 -1.5896666 23 0
-1.341238 6.7061486 0.11937446 14 8
-1.1642579 5.8265262 -1.3717515 14 1
-1.2700733 6.367662 0.34028843 9 9
-1.1899126 5.9766407 -1.1845423 14 2
-1.3518848 6.7963815 0.60625535 11 10
-1.3122144 6.6089997 -1.0671961 16 3
-1.4116671 7.1229286 0.8915962 18 11
-1.1054388 5.5828705 -0.69879889 10 4
-1.3535538 6.8485036 1.1056789 15 12
-1.0872701 5.5062408 -0.49103546 31 5
-1.9369749 9.8274555 1.947015 14 13
-1.4943488 7.6027222 1.7888107 9 14
-1.1099138 5.6572714 -0.10063057 22 7
-1.1457784 5.9332128 -1.6191721 7 0
-1.2754854 6.6110578 0.1175245 22 8
-1.0734341 5.5742655 -1.3105649 14 1
-1.2187797 6.3349724 0.33809033 11 9
-1.0970004 5.7127495 -1.1307341 21 2
-1.2897775 6.7293401 0.5994572 5 10
-1.2601392 6.5809164 -1.0612515 13 3
-1.4078715 7.3663483 0.92084479 7 11
-1.0720184 5.6197009 -0.70245498 12 4
-1.3590525 7.1311617 1.1497935 13 12
-1.0473163 5.5058675 -0.49033821 28 5
-1.4314538 7.5396795 1.4917448 18 13
-1.1043015 5.8220639 -0.3105616 10 6
-1.917544 10.128925 2.3799822 8 14
-1.0778172 5.7041812 -0.10132867 16 7
-1.0696774 5.7490492 -1.5668906 16 0
-1.2030129 6.4782434 0.11501136 18 8
-1.1687055 6.3119044 0.33641556 11 9
-1.0724319 5.8032832 -1.1471437 14 2
-1.2537086 6.790864 0.60416359 4 10
-1.1590408 6.2903814 -1.0130697 22 3
-1.3244601 7.2022367 0.8991521 6 11
-1.0398363 5.6600585 -0.70659852 13 4
-1.3658788 7.44941 1.1995395 22 12
-1.0101709 5.5148292 -0.49051252 26 5
-1.3748037 7.5202794 1.4860206 16 13
-1.0006704 5.5008731 -0.097593859 18 7
-1.0427796 5.8305421 -1.5870785 18 0
-1.2046115 6.7421899 0.11954898 17 8
-1.060789 5.9492097 -1.3951464 14 1
-1.0885875 6.1112847 0.32532033 14 9
-1.035657 5.8259115 -1.1501967 17 2
-1.2125336 6.8347631 0.60730124 8 10
-1.0662153 6.0160899 -0.9677037 16 3
-1.2971829 7.3342352 0.91450763 13 11
-1.0147884 5.7492852 -0.71683556 16 4
-1.2791234 7.2542715 1.1666883 12 12
-1.0009953 5.6885376 -0.50532901 16 5
-1.6502892 9.3976145 1.8546635 4 13
-1.0812103 6.1632943 -0.32793713 11 6
-1.5908623 9.0871325 2.1298366 8 14
-0.96671665 5.5333328 -0.098047614 9 7
-1.0085858 5.8757601 -1.5974313 15 0
-1.1617366 6.7821732 0.12010746 21 8
-0.94133049 5.5012364 -1.2885196 22 1
-1.086514 6.3630447 0.33829966 11 9
-0.94843233 5.5660939 -1.0975335 14 2
-1.1400483 6.6977148 0.59440213 16 10
-0.95598727 5.6282263 -0.90419132 24 3
-1.2197872 7.1965418 0.89622724 14 11
-0.92856508 5.4841733 -0.68295586 24 4
-1.262393 7.4716506 1.2001654 5 12
-1.0056922 5.9586439 -0.52868676 14 5
-1.6361583 9.7147932 1.9149592 11 13
-1.1761066 6.9981208 -0.37189934 12 6
-1.5744889 9.3786077 2.1955223 4 14
-0.99810565 5.958056 -0.10544744 12 7
-1.2202344 7.2996368 1.9830716 0 15
-0.96910834 5.892189 -1.6000193 13 0
-1.1161932 6.79387 0.12017727 21 8
-0.90258646 5.5057507 -1.2880697 30 1
-1.0212289 6.2362647 0.33118194 16 9
-0.95579314 5.8494921 -1.1521047 10 2
-1.081723 6.6347184 0.5881269 11 10
-0.91606462 5.624855 -0.90262699 22 3
-1.1812843 7.2693377 0.90427065 13 11
-0.89184177 5.5003204 -0.68417454 4 4
-1.1770843 7.2675228 1.1660627 12 12
-0.95325845 5.8986459 -0.52276015 13 5
-1.547044 9.5941801 1.8890091 14 13
-0.95884442 5.9529996 -0.31600451 10 6
-0.94857377 5.9155164 -0.10457481 18 7
-1.2102354 7.5557547 2.0503645 0 15
-0.92837793 5.8948326 -1.5989841 13 0
-1.062214 6.7600131 0.11944427 24 8
-0.88594091 5.6446037 -1.319113 25 1
-0.97889972 6.2511358 0.33160067 11 9
-1.0031257 6.4204812 -1.2631556 8 2
-1.0730919 6.8761878 0.60887003 5 10
-0.91932327 5.9043732 -0.9464286 16 3
-1.1359909 7.3127155 0.90865791 10 11
-0.85038012 5.4867954 -0.68173718 10 4
-1.1610724 7.5000582 1.2020426 19 12
-0.89715314 5.8086743 -0.51421887 27 5
-1.4961768 9.7095261 1.9096165 16 13
-0.96283573 6.2556505 -0.33170533 11 6
-0.9111864 5.9476919 -0.10502858 23 7
-1.1492783 7.5105491 2.0358706 0 15
-0.88817978 5.9146976 -1.6026076 14 0
-1.0099552 6.733645 0.11885089 13 8
-0.85936862 5.7433085 -1.3407084 17 1
-0.95036632 6.3666244 0.33735761 19 9
-0.90645552 6.0797472 -1.1948459 14 2
-1.0953802 7.3645439 0.651402 2 10
-0.85153484 5.7388496 -0.91889614 20 3
-1.115464 7.5266514 0.93425047 4 11
-1.1024736 7.4749527 1.1967238 5 12
-0.85193604 5.7832584 -0.51142991 19 5
-1.3852532 9.4264326 1.8519921 14 13
-0.89313281 6.0924325 -0.32270354 10 6
-0.87831187 6.0132689 -0.10607573 10 7
-1.0559518 7.2471247 1.9623661 3 15
-0.82772112 5.7868872 -1.566373 18 0
-0.94056064 6.592226 0.11623303 9 8
-0.80330926 5.6372714 -1.3146139 21 1
-0.94580477 6.6538935 0.35222104 7 9
-0.83012944 5.8547645 -1.1494334 17 2
-0.95874012 6.7703352 0.59823698 17 10
-0.83742023 5.9285154 -0.94830585 1 3
-1.0607487 7.528543 0.93351924 15 11
-0.87493271 6.2175889 -0.77094555 7 4
-1.2226968 8.7109604 1.3932055 20 12
-0.81909394 5.8503737 -0.51683354 30 5
-1.2745467 9.1150589 1.7890252 17 13
-1.0654793 7.658843 1.7852116 4 14
-0.83796394 6.0311379 -0.10628515 14 7
-1.0578389 7.6332054 2.0648584 3 15
-0.79718757 5.8652663 -1.5860431 19 0
-0.93454015 6.8938856 0.12143384 25 8
-0.78327805 5.785645 -1.3479067 17 1
-1.0056981 7.4480939 0.39388046 7 9
-0.8510744 6.3196001 -1.2394953 4 2
-1.0030739 7.4581032 0.65837449 11 10
-0.86849499 6.4745812 -1.0346577 14 3
-1.0344865 7.7325215 0.95789313 11 11
-0.83465904 6.2471576 -0.77387041 25 4
-0.79739118 6.0001259 -0.5295583 25 5
-1.2258662 9.2366142 1.8111591 14 13
-0.83733696 6.326067 -0.33442679 11 6
-1.3029809 9.8704834 2.2985499 2 14
-0.79270196 6.013051 -0.1058663 23 7
-0.7498011 5.8208723 -1.5725845 15 0
-0.8107186 6.3111725 0.11106712 8 8
-0.73914826 5.7619791 -1.3411582 24 1
-0.8943724 6.991353 0.36938724 4 9
-0.72867852 5.7119331 -1.1192856 14 2
-0.82081074 6.4431176 0.56825542 8 10
-0.80360878 6.325676 -1.009941 24 3
-0.97948015 7.7316775 0.95691812 7 11
-0.78703904 6.2213216 -0.7699706 21 4
-1.1123257 8.8173361 1.4075974 10 12
-0.79014909 6.2722778 -0.55309033 43 5
-1.2027071 9.5741491 1.8756526 14 13
-0.78793907 6.2901416 -0.33222869 22 6
-0.93172139 7.4484997 1.7330229 9 14
-0.74426836 5.966846 -0.10495877 10 7
-0.71915144 5.7819128 1.5611964 2 15
-0.7086786 5.8221297 -1.5715494 18 0
-0.75664222 6.2252312 0.10946149 10 8
-0.68319571 5.6373816 -1.3110147 37 1
-0.81964922 6.7732234 0.35755929 9 9
-0.70200819 5.8181157 -1.1391298 12 2
-0.78247571 6.5040779 0.57313615 8 10
-0.76100075 6.3349223 -1.0105668 24 3
-0.93344331 7.7933531 0.96374285 3 11
-0.74358684 6.2266645 -0.7699706 24 4
-1.0312358 8.6481695 1.3794394 6 12
-0.75269192 6.3310599 -0.55779672 32 5
-1.1397662 9.6154556 1.88214 30 13
-0.74533981 6.2973428 -0.33233336 33 6
-0.70493031 5.9917564 -0.10530782 10 7
-0.68113077 5.7981853 1.5643023 1 15
-0.6791718 5.9151034 -1.5953608 14 0
-0.74613816 6.518436 0.11452269 18 8
-0.6855256 5.9981499 -1.3937967 20 1
-0.75493389 6.6259804 0.34949955 9 9
-0.65982485 5.8092198 -1.1364584 8 2
-0.86660111 7.6416416 0.67284232 9 10
-0.72186297 6.3852262 -1.0177628 19 3
-0.87256205 7.742475 0.95667446 2 11
-0.70629418 6.2769523 -0.77557659 27 4
-1.121443 9.9978962 1.5934417 17 12
-0.6985116 6.2470589 -0.54995275 15 5
-0.69738173 6.2666626 -0.33044925 22 6
-1.0399164 9.3744001 2.1775262 11 14
-0.67117339 6.0600171 -0.10642478 10 7
-0.64717048 6.006134 -1.6186544 9 0
-0.71257389 6.6348286 0.11647736 19 8
-0.60602701 5.6520782 -1.3123645 42 1
-0.76044649 7.1156607 0.37503949 7 9
-0.63318485 5.9444818 -1.1620268 12 2
-0.83261776 7.8297772 0.68887895 12 10
-0.85090524 8.0283985 -1.2786956 1 3
-0.63726479 6.0428586 -0.74608415 18 4
-1.0220901 9.7245502 1.5487014 15 12
-0.64512902 6.1586494 -0.54176009 6 5
-0.77838534 7.443337 1.4547279 18 13
-0.62421882 5.989295 -0.31558585 10 6
-0.97987682 9.4337654 2.1896734 13 14
-0.6236968 6.0148287 -0.10555216 19 7
-0.5959366 5.9182434 -1.5938078 9 0
-0.68380606 6.8147354 0.11954898 17 8
-0.55820429 5.5727925 -1.2930186 27 1
-0.68317819 6.8445497 0.36049011 9 9
-0.57320702 5.7631645 -1.1257731 14 2
-0.82163513 8.2755461 0.72757614 11 10
-0.89557153 9.0524178 -1.4407616 10 3
-0.72484457 7.3528724 0.90719545 13 11
-0.61605448 6.26052 -0.77240795 24 4
-0.74117595 7.5590744 1.2029812 5 12
-0.57757235 5.901154 -0.51875097 22 5
-0.83559513 8.568222 1.673395 9 13
-0.58683324 6.0392289 -0.31799328 43 6
-0.66618013 6.868257 1.5931033 4 14
-0.5764966 5.9652958 -0.10460973 14 7
-0.55406457 5.9164891 -1.5922549 12 0
-0.63703144 6.8152504 0.11947917 7 8
-0.51928526 5.5765538 -1.2930186 28 1
-0.67113715 7.2209258 0.38006377 9 9
-0.54537123 5.8900909 -1.1498151 14 2
-0.68588305 7.4359102 0.65331942 16 10
-0.67149597 7.2938528 -1.1601181 19 3
-0.68184876 7.4347315 0.91670126 21 11
-0.56565344 6.1915245 -0.76338965 28 4
-0.67463446 7.3986983 1.1767002 6 12
-0.53834581 5.9268684 -0.52066839 13 5
-0.64501965 7.1289048 1.3913792 12 13
-0.55163956 6.1087255 -0.32144746 10 6
-0.61454809 6.8319817 1.5836555 6 14
-0.58087575 6.4830379 -0.11361516 9 7
-0.51695287 5.9566908 -1.6020899 22 0
-0.69947159 8.0925913 0.14178336 16 8
-0.55131811 6.3915191 -1.4810777 18 1
-0.60464013 7.0383821 0.3702246 7 9
-0.50423735 5.893755 -1.1498151 6 2
-0.65016764 7.6151013 0.66865885 14 10
-0.63428211 7.4597607 -1.1857734 10 3
-0.7629146 9.0098543 1.1102298 15 11
-0.51313287 6.0725923 -0.74827784 13 4
-0.79937464 9.4995947 1.5099056 15 12
-0.51475716 6.1429229 -0.53931969 6 5
-0.80752164 9.6569204 1.8836665 15 13
-0.52074653 6.2537446 -0.32887918 22 6
-0.56973547 6.8710628 1.5917536 6 14
-0.50672561 6.124136 -0.10726249 17 7
-0.49396977 5.9954715 1.611925 1 15
-0.47427961 5.9466748 -1.5984664 18 0
-0.5731535 7.2181778 0.12639034 12 8
-0.50329739 6.3524742 -1.47118 14 1
-0.55941451 7.0922089 0.37284139 9 9
-0.48091027 6.1241698 -1.1940827 6 2
-0.59449828 7.5876741 0.66586983 20 10
-0.5213576 6.6841269 -1.0618773 6 3
-0.72980851 9.3989115 1.157515 11 11
-0.48314553 6.2363391 -0.76802069 16 4
-0.55471307 7.1927176 1.1425974 13 12
-0.47795925 6.2258291 -0.54629219 6 5
-0.71039665 9.2747335 1.8081062 18 13
-0.4498955 5.9007525 -0.3101429 10 6
-0.52410877 6.9059634 1.5989521 6 14
-0.4860017 6.4186468 -0.11235859 4 7
-0.45224664 6.0007005 1.6124427 15 15
-0.4335933 5.9614015 -1.6015723 11 0
-0.49705335 6.8669858 0.12017727 10 8
-0.45935753 6.3616638 -1.4725296 14 1
-0.51318371 7.1417599 0.37524885 7 9
-0.43043947 6.0196748 -1.1730938 6 2
-0.60899222 8.5376129 0.74884212 4 10
-0.5184567 7.3043451 -1.1598053 15 3
-0.67088705 9.498826 1.1692146 22 11
-0.41378653 5.8732257 -0.722929 12 4
-0.66500294 9.4861841 1.5061512 13 12
-0.58060873 8.3239031 -0.73001647 15 5
-0.64862728 9.3225536 1.8165017 10 13
-0.41089359 5.9356298 -0.31181765 31 6
-0.68316638 9.9189739 2.2954006 8 14
-0.42089218 6.1266241 -0.10719268 17 7
-0.38968682 5.929585 -1.5922549 18 0
-0.41049078 6.2796397 0.10984544 28 8
-0.41861305 6.4211092 -1.4855767 17 1
-0.49871942 7.6912713 0.40392897 9 9
-0.36806116 5.7071042 -1.1116532 27 2
-0.55269438 8.5933514 0.75337422 11 10
-0.39229491 6.1328635 -0.97333533 1 3
-0.58111954 9.1347942 1.1238792 14 11
-0.36158788 5.6996527 -0.70123625 13 4
-0.43943441 6.965158 1.1053661 11 12
-0.3782607 6.0290709 -0.52851242 5 5
-0.4387525 7.0127759 1.3658109 7 13
-0.36783567 5.9124393 -0.31045693 20 6
-0.47420397 7.6653314 1.7730643 3 14
-0.39879775 6.4647245 -0.11305669 4 7
-0.36570162 5.9620805 1.6005371 19 15
-0.34907356 5.9456606 -1.5958784 12 0
-0.3693172 6.3282671 0.11064825 19 8
-0.37173754 6.3888574 -1.4774785 20 1
-0.45516002 7.8700314 0.41314009 7 9
-0.32573304 5.6664138 -1.1032577 26 2
-0.46453118 8.1056871 0.71031928 5 10
-0.35059616 6.1551738 -0.97646403 5 3
-0.47929832 8.4667597 1.0412518 12 11
-0.3315216 5.8744664 -0.72244155 12 4
-0.49532339 8.8318586 1.4010272 16 12
-0.33649325 6.0375328 -0.52903533 17 5
-0.5300529 9.5404453 1.8573349 7 13
-0.34460613 6.2419157 -0.32762313 22 6
-0.51226473 9.3379641 2.1590803 15 14
-0.36872351 6.7428975 -0.11787355 5 7
-0.3248032 5.9779916 1.6041605 25 15
-0.30705491 5.9383063 -1.5932901 14 0
-0.36338842 7.0755963 0.12366775 15 8
-0.32632592 6.3757277 -1.4738793 14 1
-0.36989215 7.2766061 0.38184318 16 9
-0.28854173 5.7156081 -1.1124165 25 2
-0.39341986 7.8202009 0.68504417 6 10
-0.31234747 6.252172 -0.99148178 5 3
-0.41584578 8.3826618 1.0305272 4 11
-0.29804879 6.0293036 -0.74120939 10 4
-0.47345489 9.6460056 1.5296165 5 12
-0.29908717 6.1372457 -0.53757662 6 5
-0.45229444 9.3144836 1.8126855 15 13
-0.30034772 6.2302046 -0.32689041 22 6
-0.36750844 7.6789908 1.7748638 3 14
-0.28379172 5.9955502 1.6083016 21 15
-0.26636967 5.9576745 -1.5979488 12 0
-0.33011153 7.4415479 0.13002042 13 8
-0.28301433 6.4051061 -1.480178 15 1
-0.27071309 6.1755862 0.32395959 4 9
-0.26935869 6.1941037 -1.2051498 8 2
-0.31036487 7.165884 0.62752134 17 10
-0.25749665 5.993691 -0.95018309 7 3
-0.27965093 6.5627151 0.80653143 12 11
-0.25678784 6.0510707 -0.7436468 19 4
-0.37462017 8.9010706 1.411039 14 12
-0.35826617 8.5837107 -0.75163114 10 5
-0.3873376 9.319376 1.8130672 14 13
-0.25684834 6.2321496 -0.32689041 22 6
-0.37825495 9.2565861 2.1388347 4 14
-0.33942059 8.3418264 -0.14572759 7 7
-0.24216157 6.0031767 1.6098546 15 15
-0.22564451 5.9825549 -1.6041605 12 0
-0.27635959 7.3957114 0.12918271 21 8
-0.22481957 6.0447102 -1.3964962 35 1
-0.25185955 6.8359747 0.35850134 7 9
-0.22310197 6.113431 -1.1891217 8 2
-0.28629068 7.8826728 0.69009912 9 10
-0.21536252 5.9874463 -0.94893163 13 3
-0.23262644 6.5307822 0.80238777 9 11
-0.20595847 5.8106866 -0.7139107 19 4
-0.23779371 6.8437133 -0.59910858 18 5
-0.33766904 9.7672453 1.8996944 16 13
-0.21312559 6.2278028 -0.32657638 22 6
-0.27885628 8.2326031 1.9017363 2 14
-0.22742894 6.7491407 -0.11787355 5 7
-0.20095386 6.025959 1.6155485 5 15
-0.18381356 5.9820533 -1.6036428 15 0
-0.23334679 7.6812863 0.1341392 4 8
-0.17920183 5.9331574 -1.3704019 29 1
-0.2112779 7.0771303 0.37106195 4 9
-0.17885345 6.0618553 -1.1788181 23 2
-0.2133164 7.2730789 0.63658553 3 10
-0.19759385 6.8181133 -1.0803366 13 3
-0.24179472 8.4450922 1.0373518 3 11
-0.17035903 5.9866004 -0.73535967 18 4
-0.26507175 9.4306755 1.4942621 15 12
-0.20769697 7.4825253 -0.65488827 26 5
-0.2536658 9.196312 1.788262 30 13
-0.17089272 6.2750587 -0.32898384 22 6
-0.18099973 6.7324133 1.5548617 6 14
-0.16556925 6.1988449 -0.10823982 6 7
-0.17517316 6.6451936 1.7811928 0 15
-0.14163667 5.9658093 -1.5989841 13 0
-0.13804571 5.9014869 0.10303901 6 8
-0.14316173 6.166101 -1.4239402 14 1
-0.16625193 7.2701201 0.38111049 9 9
-0.13449623 5.9726696 -1.1612636 27 2
-0.19747691 8.838027 0.77342004 4 10
-0.17179526 7.8107262 -1.2373967 10 3
-0.21685882 10.018399 1.2303931 6 11
-0.13073374 6.08886 -0.74779034 22 4
-0.13435824 6.3612704 1.007751 14 12
-0.19571945 9.502099 1.8474127 16 13
-0.12619382 6.2321682 -0.32668105 22 6
-0.13484718 6.7763767 1.5647595 6 14
-0.13027366 6.7235141 1.8018982 0 15
-0.10040195 5.9917631 -1.6057135 10 0
-0.118986 7.2519193 0.12659976 8 8
-0.09631224 5.9331322 -1.3699518 45 1
-0.11549287 7.2711039 0.38111049 7 9
-0.093195155 5.998982 -1.1662247 4 2
-0.14488974 9.4328518 0.82536483 6 10
-0.088920265 5.9234872 -0.93829399 16 3
-0.095367409 6.5044489 0.79873174 1 11
-0.086813278 5.9923654 -0.73584712 15 4
-0.088914722 6.2889714 0.99617481 14 12
-0.095377982 6.9169188 -0.60520947 11 5
-0.13483423 9.9036999 1.9252628 6 13
-0.082470082 6.2169209 -0.32584369 22 6
-0.0861516 6.669981 1.5400149 4 14
-0.079999611 6.2785339 -0.10960111 22 7
-0.075859629 6.1215677 1.6403952 0 15
-0.058512457 5.9865232 -1.6041605 14 0
-0.058878507 6.2467713 0.10904264 10 8
-0.056709442 6.1304746 -1.415392 19 1
-0.051211346 5.9877067 -1.1639349 17 2
-0.059336957 7.082696 0.61967731 7 10
-0.060137838 7.4903874 -1.1863991 17 3
-0.046823896 6.2389698 -0.76607072 15 4
-0.04512034 6.3052411 0.99867773 14 12
-0.043479033 6.3874526 -0.5588426 22 5
-0.039141074 6.2293282 -0.32647175 22 6
-0.032668859 5.5050941 1.2709734 5 14
-0.039309535 6.8248477 -0.11913013 5 7
-0.017799299 5.9983735 -1.6072664 9 0
-0.01776183 6.7849441 0.11843203 16 8
-0.014620214 5.982615 -1.3811995 34 1
-0.013773863 6.5769601 0.34468466 7 9
-0.010515295 6.0252185 -1.1711857 25 2
-0.013080995 8.3281784 0.72862202 11 10
-0.0072154934 5.9063721 -0.93547827 9 3
-0.0043664938 6.2550249 -0.76802069 16 4
-0.0031517372 9.0175943 1.4282467 12 12
8.9096275e-08 7.4714608 -0.65366805 17 5
0.0016863839 9.6886606 1.8832849 6 13
0.0032553361 6.2174668 -0.32584369 22 6
0.0097343158 6.9720464 1.868156 18 15
0.023635665 5.8882365 -1.5777609 11 0
0.033986762 7.7887397 0.13595425 9 8
0.027146665 5.9825711 -1.3811995 28 1
0.038291611 7.8351541 0.41062793 7 9
0.03203943 6.11938 -1.1895033 14 2
0.036577001 6.7600784 0.59143883 6 10
0.033959232 5.8964019 -0.93391389 5 3
0.039386556 6.4474597 0.79166335 15 11
0.039224103 6.2429924 -0.76655823 22 4
0.053924844 8.1304712 1.2877687 4 12
0.050185569 7.1883664 -0.62891585 8 5
0.068923146 9.6314793 1.8722179 14 13
0.046901185 6.249248 -0.32751846 22 6
0.051483706 6.5553598 1.5134706 13 14
0.046866264 5.5944462 1.4990799 18 15
0.065871365 5.9903102 -1.6051958 13 0
0.06853123 6.0406909 0.10544744 2 8
0.068870179 5.9783382 -1.3802997 28 1
0.088933431 7.4931884 0.39272904 9 9
0.076342955 6.2485723 -1.2146901 6 2
0.10406084 8.3972769 0.73472291 4 10
0.07572706 5.9434261 -0.9414227 13 3
0.084423333 6.4490123 0.79190701 3 11
0.082939096 6.2524905 -0.76777691 13 4
0.12119946 8.9021988 1.4101005 6 12
0.10570612 7.5703425 -0.66238362 8 5
0.13538477 9.575798 1.8615327 6 13
0.090177864 6.2248034 -0.32626238 22 6
0.095400438 6.4301353 1.484677 14 14
0.098953299 6.5922532 -0.11508117 12 7
0.087615572 5.7040854 1.5285853 8 15
0.10768715 5.9897041 -1.6051958 13 0
0.11463995 6.1959333 -1.4306886 35 1
0.11666147 6.1884065 0.32437828 9 9
0.11955275 6.2262955 -1.2104924 8 2
0.1837558 9.4839869 0.82989693 2 10
0.13716686 6.953949 -1.1016116 3 3
0.13577539 6.7638326 0.83066154 7 11
0.12655048 6.2497749 -0.76753318 13 4
0.17365965 8.4310951 1.3356376 12 12
0.16689944 7.9678102 -0.6972459 9 5
0.1263203 5.9807024 1.1627901 4 13
0.1337616 6.2300124 -0.32657638 22 6
0.13795075 6.3221569 1.4599323 4 14
0.12618397 5.6473246 1.5135738 18 15
0.14839169 5.9443874 -1.5932901 12 0
0.16926126 6.6868396 0.1167566 22 8
0.16573793 6.5027828 -1.5017732 22 1
0.17090103 6.6147122 0.34677809 7 9
0.16234651 6.1997952 -1.2055314 10 2
0.19210485 7.287622 0.6378057 5 10
0.18792313 7.0357585 -1.1147522 9 3
0.17343482 6.4095025 0.78727603 20 11
0.17006798 6.2447701 -0.76704568 15 4
0.17396457 6.3069549 0.99930352 33 12
0.18375002 6.5782967 -0.57575083 16 5
0.17557205 6.246572 1.2146901 21 13
0.17623238 6.1929908 -0.32469231 22 6
0.17604424 6.0745239 -0.10607573 14 7
0.16481106 5.6192722 1.5063269 3 15
0.19167681 5.9992018 -1.6083016 13 0
0.20728956 6.4176755 0.11207936 17 8
0.2098036 6.4605651 -1.4923253 15 1
0.20082667 6.1183038 0.32081944 4 9
0.20490928 6.1769271 -1.2013335 14 2
0.20007946 5.9997349 0.52520049 9 10
0.30196819 8.9611492 -1.4201121 20 3
0.21379633 6.2473989 -0.76753318 13 4
0.23908049 6.9156137 1.09598 11 12
0.24593829 7.042789 -0.61653972 23 5
0.32253391 9.1902256 1.7874987 7 13
0.22009709 6.2095733 -0.32563433 22 6
0.2193049 6.1268134 1.415392 20 14
0.24489731 6.8085599 -0.1189207 21 7
0.23445363 6.0208826 -1.6145133 9 0
0.24926205 6.3441381 0.11082278 19 8
0.22969311 5.8202534 -1.3447573 30 1
0.24568093 6.1706362 0.32364559 16 9
0.2499183 6.2224264 -1.2104924 6 2
0.3054823 7.5728903 0.66308087 3 10
0.26509923 6.5153275 -1.0327804 4 3
0.26429302 6.4401746 0.79141963 3 11
0.25707924 6.2378201 -0.76655823 13 4
0.35248742 8.4808722 1.344398 6 12
0.32419744 7.7675414 -0.68016338 9 5
0.38850215 9.2309036 1.7958944 2 13
0.26412019 6.2238493 -0.32647175 22 6
0.28863069 6.77352 1.5652094 4 14
0.3797994 8.840498 -0.1544538 8 7
0.26189396 6.0468221 1.6217602 33 15
0.27586398 6.0055904 -1.6108898 12 0
0.29206812 6.3343048 0.11068317 16 8
0.27421221 5.9022141 -1.3641032 29 1
0.34107858 7.3140035 0.38372725 14 9
0.29678217 6.3166747 -1.2291917 12 2
0.44538605 9.409482 0.82414466 7 10
0.28956836 6.0950646 -0.96645224 20 3
0.30337912 6.3390851 0.77923268 13 11
0.30080935 6.2398391 -0.76704568 13 4
0.51607585 10.666409 1.6913697 4 12
0.32139277 6.5949521 -0.57766825 7 5
0.45081908 9.1848269 1.7874987 4 13
0.3052994 6.197969 -0.32521567 22 6
0.35490292 7.1040573 -0.12415642 5 7
0.30372447 6.0584059 1.6253836 15 15
0.31785312 6.0247941 -1.6165838 13 0
0.33978546 6.3980079 0.11183503 11 8
0.31697041 5.9488602 -1.3753507 14 1
0.39341873 7.3353767 0.38498333 9 9
0.33833373 6.2673988 -1.2200328 10 2
0.40081599 7.4008431 0.64843875 10 10
0.33501577 6.1461506 -0.97489971 26 3
0.40590549 7.3992248 0.90987664 1 11
0.34295145 6.2317004 -0.76631445 12 4
0.47407943 8.5600176 1.3578513 14 12
0.3940354 7.0699801 -0.61950302 7 5
0.40965056 7.3272028 1.4264882 5 13
0.34766445 6.1797342 -0.32437828 22 6
0.34176385 6.0372753 1.3960463 5 14
0.35806242 5.9915733 -1.6083016 14 0
0.38048407 6.3296094 0.11068317 16 8
0.36072171 5.9834619 -1.383899 15 1
0.4342235 7.1610017 0.37598157 9 9
0.374787 6.1453481 -1.1967541 8 2
0.49942413 8.165493 0.71572298 11 10
0.56286705 9.1504288 -1.4520249 6 3
0.45326546 7.3268652 0.90134573 17 11
0.38619977 6.2251921 -0.76582706 12 4
0.39360893 6.308939 1.0011806 19 12
0.43714577 6.9676332 -0.61078745 7 5
0.57840085 9.1934128 1.7905518 13 13
0.39155531 6.1891165 -0.32500634 11 6
0.47064096 7.3778787 -0.1290431 6 7
0.37344244 5.822228 1.5632671 8 15
0.40194491 6.0197687 -1.6165838 14 0
0.4156881 6.1931195 0.10834454 10 8
0.43428421 6.4532723 -1.4932251 13 1
0.46816143 6.9206638 0.36352557 2 9
0.42367402 6.2307248 -1.2139269 14 2
0.50410616 7.394526 0.64843875 1 10
0.42065945 6.1389031 -0.97458684 3 3
0.50331438 7.3076787 0.89939582 13 11
0.4293769 6.2183838 -0.76533955 12 4
0.60545319 8.7240095 1.3850709 8 12
0.64421225 9.2126522 1.7951311 4 13
0.43447092 6.1822467 -0.32479697 22 6
2.244833 31.86282 7.3743453 13 14
0.44982263 6.3531256 -0.11117183 14 7
0.44481111 6.0283761 -1.6196897 9 0
0.58364964 7.8912406 0.13811834 10 8
0.48062262 6.4675736 -1.4972742 16 1
0.52326971 7.0248713 0.36917788 9 9
0.47120363 6.2962184 -1.2272835 6 2
0.6266759 8.334548 0.73123664 5 10
0.46169373 6.1260486 -0.97302246 7 3
0.52006847 6.8686104 0.84577334 9 11
0.47368529 6.2271104 -0.76680195 12 4
0.46328482 6.0764012 0.96520072 10 12
0.5937326 7.7515984 -0.68016338 13 5
0.51134926 6.6456051 1.2955931 9 13
0.47408789 6.1472845 -0.32312223 11 6
2.4693148 31.873575 7.3806438 6 14
0.49292365 6.3338809 -0.11089259 6 7
0.46194786 5.9224553 1.5917372 1 15
0.48505843 6.0155807 -1.6171014 10 0
0.5076561 6.2685199 0.10977564 7 8
0.52211273 6.433075 -1.4900758 17 1
0.56710738 6.957346 0.36582837 7 9
0.53789401 6.5706282 -1.2814733 6 2
0.56903261 6.9361148 0.60887003 5 10
0.60258299 7.3137431 -1.1623082 3 3
0.52970403 6.4018822 0.78873843 5 11
0.515894 6.2217636 -0.76655823 13 4
0.54126567 6.5001974 1.0330933 9 12
0.55020785 6.5798144 -0.57766825 7 5
0.54591972 6.5148039 1.270788 15 13
0.51799738 6.1557665 -0.32375026 11 6
2.6899693 31.834198 7.3756952 10 14
0.5437898 6.4220366 -0.11249821 14 7
0.52822131 6.0255189 -1.6207249 9 0
0.68009692 7.7269468 0.13539577 29 8
0.56923687 6.4545083 -1.4959245 13 1
0.62588203 7.0686064 0.37189934 9 9
0.58688158 6.6019125 -1.2883424 8 2
0.62168425 6.9796014 0.6130535 12 10
0.73632109 8.2340956 -1.3093567 12 3
0.57917714 6.4514108 0.79531944 6 11
0.55789483 6.2021937 -0.76460832 10 4
0.87923795 9.7365217 1.5483886 11 12
0.60512435 6.6750259 -0.58638382 7 5
0.57132024 6.289896 1.2276652 9 13
0.55986899 6.1400661 -0.32312223 11 6
2.9633071 32.373547 7.5052671 9 14
0.58020699 6.3264823 -0.11089259 4 7
0.57264519 6.0466862 -1.6274542 10 0
0.87708282 9.2269964 0.16178381 8 8
0.61336029 6.4406776 -1.493675 21 1
0.68091619 7.1237111 0.37503949 7 9
0.58402026 6.0875874 -1.1887401 10 2
0.72948682 7.5898986 0.66709006 4 10
0.7017923 7.2751241 -1.1576152 6 3
0.61731571 6.3760796 0.7865448 13 11
0.59811735 6.1665344 -0.76070851 10 4
0.94259691 9.6829605 1.5408796 7 12
0.81144589 8.3205929 -0.73141098 10 5
0.96365196 9.8457928 1.922973 7 13
0.6054545 6.163836 -0.32458761 11 6
3.0736747 31.235544 7.2461233 10 14
0.63064879 6.3859582 -0.11200955 14 7
0.61406285 6.0348535 -1.6253836 12 0
0.79488361 7.7984004 0.13682686 15 8
0.65791315 6.4323616 -1.4927752 14 1
0.72735441 7.0990429 0.37399277 9 9
0.67263114 6.5424166 -1.2784203 8 2
0.78183955 7.5786757 0.66656709 7 10
0.62926435 6.0892653 -0.96958095 16 3
0.75836045 7.3135695 0.90280819 9 11
0.64587528 6.2076206 -0.76631445 12 4
3.0680327 29.437626 4.6877155 8 12
0.88070089 8.421731 -0.74082375 10 5
0.70845777 6.7518673 1.319635 12 13
0.64906663 6.1754627 -0.32542503 22 6
1.0543852 9.9648476 -0.17490801 11 7
0.6534546 6.0151696 -1.6212426 11 0
0.75874346 6.9617085 0.12223665 11 8
0.70083272 6.4199853 -1.4909756 14 1
0.78820401 7.197032 0.37943572 7 9
0.64903069 5.9072237 -1.1551577 14 2
0.83319366 7.5711975 0.6663928 4 10
0.90152895 8.1659784 -1.3012221 7 3
0.71390992 6.4458828 0.79629439 2 11
0.69051212 6.2147975 -0.76777691 12 4
3.2822247 29.494019 4.7002306 12 12
0.77633172 6.9321074 1.3558888 8 13
0.68414891 6.0993276 -0.32165682 10 6
3.649169 32.430897 7.5345111 6 14
0.90411723 8.0099087 -0.14070129 10 7
0.70026189 6.042963 -1.6300424 9 0
0.875561 7.5442057 0.13256848 32 8
0.75103647 6.4515839 -1.4995238 14 1
0.85520416 7.3241205 0.38644874 9 9
0.73791385 6.3100915 -1.2349159 8 2
0.88456523 7.541296 0.66430104 4 10
0.68573749 5.8286448 -0.92953372 13 3
0.80697739 6.8488331 0.84674829 19 11
0.7313171 6.1881413 -0.76509583 10 4
3.5720055 30.134773 4.806293 3 12
0.9932282 8.3418436 1.6329435 7 13
0.74056596 6.2013664 -0.3273091 22 6
3.8227274 31.963457 7.4319329 6 14
0.741018 6.0264225 -1.6269366 9 0
0.92634201 7.5119467 0.13211471 18 8
0.79486752 6.4365125 -1.4972742 17 1
0.90974861 7.3457212 0.38791415 11 9
0.76296461 6.142942 -1.2032416 12 2
0.84251034 6.7737322 0.59719115 2 10
0.71956635 5.7688303 -0.92077333 16 3
0.83871835 6.7050009 0.82968652 10 11
0.77622777 6.1966724 -0.76680195 12 4
0.90113705 7.1734996 1.1451004 29 12
0.87758064 6.976161 -0.61514527 19 5
0.86444724 6.8524184 1.3425322 15 13
0.78334033 6.1920829 -0.32709977 22 6
1.0822875 8.5432014 1.9881173 2 14
0.78207576 6.0134397 -1.624866 9 0
1.0828165 8.3145113 0.14635588 18 8
0.83422905 6.3882957 -1.4873765 25 1
0.91881168 7.0264559 0.37137598 9 9
0.79659599 6.0753145 -1.1910298 14 2
0.8869226 6.7459564 0.59527373 8 10
0.87433153 6.6411963 -1.0609387 4 3
0.83419532 6.3193097 0.78264499 3 11
0.81947267 6.191102 -0.76680195 12 4
0.87830633 6.6267228 1.0587486 8 12
1.1895251 8.9508142 -0.78997964 22 5
0.9332695 7.0038471 1.3734432 2 13
0.826527 6.1945262 -0.32751846 22 6
0.7747066 5.7907314 1.3488065 7 14
1.2694597 9.4637833 -0.16667047 10 7
0.82036811 5.9888372 -1.6196897 9 0
1.1509072 8.3800488 0.14764735 18 8
0.8806138 6.4037051 -1.4923253 24 1
0.9171083 6.6518607 0.35190701 9 9
0.85780478 6.2057395 -1.2177432 6 2
0.93200415 6.7338414 0.59475076 9 10
0.96737009 6.9714708 -1.1147522 13 3
0.98414665 7.074235 0.8769719 16 11
0.8640573 6.2030764 -0.76899564 13 4
1.3226175 9.470892 1.5145986 7 12
1.2426943 8.8872604 -0.78509891 11 5
0.97955549 6.9876113 1.3715351 15 13
0.86363751 6.1450925 -0.32521567 11 6
1.1546241 8.205204 1.9129838 4 14
1.3215619 9.3677998 -0.16513468 15 7
0.8665638 6.0135579 -1.6279719 9 0
1.0540011 7.305232 0.12883367 12 8
0.92780626 6.4147606 -1.4963745 17 1
0.90482622 6.2481599 0.33086795 2 9
0.90820271 6.2561011 -1.2288101 4 2
0.97239 6.6818242 0.59074163 12 10
0.90999156 6.2453814 -0.99961638 10 3
1.02826 7.0398722 0.87355953 8 11
0.90619147 6.1890364 -0.76802069 15 4
1.3369122 9.1196356 1.4598466 16 12
1.0101066 6.8736396 -0.60782415 18 5
1.0274593 6.9747748 1.3703903 7 13
0.91185427 6.1825418 -0.32751846 22 6
0.8855409 5.9896278 1.3978459 12 14
1.2679031 8.5552416 -0.15096332 16 7
0.90719104 6.005609 -1.6274542 12 0
1.2328029 8.141943 0.14373802 23 8
0.96122897 6.3408599 -1.4806278 30 1
1.0510348 6.9170027 0.36666575 7 9
0.9426955 6.1894403 -1.2169799 6 2
1.0238528 6.7144432 0.59422785 12 10
1.1720375 7.6682534 -1.2286365 2 3
1.1242776 7.3386259 0.91158277 15 11
0.94889981 6.1866484 -0.76850814 15 4
1.0976851 7.1400685 1.1441618 13 12
1.0268648 6.6716537 -0.59056729 7 5
1.0710167 6.9423962 1.3654292 5 13
0.95621806 6.1839199 -0.32793713 22 6
1.3654323 8.8201675 2.0605516 4 14
1.1390762 7.3410215 -0.12967138 21 7
0.84699363 5.4461031 1.4768215 20 15
0.94758385 5.9895892 -1.624866 13 0
1.2872603 8.1274376 0.14363331 23 8
1.0140247 6.3878856 -1.4932251 14 1
1.0843034 6.822897 0.36206019 4 9
0.98912722 6.2100234 -1.2223225 6 2
1.0782447 6.7543511 0.59841132 6 10
1.4636234 9.1581764 -1.4689198 9 3
1.0819004 6.7545309 0.83992356 11 11
0.99206764 6.1798735 -0.76850814 13 4
1.5637667 9.730299 1.5609033 5 12
1.0765849 6.6839924 -0.59231043 7 5
0.97146904 6.0179987 1.184924 2 13
0.99828571 6.177268 -0.32793713 22 6
0.95557487 5.8999023 1.3798498 5 14
0.99032152 5.9885459 -1.6264189 12 0
1.3300195 8.0252972 0.14199278 22 8
1.0550874 6.3595033 -1.4882761 17 1
1.0803587 6.4977589 0.34520799 11 9
1.0532233 6.3209167 -1.2456012 4 2
1.1571703 6.9372864 0.61531955 3 10
1.0936713 6.5425348 -1.050614 8 3
1.1344675 6.772068 0.8430922 12 11
1.0345305 6.1688819 -0.76802069 15 4
1.2044724 7.166904 1.151045 19 12
1.0378053 6.1423955 -0.32647175 22 6
1.072919 6.3367553 1.4837772 7 14
1.1819761 6.9734621 -0.12345833 5 7
1.0337505 5.9910045 -1.6290071 13 0
1.2023706 6.9537406 0.12317909 3 8
1.1004595 6.3577423 -1.4896258 13 1
1.0820055 6.2381701 0.33181 16 9
1.2738224 7.3288946 -1.4459506 8 2
1.2649984 7.2705836 0.64564973 10 10
1.1084421 6.3576522 -1.0221429 15 3
1.1595145 6.6368766 0.82724917 19 11
1.0803051 6.1771526 -0.7699706 13 4
1.3213103 7.5396829 1.2123673 10 12
1.2083558 6.8739705 1.356652 17 13
1.0841268 6.1546707 -0.32751846 22 6
1.6214964 9.186614 2.1536813 16 14
1.6669365 9.434411 -0.16722897 10 7
1.3107888 7.4036269 2.0146475 23 15
1.0813606 6.015965 -1.6378069 10 0
1.1916897 6.6165166 0.11734998 13 8
1.1423979 6.3364806 -1.4864765 16 1
1.1233965 6.2186723 0.33118194 16 9
1.3239076 7.3140273 -1.4448059 5 2
1.2638607 6.9753475 0.62020022 16 10
1.6609253 9.14855 -1.4726743 12 3
1.2164789 6.6872115 0.83456135 14 11
1.1234063 6.1694593 -0.7699706 13 4
1.3980249 7.6624179 1.2336423 11 12
1.9928395 10.901011 -0.96952045 13 5
1.3969666 7.6339793 1.508536 12 13
1.1256244 6.1390948 -0.32709977 11 6
1.6482713 8.9719038 2.1059918 13 14
1.3589431 7.3752966 2.0094712 37 15
1.1229757 6.0063705 -1.6372893 7 0
1.2536848 6.6925521 0.11885089 6 8
1.1851674 6.3206897 -1.484677 25 1
1.209192 6.4364133 0.34321922 2 9
1.3669508 7.2621593 -1.4364102 7 2
1.2715797 6.749023 0.60085171 8 10
1.7276852 9.1522608 -1.4751772 12 3
1.2461619 6.5888329 0.82334936 13 11
1.1686654 6.1731687 -0.771433 13 4
1.3892694 7.324481 1.1807675 11 12
1.7943808 9.4423008 -0.84087861 11 5
1.6718116 8.7889595 1.7390332 18 13
1.1729456 6.1546292 -0.32835582 22 6
1.4049501 7.3580265 1.7294236 13 14
1.3713045 7.1750197 -0.12750728 12 7
1.3911436 7.2650685 1.9820364 45 15
1.167827 6.013556 -1.6414305 9 0
1.2996132 6.6797109 0.11878107 13 8
1.2337353 6.3352156 -1.4900758 15 1
1.2541002 6.427814 0.34321922 4 9
1.8374144 9.3913918 0.83721811 5 10
1.807492 9.2213936 -1.4883177 9 3
1.4481957 7.3747115 0.92279476 9 11
1.2132623 6.1726513 -0.77240795 16 4
1.5296777 7.7681332 1.2539788 4 12
2.0075705 10.176244 -0.90746558 12 5
1.2120085 6.1266975 -0.3273091 22 6
1.4123353 7.1262989 1.677235 14 14
1.2882919 6.4944468 -0.11556984 5 7
1.209018 6.0014687 -1.6403952 9 0
1.279359 6.3392053 0.11288217 8 8
1.278705 6.3302679 -1.4909756 15 1
1.2743807 6.2975335 0.33672959 9 9
1.3223256 6.5227475 -1.2936851 4 2
1.2531679 6.1760721 0.5513472 3 10
1.8730059 9.2143574 -1.4892563 8 3
1.3594252 6.6758304 0.83651125 19 11
1.2539473 6.1523604 -0.77094555 15 4
1.4427971 7.0663099 1.1422846 13 12
1.7375902 8.4949942 -0.75860357 15 5
1.7829478 8.7089825 1.7279664 19 13
1.2635764 6.1611314 -0.3296119 22 6
1.4396974 7.0074592 1.6515907 16 14
1.4671063 7.1219497 1.9483899 4 15
1.2516762 5.9966645 -1.6414305 9 0
1.3039387 6.236166 0.11120673 11 8
1.330851 6.3593349 -1.4999737 9 1
1.325691 6.3236685 0.33861366 19 9
1.5082451 7.1819849 -1.4264882 5 2
2.0076985 9.552001 0.85395193 4 10
1.916532 9.1024742 -1.4733 18 3
1.3011218 6.1689329 0.77411413 15 11
1.2976884 6.1473408 -0.771433 18 4
1.5844524 7.4928422 1.2129929 7 12
2.0338471 9.6014624 -0.85865831 12 5
1.5888071 7.4940491 1.4890735 24 13
1.3015794 6.1287155 -0.32835582 22 6
1.5433259 7.254559 1.7123275 13 14
1.513768 7.1095228 -0.12687899 5 7
1.2914706 5.9783378 -1.6388422 6 0
1.3427914 6.2054114 0.11082278 13 8
1.3723277 6.3365569 -1.4968243 15 1
1.3579501 6.2596073 0.33568287 2 9
1.3924214 6.4077258 -1.2746042 4 2
1.3706111 6.3020425 0.5642463 6 10
1.9653157 9.0213184 -1.4623495 15 3
1.4127196 6.4738903 0.81359977 11 11
1.3422675 6.1458888 -0.77240795 18 4
1.6253252 7.4294953 1.2045455 18 12
1.6356193 7.4578447 1.4841125 18 13
1.3460482 6.1272821 -0.32877451 22 6
1.5386569 6.9923844 1.6529404 15 14
1.3340181 5.9729466 -1.6398776 6 0
1.4450133 6.4593339 0.11553493 21 8
1.4173833 6.3306251 -1.4977242 12 1
1.4488156 6.4604516 0.34698743 7 9
1.440567 6.4131722 -1.277657 6 2
1.3892251 6.1795759 0.55413622 7 10
2.0178337 8.9611263 -1.4548407 15 3
1.4526404 6.4406328 0.81067497 10 11
1.3877637 6.1479869 -0.77387041 18 4
1.5229423 6.7358994 1.0937898 3 12
1.6173446 7.1360641 1.4222903 9 13
1.3945428 6.143055 -0.33013523 22 6
1.7507068 7.7057686 1.8243531 13 14
1.5498821 6.8108153 -0.12192252 19 7
1.3795899 5.9804306 -1.6445363 9 0
1.4691577 6.363616 0.11399912 24 8
1.4615419 6.3205762 -1.4977242 15 1
1.4585367 6.3025556 0.33903235 16 9
1.478421 6.378356 -1.2726961 10 2
1.4309839 6.1639032 0.55361325 18 10
2.0877206 8.9856682 -1.4610981 8 3
1.4901478 6.4035277 0.8072626 13 11
1.4342556 6.1536145 -0.77582031 21 4
1.6742084 7.1774549 1.1673142 18 12
2.4422238 10.4535 -0.93919033 13 5
1.6666734 7.1226878 1.4219086 12 13
1.4326791 6.1178641 -0.32929787 22 6
1.6202286 6.907897 1.6380936 3 14
1.4122216 5.9370713 -1.6352189 9 0
1.55479 6.5263329 0.11710566 29 8
1.5067936 6.3199587 -1.4999737 16 1
1.6314564 6.8322754 0.36813116 7 9
1.5073882 6.302959 -1.259721 10 2
1.477542 6.1733975 0.55535638 3 10
1.7682101 7.3764787 -1.2014169 10 3
1.6256452 6.7712965 0.85503536 7 11
1.4733233 6.1321287 -0.77435786 24 4
1.6956223 7.0465169 1.1479162 19 12
1.9797148 8.2145338 -0.73925501 30 5
2.2578282 9.3613319 1.8718363 7 13
1.4823864 6.1368356 -0.33086795 22 6
1.8540021 7.6635265 1.8203038 4 14
1.944787 8.0326681 -0.1442616 7 7
1.4550134 5.9326968 -1.6367717 10 0
1.5755109 6.4143367 0.1152906 18 8
1.5532013 6.3187485 -1.5022231 14 1
1.9350162 7.8602142 0.42423528 4 9
1.7313544 7.0223455 -1.4058808 7 2
1.5993551 6.4821043 0.58411777 12 10
1.9177597 7.7609172 -1.2661808 10 3
1.6390169 6.6229682 0.83772999 12 11
1.5161008 6.1216931 -0.77435786 25 4
1.7733043 7.1495452 1.1666883 9 12
1.7680385 7.117681 -0.6416406 20 5
1.7808244 7.1638103 1.4348837 15 13
1.5222983 6.1147075 -0.33023992 22 6
1.7891262 7.1757917 1.7073785 24 14
1.4935564 5.9111562 -1.6336659 11 0
1.6231961 6.414813 0.11550003 9 8
1.5991901 6.3153071 -1.5040227 14 1
1.7733324 6.9927487 0.378075 9 9
1.7982148 7.0804935 -1.4200007 10 2
1.8737593 7.3725576 0.6655212 9 10
1.9913805 7.8239141 -1.2786956 10 3
1.6430466 6.4459357 0.81676841 3 11
1.5607611 6.1186547 -0.77533287 24 4
1.8221965 7.1331635 1.1660627 12 12
1.9299432 7.5494533 -0.68173224 23 5
2.0883708 8.1573162 1.6367596 18 13
1.5679291 6.1155391 -0.33086795 22 6
1.848096 7.2030878 1.7168264 4 14
1.6496842 6.4204407 -0.11570945 5 7
1.5401371 5.9211512 -1.6393598 9 0
1.6285398 6.2565393 0.11284725 17 8
1.6432403 6.3039889 -1.5040227 14 1
1.6852806 6.460649 0.34991825 7 9
1.8275129 6.9959078 -1.4054991 8 2
1.7381113 6.6441846 0.60085171 12 10
1.9190232 7.3305221 -1.2001654 16 3
1.6722865 6.3789177 0.80970001 4 11
1.609488 6.1306496 -0.77825767 25 4
2.493613 9.4915781 1.5543331 26 12
2.8195419 10.716978 -0.96952045 13 5
1.8291553 6.9427047 1.3955771 17 13
1.6105354 6.1085873 -0.33107728 22 6
1.7006009 6.4319663 -0.11612831 15 7
1.5774114 5.8993335 -1.6362541 9 0
1.6530418 6.1735468 0.11155578 19 8
1.683086 6.2813635 -1.5013233 14 1
1.6661606 6.209527 0.33693892 7 9
1.6816986 6.2587056 -1.259721 6 2
1.8996998 7.0651107 0.64007175 3 10
1.7627732 6.5376682 0.83139277 11 11
1.6568723 6.1406331 -0.78093886 28 4
1.958503 7.2484789 1.1892149 20 12
2.6341074 9.7354155 -0.88236475 12 5
2.3884349 8.8213253 1.7764318 3 13
1.6573232 6.1126161 -0.33191466 22 6
2.4698246 9.0967312 2.1761765 9 14
1.6206062 5.895628 -1.6383246 9 0
1.7735795 6.4433432 0.11665189 9 8
1.7320721 6.2882481 -1.5058223 12 1
1.900648 6.8908753 0.37462083 4 9
1.7567121 6.3603568 -1.282618 6 2
1.7961131 6.4986043 0.58987004 15 10
2.0891571 7.548604 -1.2405255 3 3
1.7760321 6.4085097 0.81652468 15 11
1.6981071 6.123179 -0.78020763 25 4
1.8901333 6.806376 1.1188195 7 12
1.9847053 7.1324439 1.4390815 21 13
1.706393 6.1239834 -0.33317071 22 6
2.1949394 7.8666954 1.8855397 20 14
1.9343165 6.9279356 -0.12555261 5 7
1.6585729 5.8730164 -1.6352189 9 0
1.8925254 6.6924996 0.12139894 10 8
1.7791109 6.2872543 -1.5085218 13 1
1.9519792 6.8889675 0.37524885 7 9
1.7876762 6.3007202 -1.2730777 6 2
1.8120568 6.3824077 0.58045721 9 10
1.867395 6.5685925 -1.081588 1 3
2.77946 9.7638569 1.2464797 2 11
1.7456894 6.1242337 -0.78191376 28 4
2.0015378 7.0171695 1.155738 12 12
2.0672116 7.2378235 -0.65854877 8 5
2.0481093 7.1614738 1.4478587 13 13
1.7480031 6.1080823 -0.33296138 22 6
2.3979676 8.3682232 2.0097127 23 14
2.2055523 7.6866159 -0.13958435 16 7
1.6940969 5.8387337 -1.6290071 9 0
2.185087 7.5260172 0.13679196 30 8
1.8197038 6.2593923 -1.5049226 14 1
1.7924474 6.1576171 0.33610156 7 9
1.8173416 6.2390795 -1.2631556 8 2
1.703709 5.8413744 0.53234726 18 10
2.5888314 8.8645964 -1.4626625 9 3
1.8352685 6.2801967 0.80336279 19 11
1.7973217 6.1423812 -0.78581363 33 4
2.0878055 7.1258855 1.1760744 18 12
2.0818169 7.1008534 -0.64739287 8 5
1.7871608 6.0800881 -0.33212399 22 6
2.4156394 8.2129326 1.9764199 15 14
1.7436378 5.8563886 -1.6372893 9 0
1.8161312 6.0920868 0.1109624 30 8
1.8644723 6.2502699 -1.5058223 14 1
1.842254 6.1679173 0.33735761 7 9
1.8394432 6.1506767 -1.2478909 4 2
1.8975327 6.3408833 0.57906276 11 10
1.8625457 6.2160683 -1.0277746 3 3
2.0769591 6.9228754 0.88745266 7 11
1.8361644 6.116375 -0.78410745 25 4
2.0777926 6.9125023 1.1432233 23 12
2.4802499 8.2461824 -0.75337422 10 5
2.4349244 8.085268 1.6413391 14 13
1.8307174 6.0712872 -0.33233336 22 6
2.4627848 8.1622849 1.9683217 17 14
2.0107827 6.6558356 -0.12136403 5 7
1.7805314 5.8311396 -1.6336659 11 0
1.8733305 6.1312199 0.11190483 19 8
1.9103423 6.2445555 -1.5076219 13 1
1.8596388 6.0750251 0.33296138 19 9
1.8950744 6.1830626 -1.2570497 6 2
2.0820374 6.7846146 0.62089753 10 10
2.0486176 6.6715589 -1.1053661 3 3
2.1409543 6.9636016 0.89452106 16 11
1.8846574 6.1223798 -0.7865448 27 4
2.1335223 6.9265156 1.1479162 19 12
2.6317027 8.5332928 -0.78126407 16 5
2.5040581 8.1093397 1.6497347 16 13
1.8767151 6.0739522 -0.33317071 22 6
2.8111303 9.0869083 2.1959722 6 14
2.1909151 7.0733318 -0.12925252 9 7
1.8196049 5.8170414 -1.6331483 7 0
1.9202725 6.13135 0.11214916 17 8
1.9574655 6.246284 -1.5112212 14 1
1.919943 6.1190639 0.33610156 19 9
1.9328985 6.1528249 -1.2536151 10 2
2.1042688 6.6942577 0.61392504 16 10
2.0494809 6.5120058 -1.0812751 12 3
2.1871276 6.9409132 0.8935461 8 11
1.9298718 6.1207671 -0.7880072 31 4
2.1859858 6.9246397 1.1501063 13 12
2.2576914 7.1430864 -0.65541118 8 5
2.5426188 8.0396957 1.6390493 14 13
1.929929 6.094975 -0.33505484 11 6
2.8156092 8.881299 2.1509819 15 14
2.148314 6.7723417 -0.12401681 14 7
1.8678359 5.8281121 -1.6398776 10 0
2.0167985 6.2853527 0.11522079 6 8
2.003408 6.2398877 -1.5130208 15 1
2.0237398 6.2956538 0.34656873 9 9
1.9673828 6.113018 -1.2482725 12 2
2.1161444 6.5713038 0.6039893 6 10
2.8277385 8.7705526 -1.4595338 12 3
2.3428562 7.2579589 0.9364441 13 11
1.9786544 6.1260371 -0.79044467 34 4
2.5290592 7.8207898 1.3018478 8 12
2.2811153 7.0456429 -0.64791578 25 5
2.6071553 8.0478964 1.6443919 14 13
1.9810594 6.1079502 -0.33652022 11 6
3.2025487 9.8622999 2.393929 2 14
2.1905978 6.7419639 -0.12373756 13 7
3.1129797 9.5694113 2.6963768 0 15
1.9060657 5.8075886 -1.6378069 10 0
2.0412748 6.2122278 0.11413874 12 8
2.0432668 6.214643 -1.5103214 13 1
2.000196 6.0764832 0.33526415 4 9
2.0149276 6.1140509 -1.2513254 14 2
2.0970759 6.3595858 0.58586085 8 10
2.3910058 7.242455 -1.2079871 10 3
2.2470732 6.7984948 0.87916553 15 11
2.0226204 6.1158428 -0.79093212 33 4
2.6848087 8.1086082 1.3528454 14 12
2.4650311 7.4361525 -0.68539274 9 5
2.8103821 8.4729939 1.7352172 14 13
2.0500863 6.1735826 -0.34091645 11 6
2.8225224 8.4897699 2.0655005 20 14
2.1845882 6.5671201 -0.12080556 22 7
1.9453362 5.7904773 -1.6367717 11 0
2.3517032 6.9919815 0.12876385 17 8
2.0903358 6.2113075 -1.5130208 13 1
2.1847775 6.484447 0.35860601 14 9
2.0657201 6.1240182 -1.2562865 16 2
2.145246 6.3561168 0.58690673 12 10
2.4794502 7.3378716 -1.2267592 3 3
2.2505856 6.6528945 0.86234754 16 11
2.0690866 6.1128554 -0.79239452 28 4
2.3736372 7.0045605 1.1713815 12 12
2.3005302 6.7810349 -0.62647545 8 5
2.8233941 8.3174553 1.7073588 37 13
2.0777123 6.1137347 -0.33840433 22 6
2.90558 8.5399628 2.0825968 2 14
1.9894818 5.7877164 -1.6398776 10 0
2.3529575 6.8373599 0.1262158 12 8
2.1317449 6.1910353 -1.5116711 20 1
2.2631903 6.5653358 0.36394429 19 9
2.1161094 6.1317182 -1.2608659 16 2
2.308573 6.6856246 0.61880577 13 10
2.645499 7.6527023 -1.2824498 3 3
2.2580228 6.5244646 0.84772325 3 11
2.11431 6.1057639 -0.79336947 27 4
2.4056575 6.939292 1.1632469 6 12
2.3374929 6.7388659 -0.62403512 12 5
2.871732 8.2697229 1.7016346 24 13
2.1242785 6.1103992 -0.33903235 11 6
3.3298516 9.572794 2.3399408 12 14
2.4431059 7.0156484 -0.12967138 21 7
3.4678791 9.947216 2.8226805 19 15
2.0484207 5.826539 -1.6548891 9 0
2.5049498 7.1211214 0.13176566 18 8
2.1872129 6.2109261 -1.5202192 14 1
2.3257477 6.6006398 0.36677042 9 9
2.1604097 6.1245775 -1.2623924 16 2
3.2614379 9.2356358 0.8569153 7 10
3.0765905 8.7073374 -1.4626625 9 3
2.2613351 6.3929138 0.83261144 7 11
2.15821 6.0945978 -0.79385698 26 4
2.8710945 8.1032381 1.3616058 16 12
2.3511794 6.6284947 -0.61531955 27 5
2.8209965 7.944211 1.6386677 39 13
2.1591349 6.0769787 -0.33798563 11 6
3.4749689 9.76964 2.393929 12 14
2.5872784 7.2659249 -0.13462786 6 7
3.2016022 8.9861841 2.556097 18 15
2.0828054 5.7979169 -1.6507479 9 0
2.2189524 6.1701312 0.11445288 21 8
2.2287791 6.1940608 -1.5197693 16 1
2.3724489 6.5861206 0.36687508 7 9
2.1977839 6.0945725 -1.2593395 16 2
2.5066981 6.9473972 0.6461727 5 10
2.6870053 7.4390016 -1.2527274 5 3
2.8763175 7.9544115 1.0385706 2 11
2.2063954 6.0984335 -0.79629439 24 4
2.4809253 6.8497443 1.1538608 3 12
2.7369726 7.5484519 -0.70247525 14 5
2.2042348 6.0692658 -0.33840433 11 6
3.4778292 9.5656614 2.3498387 9 14
2.778867 7.6390233 -0.14188807 7 7
3.4506705 9.4755096 2.702071 27 15
2.1132476 5.7560315 -1.6429834 11 0
2.2895646 6.2295685 0.11584908 9 8
2.2820561 6.2057843 -1.5265179 13 1
2.3410904 6.3594775 0.35515183 7 9
2.254535 6.1177654 -1.2673534 20 2
2.5048187 6.7932658 0.63344789 15 10
2.70262 7.3218441 -1.2361453 7 3
2.4350078 6.589747 0.86259133 11 11
2.2516732 6.0903277 -0.79726928 26 4
3.1450868 8.497714 1.43513 20 12
2.8034444 7.5665269 -0.70596153 19 5
3.0687904 8.2782507 1.7161362 18 13
2.2701755 6.1173949 -0.34196317 23 6
3.5696402 9.6087379 2.3664851 11 14
3.6054738 9.7000227 -0.18063241 11 7
3.6602421 9.8368397 2.8123279 8 15
2.1676254 5.7791238 -1.6538538 9 0
2.9037724 7.7335615 0.14419177 5 8
2.3225806 6.1824055 -1.5247183 15 1
2.3341088 6.206511 0.34751078 9 9
2.3013432 6.1128998 -1.2696431 30 2
2.5613134 6.7998519 0.63571393 5 10
2.3250458 6.1660666 -1.0437309 21 3
2.4816513 6.5744448 0.86283505 9 11
2.3011503 6.0930309 -0.7997067 27 4
3.3230875 8.7896652 1.4883177 11 12
2.3258641 6.1454935 -0.57487923 33 5
3.4922025 9.2223787 1.9168673 15 13
2.3000848 6.0677805 -0.34007907 22 6
3.6234987 9.5489645 2.3579369 12 14
3.0044973 7.9135532 -0.14775208 19 7
2.2134466 5.7782822 -1.6579949 9 0
2.4042435 6.2698116 0.11721037 22 8
2.3649876 6.1642213 -1.5242684 25 1
2.327256 6.0595508 0.34018376 11 9
2.3495967 6.1113458 -1.2726961 30 2
2.6330466 6.8450284 0.6416406 6 10
2.3609352 6.1312518 -1.0406022 22 3
2.5267754 6.5551076 0.86259133 6 11
2.3450575 6.0805225 -0.8001942 28 4
3.169512 8.2097225 1.3938313 12 12
2.3572223 6.09937 -0.57209027 57 5
3.1727421 8.2053003 1.7100304 3 13
2.3474395 6.0646124 -0.34081176 23 6
3.6893659 9.5216198 2.357487 11 14
2.9772701 7.6798329 -0.14377292 7 7
3.8517411 9.9252539 2.8527036 13 15
2.2537327 5.7626886 -1.6579949 9 0
2.5011728 6.3888059 0.11975842 17 8
2.4036999 6.136673 -1.5215689 21 1
2.5160475 6.4169021 0.3612228 2 9
2.4051161 6.1276889 -1.2795652 22 2
2.7055278 6.8895345 0.64756715 5 10
2.4116313 6.1348419 -1.0440438 30 3
3.0311465 7.7029023 1.0163903 11 11
2.3932679 6.0787797 -0.80214405 24 4
3.2665858 8.2884741 1.411039 16 12
2.4111066 6.1146946 -0.57505357 40 5
3.5845912 9.0814114 1.8977863 18 13
2.4014614 6.0777979 -0.34248653 23 6
3.7247229 9.4219809 2.3390412 9 14
2.8836472 7.2869825 -0.13679196 6 7
3.4200602 8.6336908 2.4882863 12 15
2.2896094 5.7360501 -1.6548891 9 0
2.6758742 6.700336 0.12593657 12 8
2.4602275 6.1541233 -1.5301172 25 1
2.5255487 6.3143234 0.35640791 4 9
2.4438515 6.1038857 -1.2780387 28 2
3.6607895 9.1341295 0.86092436 2 10
2.4628916 6.1421199 -1.0481111 43 3
3.1056921 7.7373581 1.0237026 11 11
2.4415684 6.0766592 -0.80409402 23 4
3.0525258 7.593399 1.2962161 6 12
2.4634058 6.1217418 -0.57731962 43 5
3.6596367 9.0853043 1.9038923 15 13
2.4427762 6.0613108 -0.34248653 23 6
3.5060747 8.6909313 2.1635792 12 14
3.5178316 8.706933 2.5162387 15 15
2.3329732 5.7310662 -1.6579949 9 0
2.5995839 6.3796406 0.12024708 17 8
2.5130956 6.1643019 -1.5368656 14 1
2.5159867 6.1652455 0.34897619 11 9
2.4938293 6.1048498 -1.2818549 30 2
3.3482504 8.1923847 0.77429163 6 10
2.8228524 6.899971 -1.1807675 16 3
3.1897252 7.788969 1.0334522 11 11
2.4904006 6.0782681 -0.80653143 28 4
3.8542824 9.3977146 1.6087722 15 12
3.0796409 7.5014729 -0.70944774 19 5
3.819855 9.2999001 1.9542658 14 13
2.4895923 6.055191 -0.34311455 23 6
3.8329167 9.3131952 2.325094 11 14
2.6853869 6.5216918 -0.12310927 5 7
3.21854 7.8087678 2.2631137 2 15
2.3729241 5.7146406 -1.6579949 9 0
2.592639 6.2376165 0.11790846 23 8
2.5448425 6.1196179 -1.5301172 14 1
2.6134651 6.2784452 0.35640791 4 9
2.5469596 6.1126618 -1.2871976 30 2
3.4130325 8.1871977 0.77603471 6 10
2.8207471 6.7597766 -1.1601181 11 3
2.5465515 6.0937018 -0.81091869 30 4
3.733027 8.9241009 1.5321194 7 12
3.9916425 9.528326 2.0080738 13 13
2.5372086 6.0505571 -0.34384724 23 6
3.7756565 8.9951162 2.2522099 4 14
2.7695615 6.5949726 -0.12485451 5 7
2.4210482 5.717504 -1.6636889 11 0
2.6478283 6.2469816 0.11843203 16 8
2.5836995 6.092732 -1.5278676 20 1
2.5167627 5.9291196 0.33756694 9 9
2.5911047 6.0983472 -1.2879608 28 2
3.4771218 8.1796732 0.77760357 4 10
3.5894747 8.4358063 -1.4520249 9 3
3.3572838 7.8824754 1.0519762 9 11
2.5921414 6.0830812 -0.81189364 24 4
3.7975669 8.9032707 1.5330579 16 12
3.8961172 9.1210823 1.9279342 30 13
2.5856693 6.0473886 -0.34468466 23 6
3.7716496 8.8169136 2.2139683 12 14
3.2783637 7.6563768 -0.14537854 15 7
3.4056416 7.9459591 2.3164306 7 15
2.461673 5.7022352 -1.6642065 9 0
