# .PCD v0.7 - Point Cloud Data file format
VERSION 0.7
FIELDS x y z intensity ring
SIZE 4 4 4 4 2
TYPE F F F F U
COUNT 1 1 1 1 1
WIDTH 1299
HEIGHT 1
VIEWPOINT 0 0 0 1 0 0 0
POINTS 1299
DATA ascii
3.3649247 -8.7340212 -2.1608799 9 1
4.0585084 -10.550754 -2.1973565 6 2
5.1160784 -13.327838 -2.2611041 5 3
7.9382687 -20.712301 -2.7235363 5 4
17.582319 -46.043541 -2.5829892 0 6
2.5313666 -6.6990647 -1.9188845 2 0
3.2983658 -8.742712 -2.1572804 9 1
3.985673 -10.586875 -2.1988828 6 2
5.022213 -13.361382 -2.2607911 6 3
7.842298 -20.897314 -2.740598 5 4
18.208906 -48.701939 -2.7249241 1 6
2.4818552 -6.7093258 -1.9168139 2 0
3.2332001 -8.7545576 -2.1545811 8 1
3.9062345 -10.599705 -2.1958301 6 2
4.9260836 -13.388701 -2.2595396 6 3
7.6969008 -20.953417 -2.7408419 3 4
17.773058 -48.567162 -2.7103748 1 6
2.4481063 -6.7628193 -1.9271667 2 0
3.1640551 -8.7549248 -2.1491826 8 1
3.8388004 -10.645185 -2.1996462 6 2
4.8345022 -13.428342 -2.2604783 5 3
7.5685654 -21.057077 -2.7474227 6 4
17.350758 -48.458775 -2.6975002 1 6
2.396965 -6.7688193 -1.9240609 2 0
3.1028571 -8.7768002 -2.1491826 9 1
3.7584112 -10.648852 -2.1950669 6 2
4.7502074 -13.481432 -2.2639198 6 3
7.4424429 -21.169331 -2.7552223 6 4
16.311186 -46.551365 -2.5850823 1 6
2.3590574 -6.8087082 -1.9307902 2 0
3.0353999 -8.7756166 -2.1437836 9 1
3.6814158 -10.667407 -2.1935403 6 2
4.6540446 -13.508662 -2.2629812 5 3
7.3072138 -21.245779 -2.7586348 6 4
16.01169 -46.739685 -2.5892694 0 6
2.3102269 -6.821352 -1.9297549 2 0
2.9753087 -8.8002853 -2.1446834 9 1
3.6037164 -10.683548 -2.1916323 7 2
4.5627747 -13.550185 -2.2645457 6 3
7.158082 -21.294392 -2.7583909 4 4
16.112993 -48.128738 -2.6599228 1 6
2.2667983 -6.8501515 -1.9333783 3 0
2.9089096 -8.8060398 -2.1410842 7 1
3.5296576 -10.71031 -2.192014 6 2
4.4618921 -13.562945 -2.2614169 6 3
7.0142002 -21.358934 -2.7603409 4 4
15.700856 -48.008457 -2.6471529 1 6
2.2129791 -6.8474274 -1.9282019 2 0
2.8485587 -8.8298416 -2.141984 8 1
3.4560037 -10.738428 -2.1927772 6 2
4.3761611 -13.621975 -2.2661099 5 3
6.8806758 -21.45653 -2.7666781 4 4
15.297271 -47.903809 -2.6354296 1 6
2.1686087 -6.8737645 -1.9313078 3 0
2.7833331 -8.8383608 -2.1392844 8 1
3.3774219 -10.751055 -2.1904874 6 2
4.2880492 -13.674811 -2.2698643 5 3
6.7200451 -21.46994 -2.7622907 4 4
14.892941 -47.786339 -2.623183 1 6
2.1217055 -6.8924289 -1.9323431 2 0
2.7204175 -8.8538513 -2.1383848 8 1
3.294229 -10.748094 -2.1851447 6 2
4.1901655 -13.696859 -2.2686129 5 3
6.5676742 -21.508738 -2.7613158 4 4
14.497389 -47.686592 -2.612088 1 6
2.0785346 -6.9237256 -1.9370018 2 0
2.6596591 -8.8763609 -2.1392844 7 1
3.2191131 -10.77083 -2.1851447 6 2
4.0966992 -13.733349 -2.2698643 5 3
6.4145226 -21.544552 -2.760097 4 4
14.115874 -47.623871 -2.6031907 1 6
2.0328608 -6.9473381 -1.93959 2 0
2.594348 -8.8834887 -2.136585 8 1
3.1446259 -10.788723 -2.1843815 6 2
4.0031257 -13.760916 -2.2698643 5 3
6.2462559 -21.527802 -2.7522976 4 4
13.725398 -47.490524 -2.5907347 1 6
1.9913533 -6.9814496 -1.945284 2 0
2.5316868 -8.893445 -2.1347857 9 1
3.0654764 -10.797193 -2.1817102 7 2
3.9064202 -13.786628 -2.2695515 7 3
6.0871763 -21.540319 -2.7483978 4 4
13.344814 -47.412155 -2.5813143 1 6
1.9423783 -6.9992437 -1.9463193 2 0
2.469023 -8.9150887 -2.1356852 9 1
2.9884553 -10.812653 -2.1805654 6 2
3.8171158 -13.848506 -2.2751832 7 3
5.924015 -21.536354 -2.742548 3 4
12.950887 -47.308014 -2.570533 1 6
1.8884313 -6.9939828 -1.9411429 2 0
2.407738 -8.9358721 -2.136585 8 1
2.9130433 -10.841346 -2.182092 6 2
3.7172723 -13.863369 -2.2733059 9 3
5.7683873 -21.55801 -2.7401106 3 4
12.570971 -47.211998 -2.5604846 1 6
1.845935 -7.0312872 -1.9478723 3 0
2.3443074 -8.9486933 -2.1356852 8 1
2.8312371 -10.83053 -2.1759858 6 2
3.6183352 -13.871148 -2.2704902 8 3
5.6337347 -21.659231 -2.74791 4 4
12.203248 -47.118591 -2.5508547 1 6
1.8018551 -7.0586634 -1.9520133 3 0
2.2881525 -8.9833279 -2.1401844 9 1
2.7584565 -10.861449 -2.1782756 6 2
3.5175264 -13.880752 -2.2679873 8 3
5.4803371 -21.673983 -2.7449851 2 4
11.83356 -47.041874 -2.5421669 1 6
1.7543913 -7.0785708 -1.9540838 3 0
2.2225742 -8.9877319 -2.137485 9 1
2.6825812 -10.872351 -2.1767492 6 2
3.4139915 -13.867929 -2.2620428 6 3
5.3175344 -21.665447 -2.7391357 3 4
11.642974 -47.652943 -2.570847 1 6
1.7055974 -7.0825381 -1.9520133 3 0
2.1620069 -8.9984856 -2.136585 9 1
2.6075983 -10.886539 -2.1759858 6 2
3.3254848 -13.915823 -2.2661099 4 3
5.1478596 -21.60845 -2.7274361 3 4
11.456595 -48.314102 -2.6022487 1 6
1.6601393 -7.1171384 -1.958225 4 0
2.0984433 -9.0175219 -2.137485 8 1
2.5239863 -10.871967 -2.1694984 7 2
3.2262657 -13.941188 -2.2664227 7 3
4.9950929 -21.636126 -2.7264612 3 4
11.263416 -49.060589 -2.6380465 1 6
1.6138175 -7.1436296 -1.9623661 3 0
2.0345819 -9.0281496 -2.136585 9 1
2.4543004 -10.926145 -2.1767492 6 2
3.1349096 -13.990356 -2.270803 6 3
4.8365607 -21.637537 -2.7223177 3 4
11.062759 -49.777523 -2.672379 1 6
1.5647312 -7.1584964 -1.9634014 4 0
1.9785614 -9.074502 -2.1442335 10 1
2.3731956 -10.911903 -2.1706433 6 2
3.0437953 -14.030676 -2.2739315 6 3
4.6874871 -21.680475 -2.7235363 5 4
10.752238 -49.984447 -2.6794965 0 6
1.5191668 -7.1841016 -1.9675424 4 0
1.9099115 -9.0553436 -2.136585 9 1
2.2965558 -10.926283 -2.1702616 7 2
2.9498217 -14.070917 -2.2770603 7 3
4.5410228 -21.717709 -2.7242677 3 4
10.366051 -49.880344 -2.6699715 1 6
1.4666564 -7.1831751 -1.9644365 4 0
1.8443135 -9.0569992 -2.1338856 9 1
2.2244742 -10.953207 -2.1725514 7 2
2.8578985 -14.110031 -2.280189 6 3
4.3783002 -21.694395 -2.7174428 3 4
10.000337 -49.820507 -2.663063 1 6
1.4139931 -7.1740379 -1.9592602 4 0
1.7811193 -9.0616941 -2.132086 9 1
2.1471975 -10.964617 -2.1717882 7 2
2.7615936 -14.14127 -2.2820661 7 3
4.2282553 -21.732229 -2.7184179 3 4
9.6208029 -49.726353 -2.6543753 1 6
1.3640617 -7.191565 -1.9613309 4 0
1.7169542 -9.0780382 -2.1329858 9 1
2.0705991 -10.979339 -2.1717882 7 2
2.662154 -14.170377 -2.2836306 8 3
4.0596189 -21.671463 -2.7072058 3 4
9.2771444 -49.860683 -2.6579342 1 6
1.3145152 -7.2047133 -1.9623661 4 0
1.6542342 -9.0936375 -2.1338856 8 1
1.9905809 -10.986147 -2.1702616 7 2
2.5614088 -14.178897 -2.2820661 7 3
3.9025948 -21.668018 -2.703306 3 4
8.8894444 -49.704037 -2.6462109 1 6
1.262851 -7.2061033 -1.9602956 4 0
1.5910439 -9.106885 -2.1343358 10 1
1.9123856 -10.980102 -2.1664453 7 2
2.4682143 -14.215466 -2.2851949 7 3
3.7397339 -21.628227 -2.6950188 3 4
8.5055885 -49.499626 -2.6321847 1 6
1.2214643 -7.2602544 -1.9727188 3 0
1.5248293 -9.0925188 -2.1284869 9 1
1.8369783 -11.000931 -2.1679718 7 2
2.3682644 -14.228456 -2.2845693 6 3
3.5794299 -21.57485 -2.6852694 3 4
8.1377497 -49.42379 -2.625067 1 6
1.1707484 -7.2686048 -1.9727188 4 0
1.4637855 -9.1183348 -2.132086 9 1
1.7595733 -10.99767 -2.1649189 7 2
2.2732277 -14.25595 -2.2864466 6 3
3.4231248 -21.564022 -2.680882 3 4
7.7799916 -49.343884 -2.6179495 1 6
1.1224232 -7.2840433 -1.9747895 4 0
1.4010944 -9.1242342 -2.1311862 8 1
1.6854217 -11.027153 -2.1683536 6 2
2.1772161 -14.294906 -2.2902007 6 3
3.2679234 -21.53187 -2.6740575 3 4
4.5983453 -30.441055 -2.6934609 16 5
7.4192753 -49.29034 -2.6122971 1 6
1.0732287 -7.3031688 -1.9778951 4 0
1.3356673 -9.1222248 -2.1284869 9 1
1.6075488 -11.032823 -2.1672087 7 2
2.0807729 -14.333215 -2.2939553 7 3
3.1126947 -21.520761 -2.6699138 5 4
4.3715229 -30.373812 -2.6847453 16 5
7.052587 -49.184746 -2.604028 1 6
1.0227528 -7.3143096 -1.9789305 4 0
1.2703365 -9.1197472 -2.1257875 9 1
1.5299469 -11.039886 -2.1664453 9 2
1.9844395 -14.374788 -2.2983353 7 3
2.9580488 -21.510502 -2.666014 5 4
6.6923213 -49.110092 -2.5975385 1 6
0.97369862 -7.3365922 -1.9830716 4 0
1.2066388 -9.1283932 -2.1257875 9 1
1.4518144 -11.042513 -2.1649189 9 2
1.8835231 -14.384376 -2.2977097 7 3
2.7993338 -21.465672 -2.6579707 3 4
3.9341996 -30.333097 -2.6760299 16 5
5.1726265 -40.045902 -2.1161523 1 6
0.92101115 -7.3317108 -1.9799658 4 0
1.1433659 -9.140461 -2.1266873 9 1
1.3727505 -11.036794 -2.1618662 7 2
1.7847567 -14.410897 -2.2998998 8 3
2.6489213 -21.480751 -2.6574831 3 4
3.7102189 -30.260944 -2.6673143 16 5
0.87071323 -7.3456359 -1.9820364 4 0
1.0786121 -9.1404791 -2.1248875 9 1
1.2965806 -11.053907 -2.1633925 7 2
1.6829624 -14.413195 -2.2983353 7 3
2.4977517 -21.488861 -2.6562645 5 4
3.4874346 -30.187147 -2.6585987 16 5
3.9065716 -33.971188 -1.7920879 21 6
0.82026666 -7.3592143 -1.9841069 3 0
1.0130554 -9.1322918 -2.1212883 9 1
1.2180876 -11.050981 -2.1611028 9 2
1.5822983 -14.424593 -2.2983353 7 3
2.3409922 -21.444599 -2.6487086 3 4
3.6603115 -33.914234 -1.7876917 21 6
0.77007324 -7.3762908 -1.9872128 3 0
0.94806737 -9.127512 -2.1185889 9 1
1.1427207 -11.076792 -2.1645374 6 2
1.4831705 -14.451009 -2.3008385 7 3
2.1857793 -21.407099 -2.6421275 5 4
3.0455167 -30.034674 -2.6411676 17 5
3.4138391 -33.843578 -1.7826674 21 6
1.3552486 -13.553899 3.6498661 2 15
0.71930784 -7.3891778 -1.9892832 4 0
0.88563681 -9.1474867 -2.1217382 10 1
1.0678067 -11.109904 -2.1694984 7 2
1.383375 -14.472809 -2.3027155 7 3
2.0310166 -21.366505 -2.6353028 5 4
3.1715128 -33.802952 -1.779318 7 6
0.66944158 -7.4132595 -1.9944596 4 0
0.81914109 -9.1243324 -2.1149898 9 1
0.987432 -11.0858 -2.1633925 9 2
1.281957 -14.478178 -2.3020899 7 3
1.8790187 -21.348524 -2.631403 5 4
2.0609062 -23.603693 -2.072912 31 5
2.0402553 -23.509251 -1.2366987 31 6
0.61703062 -7.4100523 -1.9923891 3 0
0.75477958 -9.1220598 -2.1131902 9 1
0.90840918 -11.072857 -2.1595764 7 2
1.1808491 -14.486775 -2.3020899 7 3
1.7302551 -21.36508 -2.6318905 5 4
1.8743873 -23.347412 -2.0492058 31 5
1.8619508 -23.345728 -1.227383 20 6
0.56587112 -7.4218841 -1.9944596 3 0
0.69048876 -9.1193342 -2.1113906 9 1
0.83225888 -11.094591 -2.1626294 7 2
1.0057286 -13.501827 -2.1444039 9 3
1.577396 -21.327147 -2.625797 7 4
1.7276114 -23.752573 -1.248108 21 6
0.5174796 -7.456399 -2.0027418 3 0
0.62933767 -9.1374331 -2.1145399 10 1
0.75805759 -11.119586 -2.1664453 7 2
0.90606999 -13.394051 -2.1262577 7 3
0.93498641 -13.929811 -1.7142143 4 4
1.5586698 -23.654171 -1.2423511 21 6
0.46589273 -7.4675426 -2.0048125 4 0
0.564448 -9.1240969 -2.1104908 9 1
0.6792112 -11.105011 -2.1626294 9 2
0.80811602 -13.327093 -2.1146812 13 3
0.8268761 -13.755681 -1.6920341 19 4
1.3891071 -23.381304 -2.0492058 31 5
1.408995 -23.927658 -1.2561678 21 6
0.41289344 -7.4551821 -2.0006714 3 0
0.50169683 -9.1453285 -2.1145399 10 1
0.60081905 -11.093799 -2.1595764 9 2
0.7131514 -13.296905 -2.1090496 13 3
0.7236644 -13.626322 -1.67546 19 4
1.1860327 -22.85984 -1.1996449 20 6
0.36121073 -7.465601 -2.0027418 3 0
0.43783927 -9.1486082 -2.1145399 10 1
0.52547753 -11.101554 -2.1603396 9 2
0.62096453 -13.265933 -2.1034181 14 3
0.62568426 -13.569571 -1.667904 20 4
1.0280653 -22.815508 -1.1969234 20 6
0.31102821 -7.4833283 -2.0068829 4 0
0.37531665 -9.1455345 -2.1131902 9 1
1.3046166 -32.063431 1.6817639 7 9
0.44796392 -11.104951 -2.1603396 9 2
0.52715695 -13.240337 -2.0987251 24 3
0.53377205 -13.585416 -1.6693665 21 4
0.86898863 -22.828117 -1.1972375 20 6
0.25864366 -7.4814563 -2.0058477 4 0
0.31106284 -9.1362457 -2.1104908 9 1
0.37147275 -11.139203 -2.1664453 7 2
0.43386981 -13.218028 -2.0946577 20 3
0.43795368 -13.55905 -1.6657103 15 4
0.70202851 -22.590078 -1.1844676 41 6
0.2072601 -7.5139771 -2.0141299 3 0
0.60727221 -22.298338 0.3893632 40 8
0.24774666 -9.1557283 -2.1145399 10 1
0.84273565 -31.551434 1.6541303 7 9
0.29286966 -11.110124 -2.1603396 9 2
0.34168208 -13.224686 -2.0952835 25 3
0.56490797 -22.164299 2.7223177 1 11
0.34101754 -13.565806 -1.6661978 34 4
0.54693508 -22.220366 -1.9446188 34 5
0.53588802 -22.24501 -1.16615 20 6
0.15364471 -7.5229936 -2.0162005 3 0
0.45012826 -22.230057 0.38810661 40 8
0.18179697 -9.1358337 -2.109591 9 1
0.60382378 -30.885706 1.6189606 8 9
0.21529923 -11.111897 -2.1603396 9 2
0.43074882 -22.63941 1.98105 4 10
0.2460437 -13.173466 -2.0868361 24 3
0.41522866 -22.441597 2.7559536 10 11
0.24493453 -13.492435 -1.6569357 15 4
0.31460354 -17.845051 -1.5614822 33 5
0.31042233 -18.334208 -0.96099293 9 6
0.36640799 -22.331593 -0.38985187 36 7
0.10112057 -7.5238829 -2.0162005 4 0
0.2913039 -22.252707 0.38845566 40 8
0.1180649 -9.1407776 -2.1104908 9 1
0.13558826 -11.097449 -2.1572866 9 2
0.15388632 -13.15906 -2.0843329 23 3
0.15117708 -13.533515 -1.6618105 15 4
0.18789279 -17.647587 -1.5440512 32 5
0.1785434 -17.946482 -0.94058186 18 6
0.21049516 -22.333607 -0.38985187 36 7
0.048616443 -7.5282688 -2.0172358 4 0
0.13920191 -22.15419 0.38671044 40 8
0.054201104 -9.133585 -2.1086912 9 1
0.060069591 -11.10204 -2.1580498 7 2
0.06425377 -13.147951 -2.0824559 21 3
0.056909453 -13.585853 -1.6681477 19 4
0.055799793 -17.761538 -0.93084741 27 6
0.05439882 -22.262543 -0.38859528 36 7
-0.0026285381 -7.5322895 -2.018271 3 0
-0.015447337 -22.126625 0.38622177 40 8
-0.0079661254 -9.1298456 -2.1077914 9 1
-0.01745723 -11.113969 -2.1603396 7 2
-0.027503131 -13.132277 -2.079953 23 3
-0.035292581 -13.480717 -1.6552296 20 4
-0.05544411 -17.648499 -1.5440512 32 5
-0.067985743 -17.70557 -0.92791665 18 6
-0.055412021 -7.5591326 -2.0255179 4 0
-0.16584571 -22.098013 0.3857331 39 8
-0.071673647 -9.1256685 -2.1068916 9 1
-0.092941582 -11.093962 -2.1565235 7 2
-0.11674902 -13.115982 -2.07745 24 3
-0.12816468 -13.351116 -1.6393865 15 4
-0.17990083 -17.771202 -1.5548583 33 5
-0.18556595 -17.429092 -0.91347188 27 6
-0.10730027 -7.5894871 -2.0338001 3 0
-0.32005432 -22.092319 0.3856633 39 8
-0.13395999 -9.1366606 -2.109591 9 1
-0.17026916 -11.085191 -2.1549969 7 2
-0.20818751 -13.106947 -2.0761983 20 3
-0.221774 -13.51666 -1.6598606 16 4
-0.30355394 -17.745609 -1.5527666 33 5
-0.30892721 -17.523226 -0.91849613 27 6
-0.16044545 -7.5962782 -2.0358706 4 0
-0.4731639 -22.037565 0.38475576 39 8
-0.19731984 -9.1160202 -2.105092 9 1
-0.24787351 -11.093546 -2.1569052 6 2
-0.29932487 -13.089375 -2.0736954 24 3
-0.31172261 -13.32625 -1.6367054 20 4
-0.42983124 -17.842648 -1.5614822 33 5
-0.43838099 -17.810156 -0.9336735 18 6
-0.21423346 -7.6220088 -2.0431178 4 0
-0.62563843 -21.985752 0.38391805 39 8
-0.2610684 -9.1183167 -2.1059918 9 1
-0.324797 -11.073882 -2.1534703 7 2
-0.38981447 -13.057349 -2.0690024 29 3
-0.41668427 -13.716616 -1.6849656 4 4
-0.56453598 -17.864553 -0.93670905 27 6
-0.26933616 -7.6743855 -2.0576115 4 0
-0.77583772 -21.996971 0.38419729 39 8
-0.32430366 -9.1045866 -2.1032922 8 1
-1.6435925 -45.917538 2.4079776 0 9
-0.4011586 -11.098883 -2.158813 7 2
-0.47810355 -13.038601 -2.0664995 26 3
-0.69586039 -18.113762 -0.95000237 18 6
-0.8679539 -22.18965 -0.38761795 36 7
-0.32537013 -7.7630925 -2.0819407 6 0
-0.92837346 -21.967043 0.38377842 39 8
-0.38659865 -9.1099558 -2.105092 9 1
-1.91272 -44.703697 2.3449652 0 9
-0.47795677 -11.08012 -2.15576 7 2
-0.56929082 -13.038893 -2.0671253 13 3
-0.58736324 -13.293105 -1.6337806 13 4
-0.99761319 -21.969183 -1.1525426 30 6
-0.38172838 -7.8050108 -2.0938461 7 0
-1.0743454 -21.888313 0.38252184 39 8
-0.44980273 -9.0992498 -2.1032922 9 1
-2.275938 -45.87854 2.4073496 0 9
-0.55277675 -11.064846 -2.1534703 7 2
-0.6572324 -13.018933 -2.0646224 31 3
-0.68258744 -13.336259 -1.6396303 21 4
-1.1374922 -21.99847 -1.9271878 34 5
-1.1457753 -21.935951 -1.1511818 40 6
-1.1700096 -22.103683 -0.38636136 36 7
-0.43484575 -7.8022318 -2.0938461 7 0
-1.2293679 -21.92021 0.38321993 39 8
-0.51151019 -9.0920858 -2.1023927 9 1
-2.5298009 -44.689026 2.3458025 0 9
-0.629116 -11.045036 -2.1504176 7 2
-2.5995922 -45.499714 3.9872007 1 10
-0.74674529 -12.990362 -2.060868 25 3
-0.77656627 -13.386793 -1.6464549 21 4
-1.2830997 -21.854744 -1.9153346 34 5
-1.297942 -21.91147 -1.1503445 40 6
-1.3204378 -22.095207 -0.38636136 36 7
-0.48978886 -7.8067183 -2.0959167 7 0
-1.3823699 -21.911093 0.38321993 39 8
-0.57546347 -9.0960722 -2.104192 9 1
-2.8404591 -44.650341 2.3447556 0 9
-0.70771217 -11.063887 -2.1549969 9 2
-2.90047 -45.21999 3.9643662 2 10
-0.83588827 -12.961177 -2.0571134 17 3
-0.87309587 -13.428588 -1.6523046 20 4
-1.4406054 -21.920801 -1.9219584 34 5
-1.4510132 -21.903866 -1.150449 30 6
-0.54562229 -7.8223801 -2.1010931 7 0
-1.5316633 -21.849043 0.38231242 39 8
-0.63840562 -9.0840578 -2.1023927 9 1
-3.0927222 -43.788673 2.3005841 1 9
-0.78451836 -11.0528 -2.153852 6 2
-3.1909232 -44.844887 3.9333384 2 10
-0.92691749 -12.962907 -2.0583651 17 3
-0.98179567 -13.630061 -1.6778972 13 4
-1.5936064 -21.91021 -1.9219584 34 5
-1.6030176 -21.881252 -1.149821 30 6
-1.6232145 -21.998835 -0.38503498 36 7
-0.59785265 -7.7875619 -2.0928109 7 0
-1.6783183 -21.762056 0.38098606 39 8
-0.70240831 -9.0871515 -2.104192 9 1
-3.3927777 -43.694332 2.2968159 1 9
-0.85967767 -11.021608 -2.148891 7 2
-3.5012767 -44.787746 3.9303751 1 10
-1.0167745 -12.948242 -2.0571134 17 3
-1.0719215 -13.559549 -1.6700976 3 4
-1.7519023 -21.821745 -1.1473089 30 6
-0.64752734 -7.7273703 -2.0777996 6 0
-1.8295343 -21.741838 0.38084641 39 8
-0.766159 -9.0859098 -2.105092 9 1
-3.7021208 -43.721329 2.2995377 1 9
-0.93693477 -11.019252 -2.1496544 7 2
-3.8292558 -44.942871 3.9462378 2 10
-1.1074822 -12.944764 -2.0577393 16 3
-1.1549817 -13.417247 -1.6535234 13 4
-1.6420051 -18.92034 -1.6615371 36 5
-1.9035068 -21.801027 -1.1468903 40 6
-1.9281052 -21.950123 -0.38461611 36 7
-0.70407909 -7.7515202 -2.0855639 5 0
-1.9801844 -21.716587 0.38063699 39 8
-0.82886273 -9.0725765 -2.1032922 7 1
-3.9966834 -43.579056 2.2934666 1 9
-1.0141981 -11.016352 -2.1504176 7 2
-4.125721 -44.72855 3.9298525 2 10
-1.1978252 -12.936718 -2.0577393 16 3
-1.2265371 -13.171672 -1.6242748 19 4
-1.778893 -18.95999 -1.6660691 36 5
-2.054347 -21.773287 -1.1461576 40 6
-2.0718551 -21.836592 -0.38287091 37 7
-0.75987047 -7.7637196 -2.0902226 6 0
-2.1266639 -21.650492 0.37972948 38 8
-0.89141655 -9.0588112 -2.1014926 9 1
-4.3180928 -43.725002 2.3026776 1 9
-1.0906948 -11.005096 -2.1496544 7 2
-4.4481153 -44.801754 3.9389164 2 10
-1.286543 -12.912315 -2.0552363 13 3
-1.3323107 -13.301053 -1.6413364 12 4
-2.2185941 -21.879625 -1.1525426 50 6
-2.2315526 -21.893213 -0.38412747 37 7
-0.81506091 -7.7678328 -2.0928109 5 0
-0.95545375 -9.0601196 -2.1032922 8 1
-4.6328249 -43.857468 2.3112607 1 9
-1.1680608 -11.020845 -2.1542337 7 2
-5.0508909 -47.497746 4.1789436 1 10
-1.371474 -12.875759 -2.0508561 14 3
-1.4437592 -13.465119 -1.6627855 5 4
-2.0269041 -18.810844 -1.6552618 36 5
-2.36747 -21.864017 -1.1525426 40 6
-0.86920416 -7.7736239 -2.0959167 7 0
-1.0166669 -9.0495338 -2.1023927 8 1
-5.0310426 -44.64175 2.3543856 1 9
-1.2449723 -11.012423 -2.1542337 7 2
-5.3554759 -47.297947 4.1644754 1 10
-1.4617761 -12.869796 -2.0514817 15 3
-2.1302195 -18.667749 -2.3069868 11 4
-2.5177608 -21.827116 -1.1514958 40 6
-2.5364194 -21.888172 -0.38461611 36 7
-0.9220838 -7.7558565 -2.0928109 5 0
-1.0793564 -9.0383444 -2.1014926 9 1
-5.4073687 -45.213306 2.3864152 0 9
-1.3194338 -10.999794 -2.1534703 7 2
-5.7381349 -47.696571 4.2029986 1 10
-1.5483993 -12.851704 -2.0502305 15 3
-1.6032424 -13.22913 -1.636218 16 4
-2.6638513 -21.789646 -1.150449 40 6
-2.6769609 -21.770695 -0.38287091 37 7
-0.97630161 -7.7609005 -2.0959167 5 0
-1.1413423 -9.0346565 -2.1023927 9 1
-6.129529 -48.384357 2.5559835 0 9
-1.3956999 -10.98642 -2.1527071 7 2
-5.956305 -46.820366 4.1292648 2 10
-1.6390817 -12.848417 -2.0514817 12 3
-1.7416809 -13.59596 -1.6830157 10 4
-2.3998191 -18.630322 -1.6434087 35 5
-2.8194911 -21.798248 -1.1519145 40 6
-1.0291858 -7.7443209 -2.0933285 6 0
-1.2064501 -9.0419207 -2.1059918 8 1
-6.4486156 -48.201813 2.5486567 1 9
-1.4700166 -10.958896 -2.1492727 6 2
-6.2708216 -46.686813 4.1212463 2 10
-1.7303224 -12.848408 -2.053359 10 3
-1.8152781 -13.426093 -1.6635166 9 4
-2.5225799 -18.559809 -1.6387022 100 5
-2.9678226 -21.75033 -1.150449 50 6
-2.9768736 -21.731718 -0.38287091 37 7
-1.0859048 -7.7560792 -2.098505 6 0
-1.266832 -9.013979 -2.1014926 7 1
-7.0658545 -50.149162 2.6541657 0 9
-1.5470371 -10.952253 -2.1500359 6 2
-6.6398449 -46.947674 4.1482644 1 10
-1.8183153 -12.82428 -2.0514817 12 3
-1.8958195 -13.320725 -1.652061 12 4
-2.6480072 -18.536293 -1.6381793 35 5
-3.11619 -21.705355 -1.149193 50 6
-3.1285169 -21.710405 -0.38287091 37 7
-1.1408687 -7.7540426 -2.1000578 5 0
-1.3308693 -9.0126276 -2.1032922 8 1
-7.4070406 -50.099907 2.6541657 0 9
-1.6221254 -10.945353 -2.150799 6 2
-7.0040364 -47.146519 4.1700535 2 10
-1.9096324 -12.838961 -2.0558619 9 3
-1.9729252 -13.201148 -1.6388991 13 4
-2.7773502 -18.517353 -1.6381793 71 5
-3.2620757 -21.671793 -1.1485651 50 6
-3.2800057 -21.688036 -0.38287091 37 7
-1.1909736 -7.7289138 -2.0953991 6 0
-1.3927801 -9.0072117 -2.104192 9 1
-1.6994019 -10.939583 -2.1519439 7 2
-7.3685694 -47.37928 4.1949801 1 10
-1.994655 -12.796039 -2.0511689 9 3
-2.0863569 -13.338428 -1.6576669 9 4
-2.9022281 -18.469959 -1.635739 71 5
-3.4139161 -21.652437 -1.1487744 50 6
-1.2445951 -7.718504 -2.0948815 5 0
-1.4537598 -8.9857254 -2.1014926 7 1
-7.8047004 -48.134445 2.5555649 0 9
-1.7732137 -10.911949 -2.148891 7 2
-7.7058783 -47.367981 4.1986408 2 10
-2.0833025 -12.777904 -2.0505433 9 3
-2.1483417 -13.13351 -1.6340244 22 4
-3.0226994 -18.398129 -1.6312069 71 5
-3.5649927 -21.628075 -1.1487744 50 6
-3.578721 -21.640749 -0.38287091 37 7
-1.3013376 -7.7267718 -2.0995402 6 0
-1.5171061 -8.9792023 -2.1023927 8 1
-8.0952072 -47.81097 2.5413296 1 9
-1.8473785 -10.887691 -2.1466014 7 2
-2.1704681 -12.751364 -2.048666 9 3
-2.274056 -13.317782 -1.6588856 3 4
-3.154773 -18.39818 -1.6331242 88 5
-3.7297149 -21.615238 -0.38287091 37 7
-1.3565847 -7.7251096 -2.1016109 6 0
-1.5784034 -8.9607143 -2.1005929 8 1
-8.4044809 -47.615612 2.5340025 1 9
-1.9192408 -10.85133 -2.1420219 7 2
-2.2611618 -12.745626 -2.0502305 8 3
-2.3676717 -13.30549 -1.659373 7 4
-3.2768316 -18.340403 -1.6299868 88 5
-3.8713262 -21.537504 -0.38196337 37 7
-1.4056191 -7.6888452 -2.0943637 6 0
-1.6395156 -8.9418097 -2.0987935 7 1
-8.8016548 -47.909367 2.5528436 0 9
-1.9995711 -10.862767 -2.1469829 6 2
-2.3522396 -12.741184 -2.0521076 8 3
-2.4894171 -13.444791 -1.6788722 24 4
-3.3986826 -18.302002 -1.6285921 88 5
-4.0171819 -21.486362 -0.38154453 37 7
-1.4635903 -7.7016196 -2.1005754 6 0
-1.702631 -8.9339743 -2.0996931 8 1
-2.0712528 -10.837335 -2.1446934 6 2
-2.4403975 -12.732637 -2.053359 8 3
-2.5607169 -13.310123 -1.664248 6 4
-3.521843 -18.254353 -1.6265004 88 5
-1.5152327 -7.6876884 -2.0995402 6 0
-1.7626467 -8.918355 -2.0987935 8 1
-2.1434231 -10.805279 -2.1412585 9 2
-2.5280726 -12.709478 -2.0524204 9 3
-2.6085432 -13.078242 -1.6374366 10 4
-3.6483574 -18.24168 -1.6275464 88 5
-1.5638366 -7.652317 -2.0928109 5 0
-1.8225172 -8.8943777 -2.0960939 8 1
-2.2153411 -10.782746 -2.1397321 7 2
-2.6141248 -12.690042 -2.0521076 8 3
-4.2060027 -20.345779 -2.5509694 4 4
-3.7655101 -18.166992 -1.6231885 70 5
-4.4674401 -21.421791 -0.38196337 37 7
-1.6238806 -7.6792965 -2.1031637 7 0
-1.8822089 -8.8779535 -2.0951941 8 1
-2.2938318 -10.78238 -2.1427851 7 2
-2.7018299 -12.667618 -2.0514817 8 3
-2.8604252 -13.376863 -1.6796035 9 4
-3.8884859 -18.122728 -1.6216197 87 5
-4.6241112 -21.44171 -0.38287091 37 7
-1.6753885 -7.6583366 -2.1005754 6 0
-1.9433068 -8.8607893 -2.0942943 7 1
-2.3673635 -10.758433 -2.1412585 7 2
-2.7872207 -12.634945 -2.0492916 9 3
-4.4629774 -20.181189 -2.5378075 4 4
-4.0200863 -18.118483 -1.6237115 88 5
-4.3915443 -19.74374 -1.0600126 9 6
-4.7458372 -21.283993 -0.38063699 37 7
-1.7279608 -7.6426849 -2.0995402 6 0
-2.0051193 -8.8470068 -2.0942943 8 1
-2.4380596 -10.722501 -2.1374426 7 2
-2.8779936 -12.626735 -2.0511689 9 3
-2.9412405 -12.873102 -1.6213499 14 4
-4.1420279 -18.070555 -1.6219683 87 5
-4.9230332 -21.375057 -0.38287091 37 7
-1.7817138 -7.6323161 -2.1000578 9 0
-2.0686104 -8.8403826 -2.0960939 8 1
-2.5106139 -10.695662 -2.1355343 6 2
-2.9638126 -12.59672 -2.0496047 8 3
-4.762084 -20.192261 -2.5473132 3 4
-4.2607441 -18.010176 -1.6191794 87 5
-1.8245505 -7.5764947 -2.0881522 6 0
-2.1284475 -8.8181486 -2.0942943 8 1
-2.5852227 -10.677875 -2.1355343 6 2
-3.0558748 -12.592999 -2.0524204 9 3
-3.2135792 -13.212696 -1.6696101 7 4
-4.3910975 -17.99935 -1.6209226 100 5
-1.881122 -7.5785718 -2.0922933 6 0
-2.1890171 -8.7992926 -2.0933945 9 1
-2.6587536 -10.655757 -2.1347711 6 2
-3.1398821 -12.556027 -2.0499175 9 3
-3.2989864 -13.162981 -1.6661978 13 4
-4.5113044 -17.946999 -1.619005 35 5
-5.3695974 -21.267269 -0.38287091 37 7
-1.9215443 -7.5165911 -2.0788348 6 0
-2.2523277 -8.7913475 -2.0951941 8 1
-2.7247729 -10.604609 -2.1282835 9 2
-3.2235193 -12.518497 -2.0474145 9 3
-4.6139889 -17.879581 -2.2672575 2 4
-4.62151 -17.857201 -1.6137757 100 5
-5.51794 -21.229263 -0.38287091 37 7
-1.9734808 -7.5011249 -2.0783172 4 0
-2.310667 -8.764102 -2.0924947 8 1
-2.8007481 -10.592921 -2.1298101 7 2
-3.3118484 -12.499507 -2.0480404 9 3
-3.5160697 -13.242266 -1.6822846 13 4
-4.8485928 -18.209562 -1.648638 36 5
-5.655683 -21.151588 -0.38217279 37 7
-2.0258005 -7.487165 -2.0783172 5 0
-2.3738346 -8.7552805 -2.0942943 8 1
-2.8777227 -10.584476 -2.1320999 7 2
-3.4000692 -12.479894 -2.048666 9 3
-3.5326247 -12.939719 -1.6469425 9 4
-4.9724274 -18.17614 -1.648638 36 5
-5.8138089 -21.150152 -0.38287091 37 7
-2.0666349 -7.4318924 -2.0669291 4 0
-2.4338541 -8.7347412 -2.0933945 7 1
-2.9497008 -10.564644 -2.1320999 7 2
-3.4860015 -12.460265 -2.0492916 9 3
-4.9922433 -17.796236 -2.2694511 5 4
-5.0991993 -18.140982 -1.648638 36 5
-5.9613204 -21.109049 -0.38287091 37 7
-2.1012671 -7.3619237 -2.0513999 3 0
-2.4921803 -8.7142239 -2.0924947 7 1
-3.0266311 -10.555117 -2.1343896 9 2
-3.5652688 -12.409046 -2.0449116 11 3
-3.7639663 -13.074822 -1.670585 7 4
-5.1041698 -17.683807 -1.6102896 24 5
-6.1048675 -21.067984 -0.38287091 37 7
-2.1374018 -7.2951651 -2.036906 3 0
-2.5551519 -8.704093 -2.0942943 7 1
-3.105788 -10.552564 -2.1382058 7 2
-3.6540482 -12.391431 -2.0461631 11 3
-3.8410928 -13.000633 -1.6644917 9 4
-5.2308941 -17.659204 -1.6113354 52 5
-6.2517982 -21.024851 -0.38287091 37 7
-2.1893916 -7.2837658 -2.0379412 3 0
-2.6192265 -8.6972389 -2.0969937 7 1
-3.1737072 -10.51183 -2.1343896 7 2
-3.7381773 -12.358057 -2.0449116 12 3
-3.9611235 -13.070388 -1.6769222 7 4
-5.3660259 -17.67276 -1.6158675 100 5
-6.3984275 -20.980692 -0.38287091 37 7
-2.2094612 -7.168611 -2.0099888 4 0
-2.6810308 -8.6824646 -2.0978935 7 1
-3.2446055 -10.488109 -2.1340079 6 2
-3.8222108 -12.332325 -2.0449116 12 3
-4.0098643 -12.905926 -1.659373 3 4
-5.4904566 -17.638672 -1.6162161 100 5
-6.544744 -20.935513 -0.38287091 37 7
-2.2523899 -7.1349835 -2.0048125 3 0
-2.7400675 -8.6640148 -2.0978935 8 1
-3.3266456 -10.493273 -2.1397321 7 2
-3.915386 -12.327934 -2.048666 9 3
-4.0970178 -12.876441 -1.6591294 5 4
-5.6092234 -17.586622 -1.6149958 20 5
-5.6759338 -17.763641 -0.9773218 9 6
-6.7175751 -20.985701 -0.38461611 36 7
-5.3281679 -16.625206 4.6778955 2 15
-2.2997687 -7.1117325 -2.0027418 4 0
-2.8004868 -8.6446743 -2.0978935 7 1
-3.3986087 -10.46606 -2.1389689 7 2
-3.9989114 -12.292785 -2.0474145 11 3
-4.1148477 -12.6267 -1.630612 15 4
-6.8029861 -20.78919 -1.146367 40 6
-6.8327718 -20.843287 -0.38287091 37 7
-2.3505757 -7.0991721 -2.0037773 3 0
-2.86445 -8.6360111 -2.1005929 9 1
-7.8006539 -23.490698 1.2971991 11 9
-3.4753087 -10.453255 -2.1412585 7 2
-7.8530188 -23.607056 2.1766274 14 10
-4.0939965 -12.292681 -2.0521076 14 3
-6.4972162 -19.474598 -2.5207458 4 4
-6.9429302 -20.762272 -1.9153346 34 5
-6.9543009 -20.76013 -1.1474136 40 6
-7.0188332 -20.916407 -0.38510481 36 7
-2.3876796 -7.0459957 -1.9934243 3 0
-2.9259233 -8.6194925 -2.1014926 8 1
-3.5494664 -10.432455 -2.1420219 9 2
-4.1956468 -12.310543 -2.0599291 24 3
-4.4049077 -12.902412 -1.6739975 6 4
-7.1490707 -20.91646 3.5010037 23 12
-7.1122179 -20.784929 -1.9219584 34 5
-7.1580529 -20.906967 4.2954922 15 13
-7.10748 -20.735634 -1.1487744 30 6
-7.1657934 -20.881992 5.096941 14 14
-2.4292176 -7.0072517 -1.9872128 4 0
-2.9847484 -8.5951757 -2.1005929 8 1
-7.2536373 -20.864779 1.1576715 20 9
-3.6170473 -10.392589 -2.1389689 7 2
-7.2704372 -20.877853 1.9341602 15 10
-4.2795382 -12.275357 -2.0589907 18 3
-7.2884183 -20.882538 2.7157366 16 11
-6.7881265 -19.438206 -2.5280578 4 4
-7.304697 -20.894011 3.5056968 19 12
-7.3163872 -20.904016 -1.9376464 34 5
-7.3323846 -20.938011 4.3122835 18 13
-7.3075757 -20.843834 -1.1575668 50 6
-7.3512669 -20.933348 -0.3872689 36 7
-2.4767864 -6.9864807 -1.9861774 4 0
-7.4099441 -20.878702 0.38671044 40 8
-3.0459852 -8.5778008 -2.1014926 7 1
-7.4272199 -20.89267 1.1620677 16 9
-3.7013609 -10.400376 -2.145838 7 2
-7.4447513 -20.907297 1.9416556 7 10
-4.3823743 -12.293559 -2.0671253 21 3
-6.9276652 -19.40156 -2.5295203 4 4
-7.4473753 -20.811161 -1.9338117 34 5
-7.4556098 -20.799828 -1.1579854 50 6
-7.4066319 -20.640503 5.0627484 5 14
-7.4796605 -20.832581 -0.38636136 36 7
-2.525501 -6.9690189 -1.9861774 3 0
-3.1031346 -8.5489998 -2.0996931 9 1
-3.7765641 -10.381662 -2.1473646 9 2
-4.491086 -12.325769 -2.0777628 18 3
-7.0656681 -19.360184 -2.5304954 4 4
-7.5970664 -20.782442 -1.9359034 34 5
-7.6006355 -20.747272 -1.1579854 10 6
-7.831985 -21.367233 5.2539568 9 14
-2.5620167 -6.9186087 -1.9768599 4 0
-3.1613872 -8.5234747 -2.0987935 8 1
-3.8526108 -10.370439 -2.1504176 7 2
-4.6175904 -12.4097 -2.0971608 16 3
-7.1944122 -19.293642 -2.5283015 6 4
-16.73387 -44.732975 -2.5030198 0 6
-2.6049511 -6.8901677 -1.9737542 3 0
-3.2220907 -8.5090475 -2.1005929 7 1
-3.9088962 -10.301073 -2.1416404 6 2
-5.073257 -13.348426 -2.26173 6 3
-7.3248658 -19.242371 -2.5280578 4 4
-2.6529901 -6.8718138 -1.9737542 3 0
-3.2828219 -8.4899807 -2.1014926 9 1
-3.9835532 -10.280854 -2.1431668 6 2
-5.1727538 -13.329256 -2.2645457 6 3
-7.443203 -19.150059 -2.5226955 4 4
-2.6994822 -6.8495297 -1.9727188 3 0
-3.3362894 -8.4523544 -2.0978935 7 1
-4.0653367 -10.278354 -2.1485093 6 2
-5.2656837 -13.292817 -2.2645457 6 3
-7.5686617 -19.077332 -2.5200145 6 4
-2.7342594 -6.7982559 -1.9634014 4 0
-3.3908472 -8.4180117 -2.0951941 8 1
-4.1249232 -10.224954 -2.1431668 6 2
-5.3752818 -13.304289 -2.2726803 6 3
-7.6860166 -18.98539 -2.5148962 4 4
-2.7878003 -6.7973609 -1.9685777 3 0
-3.4451058 -8.3875256 -2.0933945 7 1
-4.1902266 -10.181384 -2.1401138 6 2
-5.4710417 -13.273744 -2.2739315 7 3
-7.8044648 -18.906944 -2.5114837 4 4
-2.8292227 -6.7634745 -1.9644365 4 0
-3.5050833 -8.3668642 -2.0942943 7 1
-4.2748814 -10.184467 -2.1469829 6 2
-5.5681677 -13.246152 -2.2758088 7 3
-7.9170094 -18.806259 -2.5053902 6 4
-2.864244 -6.7151275 -1.9561545 4 0
-3.5557542 -8.3242712 -2.0897954 7 1
-4.3234763 -10.102032 -2.135916 7 2
-5.6667328 -13.22148 -2.278312 7 3
-8.0402794 -18.732286 -2.5029526 6 4
-2.9064326 -6.6843376 -1.9530486 4 0
-3.6091137 -8.2885237 -2.087096 7 1
-4.4054785 -10.102962 -2.1424036 6 2
-5.7660818 -13.204326 -2.2820661 7 3
-8.1835909 -18.7048 -2.5068526 7 4
-2.9502985 -6.6608672 -1.9520133 3 0
-3.6654484 -8.2637644 -2.087096 7 1
-4.4687276 -10.055815 -2.1389689 7 2
-5.8533068 -13.152922 -2.280189 7 3
-8.2977896 -18.61965 -2.5029526 6 4
-2.9967284 -6.6401076 -1.9520133 4 0
-3.7150245 -8.2202168 -2.0825968 7 1
-4.5459747 -10.044838 -2.1431668 6 2
-5.9459605 -13.119972 -2.2814405 7 3
-8.3766956 -18.449202 -2.4878411 6 4
-3.0333278 -6.5979619 -1.9458016 4 0
-3.769063 -8.1869993 -2.0807972 8 1
-4.6177359 -10.012052 -2.1431668 6 2
-6.0247855 -13.044806 -2.2758088 6 3
-8.470293 -18.3146 -2.4776042 7 4
-3.0760398 -6.5696263 -1.9437311 3 0
-3.8244705 -8.1569586 -2.0798974 7 1
-4.6674891 -9.936923 -2.1340079 6 2
-6.1056166 -12.98098 -2.2720544 6 3
-8.6047125 -18.269384 -2.4795539 6 4
-3.1118529 -6.5270662 -1.9375196 4 0
-3.8796449 -8.126543 -2.0789976 8 1
-4.7384419 -9.9076376 -2.1347711 6 2
-6.178174 -12.900624 -2.2654841 5 3
-8.7011423 -18.144432 -2.4707792 6 4
-3.1522832 -6.4947543 -1.9344137 4 0
-3.9294698 -8.0852385 -2.0753984 7 1
-4.8057761 -9.8707857 -2.1340079 6 2
-6.2637591 -12.8483 -2.2639198 7 3
-8.8206358 -18.068975 -2.4688294 6 4
-3.2146597 -6.5072303 -1.9447664 3 0
-3.9771769 -8.0401421 -2.0708995 7 1
-4.8641095 -9.8158836 -2.1294286 6 2
-6.3480358 -12.79364 -2.2620428 6 3
-8.9359674 -17.985622 -2.4659045 6 4
-3.2426562 -6.4501085 -1.9344137 4 0
-4.029706 -8.0052176 -2.0690999 8 1
-4.9202056 -9.7615108 -2.1248491 4 2
-6.44031 -12.760717 -2.2639198 6 3
-9.0622072 -17.924568 -2.4661481 4 4
-3.2847252 -6.424448 -1.9333783 3 0
-4.0752225 -7.9602561 -2.0646007 7 1
-4.991817 -9.7339106 -2.1263754 4 2
-6.5274348 -12.711929 -2.263294 6 3
-9.1776485 -17.850115 -2.464442 6 4
-3.331279 -6.4047875 -1.9344137 3 0
-4.1270933 -7.9246988 -2.0628011 7 1
-5.0505705 -9.6814184 -2.1225593 6 2
-6.6068764 -12.64854 -2.2601655 6 3
-9.3057232 -17.792645 -2.4654171 6 4
-3.3704915 -6.371129 -1.9313078 3 0
-4.1713719 -7.8750291 -2.0574024 7 1
-5.1143532 -9.6389875 -2.121033 6 2
-6.6950188 -12.602108 -2.2601655 6 3
-9.4418306 -17.750027 -2.4685855 4 4
-3.3947523 -6.3100152 -1.9199197 4 0
-4.2207031 -7.8354211 -2.054703 7 1
-5.1742535 -9.5935831 -2.1187432 4 2
-6.7872105 -12.568412 -2.2623556 5 3
-9.5645714 -17.681936 -2.4683421 6 4
-3.4339173 -6.2799821 -1.9178492 3 0
-4.270196 -7.7996726 -2.0529034 7 1
-5.220336 -9.5193567 -2.1103475 4 2
-6.8681345 -12.508602 -2.2601655 6 3
-9.6684494 -17.586849 -2.4641984 4 4
-3.4532712 -6.2119546 -1.9043906 4 0
-4.3264394 -7.7730765 -2.053803 7 1
-5.2866659 -9.4826794 -2.1103475 4 2
-6.948554 -12.448275 -2.2579753 5 3
-9.7832451 -17.505058 -2.4622483 4 4
-3.5060573 -6.2045145 -1.909567 4 0
-4.3748422 -7.7325058 -2.0511036 7 1
-5.3488674 -9.4387083 -2.1088212 6 2
-7.0255413 -12.38228 -2.2548466 5 3
-9.9012938 -17.429428 -2.4612734 4 4
-3.5569849 -6.1932883 -1.9137081 4 0
-4.4209456 -7.688262 -2.0475044 7 1
-5.4129887 -9.4020824 -2.1088212 4 2
-7.1067033 -12.329038 -2.2539082 6 3
-10.020747 -17.356441 -2.4607861 4 4
-3.5912704 -6.1555839 -1.909567 5 0
-4.4672785 -7.6478953 -2.044805 7 1
-5.4824615 -9.370841 -2.1103475 4 2
-7.1886058 -12.272305 -2.2526565 7 3
-10.125597 -17.265572 -2.4576173 6 4
-3.6302152 -6.1237159 -1.9074965 5 0
-4.5205603 -7.6165223 -2.044805 7 1
-5.5421062 -9.3265572 -2.1088212 6 2
-7.2618747 -12.206115 -2.2495279 6 3
-10.24284 -17.189344 -2.4568863 4 4
-3.6598568 -6.0790033 -1.9012847 5 0
-4.5722995 -7.5855751 -2.044805 7 1
-5.6009941 -9.2775536 -2.1065314 4 2
-7.3479319 -12.156813 -2.2498407 5 3
-10.356523 -17.114132 -2.4561551 6 4
-3.6961596 -6.0434165 -1.8981789 4 0
-4.6251454 -7.5534697 -2.044805 7 1
-5.6681185 -9.2459087 -2.108058 6 2
-7.4119134 -12.076209 -2.2442091 5 3
-10.488221 -17.061708 -2.45908 6 4
-3.7209039 -5.9918585 -1.8898968 4 0
-4.6743956 -7.5185027 -2.0439053 7 1
-5.7408314 -9.2194452 -2.1111107 4 2
-7.4782724 -11.995673 -2.2388902 6 3
-10.602013 -16.986555 -2.4585924 6 4
-3.7750096 -5.9853449 -1.8961084 5 0
-4.7226086 -7.4790945 -2.0421057 7 1
-5.800858 -9.1725054 -2.1095843 6 2
-7.5650063 -11.94818 -2.2398291 5 3
-10.702274 -16.883621 -2.4544489 4 4
-3.8125358 -5.9523377 -1.8940378 4 0
-4.7704983 -7.4393821 -2.0403061 7 1
-5.8668742 -9.135087 -2.1103475 6 2
-7.6354151 -11.875136 -2.2360744 5 3
-10.809138 -16.791801 -2.4520113 4 4
-3.8476779 -5.9158587 -1.890932 3 0
-4.8180647 -7.399364 -2.0385065 7 1
-5.9412308 -9.1103506 -2.1141639 6 2
-7.7138138 -11.814925 -2.234823 5 3
-10.934793 -16.729223 -2.4539614 4 4
-3.8995304 -5.9049735 -1.8961084 3 0
-4.856708 -7.3460398 -2.0331075 7 1
-5.9960151 -9.0555573 -2.1111107 6 2
-7.7895584 -11.750908 -2.2329459 5 3
-11.051314 -16.652479 -2.4539614 4 4
-3.9126875 -5.8358874 -1.8826498 3 0
-4.9057012 -7.3087206 -2.0322077 7 1
-6.0634694 -9.0199938 -2.1126373 6 2
-7.866993 -11.689685 -2.2316945 4 3
-11.173955 -16.584797 -2.4554236 4 4
-3.9468131 -5.7988482 -1.879544 4 0
-4.9566059 -7.2742939 -2.0322077 7 1
-6.1285062 -8.9806862 -2.1134005 6 2
-7.9506397 -11.637741 -2.2323201 5 3
-11.284986 -16.499832 -2.4544489 4 4
-3.9784153 -5.7584372 -1.8754028 4 0
-5.0028353 -7.2331018 -2.0304081 7 1
-6.1821089 -8.9247732 -2.1103475 6 2
-8.0384474 -11.59169 -2.2341974 5 3
-11.393107 -16.41086 -2.4529862 4 4
-4.0185199 -5.7305217 -1.8754028 3 0
-5.0532098 -7.197999 -2.0304081 7 1
-6.2420068 -8.8781843 -2.1095843 6 2
-8.0873375 -11.490061 -2.2254369 4 3
-11.507395 -16.330925 -2.4529862 4 4
-4.0606675 -5.7054768 -1.8764381 3 0
-5.1033363 -7.1625466 -2.0304081 7 1
-6.3182549 -8.8578663 -2.1149271 4 2
-8.158474 -11.4251 -2.2235599 4 3
-11.591105 -16.208208 -2.4466491 4 4
-4.1107183 -5.6933675 -1.8816146 3 0
-5.1405582 -7.1118488 -2.0259092 7 1
-6.377636 -8.8103619 -2.1141639 4 2
-8.2229671 -11.347072 -2.2194924 4 3
-11.703494 -16.132149 -2.4471366 4 4
-4.122962 -5.62713 -1.8691912 3 0
-5.1923866 -7.0789318 -2.026809 7 1
-6.4273658 -8.7498007 -2.1103475 4 2
-8.2891092 -11.271883 -2.2160509 4 3
-11.820539 -16.056444 -2.4481115 4 4
-4.1598415 -5.595109 -1.868156 3 0
-5.2440071 -7.0456362 -2.027709 7 1
-6.4812546 -8.6952715 -2.108058 6 2
-8.3723259 -11.220074 -2.2173023 4 3
-11.920462 -15.957629 -2.4456742 4 4
-14.681255 -19.631979 -2.1447284 29 5
-14.559662 -19.44108 -1.2729152 10 6
-4.1838722 -5.5481548 -1.8619443 4 0
-5.2777543 -6.9911141 -2.02231 7 1
-6.5627871 -8.6807089 -2.1153085 7 2
-8.4508877 -11.165975 -2.2179282 4 3
-12.028806 -15.876119 -2.4456742 4 4
-14.561692 -19.198238 -2.1081231 30 5
-14.573263 -19.185661 -1.2626574 31 6
-4.221539 -5.5195479 -1.8619443 3 0
-5.3299561 -6.9612179 -2.0241096 7 1
-6.6193318 -8.6327219 -2.1145453 7 2
-8.5170746 -11.095656 -2.2154253 4 3
-12.114822 -15.765542 -2.441287 4 4
-14.770702 -19.194006 -2.1189303 29 5
-14.753494 -19.15089 -1.2669491 21 6
-4.2504954 -5.4777317 -1.8578032 4 0
-5.3640785 -6.9053698 -2.0187106 7 1
-6.6758208 -8.5816498 -2.1134005 6 2
-8.5797625 -11.017226 -2.2116706 4 3
-12.227028 -15.683714 -2.4417744 4 4
-14.949557 -19.127682 -1.2722872 31 6
-4.2886324 -5.4479251 -1.8578032 4 0
-5.407331 -6.8616328 -2.0169113 7 1
-6.7355695 -8.5348349 -2.1134005 4 2
-8.6466713 -10.944659 -2.2091677 4 3
-12.323908 -15.5824 -2.439337 4 4
-15.111473 -19.079618 -2.129389 29 5
-15.116232 -19.065102 -1.2751133 21 6
-4.3217411 -5.4118133 -1.8557327 3 0
-5.4526706 -6.8206706 -2.0160115 7 1
-6.802352 -8.4968004 -2.1156902 6 2
-8.7302809 -10.893275 -2.211045 4 3
-12.429909 -15.492887 -2.4388494 4 4
-15.354119 -19.110334 -2.1447284 29 5
-15.331575 -19.061827 -1.2820216 21 6
-4.3375273 -5.3544903 -1.8464152 3 0
-5.4927883 -6.7733564 -2.0133121 7 1
-6.8639803 -8.4521513 -2.1164536 4 2
-8.8111019 -10.838192 -2.2122965 4 3
-12.502683 -15.362622 -2.432025 4 4
-15.516046 -19.017776 -1.2863133 32 6
-4.3870692 -5.3390031 -1.8515915 3 0
-5.5448947 -6.7408628 -2.0151114 7 1
-6.9153285 -8.3949356 -2.1141639 6 2
-8.8689547 -10.755081 -2.2079163 4 3
-12.609626 -15.274966 -2.432025 4 4
-15.713377 -18.987465 -1.2916515 21 6
-4.4032078 -5.2830186 -1.8427917 2 0
-5.5693464 -6.6750569 -2.0070133 7 1
-6.9712496 -8.3434391 -2.1134005 6 2
-8.9336872 -10.680779 -2.2054133 5 3
-12.710864 -15.180471 -2.4310501 4 4
-15.939675 -19.016376 -2.1708751 28 5
-15.899485 -18.941553 -1.2960478 21 6
-4.432498 -5.243299 -1.8396858 2 0
-5.6057386 -6.6241126 -2.0034139 7 1
-7.0354948 -8.3047829 -2.1156902 4 2
-9.003624 -10.616711 -2.2047877 4 3
-12.77027 -15.036895 -2.4222753 4 4
-16.072042 -18.904636 -2.1708751 28 5
-16.094061 -18.910461 -1.301386 32 6
-4.4605422 -5.2042055 -1.83658 2 0
-5.6532354 -6.5887604 -2.0043139 7 1
-7.0651541 -8.2227039 -2.1072946 4 2
-9.0904045 -10.56857 -2.2079163 4 3
-12.859374 -14.934578 -2.419838 4 4
-16.276588 -18.856604 -1.3054682 21 6
-4.4954987 -5.1714802 -1.8360624 3 0
-5.6965375 -6.5461926 -2.0034139 7 1
-7.1249647 -8.1761408 -2.108058 4 2
-9.153574 -10.492943 -2.2054133 4 3
-12.934593 -14.811547 -2.4144754 4 4
-16.492029 -18.838694 -1.3121672 21 6
-4.5161619 -5.1225805 -1.8298507 3 0
-5.6814933 -6.437592 -1.9822687 5 1
-7.1870723 -8.1320848 -2.1095843 6 2
-9.2004299 -10.399193 -2.199156 5 3
-13.008732 -14.68819 -2.4091134 4 4
-16.725542 -18.864939 -2.2057374 27 5
-16.673531 -18.779858 -1.3161447 21 6
-4.5646906 -5.1053281 -1.8350271 3 0
-5.6821098 -6.3484011 -1.966972 5 1
-7.2501197 -8.0917482 -2.1118741 4 2
-9.2921028 -10.359857 -2.2041619 5 3
-13.068506 -14.549757 -2.4013138 4 4
-16.897179 -18.772814 -1.3236811 21 6
-4.5902538 -5.0641193 -1.8314036 2 0
-5.7042389 -6.2864866 -1.9597737 5 1
-7.2800264 -8.0118771 -2.1042418 6 2
-9.3588848 -10.288888 -2.2029104 5 3
-13.137838 -14.428176 -2.3959515 4 4
-17.092459 -18.725195 -1.3287053 21 6
-4.611114 -5.0163069 -1.8257096 3 0
-5.7321515 -6.2293034 -1.9543748 5 1
-7.3224802 -7.9464183 -2.1004255 6 2
-9.4170933 -10.208779 -2.1997817 4 3
-13.205925 -14.301103 -2.3901019 4 4
-17.285179 -18.672834 -1.3335203 21 6
-4.6302137 -4.9670367 -1.8194979 2 0
-5.7608762 -6.1734595 -1.9494258 6 1
-7.3965425 -7.9151878 -2.1057682 4 2
-9.474638 -10.128364 -2.1966531 5 3
-13.281016 -14.182482 -2.3857143 4 4
-17.518335 -18.68125 -2.2405999 26 5
-17.49577 -18.637619 -1.3396959 22 6
-4.6674323 -4.9373975 -1.8205333 2 0
-5.7676682 -6.0948753 -1.9372785 5 1
-7.4313645 -7.8419824 -2.100044 4 2
-9.5505533 -10.067704 -2.1979043 5 3
-13.352369 -14.060625 -2.3808398 4 4
-17.78562 -18.702875 -2.2580309 26 5
-17.745262 -18.640881 -1.3488024 22 6
-4.6830711 -4.8851695 -1.8132863 2 0
-5.8033299 -6.0474319 -1.9350289 7 1
-7.4587245 -7.7615991 -2.0924115 4 2
-9.6123905 -9.9922419 -2.1960273 4 3
-13.408894 -13.924172 -2.3735275 4 4
-17.930454 -18.57402 -1.3529893 22 6
-4.7359152 -4.871748 -1.8205333 2 0
-5.8209453 -5.9816289 -1.9269307 6 1
-7.5099869 -7.7065282 -2.0916483 4 2
-9.6901884 -9.9333773 -2.1979043 4 3
-13.500225 -13.824543 -2.3725526 4 4
-18.184322 -18.595173 -2.2754622 26 5
-18.132341 -18.522606 -1.3584322 22 6
-4.7698097 -4.8385673 -1.8205333 1 0
-5.8516116 -5.9297504 -1.9233315 6 1
-7.5470471 -7.6371512 -2.087069 4 2
-9.7648602 -9.8711004 -2.199156 5 3
-13.548922 -13.681996 -2.3642654 4 4
-18.387848 -18.523136 -1.3678527 22 6
-4.7816195 -4.7832909 -1.812251 2 0
-5.87219 -5.8680925 -1.9165829 5 1
-7.5862813 -7.5704103 -2.0832527 4 2
-9.8307343 -9.799901 -2.1985302 5 3
-13.610348 -13.553459 -2.3584158 4 4
-18.571978 -18.449207 -1.3719349 22 6
-4.8190231 -4.753861 -1.8138039 2 0
-5.9032979 -5.8173785 -1.9134337 7 1
-7.6277523 -7.5062494 -2.0801997 4 2
-9.8763695 -9.7088757 -2.1935244 5 3
-13.696141 -13.449761 -2.3569531 4 4
-18.617569 -18.238043 -1.3658639 22 6
-4.8257828 -4.694509 -1.8039688 3 0
-5.9186091 -5.7515793 -1.9053354 8 1
-7.6758523 -7.4514203 -2.0794365 4 2
-9.9507351 -9.6496754 -2.1954014 5 3
-13.75833 -13.32344 -2.3515911 4 4
-18.824579 -18.191391 -1.3719349 22 6
-4.8520508 -4.6562018 -1.8018982 4 0
-5.9351139 -5.6895823 -1.8981371 9 1
-7.7205939 -7.3908625 -2.0775285 4 2
-9.9893103 -9.5526648 -2.1891441 4 3
-13.80851 -13.191088 -2.3447664 4 4
-18.766045 -17.883167 -1.358537 22 6
-4.87602 -4.6142478 -1.7987925 5 0
-5.9633608 -5.6372986 -1.8945377 7 1
-7.7507401 -7.3192682 -2.0721858 4 2
-10.0541 -9.4844494 -2.1891441 4 3
-13.854023 -13.05081 -2.3369668 4 4
-19.479618 -18.311779 -1.4011383 22 6
-4.8875446 -4.5624952 -1.7915455 4 0
-5.9930444 -5.5886035 -1.8918384 7 1
-7.7958999 -7.2596292 -2.0706592 4 2
-10.117176 -9.4113369 -2.1885185 4 3
-13.913454 -12.92918 -2.332092 4 4
-19.706583 -18.267675 -1.4082561 22 6
-4.9192767 -4.5282636 -1.7915455 4 0
-6.0089602 -5.5255241 -1.8846399 6 1
-7.8377175 -7.1970572 -2.0683696 4 2
-10.141873 -9.3030882 -2.1797581 4 3
-13.965324 -12.796862 -2.3257549 4 4
-17.986485 -16.441196 -1.2771021 31 6
-4.9450493 -4.4886155 -1.789475 4 0
-6.0329547 -5.4703474 -1.880141 7 1
-7.8644843 -7.1210823 -2.0622637 6 2
-10.212431 -9.23736 -2.1810095 5 3
-14.0337 -12.680427 -2.3223424 4 4
-17.9228 -16.154764 -1.2645415 31 6
-4.9733849 -4.4514074 -1.7884396 4 0
-6.0521111 -5.4112124 -1.8742923 4 1
-7.9215598 -7.0752325 -2.0645535 4 2
-10.260332 -9.1544819 -2.177881 5 3
-14.115957 -12.576857 -2.3213673 4 4
-17.86816 -15.886415 -1.2530276 31 6
-4.9890871 -4.4046655 -1.7832633 4 0
-6.0785728 -5.3608685 -1.871143 6 1
-7.9619188 -7.0119734 -2.0622637 4 2
-10.315094 -9.0747995 -2.1760037 5 3
-14.158673 -12.4387 -2.3140552 4 4
-17.748846 -15.559846 -1.2370129 21 6
-5.0204787 -4.3688521 -1.7832633 3 0
-6.094718 -5.2980566 -1.8643943 5 1
-7.9958563 -6.9433441 -2.0584474 6 2
-10.352901 -8.9774609 -2.170372 5 3
-14.212153 -12.31096 -2.3086929 4 4
-17.737326 -15.326665 -1.2285343 31 6
-5.0581865 -4.3399868 -1.7858515 2 0
-6.1271167 -5.2515755 -1.8630446 6 1
-8.0334044 -6.8757367 -2.0553946 4 2
-10.394306 -8.8869915 -2.1659918 5 3
-14.270588 -12.188232 -2.3043058 4 4
-17.743553 -15.116975 -1.221626 31 6
-5.0795131 -4.2970819 -1.7827457 2 0
-6.1338615 -5.1835155 -1.8540466 6 1
-8.0500145 -6.7955694 -2.0477622 4 2
-10.436434 -8.8007545 -2.1622374 5 3
-14.294589 -12.037166 -2.2945561 4 4
-17.696186 -14.869935 -1.2113682 31 6
-5.0952945 -4.2512684 -1.7780869 3 0
-6.1495414 -5.125423 -1.8481979 4 1
-8.0731173 -6.7191091 -2.0416565 4 2
-10.479392 -8.7125254 -2.158483 5 3
-14.313581 -11.887586 -2.2845628 5 4
-17.805721 -14.751122 -1.2117869 31 6
-5.1009774 -4.1959586 -1.7698047 3 0
-6.1776447 -5.0761819 -1.8459483 3 1
-8.1125937 -6.6590209 -2.0401299 4 2
-10.520123 -8.6259661 -2.1547287 5 3
-14.359361 -11.757187 -2.278713 5 4
-18.006247 -14.711723 -1.2185905 41 6
-5.1264195 -4.1587057 -1.7687694 4 0
-6.2075119 -5.030334 -1.8445988 2 1
-8.1283636 -6.5775208 -2.0324974 4 2
-10.55858 -8.5349226 -2.1503484 5 3
-14.394267 -11.623007 -2.2716448 4 4
-18.211174 -14.668344 -1.2254988 41 6
-5.1643791 -4.1300559 -1.7718753 3 0
-6.2181168 -4.9674153 -1.8374002 2 1
-8.1832924 -6.5279613 -2.0347872 4 2
-10.593189 -8.441309 -2.1453426 5 3
-14.431571 -11.48762 -2.2648201 4 4
-18.427319 -14.631513 -1.2331399 31 6
-5.1718478 -4.0771556 -1.7646283 4 0
-6.2220254 -4.8997688 -1.8284022 2 1
-8.2224922 -6.4658179 -2.0332606 4 2
-10.639434 -8.3573866 -2.1428397 5 3
-14.475498 -11.358404 -2.2592139 5 4
-18.657982 -14.603456 -1.2417231 31 6
-5.2215405 -4.0575466 -1.7718753 4 0
-6.2714734 -4.8681626 -1.8329012 2 1
-8.2363977 -6.3842006 -2.0256283 4 2
-10.685026 -8.2732306 -2.1403368 5 3
-14.545022 -11.249784 -2.2577517 5 4
-18.867008 -14.555802 -1.2488407 31 6
-5.2497416 -4.0209932 -1.7718753 3 0
-6.2836404 -4.8076811 -1.8266027 2 1
-8.2292843 -6.2872148 -2.0130351 4 2
-10.728388 -8.1876497 -2.1375208 6 3
-14.604259 -11.133527 -2.2548268 5 4
-19.006325 -14.452747 -1.2513529 10 6
-5.2653503 -3.9749351 -1.7677342 3 0
-6.2874875 -4.7414041 -1.8180546 3 1
-8.262001 -6.2213416 -2.0103636 6 2
-10.780554 -8.1089878 -2.1365821 5 3
-14.649892 -11.007446 -2.2499521 5 4
-19.209047 -14.396365 -1.2580519 10 6
-5.2891855 -3.9366958 -1.7666988 3 0
-6.3133597 -4.6938453 -1.8162549 3 1
-8.3041553 -6.1649618 -2.0103636 4 2
-10.803764 -8.0118885 -2.1303248 5 3
-14.704043 -10.888368 -2.2465396 5 4
-19.508989 -14.414832 -1.2712405 21 6
-5.3187785 -3.8998888 -1.7672166 2 0
-6.3200593 -4.6289725 -1.8086064 3 1
-8.3406544 -6.1022005 -2.0088372 6 2
-10.857628 -7.932045 -2.129699 5 3
-14.750834 -10.764389 -2.2421525 5 4
-19.750513 -14.375942 -1.2802423 31 6
-5.3474402 -3.8637943 -1.7677342 3 0
-6.3427405 -4.5778966 -1.8059071 2 1
-8.3681803 -6.0308814 -2.0050211 4 2
-10.911137 -7.8548937 -2.1293862 6 3
-14.812734 -10.651871 -2.2402024 5 4
-16.958626 -12.181521 -1.8267844 36 5
-5.366415 -3.8207655 -1.7651459 2 0
-6.3459601 -4.5131745 -1.7978089 3 1
-8.2905979 -5.8896451 -1.9767814 3 2
-10.953073 -7.7724423 -2.1271961 5 3
-14.877017 -10.541317 -2.23874 5 4
-5.3843913 -3.7786007 -1.7625577 3 0
-6.3733416 -4.4676371 -1.796909 2 1
-8.262352 -5.7832131 -1.9603716 4 2
-11.00383 -7.6935229 -2.1265705 5 3
-14.902854 -10.407983 -2.2319155 6 4
-5.3963375 -3.7310317 -1.757899 2 0
-6.3947544 -4.4163909 -1.7942096 2 1
-8.2766666 -5.7075582 -1.9542658 4 2
-11.039378 -7.604188 -2.1231289 6 3
-14.958799 -10.292436 -2.2294779 6 4
-17.006388 -11.6838 -1.8051698 37 5
-5.425447 -3.6954422 -1.7589344 2 0
-6.4093199 -4.3606758 -1.7897105 2 1
-8.2416086 -5.5988879 -1.9367114 4 2
-11.080753 -7.5191684 -2.1209388 5 3
-15.013857 -10.176614 -2.2270405 6 4
-17.024511 -11.509137 -1.0769694 9 6
-5.489615 -3.6833081 -1.7713577 2 0
-6.4331312 -4.3114858 -1.7879109 2 1
-8.2543879 -5.5237465 -1.9306054 4 2
-11.113268 -7.4284563 -2.1171842 5 3
-15.054821 -10.051708 -2.2226534 6 4
-17.002085 -11.334694 -1.7877386 37 5
-5.4845729 -3.6246574 -1.7615224 3 0
-6.4403043 -4.2514405 -1.7816124 3 1
-8.2288208 -5.4238477 -1.9157225 3 2
-11.150009 -7.3409147 -2.1143684 6 3
-15.104723 -9.9332762 -2.2197285 6 4
-5.483839 -3.569416 -1.7532402 3 0
-6.4681945 -4.2053108 -1.7811624 3 1
-8.2474375 -5.3559484 -1.9115247 7 2
-11.196404 -7.2626982 -2.1137428 6 3
-15.147043 -9.810317 -2.2158287 6 4
-17.441031 -11.270163 -1.088274 9 6
