# .PCD v0.7 - Point Cloud Data file format
VERSION 0.7
FIELDS x y z intensity ring
SIZE 4 4 4 4 2
TYPE F F F F U
COUNT 1 1 1 1 1
WIDTH 1301
HEIGHT 1
VIEWPOINT 0 0 0 1 0 0 0
POINTS 1301
DATA ascii
-9.258707 -15.630698 -0.95209581 18 6
-3.8415637 -6.4340672 -2.0079181 5 0
-4.5424666 -7.5989375 -2.0439053 14 1
-5.7051167 -9.5287857 -2.158813 18 2
-7.4912176 -12.497105 -2.3077216 7 3
-9.1710911 -15.281377 -2.1882861 15 4
-9.2463017 -15.38235 -1.5701978 33 5
-9.4448395 -15.694028 -0.95994622 18 6
-3.8362932 -6.3245044 -1.9820364 4 0
-4.5933838 -7.5637093 -2.0430055 14 1
-5.7357931 -9.4300175 -2.1454566 12 2
-7.8967795 -12.967523 -2.4047108 11 3
-9.155611 -15.01698 -2.1595249 13 4
-9.3534651 -15.317424 -1.5701978 33 5
-9.7052317 -15.87479 -0.97512358 9 6
-3.8458967 -6.2416477 -1.9644365 4 0
-4.6399374 -7.5215049 -2.0403061 14 1
-5.7891045 -9.3697023 -2.140877 12 2
-7.8800821 -12.739043 -2.3724854 17 3
-9.3647423 -15.121461 -2.1838987 15 4
-9.9106512 -15.959354 -0.9845441 27 6
-10.316483 -16.593485 -0.34105495 38 7
-3.863703 -6.1760187 -1.9520133 4 0
-4.6910272 -7.489748 -2.0403061 13 1
-5.840229 -9.3101225 -2.1362975 10 2
-8.054862 -12.825627 -2.3987663 10 3
-9.4695692 -15.06073 -2.1843865 21 4
-9.5404091 -15.149916 -1.5663629 33 5
-9.7559519 -15.474219 -0.95869017 18 6
-3.9129417 -6.1586781 -1.9551191 4 0
-4.7411089 -7.453527 -2.0394061 13 1
-5.8945346 -9.2525654 -2.1324816 12 2
-8.1452665 -12.770746 -2.3990791 9 3
-9.5381565 -14.937366 -2.1760993 18 4
-9.5622139 -14.952018 -1.5527666 33 5
-9.9509783 -15.541979 -0.96716857 27 6
-3.9474623 -6.1182251 -1.9509782 4 0
-4.7866831 -7.4104257 -2.0367069 13 1
-5.978179 -9.2408609 -2.1393507 12 2
-8.1526136 -12.587563 -2.3753011 9 3
-9.8560467 -15.200201 -2.2243595 17 4
-9.7874393 -15.077096 -1.5726382 33 5
-9.9928293 -15.369985 -0.9607836 18 6
-3.9900792 -6.090518 -1.9509782 4 0
-4.8276134 -7.3605328 -2.0322077 12 1
-6.0064588 -9.14744 -2.1271389 12 2
-8.2098894 -12.488863 -2.3671668 9 3
-9.7916346 -14.872372 -2.1863363 15 4
-10.386527 -15.740036 -0.9883123 9 6
-3.9972136 -6.0117388 -1.9344137 4 0
-4.862484 -7.3047919 -2.0259092 11 1
-6.0777965 -9.1167192 -2.1298101 15 2
-8.3056507 -12.444386 -2.3696697 9 3
-9.9323406 -14.8648 -2.1951108 17 4
-10.322743 -15.408289 -0.97198343 27 6
-4.0423288 -5.9884906 -1.9359666 6 0
-4.917727 -7.2771258 -2.027709 14 1
-6.1071825 -9.0236626 -2.11798 10 2
-8.4011908 -12.399181 -2.3721726 9 3
-9.8040876 -14.453393 -2.1444132 20 4
-10.197329 -15.010551 -1.5876291 34 5
-10.421074 -15.322639 -0.97114617 27 6
-4.0807619 -5.9553428 -1.9344137 4 0
-4.9640017 -7.2361879 -2.0259092 11 1
-6.1233373 -8.9128456 -2.1019521 12 2
-8.5043373 -12.364644 -2.3768656 8 3
-9.9565411 -14.459806 -2.1556253 17 4
-10.750194 -15.571661 -0.99166173 18 6
-4.1134138 -5.914021 -1.9302725 4 0
-5.0010357 -7.1821656 -2.0205104 11 1
-6.2168541 -8.9149685 -2.1126373 12 2
-7.3183365 -10.482792 -2.0248878 11 3
-7.3371015 -10.497956 -1.5726022 19 4
-7.369144 -10.528137 -1.1243091 17 5
-10.898759 -15.553481 -0.99532533 18 6
-4.1456871 -5.8725352 -1.9261314 4 0
-5.0398083 -7.1311636 -2.0160115 14 1
-6.2902837 -8.8873749 -2.1164536 12 2
-7.4164672 -10.466905 -2.0317712 9 3
-10.524982 -14.837497 -2.2336216 17 4
-10.622225 -14.957981 -1.6050601 34 5
-10.892479 -15.31588 -0.98496282 27 6
-4.1820836 -5.8371677 -1.9240609 4 0
-5.075839 -7.0768042 -2.0106125 14 1
-6.3277307 -8.812458 -2.1088212 12 2
-7.5267434 -10.470715 -2.0424087 9 3
-10.433466 -14.493 -2.1926734 15 4
-10.854532 -15.06126 -1.6242344 35 5
-11.028027 -15.285115 -0.98778892 18 6
-4.2217188 -5.8085661 -1.9240609 4 0
-5.1261845 -7.0452409 -2.0115123 12 1
-6.3717537 -8.7442684 -2.1030967 13 2
-7.6322556 -10.462598 -2.0511689 9 3
-10.618509 -14.540277 -2.21071 13 4
-11.198182 -15.294774 -0.99344116 18 6
-4.2552872 -5.7696228 -1.9209551 4 0
-5.1787171 -7.0139847 -2.012862 9 1
-6.4373145 -8.7058868 -2.1046233 15 2
-7.7356668 -10.450341 -2.0593035 9 3
-10.860405 -14.655583 -2.2397149 12 4
-11.111254 -14.972238 -1.6312069 35 5
-11.183194 -15.052695 -0.98276472 18 6
-4.2746282 -5.7119341 -1.9116375 4 0
-5.2193789 -6.966742 -2.0097127 11 1
-6.5403519 -8.717267 -2.1183615 15 2
-7.8440256 -10.443466 -2.0686896 9 3
-10.903996 -14.501665 -2.2277718 8 4
-11.289596 -14.998137 -1.6423628 35 5
-11.39621 -15.117796 -0.99218512 18 6
-4.3050547 -5.6696444 -1.9074965 4 0
-5.2560964 -6.9146209 -2.0052137 11 1
-6.5947824 -8.6662979 -2.1168351 18 2
-7.9556298 -10.443257 -2.0793271 9 3
-7.9707775 -10.448003 -1.6135503 7 4
-11.377096 -14.896785 -1.6399224 35 5
-11.58983 -15.158874 -1.0000356 18 6
-4.327044 -5.618782 -1.9002496 4 0
-5.2982793 -6.8725109 -2.0034139 12 1
-6.6443224 -8.606061 -2.1134005 10 2
-8.0645838 -10.434352 -2.0887132 9 3
-8.0720797 -10.432756 -1.6196437 9 4
-11.541834 -14.895741 -1.648638 36 5
-11.830031 -15.251187 -1.0115495 18 6
-4.3590283 -5.5793028 -1.8971437 4 0
-5.3437285 -6.8322845 -2.0025144 13 1
-6.6909266 -8.5424643 -2.1092029 9 2
-8.1811104 -10.433759 -2.0999765 9 3
-8.1827116 -10.424556 -1.6271995 11 4
-11.958448 -15.196478 -1.0134336 18 6
-4.397872 -5.5487356 -1.8971437 9 0
-5.3912945 -6.7948132 -2.0025144 12 1
-6.7479582 -8.4924698 -2.1084394 7 2
-8.2931032 -10.42586 -2.1099885 9 3
-8.3059893 -10.430846 -1.637193 9 4
-12.304732 -15.413878 -1.0336351 19 6
-4.4316621 -5.5118742 -1.8950732 21 0
-5.438602 -6.7570081 -2.0025144 11 1
-6.8107786 -8.4497395 -2.1095843 12 2
-8.3991795 -10.409218 -2.1184359 8 3
-8.4210167 -10.425108 -1.64548 9 4
-12.797916 -15.804113 -1.0657694 9 6
-4.4541597 -5.4613404 -1.8883438 19 0
-5.4881058 -6.7218947 -2.0034139 11 1
-6.8745732 -8.4080648 -2.1111107 10 2
-8.5229416 -10.413 -2.1312635 9 3
-8.5338535 -10.415199 -1.6532797 9 4
-12.558045 -15.288417 -1.03688 19 6
-4.4995656 -5.4390435 -1.8914497 15 0
-5.5348992 -6.6834173 -2.0034139 11 1
-6.8779597 -8.293376 -2.0943196 12 2
-8.6433773 -10.411001 -2.1431525 9 3
-8.6609135 -10.421017 -1.6637604 10 4
-12.562196 -15.077616 -1.0285063 19 6
-4.5324616 -5.4015775 -1.889379 6 0
-5.5764103 -6.6386452 -2.0016146 11 1
-6.9179978 -8.224123 -2.0889771 12 2
-8.7514753 -10.392713 -2.1519127 9 3
-8.7679996 -10.401278 -1.6703414 9 4
-12.768995 -15.110063 -1.0367755 19 6
-4.561296 -5.3595061 -1.8857557 4 0
-5.6251464 -6.60252 -2.0025144 12 1
-6.945787 -8.1439819 -2.0805814 12 2
-8.8758831 -10.396003 -2.1650534 9 3
-8.8842611 -10.391112 -1.6786286 9 4
-12.83646 -14.981849 -1.0339493 19 6
-4.5926232 -5.3224835 -1.8836851 4 0
-5.6648626 -6.5581784 -2.0007145 12 1
-6.9844937 -8.0745029 -2.0752387 10 2
-9.0012636 -10.395007 -2.177881 8 3
-9.0119953 -10.396397 -1.689353 9 4
-9.0884542 -10.473516 -1.213208 21 5
-13.066506 -15.036597 -1.0439978 19 6
-4.6296692 -5.2902913 -1.8836851 4 0
-5.7105088 -6.5184703 -2.0007145 13 1
-7.0457649 -8.0341568 -2.0771468 10 2
-9.1278486 -10.397332 -2.1913342 7 3
-9.1249857 -10.379448 -1.696909 7 4
-9.1613493 -10.409814 -1.213208 21 5
-13.350749 -15.154119 -1.0584425 9 6
-4.6562309 -5.2462831 -1.879544 4 0
-5.7584667 -6.481359 -2.0016146 14 1
-7.1030755 -7.9835324 -2.0771468 7 2
-9.5278473 -10.697577 -2.2689257 7 3
-9.2421436 -10.365865 -1.705196 6 4
-13.220604 -14.791642 -1.0397062 19 6
-4.6772327 -5.1964188 -1.8733324 4 0
-5.8114018 -6.4496856 -2.0043139 12 1
-7.1191816 -7.8900204 -2.0656981 9 2
-9.2633295 -10.255527 -2.1888313 9 3
-9.3781891 -10.371769 -1.7168955 7 4
-9.4894705 -10.480119 -1.2369143 22 5
-13.582428 -14.984583 -1.0599079 9 6
-4.716002 -5.1664925 -1.8743677 3 0
-5.8615437 -6.4147129 -2.0061135 11 1
-7.1581845 -7.8227477 -2.0611188 10 2
-9.3493757 -10.206634 -2.1922729 14 3
-9.5094004 -10.37042 -1.72762 7 4
-13.613718 -14.809997 -1.0542556 9 6
-4.746706 -5.1277714 -1.872297 3 0
-5.9181056 -6.3865008 -2.0101628 8 1
-7.2046132 -7.7639475 -2.0588293 9 2
-9.4405718 -10.16282 -2.1969659 18 3
-9.6356401 -10.361927 -1.7373695 6 4
-9.7217646 -10.439924 -1.2480702 22 5
-14.710942 -15.781083 -1.130666 10 6
-4.774456 -5.0860572 -1.8691912 3 0
-5.9505363 -6.3322468 -2.0061135 7 1
-7.2720923 -7.7277598 -2.0626454 9 2
-9.5316067 -10.118235 -2.201659 17 3
-9.7622194 -10.352177 -1.7471191 7 4
-15.161024 -16.037939 -1.1566247 20 6
-4.8045177 -5.0470061 -1.8671206 3 0
-5.9865327 -6.2820859 -2.0034139 7 1
-7.3380771 -7.6922874 -2.0664616 9 2
-9.8973646 -10.349766 -1.7583311 7 4
-21.527016 -22.463863 -1.6305792 10 6
-4.8333945 -5.008625 -1.8650501 4 0
-5.9858265 -6.1963425 -1.9890171 7 1
-7.358839 -7.6070046 -2.0573027 9 2
-9.308795 -9.6126432 -2.1193743 4 3
-10.016364 -10.328869 -1.7666181 6 4
-21.91716 -22.553661 -1.648164 10 6
-4.8312726 -4.9352565 -1.8505563 4 0
-5.9700003 -6.0921092 -1.9692216 7 1
-7.4007668 -7.5442352 -2.0542498 9 2
-9.36765 -9.5359221 -2.1171842 13 3
-20.381062 -20.725441 -3.5690658 13 4
-21.783545 -22.097557 -1.626183 10 6
-4.8792191 -4.9151177 -1.8557327 3 0
-5.9739237 -6.0115776 -1.9566242 7 1
-7.4517922 -7.4882994 -2.0534863 7 2
-20.610756 -20.668398 -3.5839338 19 4
-21.657694 -21.665264 -1.6054579 11 6
-4.8942266 -4.8618736 -1.8484857 4 0
-5.9991484 -5.9532537 -1.9512255 7 1
-7.494226 -7.4291105 -2.0511968 9 2
-9.6414089 -9.5476332 -2.149097 15 3
-16.102276 -15.923413 -2.7805712 6 4
-21.955357 -21.66605 -1.6165532 11 6
-4.9189281 -4.820334 -1.8453798 4 0
-6.0200357 -5.8931956 -1.944927 8 1
-7.5304637 -7.361515 -2.046999 6 2
-9.7728376 -9.5435791 -2.1634889 17 3
-20.925022 -20.412756 -3.5892963 6 4
-21.751097 -21.1668 -1.5905945 11 6
-4.9357891 -4.7697678 -1.8391682 3 0
-6.0385966 -5.82937 -1.9377284 7 1
-7.5519929 -7.280148 -2.038985 7 2
-9.8392286 -9.4751177 -2.1634889 17 3
-15.6894 -15.092973 -2.6730826 15 4
-21.78882 -20.909334 -1.5826395 11 6
-4.9745607 -4.7405248 -1.8412387 3 0
-6.0650325 -5.7736349 -1.9332294 7 1
-7.5997863 -7.2245436 -2.0382218 7 2
-9.9652958 -9.4633284 -2.1766293 16 3
-16.739134 -15.879298 -2.8329749 17 4
-21.957476 -20.778675 -1.5843142 11 6
-5.0004973 -4.6990652 -1.8386506 2 0
-6.0995088 -5.7258167 -1.9314297 7 1
-7.6213899 -7.1444597 -2.0305893 7 2
-10.057074 -9.4178314 -2.182261 16 3
-16.633589 -15.559988 -2.796658 12 4
-22.160404 -20.679386 -1.5885011 11 6
-5.0360136 -4.6666679 -1.8396858 2 0
-6.1135907 -5.6592674 -1.9233315 7 1
-7.6566672 -7.0777493 -2.0267732 9 2
-10.096455 -9.3232679 -2.1766293 16 3
-16.037058 -14.793391 -2.678932 7 4
-22.198418 -20.426802 -1.5809648 11 6
-5.0584879 -4.6222739 -1.8360624 1 0
-6.132802 -5.5980544 -1.9170328 7 1
-7.6843567 -7.0069489 -2.0214307 9 2
-10.118793 -9.2170811 -2.1678691 15 3
-17.109133 -15.562662 -2.8397999 10 4
-22.33103 -20.269852 -1.580546 11 6
-5.0898333 -4.5877352 -1.8360624 1 0
-6.147593 -5.5353179 -1.9098345 7 1
-7.7097263 -6.9321303 -2.0153246 9 2
-10.10941 -9.0802164 -2.1522255 17 3
-17.1467 -15.384859 -2.8285878 8 4
-5.0957456 -4.5289903 -1.8267449 1 0
-22.984161 -20.420652 0.53666151 59 8
-6.1744285 -5.4819136 -1.9062351 7 1
-7.7493887 -6.8729773 -2.0134165 10 2
-10.067485 -8.9194965 -2.1303248 18 3
-16.553432 -14.645243 -2.7137868 13 4
-24.120596 -21.295109 -1.6862646 9 6
-5.1177397 -4.4865584 -1.8236392 1 0
-7.789794 -6.8122478 -2.0115087 9 2
-10.189015 -8.900979 -2.1428397 16 3
-16.716602 -14.582823 -2.7237799 15 4
-5.1497135 -4.4498219 -1.8236392 1 0
-6.2090602 -5.3595181 -1.8936379 42 1
-7.8401346 -6.7602644 -2.0122719 10 2
-10.282388 -8.8536196 -2.149097 18 3
-16.345444 -14.059299 -2.6472459 14 4
-22.942858 -19.685257 -1.5843142 11 6
-5.1835942 -4.4162669 -1.8246742 3 0
-6.2611656 -5.3286705 -1.8981371 14 1
-7.8853178 -6.7014461 -2.0115087 9 2
-10.175284 -8.6384354 -2.1140556 18 3
-12.142016 -10.297177 -1.9547845 15 4
-12.254678 -10.378027 -1.4049505 28 5
-22.817457 -19.302734 -1.5663106 12 6
-5.2039447 -4.371273 -1.8210509 2 0
-6.2817936 -5.2710509 -1.8931881 6 1
-7.9409394 -6.6537981 -2.0137982 9 2
-10.144459 -8.4911146 -2.0952835 20 3
-16.6635 -13.932854 -2.6669888 19 4
-23.252281 -19.393705 -1.5868263 23 6
-5.2120161 -4.3163548 -1.8132863 4 0
-6.304924 -5.2158885 -1.8891391 7 1
-7.9690347 -6.5831933 -2.0092189 7 2
-10.105981 -8.3396187 -2.0752599 18 3
-16.847673 -13.888151 -2.680882 15 4
-5.2285562 -4.2688656 -1.8086276 6 0
-6.3140025 -5.1495738 -1.8810407 7 1
-8.0452442 -6.552196 -2.0168512 7 2
-10.17315 -8.2763424 -2.077137 18 3
-17.032032 -13.841557 -2.6947751 13 4
-15.902911 -12.891719 -1.0728873 19 6
-5.283072 -4.2537751 -1.8174274 3 0
-6.3367596 -5.0967069 -1.8774415 7 1
-8.0896578 -6.4972816 -2.0168512 7 2
-10.220003 -8.1994886 -2.0752599 17 3
-16.823793 -13.483225 -2.6472459 7 4
-16.943306 -13.559588 -1.8986006 35 5
-16.058935 -12.838045 -1.0774928 9 6
-5.2838898 -4.1939688 -1.8075923 6 0
-6.356916 -5.040236 -1.8729424 6 1
-8.1594448 -6.4601474 -2.0229571 9 2
-10.273901 -8.1254873 -2.0746341 19 3
-17.207237 -13.594332 -2.6925817 9 4
-16.195227 -12.762711 -1.0806329 9 6
-5.3099971 -4.1545987 -1.8065571 6 0
-6.3827353 -4.9885354 -1.870243 7 1
-8.1888714 -6.3909454 -2.019141 9 2
-10.345954 -8.065712 -2.0777628 18 3
-17.29076 -13.465338 -2.6908755 13 4
-16.283936 -12.649331 -1.0806329 9 6
-5.3220453 -4.1044478 -1.8008629 7 0
-6.4019699 -4.9319596 -1.8657441 7 1
-8.2426243 -6.3408046 -2.0214307 10 2
-10.480326 -8.0534716 -2.0934062 18 3
-17.387489 -13.346718 -2.6913629 18 4
-16.689005 -12.778182 -1.1015673 9 6
-5.3628731 -4.0765471 -1.8050041 7 0
-6.4191723 -4.8741837 -1.8607951 5 1
-8.2773056 -6.2759871 -2.019141 9 2
-10.564639 -8.0015736 -2.0990379 19 3
-17.532488 -13.264524 -2.6994061 7 4
-16.777803 -12.661364 -1.1015673 9 6
-5.3834715 -4.033216 -1.8024158 6 0
-6.4421225 -4.8210773 -1.8576458 6 1
-8.294672 -6.2006936 -2.0130351 10 2
-10.615692 -7.9271145 -2.098412 18 3
-16.655502 -12.419156 -2.5509694 4 4
-16.911673 -12.582634 -1.1047075 19 6
-5.3999224 -3.9884443 -1.7987925 7 0
-6.4559712 -4.7632318 -1.852247 7 1
-8.3440819 -6.1472936 -2.0145614 9 2
-10.728052 -7.8949609 -2.1096754 17 3
-24.919147 -18.311625 -3.7969615 9 4
-5.4220757 -3.9451556 -1.7967219 7 0
-6.4630919 -4.6974363 -1.8445988 5 1
-8.4010925 -6.0992713 -2.0179961 6 2
-10.851443 -7.8666863 -2.1228158 18 3
-13.975035 -10.119957 -2.1185768 7 4
-17.282154 -12.48263 -1.1172681 9 6
-5.4447756 -3.9038296 -1.795169 6 0
-6.4830532 -4.6431231 -1.8409994 5 1
-8.4253578 -6.0252957 -2.0134165 4 2
-10.944674 -7.8182974 -2.1303248 17 3
-14.181076 -10.119002 -2.1390507 7 4
-17.34284 -12.343147 -1.1155934 9 6
-5.4703193 -3.864608 -1.7946514 9 0
-6.5057573 -4.5910082 -1.8382999 3 1
-8.4132223 -5.930479 -2.0008233 4 2
-11.01379 -7.7549911 -2.1334534 15 3
-14.381289 -10.111089 -2.1585498 7 4
-17.452616 -12.243164 -1.1172681 9 6
-5.4774728 -3.8140373 -1.7884396 9 0
-6.5112586 -4.5288162 -1.8311015 4 1
-8.3786325 -5.818965 -1.9828871 4 2
-11.083892 -7.6891708 -2.1365821 12 3
-14.578679 -10.102288 -2.1778054 6 4
-14.677027 -10.15528 -1.5614822 33 5
-17.379929 -12.012012 -1.1072196 19 6
-5.4944091 -3.7691464 -1.7853339 4 0
-6.5202131 -4.4678259 -1.824803 3 1
-8.3558607 -5.7170935 -1.968004 4 2
-11.143826 -7.6160607 -2.1378336 9 3
-14.786567 -10.094277 -2.1982794 5 4
-17.413839 -11.856663 -1.1040794 9 6
-5.5205874 -3.7306974 -1.7853339 3 0
-6.5318618 -4.4091153 -1.8194041 5 1
-8.3678942 -5.639966 -1.9615166 4 2
-11.181977 -7.5281487 -2.1350179 9 3
-14.991755 -10.081638 -2.218266 6 4
-26.84474 -18.004932 -1.6940104 18 6
-5.5593624 -3.7006307 -1.789475 3 0
-6.568974 -4.3677249 -1.8212038 3 1
-8.3547239 -5.5466633 -1.9493048 4 2
-11.244137 -7.4564533 -2.1368952 9 3
-15.200787 -10.068817 -2.23874 6 4
-26.626497 -17.590298 -1.6724479 19 6
-5.5398269 -3.6320691 -1.774981 2 0
-6.5797443 -4.3089452 -1.815805 1 1
-8.3718815 -5.4742332 -1.9443438 4 2
-11.27938 -7.3669705 -2.1337664 10 3
-15.420341 -10.060067 -2.2606766 5 4
-26.909365 -17.508549 -1.6824965 19 6
-5.5926375 -3.6111214 -1.7837809 2 0
-6.6342306 -4.2787495 -1.8225534 0 1
-8.3429317 -5.3745942 -1.9290791 4 2
-11.340891 -7.2975087 -2.1359563 8 3
-15.660548 -10.061616 -2.285538 5 4
-27.229689 -17.454321 -1.695057 18 6
-5.6187186 -3.5740066 -1.7842987 3 0
-6.6204352 -4.2063212 -1.810856 0 1
-8.3537254 -5.2993894 -1.922973 25 2
-11.379882 -7.210753 -2.1337664 7 3
-18.296722 -11.58012 -2.6587019 21 4
-27.002956 -17.044188 -1.6734947 9 6
-5.6009645 -3.5080323 -1.77084 4 0
-6.6397271 -4.1537981 -1.8081565 0 1
-8.3838577 -5.2367821 -1.9214467 21 2
-11.3981 -7.1112661 -2.1278217 8 3
-17.693115 -11.025855 -2.5597439 1 4
-26.883799 -16.707663 -1.6588407 20 6
-5.6088753 -3.4587045 -1.7656636 4 0
-6.6602688 -4.1022334 -1.8059071 2 1
-8.4101782 -5.1719532 -1.919157 4 2
-11.405389 -7.0056725 -2.1200001 7 3
-17.485401 -10.727661 -2.5187957 3 4
-27.006598 -16.523748 -1.6592593 20 6
-5.632884 -3.4194643 -1.7656636 5 0
-6.6804132 -4.0505838 -1.8036577 7 1
-8.4057732 -5.0887117 -1.9099981 4 2
-11.428663 -6.9105449 -2.1153071 8 3
-17.915005 -10.819821 -2.5697372 6 4
-27.152096 -16.353344 -1.6611434 20 6
-5.6732025 -3.3899655 -1.77084 5 0
-6.6951413 -3.9958589 -1.8000585 7 1
-8.3904972 -4.9997578 -1.8985497 4 2
-11.417217 -6.7952318 -2.1043568 9 3
-17.00383 -10.108181 -2.4288561 20 4
-27.27247 -16.167469 -1.6615621 20 6
-5.7100525 -3.3581109 -1.774981 4 0
-6.7060709 -3.9391503 -1.7955593 9 1
-8.43536 -4.9470158 -1.9008393 4 2
-11.392791 -6.6734228 -2.0912163 9 3
-16.251554 -9.5080585 -2.3118618 5 4
-27.843557 -16.244406 -1.6894048 9 6
-5.7266698 -3.3142948 -1.7729106 4 0
-6.7266593 -3.8883364 -1.7937597 8 1
-8.3931723 -4.8438478 -1.8836665 3 2
-11.410007 -6.5769553 -2.0858974 8 3
-16.099051 -9.2685871 -2.2809069 8 4
-27.835041 -15.98001 -1.6820779 9 6
-5.7630968 -3.2818835 -1.7770516 4 0
-6.760416 -3.8451359 -1.7955593 8 1
-8.4387341 -4.7919202 -1.8863379 4 2
-11.453927 -6.4961638 -2.0855846 9 3
-16.441448 -9.3134928 -2.3201487 11 4
-28.043306 -15.84031 -1.6879395 9 6
-5.7549691 -3.2255776 -1.7677342 4 0
-6.7660265 -3.7876072 -1.7901604 7 1
-8.4334536 -4.7132969 -1.8779422 4 2
-11.492705 -6.4151602 -2.0846457 8 3
-16.069267 -8.9587393 -2.2589705 9 4
-28.1819 -15.666525 -1.6898235 9 6
-5.7874975 -3.1909196 -1.77084 3 0
-6.7769427 -3.7318177 -1.7861114 5 1
-8.45502 -4.6501064 -1.8756526 4 2
-11.530911 -6.33393 -2.0837073 9 3
-15.873817 -8.7050743 -2.2228971 9 4
-28.203777 -15.428332 -1.6847993 9 6
-5.7954984 -3.1440818 -1.7666988 4 0
-6.7884789 -3.6781766 -1.7825122 5 1
-8.4406509 -4.5657477 -1.8653487 3 2
-11.607869 -6.2711172 -2.0896518 8 3
-15.866317 -8.5610027 -2.213635 9 4
-27.948475 -15.036119 -1.6632369 9 6
-5.8207169 -3.1053624 -1.7677342 4 0
-6.8225913 -3.6352766 -1.7847617 6 1
-8.4133873 -4.4753637 -1.8523737 3 2
-11.642643 -6.1852951 -2.0880876 7 3
-16.016882 -8.4984074 -2.2263095 9 4
-28.635353 -15.148849 -1.6977786 9 6
-5.8285675 -3.0574722 -1.763593 4 0
-6.8391724 -3.5830369 -1.7825122 5 1
-8.4409485 -4.4146962 -1.8516105 3 2
-11.676787 -6.099288 -2.0865231 8 3
-15.996621 -8.3450651 -2.2153411 11 4
-28.651817 -14.902486 -1.6925449 9 6
-5.8360348 -3.0096233 -1.759452 4 0
-6.8414974 -3.5236037 -1.7766634 7 1
-8.432394 -4.3373842 -1.8432151 3 2
-11.53881 -5.9275994 -2.0546105 5 3
-16.054489 -8.2331877 -2.2153411 11 4
-28.347176 -14.499741 -1.6686797 9 6
-5.8770614 -2.9803135 -1.7656636 3 0
-6.8566313 -3.4725511 -1.7744139 4 1
-8.4729815 -4.2837243 -1.8455048 3 2
-11.340096 -5.725812 -2.0120604 5 3
-16.023306 -8.0799208 -2.2033978 12 4
-28.858139 -14.507819 -1.6927544 9 6
-5.9150143 -2.9478297 -1.77084 3 0
-6.8807063 -3.4245996 -1.7744139 5 1
-8.4667816 -4.2084761 -1.8378724 3 2
-11.299184 -5.6089673 -1.9979812 6 3
-16.072208 -7.9643345 -2.2024229 12 4
-29.5077 -14.583618 -1.7249933 8 6
-5.9210639 -2.9006999 -1.7666988 3 0
-6.886353 -3.3691206 -1.769915 4 1
-11.291906 -5.5074301 -1.9898466 6 3
-16.068941 -7.8269334 -2.1946235 12 4
-28.864977 -14.016082 -1.681659 19 6
-5.9376888 -2.8576169 -1.7656636 3 0
-6.9202447 -3.3260279 -1.7726144 5 1
-8.475153 -4.066072 -1.8271869 3 2
-11.274854 -5.4020066 -1.9801477 5 3
-16.047981 -7.6785793 -2.1843865 12 4
-29.10634 -13.883013 -1.6900327 9 6
-5.9260554 -2.8012338 -1.7563461 4 0
-6.9256735 -3.2693155 -1.7681153 5 1
-8.5033321 -4.0068069 -1.8271869 4 2
-11.222924 -5.2811055 -1.9645042 4 3
-16.158689 -7.5933681 -2.1921859 13 4
-29.202549 -13.679482 -1.6900327 9 6
-5.9559803 -2.7646754 -1.759452 4 0
-6.9377198 -3.2159698 -1.7654159 4 1
-8.5054674 -3.9372857 -1.8218443 4 2
-11.199439 -5.1772399 -1.9541795 24 3
-16.173454 -7.462913 -2.1870675 10 4
-30.608597 -14.08486 -1.7658154 7 6
-5.9641147 -2.7192616 -1.7563461 4 0
-6.9559026 -3.1670566 -1.7645161 4 1
-8.5291729 -3.8761859 -1.8210812 4 2
-11.2515 -5.1062746 -1.9569954 14 3
-16.19495 -7.3395395 -2.1831677 10 4
-30.687983 -13.862606 -1.7647686 7 6
-5.9970603 -2.6838713 -1.7604873 3 0
-6.9956346 -3.126369 -1.7690151 5 1
-8.5129938 -3.797354 -1.8119223 4 2
-11.220108 -4.9978628 -1.9454193 4 3
-16.22584 -7.2174277 -2.1804864 11 4
-30.66716 -13.596219 -1.7580696 7 6
-6.0085745 -2.6388326 -1.7584167 3 0
-7.0172901 -3.0774541 -1.7690151 5 1
-8.5321035 -3.7346807 -1.810396 6 2
-11.189566 -4.8909283 -1.9341559 4 3
-16.297665 -7.113503 -2.1834114 8 4
-30.684408 -13.348335 -1.7536734 7 6
-6.0020132 -2.5861168 -1.7511697 4 0
-7.0081725 -3.015296 -1.7613667 3 1
-8.5597715 -3.6757987 -1.8107775 4 2
-11.19439 -4.8002353 -1.9291501 3 3
-16.354231 -7.002677 -2.1843865 8 4
-30.769501 -13.130649 -1.7532547 7 6
-6.0199208 -2.5441532 -1.7511697 4 0
-7.0200744 -2.9625094 -1.7591172 4 1
-8.5399923 -3.5968993 -1.801237 3 2
-11.158435 -4.6928658 -1.917261 3 3
-16.40638 -6.8898692 -2.1848738 8 4
-30.985703 -12.967957 -1.7603724 7 6
-6.048244 -2.5065019 -1.7542756 4 0
-7.0297818 -2.9089572 -1.7564179 4 1
-8.5896797 -3.5491819 -1.8065797 3 2
-11.146295 -4.5987225 -1.9097521 3 3
-16.424707 -6.763073 -2.1809738 8 4
-31.686665 -13.008573 -1.7951236 6 6
-6.0544262 -2.4609115 -1.7511697 5 0
-7.053031 -2.8625052 -1.7573177 5 1
-8.5523796 -3.464071 -1.7936047 3 2
-11.152489 -4.5104284 -1.905372 3 3
-16.424345 -6.632534 -2.1748805 10 4
-6.064281 -2.4157224 -1.7490991 5 0
-7.0764647 -2.8146367 -1.7582175 4 1
-8.6183233 -3.4209411 -1.8023818 4 2
-11.139631 -4.4149947 -1.8978633 3 3
-16.45364 -6.5111318 -2.1726868 8 4
-31.486164 -12.415433 -1.7737705 7 6
-6.0809979 -2.3733284 -1.7490991 4 0
-7.0868621 -2.7616286 -1.7559679 6 1
-8.6108913 -3.348592 -1.7958944 3 2
-11.103891 -4.3113751 -1.8865999 2 3
-16.473894 -6.3831882 -2.1692746 8 4
-31.452833 -12.149257 -1.7670714 15 6
-6.0978251 -2.3297532 -1.7490991 3 0
-7.1100845 -2.7122347 -1.7568678 6 1
-8.6083717 -3.2786145 -1.7905518 3 2
-11.056906 -4.202332 -1.8734595 1 3
-16.521769 -6.2694321 -2.1697619 8 4
-31.48292 -11.902685 -1.7639313 7 6
-6.08499 -2.2762969 -1.740817 4 0
-7.1324968 -2.6638963 -1.7577676 7 1
-8.6224146 -3.2135022 -1.7886436 4 2
-11.100783 -4.1305513 -1.8759624 0 3
-16.558764 -6.1482849 -2.168787 8 4
-32.269527 -11.943264 -1.8032879 6 6
-6.1228938 -2.2406623 -1.7470287 4 0
-7.1477156 -2.6114516 -1.7568678 7 1
-8.6391058 -3.1512098 -1.7874987 3 2
-11.08922 -4.0361466 -1.8690792 3 3
-16.593819 -6.0298204 -2.1678119 8 4
-6.1404881 -2.2034514 -1.7480639 4 0
-7.1364646 -2.5566306 -1.7501192 4 1
-8.677762 -3.101963 -1.791315 3 2
-11.086453 -3.9564316 -1.8643861 5 3
-16.636152 -5.9238682 -2.1682997 8 4
-33.765598 -11.97692 -1.8776051 10 6
-6.1524525 -2.1581757 -1.7470287 3 0
-7.1600943 -2.5074301 -1.7514689 6 1
-8.7108574 -3.0436749 -1.7936047 3 2
-11.073446 -3.8626866 -1.8575031 4 3
-15.988195 -5.5645499 -2.0786037 3 4
-33.506981 -11.615944 -1.8585546 5 6
-6.1421533 -2.105325 -1.7397816 3 0
-7.1704783 -2.4536059 -1.7496693 7 1
-8.7361298 -2.982532 -1.7943679 3 2
-11.080236 -3.7763383 -1.8540615 6 3
-15.889463 -5.4061227 -2.0608108 5 4
-33.973148 -11.512495 -1.8799077 5 6
-6.1530385 -2.061166 -1.7387464 4 0
-7.1948256 -2.4059589 -1.7514689 6 1
-8.723217 -2.9102857 -1.7874987 3 2
-11.068848 -3.6864083 -1.8478041 6 3
-15.810027 -5.2562332 -2.0456991 5 4
-33.214649 -10.997565 -1.8336428 6 6
-6.1709495 -2.0193627 -1.7397816 4 0
-7.1929226 -2.3496199 -1.7469698 6 1
-8.7078562 -2.8377578 -1.780248 4 2
-11.064259 -3.5992658 -1.8427982 6 3
-15.740608 -5.1113973 -2.0320497 5 4
-33.955742 -10.980492 -1.8702779 5 6
-6.177536 -1.9738802 -1.7377111 5 0
-7.2128639 -2.3005323 -1.7478697 7 1
-8.7269707 -2.7784214 -1.780248 4 2
-11.079086 -3.5208814 -1.8412338 5 3
-15.599925 -4.945591 -2.009382 21 4
-34.277283 -10.827324 -1.8838853 4 6
-6.1982055 -1.934087 -1.7397816 4 0
-7.2320771 -2.2525415 -1.7487694 7 1
-8.7067823 -2.705195 -1.772234 3 2
-11.060003 -3.4299915 -1.8340379 2 3
-15.621849 -4.8357687 -2.0079193 3 4
-6.2075315 -1.8907266 -1.7387464 4 0
-7.2285972 -2.1975939 -1.7442704 7 1
-8.7550535 -2.6549847 -1.77834 3 2
-11.045281 -3.3431809 -1.8277806 3 3
-15.56319 -4.701766 -1.99622 3 4
-34.442436 -10.359447 -1.884932 4 6
-6.2276635 -1.850632 -1.740817 4 0
-7.2359147 -2.1461246 -1.7424709 7 1
-8.7503319 -2.5886462 -1.7737606 3 2
-11.052625 -3.2634478 -1.8252774 4 3
-15.504233 -4.5660853 -1.9845206 3 4
-34.690247 -10.170428 -1.8945618 4 6
-6.2296128 -1.8027984 -1.7377111 4 0
-7.2492151 -2.09375 -1.742021 4 1
-8.7497663 -2.5205295 -1.7699443 3 2
-11.033928 -3.1722684 -1.8183944 4 3
-15.45255 -4.4309473 -1.9737961 3 4
-34.585445 -9.8715067 -1.884932 4 6
-6.2126017 -1.7497959 -1.7294289 1 0
-7.2677641 -2.0428751 -1.7429208 5 1
-8.7751398 -2.4599729 -1.7714708 3 2
-11.071563 -3.0974874 -1.8208973 4 3
-15.376036 -4.2930694 -1.9601468 3 4
-6.2134876 -1.7033151 -1.7263231 3 0
-7.2686906 -1.9884889 -1.7397714 7 1
-8.7954693 -2.4012191 -1.772234 3 2
-11.080956 -3.0189383 -1.8190202 3 3
-15.317513 -4.161674 -1.9489347 3 4
-34.772243 -9.4083176 -1.8878628 4 6
-6.2697349 -1.6729349 -1.7387464 3 0
-7.2820573 -1.9389664 -1.7397714 7 1
-8.7626829 -2.3266597 -1.7623119 3 2
-11.097943 -2.9404933 -1.8183944 4 3
-15.232255 -4.0273805 -1.9345541 2 4
-6.2345114 -1.6169994 -1.7258054 2 0
-7.2840967 -1.8851531 -1.7370721 7 1
-8.7863169 -2.2673879 -1.7638384 3 2
-11.099071 -2.8580177 -1.8152657 3 3
-15.179249 -3.900193 -1.9243171 2 4
-34.606091 -8.8467102 -1.8719527 10 6
-6.2812419 -1.5824018 -1.7356406 3 0
-7.2706203 -1.8276035 -1.7307733 7 1
-8.8247843 -2.2117221 -1.768418 3 2
-11.107255 -2.7775893 -1.8133886 4 3
-15.188773 -3.7898052 -1.9221234 2 4
-34.667004 -8.6049061 -1.8719527 5 6
-6.2621102 -1.5311704 -1.7273583 3 0
-7.2813101 -1.7763386 -1.7303236 4 1
-8.8091135 -2.1441736 -1.7623119 3 2
-11.129743 -2.7028522 -1.8140143 3 3
-15.131899 -3.6635857 -1.9116427 4 4
-54.827209 -13.264106 8.9342861 1 12
-34.833508 -8.3949404 -1.8778143 5 6
-6.2686286 -1.4876193 -1.7263231 3 0
-7.2970247 -1.7276348 -1.7312233 4 1
-8.825779 -2.0830731 -1.7626936 4 2
-11.11373 -2.6169367 -1.8083826 3 3
-15.125565 -3.5532408 -1.9077429 4 4
-35.373596 -8.264246 -1.9037731 4 6
-6.2750959 -1.4429524 -1.7252878 2 0
-7.2880144 -1.6718551 -1.7262744 6 1
-8.8454943 -2.0242631 -1.7638384 4 2
-11.11588 -2.53771 -1.8058797 4 3
-15.099678 -3.4361062 -1.9014057 4 4
-35.370594 -8.0100403 -1.9006327 4 6
-6.2696867 -1.3968463 -1.7211467 2 0
-7.3182483 -1.6264378 -1.7307733 7 1
-8.8517437 -1.9607645 -1.7623119 4 2
-11.144898 -2.4626045 -1.8077569 3 3
-15.099453 -3.3281221 -1.8984808 4 4
-35.620747 -7.8056641 -1.9111 4 6
-6.2679553 -1.3506001 -1.7180409 1 0
-7.3332353 -1.5761261 -1.7316732 7 1
-8.8690557 -1.8997401 -1.7630752 4 2
-11.165683 -2.3855612 -1.8083826 3 3
-15.08155 -3.2139349 -1.8933623 2 4
-35.752525 -7.5733576 -1.9152868 4 6
-6.2696652 -1.305235 -1.7159703 1 0
-7.3516917 -1.5264786 -1.7334728 7 1
-8.8513412 -1.8314137 -1.7569693 4 2
-11.135633 -2.2979729 -1.8008738 4 3
-15.053066 -3.0981665 -1.8870251 3 4
-37.209473 -7.6109357 -1.9904413 2 6
-6.3051419 -1.2667601 -1.7232174 2 0
-7.3583479 -1.4743512 -1.7325729 7 1
-8.8023024 -1.7572778 -1.7447575 3 2
-11.139781 -2.217864 -1.7989967 4 3
-15.035386 -2.9852724 -1.8821504 3 4
-6.3024516 -1.2205074 -1.7201115 1 0
-7.3608079 -1.4214664 -1.7307733 7 1
-8.8220682 -1.6972649 -1.746284 3 2
-11.122013 -2.1337099 -1.7936778 4 3
-15.018816 -2.8731425 -1.8775192 2 4
-24.080944 -4.5893359 -2.1447284 29 5
-36.860817 -7.004921 -1.9663668 3 6
-6.3526001 -1.1842672 -1.7314996 1 0
-7.3590569 -1.3679067 -1.728074 7 1
-8.8723106 -1.6427846 -1.7539164 3 2
-11.156063 -2.0596006 -1.7968066 4 3
-15.030699 -2.7667873 -1.8765444 2 4
-6.3207798 -1.1327324 -1.7206291 2 0
-7.376101 -1.3178685 -1.7298737 7 1
-8.8429728 -1.5735812 -1.7459024 4 2
-11.1585 -1.979596 -1.7949294 4 3
-15.037919 -2.6597116 -1.8750819 2 4
-6.3628039 -1.094474 -1.7299466 2 0
-7.3851213 -1.2663434 -1.7298737 6 1
-8.8576136 -1.5124681 -1.7466656 4 2
-11.14868 -1.8976691 -1.7911749 4 3
-15.056121 -2.5546625 -1.8750819 2 4
-6.3607588 -1.0484554 -1.7273583 4 0
-7.389936 -1.2141228 -1.7289737 6 1
-8.8795815 -1.4524972 -1.7489554 4 2
-11.149959 -1.8178858 -1.7892977 4 3
-15.006968 -2.4386663 -1.8667948 2 4
-6.3717399 -1.0046252 -1.7283937 3 0
-7.3770561 -1.1591742 -1.7240249 5 1
-8.9089031 -1.3935049 -1.7527716 4 2
-11.166281 -1.7406085 -1.7899233 4 3
-15.005976 -2.3310924 -1.8646011 3 4
-46.068298 -7.0988317 -2.4428334 0 6
-6.3900604 -0.96184289 -1.7314996 4 0
-7.4080949 -1.111113 -1.7294236 5 1
-8.889287 -1.3269272 -1.7470472 3 2
-11.144945 -1.6576705 -1.7846047 4 3
-14.990464 -2.2216215 -1.8607013 3 4
-46.756973 -6.8711147 -2.476747 0 6
-6.3927951 -0.9166615 -1.7304642 3 0
-7.3886628 -1.0555112 -1.7231251 4 1
-8.956646 -1.2731245 -1.7584958 3 2
-11.166025 -1.5812083 -1.7861689 4 3
-14.993814 -2.1152503 -1.8592389 3 4
-6.3569269 -0.86627036 -1.7190762 3 0
-7.4074383 -1.0054755 -1.7258245 5 1
-8.926403 -1.20531 -1.7508634 3 2
-11.182666 -1.5040063 -1.7871076 3 3
-14.996412 -2.0089409 -1.8577764 3 4
-6.381979 -0.8243444 -1.7242525 3 0
-7.4336052 -0.95622367 -1.7303236 4 1
-8.9694538 -1.1490144 -1.7577326 3 2
-11.188724 -1.427356 -1.7864817 3 3
-14.958869 -1.8977051 -1.8514392 3 4
-6.4027829 -0.78275985 -1.7283937 3 0
-7.4322042 -0.90466058 -1.728524 5 1
-8.9811544 -1.0868396 -1.7584958 3 2
-11.210183 -1.3506268 -1.7883589 3 3
-14.961585 -1.7946535 -1.8502206 4 4
-6.4157686 -0.73892665 -1.7304642 3 0
-7.4422102 -0.85319763 -1.7294236 5 1
-9.0002279 -1.0254462 -1.7607856 3 2
-11.21149 -1.2714418 -1.7871076 3 3
-14.967832 -1.6894938 -1.8494893 3 4
-6.424612 -0.69453186 -1.7314996 3 0
-7.4537983 -0.80184394 -1.7307733 6 1
-8.9876442 -0.9605037 -1.7569693 3 2
-11.235806 -1.1948136 -1.7896105 3 3
-14.947952 -1.5790068 -1.8455895 3 4
-6.4217286 -0.64776814 -1.7294289 3 0
-7.4515886 -0.7477088 -1.7289737 3 1
-9.0253878 -0.90085232 -1.7630752 3 2
-43.779934 -4.3543901 3.8491461 4 10
-11.244068 -1.1143814 -1.7896105 3 3
-14.962563 -1.475005 -1.846077 3 4
-6.3991666 -0.60039222 -1.722182 4 0
-7.4663296 -0.69657385 -1.7312233 5 1
-9.0198746 -0.83516133 -1.7607856 3 2
-43.74181 -4.0424085 3.8432195 10 10
-11.239772 -1.0347693 -1.7877333 3 3
-14.946796 -1.3681583 -1.8429084 5 4
-6.4301472 -0.55804294 -1.7294289 4 0
-7.4593611 -0.64342898 -1.728524 5 1
-9.0136137 -0.77274144 -1.7584958 3 2
-43.749111 -3.73524 3.8414762 14 10
-11.27411 -0.96058905 -1.7921134 3 3
-14.96983 -1.2649467 -1.8446145 3 4
-6.4492025 -0.51549268 -1.7335701 4 0
-7.4402561 -0.59078866 -1.7231251 4 1
-9.0579329 -0.71287423 -1.7661282 3 2
-43.755653 -3.4359689 3.8399076 13 10
-11.288419 -0.88247055 -1.793365 2 3
-14.982052 -1.1633282 -1.845102 3 4
-44.12661 -3.3721206 -2.3193204 1 6
-6.4449372 -0.46989432 -1.7314996 4 0
-7.4714108 -0.54080105 -1.7294236 5 1
-8.9843588 -0.64400804 -1.7508634 3 2
-43.746777 -3.1281288 3.8371186 19 10
-11.274601 -0.80224174 -1.7902362 2 3
-14.971986 -1.0574502 -1.8429084 2 4
-43.662914 -3.0302367 -2.2937806 0 6
-6.413362 -0.4226023 -1.722182 4 0
-7.4788933 -0.48888189 -1.7303236 5 1
-9.059166 -0.58582842 -1.7646016 3 2
-11.264156 -0.72249639 -1.7877333 2 3
-15.008721 -0.95478714 -1.8465644 3 4
-6.4315844 -0.37872833 -1.7263231 4 0
-7.4860153 -0.43688452 -1.7312233 5 1
-9.0747032 -0.52483326 -1.7668914 3 2
-11.253036 -0.64490533 -1.7852304 2 3
-15.02493 -0.85054779 -1.8477831 2 4
-6.4301548 -0.33474019 -1.7252878 4 0
-7.4693537 -0.38491571 -1.7267244 5 1
-9.0467758 -0.45987245 -1.7607856 3 2
-11.308558 -0.56890911 -1.793365 1 3
-15.024425 -0.74796033 -1.847052 2 4
-6.4361949 -0.29001501 -1.7263231 4 0
-7.4952207 -0.33380261 -1.7321231 5 1
-9.0810766 -0.39966547 -1.7668914 3 2
-11.28454 -0.49072215 -1.7889848 2 3
-15.037212 -0.64339125 -1.8480269 2 4
-6.4457417 -0.2464937 -1.7283937 4 0
-7.5109501 -0.28329057 -1.7352724 7 1
-9.0169411 -0.33378857 -1.7539164 3 2
-11.315328 -0.41293776 -1.793365 2 3
-15.025373 -0.54045022 -1.846077 2 4
-6.4434433 -0.20136879 -1.7273583 4 0
-7.5069013 -0.23066957 -1.7339227 5 1
-9.0661011 -0.27382901 -1.7630752 3 2
-11.286283 -0.33496943 -1.7883589 2 3
-15.070449 -0.43675137 -1.8511955 2 4
-6.4562526 -0.15778811 -1.7304642 4 0
-7.4927125 -0.17919353 -1.7303236 5 1
-9.0363884 -0.20979775 -1.7569693 3 2
-11.304148 -0.25652671 -1.7908621 2 3
-15.077044 -0.33424777 -1.851683 2 4
-6.4456072 -0.11250883 -1.7273583 4 0
-7.5074201 -0.12711109 -1.7334728 3 1
-9.088644 -0.14912359 -1.7668914 3 2
-11.329332 -0.17995487 -1.7946163 3 3
-15.075039 -0.22892533 -1.8511955 2 4
-6.4539742 -0.066463366 -1.7294289 3 0
-7.4886508 -0.073195517 -1.7289737 3 1
-9.1051989 -0.082639158 -1.7699443 3 2
-11.338248 -0.096969619 -1.7958679 2 3
-15.064381 -0.12094937 -1.849733 2 4
-6.4388266 -0.021351719 -1.7252878 4 0
-7.5221081 -0.021005612 -1.7366221 2 1
-9.0309477 -0.020490732 -1.7554429 3 2
-11.354448 -0.01981779 -1.7983708 2 3
-15.10456 -0.015815187 -1.8546078 2 4
-6.4542775 0.022528974 -1.7294289 4 0
-7.5142817 0.030163262 -1.7348225 3 1
-9.0622826 0.042703532 -1.7615488 3 2
-11.358262 0.059472375 -1.7989967 2 3
-15.082482 0.086869493 -1.8519267 3 4
-6.4616899 0.067668699 -1.7314996 4 0
-7.5099907 0.082579248 -1.7339227 3 1
-9.049984 0.10583141 -1.759259 3 2
-11.36547 0.13886307 -1.800248 2 3
-15.087462 0.19223882 -1.8526579 2 4
-6.4456072 0.11250842 -1.7273583 4 0
-7.5131283 0.13507691 -1.7348225 2 1
-9.0450993 0.1689363 -1.7584958 3 2
-11.360273 0.21812707 -1.7996223 3 3
-15.091707 0.29767835 -1.8533891 3 4
-6.4717026 0.15816374 -1.7346053 3 0
-7.5081058 0.18742609 -1.7339227 2 1
-9.0829916 0.23149882 -1.7661282 3 2
-11.342728 0.29503548 -1.7971194 3 3
-15.091247 0.40308407 -1.8536329 2 4
-6.4820614 0.20257372 -1.7377111 4 0
-7.5222383 0.23902304 -1.737522 2 1
-9.049758 0.29388702 -1.7600222 3 2
-11.411467 0.37656355 -1.8083826 2 3
-15.127831 0.50712794 -1.8585076 2 4
-6.4804893 0.24782209 -1.7377111 4 0
-7.5398588 0.29228899 -1.742021 1 1
-9.0906448 0.35876015 -1.768418 3 2
-11.404613 0.45606086 -1.8077569 2 3
-15.153674 0.61392951 -1.8621637 3 4
-6.4786015 0.2930584 -1.7377111 3 0
-7.549315 0.3454527 -1.7447205 1 1
-9.1075296 0.42312717 -1.772234 3 2
-11.41299 0.53622794 -1.8096341 2 3
-15.190659 0.72168899 -1.8672822 2 4
-6.4725399 0.33807737 -1.7366759 3 0
-7.5311508 0.39732528 -1.7411212 2 1
-9.0847492 0.4856514 -1.768418 3 2
-11.393188 0.61503798 -1.8071312 2 3
-15.211019 0.82912314 -1.8704509 2 4
-6.4545937 0.38234359 -1.7325348 3 0
-7.5632086 0.4519873 -1.7492194 1 1
-9.1046543 0.55048281 -1.7729974 3 2
-11.408334 0.69576216 -1.8102598 1 3
-15.224674 0.9365111 -1.8728882 2 4
-6.4903197 0.42994824 -1.7428875 3 0
-7.5365357 0.5032177 -1.7438205 1 1
-9.0770826 0.61244798 -1.768418 3 2
-11.434731 0.77753735 -1.8152657 2 3
-15.209842 1.0422373 -1.8719133 1 4
-6.4640398 0.47355497 -1.7366759 3 0
-7.5444999 0.55668074 -1.74652 2 1
-9.0999966 0.67784262 -1.7737606 3 2
-11.417206 0.85645854 -1.8133886 1 3
-15.277414 1.1540751 -1.8811754 1 4
-6.4605761 0.51867092 -1.7366759 3 0
-7.5559688 0.61059344 -1.7501192 2 1
-9.1576595 0.74645787 -1.7859724 3 2
-11.446385 0.93905479 -1.8190202 2 3
-15.265029 1.2603804 -1.880688 2 4
-6.4452505 0.56275183 -1.7335701 3 0
-7.524344 0.66094005 -1.7438205 2 1
-9.1678686 0.81175953 -1.7890252 3 2
-11.431681 1.0182389 -1.8177687 2 3
-15.269699 1.3681562 -1.8823941 2 4
-6.4661679 0.61009353 -1.7402993 2 0
-7.5311871 0.71455818 -1.74652 3 1
-9.1619778 0.87574136 -1.7890252 3 2
-11.440024 1.0995315 -1.8202716 2 3
-15.245943 1.4733851 -1.880688 2 4
-6.4502187 0.65405166 -1.7371935 2 0
-7.5279531 0.76731592 -1.7469698 3 1
-9.1556406 0.93968487 -1.7890252 3 2
-11.463509 1.1826173 -1.8252774 3 3
-15.284648 1.5849081 -1.8867813 2 4
-6.4416542 0.69865012 -1.7361581 2 0
-7.5398488 0.82175255 -1.751019 4 1
-9.1254396 1.0010093 -1.7844458 3 2
-11.4589 1.263049 -1.8259033 2 3
-15.283075 1.6926653 -1.888 2 4
-42.602837 4.7711463 -2.2466781 0 6
-6.4500532 0.74515474 -1.7397816 3 0
-7.5068274 0.87122542 -1.7447205 3 1
-9.0714293 1.0592259 -1.775287 3 2
-11.438031 1.3416356 -1.8240261 2 3
-15.332002 1.8065212 -1.895556 2 4
-41.676033 4.9621825 -2.1995759 0 6
-6.471539 0.79345781 -1.7470287 3 0
-7.5179691 0.92575336 -1.7487694 1 1
-9.1458416 1.1310711 -1.791315 3 2
-11.432554 1.4199477 -1.8246518 2 3
-15.336743 1.915729 -1.8977495 3 4
-6.4583249 0.83649576 -1.744958 3 0
-7.501832 0.97564685 -1.74652 3 1
-9.1182556 1.1923457 -1.7874987 3 2
-11.441949 1.5022964 -1.8277806 3 3
-15.339094 2.0221505 -1.8996994 3 4
-6.4446712 0.8805185 -1.7428875 3 0
-7.5141444 1.0306456 -1.751019 2 1
-9.129158 1.2586557 -1.791315 3 2
-11.439009 1.5832229 -1.8290319 3 3
-15.324603 2.1291885 -1.8996994 3 4
-6.4383674 0.92548776 -1.7428875 3 0
-7.5125523 1.0839123 -1.7523687 3 1
-9.10849 1.3206681 -1.7890252 3 2
-11.439405 1.6647505 -1.8309091 3 3
-15.374185 2.2455902 -1.9077429 4 4
-6.4432106 0.97214431 -1.7459934 3 0
-7.4874606 1.1337094 -1.7483196 4 1
-9.0796404 1.3812705 -1.7852092 3 2
-11.474372 1.751724 -1.8384181 3 3
-15.369907 2.3546677 -1.9092052 4 4
-6.4438996 1.0183073 -1.7480639 3 0
-7.4793639 1.1859523 -1.7483196 4 1
-9.1007967 1.4495677 -1.791315 3 2
-11.493073 1.836778 -1.843424 3 3
-15.380535 2.4663165 -1.9126177 4 4
-36.9039 5.9639072 -1.9591444 3 6
-6.4251971 1.0613787 -1.744958 4 0
-7.4709024 1.2381375 -1.7483196 4 1
-9.1214409 1.5182232 -1.7974207 3 2
-11.454639 1.9127378 -1.8393567 8 3
-15.382519 2.5769088 -1.915055 4 4
-6.4100161 1.1048982 -1.7428875 4 0
-7.4908795 1.2952462 -1.7550682 6 1
-9.1067514 1.581192 -1.7966576 3 2
-11.466307 1.9970633 -1.843424 24 3
-15.373933 2.6859443 -1.9162737 3 4
-36.081364 6.3491263 -1.919997 4 6
-6.4021463 1.1496201 -1.7428875 4 0
-7.500834 1.3509634 -1.7595671 3 1
-9.0993538 1.6454314 -1.7974207 3 2
-11.498734 2.0855279 -1.8509328 4 3
-15.425115 2.805999 -1.9250482 3 4
-41.442669 7.5911951 -2.2080543 0 6
-6.4091563 1.197125 -1.7470287 3 0
-7.4816422 1.4015038 -1.7573177 3 1
-9.0722094 1.706012 -1.7943679 3 2
-11.497482 2.168313 -1.8531229 4 3
-15.422706 2.916935 -1.927242 4 4
-35.463383 6.752171 -1.891945 4 6
-6.3968496 1.2411042 -1.7459934 4 0
-7.4678502 1.4529552 -1.7564179 3 1
-9.1047068 1.7763722 -1.8031452 4 2
-11.490211 2.2480412 -1.8543743 4 3
-15.419496 3.027981 -1.9294356 3 4
-6.3844657 1.2838544 -1.744958 4 0
-7.4463253 1.5014427 -1.7537185 4 1
-9.0728397 1.8359977 -1.7993289 28 2
-11.509083 2.3352737 -1.860006 4 3
-15.390748 3.1312814 -1.9284606 3 4
-34.278999 7.0177593 -1.8337474 6 6
-6.40939 1.3354883 -1.7542756 4 0
-7.4604597 1.5585718 -1.7595671 6 1
-9.0790167 1.9033216 -1.8031452 4 2
-11.515697 2.4204412 -1.8637605 4 3
-15.40736 3.2468395 -1.9333354 3 4
-34.131481 7.2361979 -1.8285139 6 6
-6.4150171 1.3834597 -1.7584167 3 0
-7.4398742 1.6085567 -1.7573177 5 1
-9.1038809 1.974981 -1.8107775 4 2
-11.540984 2.5100098 -1.8706435 5 3
-15.364923 3.350095 -1.9308981 3 4
-34.060623 7.4700179 -1.8274672 6 6
-6.3693776 1.4202231 -1.7485816 2 0
-7.4455795 1.6642836 -1.7613667 7 1
-9.0975332 2.0402081 -1.8123039 4 2
-11.474998 2.5796883 -1.8628219 9 3
-15.298557 3.4476762 -1.9255358 13 4
-36.847622 8.3512783 -1.9800788 2 6
-6.3762498 1.4685574 -1.7532402 3 0
-9.0983696 2.1072152 -1.815357 4 2
-11.497117 2.669117 -1.8693922 13 3
-15.061439 3.5049047 -1.8987246 15 4
-6.3508067 1.509461 -1.7490991 3 0
-7.3950772 1.7617544 -1.7550682 42 1
-9.0971832 2.172287 -1.8180283 4 2
-11.515185 2.7560475 -1.8753366 10 3
-14.727763 3.5358224 -1.8597264 18 4
-26.844122 6.499238 7.400672 4 15
-6.3328795 1.5508167 -1.7470287 4 0
-7.396162 1.815302 -1.7582175 11 1
-9.1027641 2.2409084 -1.8222259 4 2
-11.392098 2.8108208 -1.8584416 11 3
-14.761166 3.6502855 -1.8670385 14 4
-34.417839 8.5558109 -1.8586593 5 6
-6.318152 1.594044 -1.7459934 4 0
-7.4286509 1.8783578 -1.7690151 7 1
-9.107832 2.3097095 -1.8264238 4 2
-11.236268 2.8557346 -1.836228 14 3
-14.508329 3.6954274 -1.8382773 15 4
-34.475296 8.8261003 -1.8650444 5 6
-6.3293071 1.6439435 -1.752205 4 0
-7.4210143 1.9316462 -1.7703648 7 1
-9.1142807 2.3791862 -1.8310033 4 2
-11.103304 2.9046125 -1.8177687 21 3
-14.101976 3.6969554 -1.790017 15 4
-34.582798 9.1113386 -1.8742554 5 6
-6.2840815 1.6791122 -1.7428875 22 0
-7.4073486 1.9834059 -1.7703648 8 1
-9.1050329 2.4447966 -1.8325297 6 2
-11.004546 2.9610136 -1.8049411 18 3
-13.891826 3.7457004 -1.7666181 12 4
-34.977154 9.476862 -1.8991674 4 6
-6.2852459 1.7265246 -1.746511 31 0
-7.4083514 2.0392098 -1.7739639 7 1
-9.0385389 2.494719 -1.8226075 6 2
-10.724676 2.966152 -1.762391 17 3
-13.788818 3.8213828 -1.7568686 13 4
-35.256474 9.8172541 -1.9180083 4 6
-6.2972093 1.7771829 -1.7532402 5 0
-7.3976855 2.091939 -1.7748638 7 1
-8.9699039 2.5433016 -1.8123039 7 2
-10.665704 3.0301578 -1.7561336 18 3
-13.628157 3.8795118 -1.7398069 16 4
-35.279251 10.089502 -1.9230326 4 6
-6.2735162 1.8178749 -1.7501343 4 0
-7.397872 2.1478803 -1.778463 6 1
-8.9066906 2.5926902 -1.8031452 7 2
-10.704974 3.1222415 -1.7661453 16 3
-13.410201 3.918875 -1.715433 18 4
-35.250111 10.347938 -1.9253354 3 6
-6.2865963 1.869338 -1.7573814 4 0
-7.3939028 2.2028131 -1.7811624 7 1
-8.8549738 2.6431484 -1.796276 10 2
-10.448796 3.1248524 -1.7273496 19 3
-13.276033 3.9804742 -1.7017837 18 4
-35.297436 10.623325 -1.931825 3 6
-6.262639 1.9087058 -1.7542756 4 0
-7.4160132 2.2644713 -1.7901604 7 1
-8.8062696 2.6957066 -1.79017 9 2
-10.362515 3.17803 -1.7167121 17 3
-13.142369 4.0380993 -1.6881342 18 4
-34.959045 10.788207 -1.9173803 4 6
-6.2639127 1.9569894 -1.7584167 4 0
-7.4186215 2.3220108 -1.7946595 8 1
-8.712306 2.7336104 -1.7749053 10 2
-10.294849 3.2360775 -1.7092031 14 3
-13.013507 4.0981464 -1.6752161 9 4
-6.2537775 2.0018499 -1.759452 4 0
-7.4282098 2.3820772 -1.8009582 8 1
-8.672451 2.7877584 -1.7707076 10 2
-10.29457 3.3151362 -1.7129576 19 3
-12.661524 4.0846786 -1.6335368 15 4
-16.508041 5.3383174 -1.5179044 31 5
-6.2176208 2.0382378 -1.7532402 4 0
-7.4188051 2.4363081 -1.8027576 8 1
-8.5763197 2.8230681 -1.7550613 15 2
-57.801109 19.037579 5.3241696 2 10
-10.241158 3.377027 -1.7079517 15 3
-12.542223 4.143086 -1.6218374 15 4
-16.186663 5.3594933 -1.4917578 31 5
-19.964161 6.6411877 5.6375966 2 15
-6.2325435 2.0914304 -1.7615224 4 0
-7.3683658 2.4768665 -1.7946595 9 1
-8.508029 2.8665729 -1.7451392 18 2
-56.484913 19.042192 5.2150507 0 10
-10.172414 3.4332809 -1.7004429 17 3
-12.434011 4.2038436 -1.6116004 12 4
-15.960152 5.408422 -1.4743265 30 5
-6.2177911 2.1348891 -1.7615224 4 0
-7.2845545 2.5054286 -1.778463 9 1
-8.443264 2.9105449 -1.7359804 13 2
-56.094437 19.347729 5.1913447 0 10
-10.136993 3.5003457 -1.6985657 15 3
-12.182988 4.2139764 -1.5828393 11 4
-15.733758 5.4544535 -1.4568955 29 5
-6.2355452 2.1897657 -1.77084 4 0
-7.2264433 2.5419953 -1.7685652 9 1
-8.4042225 2.9628909 -1.732164 16 2
-54.898293 19.365049 5.0930328 0 10
-10.067607 3.5552406 -1.6910567 9 3
-11.700379 4.1387239 -1.5238544 6 4
-15.323477 5.4323449 -1.4223818 28 5
-6.238287 2.2397742 -1.7760164 5 0
-7.1956844 2.5877688 -1.7654159 10 1
-8.3186903 2.998193 -1.7188075 12 2
-55.324036 19.950603 5.1453261 0 10
-9.9031906 3.5751328 -1.6675917 11 3
-11.874681 4.2938857 -1.550422 9 4
-6.2188716 2.2819386 -1.774981 5 0
-7.1445189 2.6258388 -1.7573177 12 1
-8.2865028 3.0521238 -1.7165178 10 2
-56.118149 20.680826 5.232482 0 10
-9.855751 3.6359785 -1.6638372 9 3
-11.836966 4.3739295 -1.5494469 9 4
-14.686563 5.435638 -1.3700883 27 5
-6.2027884 2.3253005 -1.774981 7 0
-7.1132417 2.6708593 -1.7541683 14 1
-7.486392 2.8154418 -1.5547118 3 2
-54.227112 20.415031 5.0693264 0 10
-9.7161598 3.6598086 -1.6444392 9 3
-11.547994 4.359014 -1.5155673 13 4
-17.551577 6.6532001 4.3334575 16 14
-17.491734 6.6409907 5.0133252 24 15
-6.2192945 2.379894 -1.7842987 9 0
-7.0548649 2.7038713 -1.7442704 14 1
-7.5032101 2.8817143 -1.5623442 3 2
-17.625387 6.7728105 1.6519499 13 10
-9.6240025 3.702018 -1.633176 12 3
-17.539448 6.7538419 2.307718 21 11
-11.536579 4.4446549 -1.5180047 12 4
-17.461142 6.734189 2.9641204 24 12
-17.462193 6.7451038 3.6387279 21 13
-17.685875 6.8386011 -0.99375522 9 6
-17.452 6.7551661 4.3204103 22 14
-17.417925 6.75247 5.0055604 16 15
-6.1611419 2.4070857 -1.772393 6 0
-17.656818 6.9054155 0.33093256 31 8
-7.0176687 2.7459564 -1.7397714 13 1
-17.546144 6.8727264 0.98757958 21 9
-8.215847 3.2214069 -1.715373 10 2
-17.523886 6.8745923 1.6468949 24 10
-9.5317287 3.7431219 -1.6219126 11 3
-17.478935 6.8710418 2.3060119 22 11
-11.361174 4.4684172 -1.498993 12 4
-17.463329 6.8754654 2.972568 17 12
-14.1061 5.5593824 -1.3265103 25 5
-17.489559 6.8963714 3.6543739 9 13
-17.563393 6.932569 -0.98956835 9 6
-6.1370096 2.447176 -1.7703223 6 0
-17.578465 7.0166492 0.33037403 31 8
-6.9621329 2.7804253 -1.7307733 12 1
-17.57563 7.0261884 0.99197578 7 9
-8.1257143 3.2516994 -1.7012531 10 2
-9.4100189 3.7713616 -1.6056436 12 3
-11.278121 4.526917 -1.4921683 12 4
-17.85915 7.1938214 -1.0090374 28 6
-17.953196 7.2426314 -0.33791351 38 7
-6.0821981 2.4746716 -1.759452 7 0
-6.789156 2.7664564 -1.6925317 16 1
-8.1088476 3.3091581 -1.7023981 9 2
-53.59919 21.895258 5.0654917 0 10
-9.3475599 3.8203771 -1.5993862 9 3
-11.220525 4.5950079 -1.4887561 10 4
-17.641647 7.2461596 -0.9995122 18 6
-6.0402312 2.5056515 -1.752205 9 0
-6.6621904 2.7677464 -1.6655376 25 1
-8.0583601 3.3543706 -1.6966736 12 2
-53.805733 22.408176 5.099308 0 10
-9.2732553 3.8657804 -1.5912516 9 3
-11.091899 4.630744 -1.4758378 9 4
-17.095095 7.1615529 -0.9713555 18 6
-18.821568 7.8964005 -0.35627344 39 7
-5.9674363 2.5244253 -1.7361581 11 0
-6.6337347 2.8103874 -1.6632881 26 1
-53.973091 22.887985 3.0724349 0 9
-8.0040236 3.3975062 -1.6901863 13 2
-53.545292 22.739653 5.0895467 0 10
-9.2024107 3.9118783 -1.5837427 10 3
-11.00816 4.6862955 -1.4690132 9 4
-13.488251 5.7532244 -1.2829325 23 5
-16.625912 7.10184 -0.94749022 18 6
-5.8982234 2.5438387 -1.7211467 13 0
-6.610374 2.8550873 -1.6623883 26 1
-7.8936238 3.415874 -1.6718684 18 2
-9.1603765 3.9697447 -1.5812398 9 3
-10.834136 4.704072 -1.4502453 10 4
-16.21335 7.0598598 -0.92676514 18 6
-5.8568811 2.5758686 -1.7144175 12 0
-6.5879917 2.90153 -1.6619384 21 1
-7.8013244 3.4407947 -1.6573671 19 2
-9.0883703 4.0160308 -1.5737309 9 3
-10.790139 4.7747741 -1.4487829 11 4
-15.503434 6.8831277 -0.8889786 17 6
-5.8158374 2.6064236 -1.7076882 13 0
-6.508904 2.9211211 -1.6470916 24 1
-7.7550173 3.4868689 -1.6527877 21 2
-55.517025 24.973642 5.325913 2 10
-9.0096788 4.0566711 -1.5649706 10 3
-10.640726 4.7977643 -1.4331836 13 4
-15.456823 6.9920182 -0.88908333 26 6
-5.841434 2.6670196 -1.7206291 10 0
-6.5007582 2.9721627 -1.6502409 16 1
-7.7668042 3.5559201 -1.6604201 13 2
-8.8992567 4.0800347 -1.5505786 11 3
-10.5276 4.8354769 -1.4224591 11 4
-18.061071 8.3186207 -1.0421137 9 6
-5.7968669 2.6945052 -1.7128645 9 0
-6.4733105 3.0130527 -1.6484413 22 1
-7.6652794 3.5743785 -1.6440103 12 2
-8.8240194 4.1203341 -1.542444 11 3
-10.339796 4.8347139 -1.4014976 12 4
-12.377126 5.7978678 -1.1957767 20 5
-18.201462 8.5378094 -1.0536276 19 6
-5.7552142 2.7241659 -1.7061353 12 0
-6.5084667 3.0848815 -1.6628381 19 1
-7.5851626 3.6016984 -1.6321803 10 2
-8.7361698 4.1538429 -1.5321194 13 3
-10.234098 4.8726444 -1.391748 19 4
-12.372314 5.9012904 -1.199263 20 5
-18.289196 8.7352552 -1.0622107 19 6
-5.6995096 2.7466648 -1.6952648 9 0
-6.518364 3.1454875 -1.6709365 16 1
-7.513876 3.6323485 -1.6222582 10 2
-54.601818 26.407299 5.3063903 2 10
-8.6927319 4.2078485 -1.5296165 14 3
-10.092652 4.8920245 -1.3771237 16 4
-12.009223 5.8287754 -1.167887 19 5
-18.306797 8.9011517 -1.0668162 19 6
-5.674993 2.7838342 -1.6937119 10 0
-6.4997444 3.1926341 -1.6718361 15 1
-7.4607897 3.6695459 -1.6161523 10 2
-54.941669 27.046558 5.3576379 3 10
-8.6018658 4.236372 -1.5186659 11 3
-10.044013 4.955337 -1.3751738 13 4
-18.109732 8.95825 -1.0588611 9 6
-5.5763974 2.7827189 -1.6699005 19 0
-6.4220791 3.2089295 -1.6574394 15 1
-54.041718 27.02668 3.1666398 1 9
-7.3998775 3.7039673 -1.6085199 9 2
-54.036572 27.059483 5.2872157 3 10
-8.5862083 4.3034019 -1.5211689 10 3
-9.9958572 5.0164666 -1.3732239 19 4
