# .PCD v0.7 - Point Cloud Data file format
VERSION 0.7
FIELDS x y z intensity ring
SIZE 4 4 4 4 2
TYPE F F F F U
COUNT 1 1 1 1 1
WIDTH 1338
HEIGHT 1
VIEWPOINT 0 0 0 1 0 0 0
POINTS 1338
DATA ascii
5.1615624 5.9356084 -1.2458442 32 3
6.8310299 7.8471341 -1.2774346 22 4
6.8890653 7.9054327 -0.91740137 13 5
4.4532723 5.0672708 -1.8075923 10 0
5.1474862 5.8510184 -1.7991585 15 1
5.2200518 5.9272418 -1.5352492 24 2
5.2331972 5.9358993 -1.253353 29 3
9.4412022 10.701413 1.7522376 2 11
5.9213181 6.7069688 -1.0985304 6 4
8.892087 10.050673 -0.70329064 26 6
4.5120764 5.0642486 -1.8174274 9 0
5.1482773 5.7722178 -1.7856615 15 1
5.3005385 5.9345813 -1.5466977 24 2
5.3047934 5.9330897 -1.2605491 20 3
8.9908161 10.030993 -1.1785198 19 5
4.5693417 5.0569901 -1.8262272 11 0
5.1793017 5.7260165 -1.7825122 21 1
5.3681979 5.9265361 -1.5543302 24 2
51.291779 56.606647 6.6831021 40 10
5.3673124 5.9193273 -1.2655549 4 3
7.0272121 7.7417946 -1.2837718 20 4
11.33617 12.471404 -1.4745009 30 5
7.1362514 7.8426409 -0.55570322 10 6
4.6045346 5.0249667 -1.8262272 11 0
5.2244196 5.6954627 -1.7843118 15 1
5.4253817 5.9062619 -1.5589095 25 2
5.4352503 5.9107909 -1.2718123 24 3
5.4247599 5.8931861 -0.9834857 29 4
5.3921127 5.8495193 -0.69602579 47 5
9.2116852 9.9826097 -0.71187371 17 6
4.6526513 5.0068526 -1.8314036 11 0
5.139286 5.5247302 -1.742021 11 1
5.4148288 5.8168664 0.41648957 2 9
5.1600394 5.5392756 -1.471519 13 2
5.3802147 5.7736177 0.69044781 6 10
5.1813455 5.5563126 -1.203294 21 3
5.4038029 5.7908149 0.97251743 7 11
5.2043338 5.5751095 -0.9364441 57 4
5.4154315 5.7971883 1.2564818 14 12
5.4831028 5.8634725 1.560436 18 13
5.4945807 5.8675313 1.8558462 12 14
5.3194008 5.6784739 -0.13581464 19 7
4.698092 4.985497 -1.8355448 12 0
5.3546662 5.6782594 0.13623348 34 8
5.1590099 5.4688711 -1.7357224 6 1
5.3538527 5.6714449 0.40874386 19 9
5.1594877 5.4617295 -1.4604521 24 2
5.372498 5.6852303 0.68434685 14 10
5.1928649 5.4912996 -1.1970366 25 3
5.4122963 5.7133522 1.24647 29 12
5.4523025 5.7495513 1.5402104 34 13
5.4780397 5.7706375 1.8369503 23 14
5.3024468 5.5817566 -0.13438353 29 7
5.5224075 5.8092422 2.1476805 37 15
4.7768273 4.9986658 -1.8526268 9 0
5.3683181 5.6156635 0.1356052 43 8
5.1579981 5.3918843 -1.7226752 8 1
5.3660936 5.6074567 0.40675509 23 9
5.1775322 5.4066343 -1.4551095 26 2
5.3982725 5.6331997 0.68260378 19 10
5.205514 5.43016 -1.1914051 25 3
5.4116721 5.6412668 0.95984304 31 11
5.4223304 5.6464567 1.2398998 22 12
5.4895906 5.7085147 1.5394472 47 13
5.2685981 5.4768009 -0.39827666 145 6
5.5222502 5.7364616 1.8382999 23 14
5.3301868 5.5330815 -0.1341043 32 7
5.5390325 5.7478695 2.1388805 28 15
4.8188066 4.9743609 -1.8557327 9 0
5.4060001 5.5766134 0.1355703 39 8
5.1918664 5.3538518 -1.7217753 8 1
5.3912015 5.5555243 0.40570837 21 9
5.2096834 5.3647208 -1.453583 17 2
5.4434304 5.6034722 0.68347532 21 10
5.2460532 5.3965168 -1.1920308 33 3
5.4578414 5.6104655 0.96106172 28 11
5.4671278 5.6141272 1.2411512 18 12
5.5283175 5.6710181 1.5394472 40 13
5.3304148 5.4641905 -0.40005609 115 6
5.5553575 5.6907973 1.8360505 22 14
5.3775053 5.5066867 -0.13434863 26 7
5.5898275 5.7201133 2.1430218 28 15
4.8209248 4.9075227 -1.8433093 9 0
5.4476013 5.5415912 0.1356401 34 8
5.2468801 5.3355384 -1.7276241 10 1
5.4564695 5.5448022 0.40769714 16 9
5.2662921 5.347806 -1.4589256 21 2
5.5047917 5.5880408 0.68626434 16 10
5.2960792 5.3724246 -1.1948466 25 3
5.5261531 5.601903 0.96618026 16 11
5.5339484 5.6039338 1.2474086 15 12
5.3609128 5.4249158 -0.66726434 118 5
5.592617 5.6574163 1.5463161 22 13
5.6333356 5.6906557 1.8486477 15 14
5.4439602 5.4974279 -0.13504672 22 7
5.679935 5.7317238 2.1621742 20 15
4.8264346 4.8450074 -1.8324389 12 0
5.5214534 5.5388274 0.13651273 24 8
5.3142743 5.3291359 -1.737522 10 1
5.5684109 5.5800862 0.41314009 7 9
5.3423414 5.3498073 -1.4696109 8 2
5.3963013 5.3981867 -1.2089256 11 3
5.4200654 5.4162841 -0.94083142 19 4
4.8587689 4.8098354 -1.8319213 14 0
5.5384107 5.4768891 -1.7982588 15 1
12.485928 12.338614 0.91996151 2 9
5.966269 5.8917627 -1.6298906 22 2
7.6529627 7.5494823 -1.7026329 18 3
7.8840394 7.7692938 -1.359087 12 4
10.022808 9.8528299 -0.73657632 17 6
4.9240265 4.8068337 -1.843827 11 0
5.6058102 5.4666615 -1.8077066 17 1
6.0494485 5.8910599 -1.6413391 19 2
7.7791061 7.5674996 -1.7189021 18 3
7.6704469 7.4539766 -1.3132643 23 4
6.0671239 5.8897285 -0.73977798 30 5
10.335137 10.018945 -0.75437051 26 6
5.025661 4.8379898 -1.8691912 9 0
5.652266 5.4354968 -1.8104061 17 1
6.1318851 5.8905458 -1.6527877 24 2
7.83044 7.5143695 -1.7189021 19 3
9.3716841 8.9871302 1.5942949 1 11
7.835525 7.50875 -1.3325195 18 4
6.1742988 5.9106054 -0.7477963 31 5
8.0329142 7.6817875 -0.58249921 29 6
5.0402622 4.7863779 -1.862462 11 0
5.6863031 5.394218 -1.8095063 21 1
6.2070627 5.8800006 -1.6619464 24 2
7.9487057 7.5219812 -1.7332941 18 3
9.4082394 8.8969288 1.5899075 0 11
8.118701 7.6747971 -1.3717614 13 4
6.2270021 5.8782978 -0.74919075 31 5
8.1313934 7.6679983 -0.58574408 19 6
5.0806074 4.7576733 -1.8650501 13 0
5.6982093 5.3304229 -1.8014081 21 1
6.2838283 5.870029 -1.6714869 12 2
8.0963449 7.555254 -1.7539434 18 3
8.2577543 7.6977916 -1.386142 15 4
6.3028851 5.8672652 -0.75337422 31 5
8.3412228 7.7565775 -0.59694397 18 6
5.1151152 4.7234006 -1.8655677 12 0
5.7811179 5.3327966 -1.815805 18 1
7.4278631 6.8422394 -1.963043 3 2
8.2157621 7.5600719 -1.7683355 16 3
8.3624477 7.6869693 -1.3946729 21 4
6.4038715 5.8783603 -0.76052105 36 5
8.4569979 7.754849 -0.60134023 18 6
5.143681 4.6836734 -1.8640147 14 0
5.7893758 5.2660813 -1.8068069 21 1
6.9072318 6.2740898 -1.8138304 15 2
8.1600828 7.4043059 -1.745183 16 3
8.5776939 7.775054 -1.4214841 20 4
6.4669142 5.8535624 -0.76313567 31 5
8.395381 7.5911317 -0.59317577 19 6
5.1805658 4.6515217 -1.8655677 11 0
5.8463082 5.2437515 -1.8131055 20 1
6.9347787 6.2113075 -1.8096325 12 2
8.429451 7.5420976 -1.7914877 19 3
8.5355597 7.628994 -1.4056411 31 4
6.5734849 5.8691239 -0.7709797 37 5
8.5555048 7.6280384 -0.60071218 9 6
5.1854296 4.5909128 -1.8557327 13 0
5.8681736 5.1899014 -1.8086064 20 1
7.0166187 6.1990585 -1.8199363 10 2
8.4983664 7.5002313 -1.7952422 12 3
8.7554102 7.7162189 -1.4329399 25 4
6.6382256 5.8441544 -0.77376866 37 5
8.6612206 7.6171098 -0.60448033 27 6
5.2049198 4.545342 -1.8515915 13 0
5.9503589 5.1908288 -1.8230033 15 1
7.0863743 6.1731319 -1.8268054 9 2
8.5952253 7.4796209 -1.8046281 18 3
8.8466835 7.6903052 -1.4392771 10 4
6.7124524 5.8288794 -0.77777785 32 5
8.7458792 7.5839319 -0.60667849 36 6
5.1647906 4.4471312 -1.8262272 19 0
5.99827 5.1593304 -1.8266027 15 1
7.2265062 6.2092009 -1.8519921 13 2
9.3177013 8.00035 1.074456 1 10
8.6069622 7.387495 -1.7964935 19 3
8.7961578 7.5392189 -1.4224591 20 4
6.8301668 5.8479609 -0.7866677 44 5
9.0204144 7.7150607 -0.62206525 26 6
5.3289404 4.5256681 -1.8733324 12 0
6.039196 5.1234212 -1.8284022 15 1
7.2936459 6.1789036 -1.8580981 15 2
8.7276897 7.3859258 -1.8108855 20 3
9.0382814 7.6406517 -1.4531702 20 4
6.9164987 5.838695 -0.79189706 55 5
9.054203 7.6351638 -0.62070453 17 6
5.3796592 4.5044804 -1.8800616 11 0
6.0688357 5.0761371 -1.8266027 15 1
7.4029069 6.1832056 -1.8748893 10 2
8.8791513 7.4083352 -1.8315349 19 3
9.1341038 7.6129479 -1.4599948 21 4
7.0122209 5.8361492 -0.79817224 56 5
9.2025051 7.6509328 -0.62719417 17 6
5.37075 4.4336071 -1.8660854 13 0
6.0920973 5.023726 -1.8230033 15 1
7.9232888 6.5244937 -1.9950989 3 2
8.9672651 7.3762889 -1.8390437 18 3
9.2775192 7.6233497 -1.4743755 18 4
7.101068 5.8287311 -0.80375022 39 5
9.3591928 7.6713266 -0.63420719 26 6
5.3011818 4.3143034 -1.8314036 18 0
6.1391191 4.9909072 -1.8266027 15 1
7.9736123 6.4753613 -1.9966254 3 2
9.1123781 7.3922372 -1.8584416 10 3
9.4153471 7.6271234 -1.487781 10 4
7.2097321 5.8341637 -0.81141996 50 5
12.045514 9.7368784 -0.8117308 17 6
5.3515186 4.2950482 -1.8386506 16 0
6.1987958 4.9697261 -1.8342509 23 1
8.0063667 6.4097171 -1.9935726 3 2
9.2547874 7.401228 -1.8769009 1 3
7.3153362 5.8418493 -1.1494718 10 4
7.290782 5.8159919 -0.81595206 46 5
9.4859371 7.5589843 -0.63567263 26 6
5.394238 4.2662306 -1.8427917 15 0
6.2449031 4.9336977 -1.8374002 16 1
8.087904 6.3828597 -2.0027313 3 2
9.3137112 7.3397117 -1.8781524 2 3
7.3949332 5.8213358 -1.1555651 19 4
7.4001222 5.8191366 -0.82362181 40 5
9.5507803 7.4995456 -0.63640529 35 6
5.439126 4.2403455 -1.8479681 14 0
6.2699695 4.8827958 -1.8347007 15 1
7.3894653 5.7463312 -1.8195547 3 2
9.4271297 7.322979 -1.8906672 2 3
7.4887195 5.8109412 -1.1638523 31 4
7.4846568 5.8015122 -0.82850248 40 5
9.8161268 7.5977197 -0.650536 26 6
5.4502125 4.1881471 -1.8417563 15 0
6.2436156 4.7926302 -1.8171545 25 1
7.4798212 5.735321 -1.8321481 9 2
9.5143948 7.2874694 -1.8981761 2 3
7.5969071 5.8103752 -1.1743331 42 4
7.5914707 5.7999206 -0.83582354 52 5
9.9628782 7.6034298 -0.6568163 26 6
5.5078521 4.1731153 -1.8515915 12 0
6.2574492 4.7359047 -1.8117559 25 1
7.3896761 5.5847187 -1.8004738 10 2
9.5776472 7.2303939 -1.900679 2 3
7.690166 5.7991705 -1.1826202 41 4
7.7039762 5.8032598 -0.84384185 52 5
10.038064 7.5504999 -0.65828174 26 6
5.5507832 4.1449642 -1.8562503 10 0
6.4512501 4.8121152 -1.8580956 16 1
7.5487428 5.624608 -1.8298583 13 2
7.6838856 5.7190499 -1.5171016 24 3
7.7049756 5.7263923 -1.1787205 42 4
7.7059116 5.7208281 -0.83965844 52 5
10.212822 7.5626168 -0.2218201 26 7
5.577311 4.1059427 -1.8557327 9 0
6.4964128 4.7773304 -1.8616948 15 1
7.5482621 5.5427246 -1.820318 12 2
7.7937064 5.7166772 -1.5308678 34 3
7.8718748 5.7676773 -1.1982195 39 4
7.8260617 5.7257123 -0.84837395 48 5
10.276667 7.5103698 -0.66707414 8 6
5.5870733 4.0532951 -1.849521 9 0
6.5359211 4.7364321 -1.8634945 17 1
7.6328983 5.5232692 -1.8313849 18 2
7.9935207 5.7778463 -1.5621547 18 3
8.0004673 5.7764921 -1.2116251 30 4
8.0209932 5.7827983 -0.86510789 42 5
10.458502 7.5318213 -0.67544788 26 6
5.6215224 4.0186825 -1.8515915 9 0
6.5593109 4.6838961 -1.8607951 19 1
7.7272201 5.5097394 -1.8447415 10 2
8.1141119 5.7791991 -1.5777982 22 3
8.1263294 5.7814846 -1.2245432 36 4
8.116394 5.765892 -0.8710345 42 5
13.801064 9.793417 -0.88688523 17 6
5.6368065 3.970439 -1.8474505 9 0
6.6109762 4.6514459 -1.866194 16 1
7.7590714 5.4511452 -1.8432151 12 2
8.2060032 5.7587228 -1.58781 22 3
8.2315111 5.7701931 -1.2342927 33 4
8.2184753 5.7525034 -0.87765831 42 5
13.944393 9.7494726 -0.89170009 17 6
5.6643877 3.93099 -1.8474505 9 0
6.6673112 4.6218314 -1.8729424 14 1
7.7291384 5.3499136 -1.8271869 12 2
8.335372 5.7630816 -1.6050178 26 3
8.3499985 5.7667341 -1.2459923 33 4
8.3535681 5.7605906 -0.88776839 43 5
13.832834 9.5283899 -0.88029093 17 6
5.6853123 3.8869905 -1.8453798 9 0
6.6334324 4.5301161 -1.8544965 19 1
7.8684883 5.3655066 -1.851229 15 2
15.583889 10.622639 1.6500325 1 10
8.4358101 5.745894 -1.616594 24 3
8.4655523 5.7596655 -1.2572043 34 4
8.4627981 5.7491536 -0.89508945 44 5
13.799858 9.3642988 -0.87401056 17 6
5.7155151 3.8493633 -1.8464152 9 0
6.7198744 4.5206761 -1.8697932 15 1
7.8601208 5.2797952 -1.8405437 18 2
8.5626554 5.7451973 -1.633176 27 3
8.57481 5.7468452 -1.2674413 36 4
8.5961056 5.7545972 -0.90502524 38 5
17.748726 11.863802 -1.1188382 9 6
5.7390313 3.8072293 -1.8453798 9 0
6.7350268 4.4628882 -1.8652942 18 1
7.8795075 5.2153306 -1.8367275 16 2
8.6724215 5.7336216 -1.6466295 24 3
8.7041855 5.745893 -1.2806032 36 4
8.7026062 5.7383113 -0.91199768 32 5
11.550782 7.6076627 -0.72485304 8 6
5.7551098 3.7617376 -1.8422741 9 0
6.6559186 4.3455653 -1.8351506 23 1
7.9683518 5.1945062 -1.8489393 19 2
12.252311 7.9841304 1.2794462 1 10
8.8099022 5.736536 -1.6650885 25 3
8.8262968 5.7406325 -1.2927902 34 4
11.807323 7.6707015 -1.2318592 21 5
11.630422 7.5442286 -0.72652781 17 6
5.7552409 3.7047369 -1.8339919 9 0
6.6860938 4.2989922 -1.8351506 26 1
8.0861216 5.1931934 -1.8680203 18 2
8.9102678 5.7158957 -1.6766648 24 3
8.9564238 5.73669 -1.305952 33 4
15.171983 9.6954336 -0.9436174 9 6
5.7865 3.6665611 -1.8355448 10 0
6.7100992 4.2468691 -1.8333511 26 1
8.0775013 5.104413 -1.8573349 18 2
9.0538225 5.7147484 -1.6957498 26 3
9.0929613 5.7327976 -1.3198452 13 4
11.983335 7.5433927 -1.2388318 22 5
15.672115 9.853981 -0.970204 18 6
5.8332615 3.6393704 -1.8422741 9 0
6.7098145 4.1813684 -1.8252529 26 1
8.1579475 5.075901 -1.8676385 12 2
9.1757088 5.7024937 -1.7110804 20 3
12.053897 7.4824758 -1.7420006 13 4
12.221874 7.5660796 -0.75332385 17 6
5.8420677 3.588444 -1.8370978 9 0
6.7936568 4.1680527 -1.8400996 21 1
8.1630487 5.0003691 -1.8607695 12 2
9.3433542 5.7166533 -1.7348584 4 3
12.217637 7.466455 -1.7580873 15 4
12.15083 7.4168935 -1.2454555 22 5
12.23517 7.4566636 -0.75091636 17 6
5.8504462 3.5375752 -1.8319213 9 0
6.8192539 4.1185079 -1.8391999 20 1
8.2557354 4.9801779 -1.8741261 13 2
9.9911661 6.0199242 -1.8474913 12 3
12.187814 7.3318667 -1.7463878 31 4
12.571198 7.5535388 -1.2831068 23 5
16.236435 9.7442703 -0.99239457 9 6
5.8710685 3.4956965 -1.830886 9 0
6.8772769 4.0899282 -1.8472981 15 1
8.2126465 4.8763175 -1.8565717 16 2
10.158677 6.0245953 -1.8706435 18 3
12.244265 7.2527885 -1.7473627 18 4
12.581164 7.4434519 -1.2789234 23 5
19.963495 11.792275 -1.2151363 20 6
5.8886642 3.4507139 -1.8288155 9 0
6.8922086 4.0339375 -1.8436987 15 1
8.282939 4.8420968 -1.8649671 19 2
10.265982 5.9941483 -1.8828454 18 3
12.414649 7.2371125 -1.7644244 15 4
12.687921 7.3875179 -1.2845013 23 5
16.600599 9.6540232 -1.0064206 28 6
5.9019747 3.4047618 -1.8257096 9 0
6.8958664 3.9733129 -1.8374002 15 1
8.3233461 4.7880731 -1.8664937 19 2
10.026681 5.7609391 -1.8315349 21 3
12.436079 7.1366267 -1.7605247 12 4
12.476418 7.1482029 -1.258006 22 5
16.712662 9.5636854 -1.009142 28 6
5.9155197 3.3577533 -1.8226038 9 0
6.9302187 3.9289184 -1.8391999 14 1
8.4966717 4.8091464 -1.8977863 18 2
9.951438 5.6256719 -1.8105727 34 3
9.916913 5.5993047 -1.398329 34 4
9.9295206 5.5972791 -0.99723595 49 5
13.447931 7.5713348 -0.80879992 26 6
5.9489374 3.3220251 -1.8257096 9 0
6.9217401 3.8605034 -1.829752 23 1
8.507741 4.7372947 -1.8928252 12 2
10.062979 5.596385 -1.8237133 23 3
12.498063 6.9420586 -1.7554061 7 4
12.493644 6.9310465 -1.2499877 22 5
13.465514 7.4579186 -0.80670649 26 6
5.9618249 3.2748318 -1.8226038 9 0
6.9297271 3.8017793 -1.824803 22 1
8.5828323 4.7028599 -1.9023658 13 2
15.445436 8.4561319 1.5405649 1 10
10.27759 5.6244869 -1.8556259 12 3
12.65075 6.911737 -1.7700305 16 4
13.783486 7.5212383 -1.3737488 27 5
17.528498 9.5528746 -1.0461959 19 6
5.9805775 3.2323408 -1.8215685 9 0
6.9657316 3.7600794 -1.8275024 17 1
8.556695 4.6111593 -1.8893907 19 2
10.325303 5.5572801 -1.8571903 8 3
12.014969 6.4558778 -1.6747286 3 4
12.137653 6.5054288 -0.72171295 8 6
6.0069666 3.1912746 -1.8226038 9 0
7.0096741 3.7192712 -1.8320013 18 1
8.6077604 4.5614223 -1.8935887 12 2
10.50624 5.5580735 -1.8825326 11 3
13.50425 7.1350513 -1.8753256 16 4
14.09939 7.4274793 -0.8351773 8 6
6.0085511 3.1385272 -1.8163921 9 0
7.05793 3.6819611 -1.8378501 14 1
8.6732645 4.5169396 -1.9008393 15 2
10.301189 5.3578901 -1.8390437 17 3
13.775694 7.1559 -1.9060366 7 4
14.346038 7.4394579 -1.4138404 28 5
14.381457 7.4482737 -0.84878463 26 6
6.0337548 3.0982656 -1.8174274 9 0
7.0869327 3.6343729 -1.83875 13 1
8.7115755 4.4598613 -1.9023658 15 2
10.602163 5.4207373 -1.8859742 18 3
11.744443 5.9970145 -1.6191562 11 4
14.557698 7.4111185 -0.85611171 26 6
6.0621362 3.0595479 -1.8194979 9 0
7.1016917 3.5795455 -1.8360505 14 1
8.6197357 4.3371639 -1.8756526 18 2
10.692702 5.3731914 -1.8953601 15 3
14.117329 7.084846 -1.9394289 7 4
14.757177 7.396287 -1.4441707 29 5
14.839496 7.4245968 -0.86961436 17 6
6.0758982 3.014782 -1.8174274 9 0
7.1119218 3.524204 -1.8324513 14 1
8.6736946 4.2905774 -1.8809953 19 2
10.79987 5.3352861 -1.9078751 17 3
11.979112 5.9100485 -1.6401178 7 4
14.938082 7.3472075 -0.87244046 17 6
6.1101685 2.9801292 -1.8215685 9 0
7.135746 3.475713 -1.8324513 15 1
8.6709194 4.2159815 -1.8741261 22 2
10.764858 5.2271309 -1.8953601 15 3
13.708143 6.6444983 -1.8704509 9 4
14.635376 7.0844789 -1.4225559 28 5
15.243083 7.3688006 -0.88730389 8 6
6.0999756 2.9213102 -1.812251 9 0
7.1498866 3.4195173 -1.829752 15 1
8.7107687 4.1604252 -1.8764157 19 2
10.809117 5.1533718 -1.8966117 17 3
14.623467 6.9625125 -1.9886642 2 4
15.400622 7.3226328 -1.4919319 31 5
19.905521 9.4475861 -1.1547407 20 6
6.1062365 2.8720753 -1.80811 9 0
7.1700568 3.367861 -1.8288521 14 1
8.6834354 4.0713158 -1.8642039 19 2
10.884189 5.0962119 -1.9034947 17 3
14.768823 6.9056559 -2.001826 2 4
15.584955 7.2773242 -1.5048311 31 5
15.436245 7.1947641 -0.89253747 8 6
6.1366615 2.8342357 -1.8112158 9 0
7.186316 3.3144581 -1.8270525 14 1
8.7252121 4.0186858 -1.8672569 18 2
12.117813 5.5633264 -1.637193 13 4
16.109894 7.3858933 -1.5505006 32 5
16.00423 7.3273125 -0.92247367 18 6
6.1382179 2.7844183 -1.8060393 9 0
7.2051601 3.2638569 -1.8261526 12 1
8.7870426 3.9730465 -1.8745077 12 2
11.079443 5.0025668 -1.9253956 14 3
12.24226 5.5198851 -1.6488924 23 4
12.274778 5.5242319 -1.1776484 49 5
16.116934 7.2432394 -0.92603248 27 6
6.1610374 2.7430694 -1.8070747 9 0
7.2277703 3.2134759 -1.8261526 12 1
8.8271284 3.9171746 -1.8771789 10 2
11.040054 4.8922777 -1.912568 12 3
12.325884 5.45436 -1.6549859 29 4
16.603857 7.323184 -0.95104909 18 6
6.165874 2.6938059 -1.8029336 9 0
7.2464547 3.1613834 -1.8252529 13 1
8.8146601 3.8382111 -1.8687835 18 2
11.102924 4.8276873 -1.9175739 18 3
12.700521 5.5144372 -1.7000775 19 4
17.017878 7.3748736 -1.6226655 35 5
16.828716 7.2824359 -0.96099293 27 6
6.1845298 2.6506944 -1.8029336 9 0
7.2719321 3.1122501 -1.8261526 13 1
8.8304071 3.7719564 -1.8664937 15 2
11.130904 4.7477369 -1.9166353 17 3
12.932299 5.5080967 -1.7259138 19 4
17.160627 7.2948594 -1.6313812 35 5
17.092413 7.2552977 -0.97313493 9 6
6.2171316 2.6134427 -1.8070747 7 0
7.2862949 3.0583897 -1.8243531 13 1
24.624016 10.325712 1.3993589 6 9
8.8619566 3.712492 -1.8676385 12 2
11.200226 4.6851592 -1.9228927 17 3
13.168262 5.5003085 -1.7522376 20 4
15.169683 6.3145275 -0.8611359 8 6
6.2173648 2.5626135 -1.8018982 7 0
7.3002605 3.0044806 -1.8225534 13 1
8.8894758 3.6512799 -1.8680203 10 2
11.192452 4.5903621 -1.9160095 19 3
13.397392 5.4864817 -1.7775863 20 4
13.483679 5.510829 -1.2743913 23 5
17.373264 7.0899038 -0.98339272 9 6
6.2386861 2.5205932 -1.8029336 7 0
7.3355155 2.9592743 -1.8261526 11 1
8.9256754 3.5935295 -1.8703098 9 2
11.312205 4.547473 -1.9310273 15 3
13.634332 5.4726706 -1.8039103 6 4
13.705818 5.4930344 -1.2918224 24 5
28.433926 11.372766 -1.6049347 11 6
6.2453537 2.4727104 -1.7998277 4 0
7.3451228 2.9036922 -1.8234532 11 1
8.9572344 3.5355744 -1.8718363 9 2
11.394353 4.490653 -1.9397876 16 3
14.902535 5.8612552 -1.9662402 3 4
13.944118 5.4758759 -1.3106481 24 5
23.497648 9.2133636 -1.3227391 21 6
6.2764468 2.4357364 -1.8039688 4 0
7.3719859 2.8564444 -1.8252529 11 1
8.9633865 3.4658792 -1.8680203 10 2
11.488079 4.4351912 -1.9504251 17 3
15.05322 5.8025274 -1.9808645 12 4
14.167964 5.4499245 -1.3280792 38 5
18.771555 7.209487 -1.0538369 19 6
6.2752419 2.3849931 -1.7987925 5 0
7.3844604 2.8021431 -1.8234532 12 1
8.9836922 3.4018278 -1.8672569 10 2
11.503982 4.3492928 -1.9479222 18 3
14.85193 5.6061525 -1.9491785 12 4
14.477883 5.4534178 -1.3535286 39 5
18.944811 7.1246614 -1.0607452 19 6
6.2881169 2.339781 -1.7977571 5 0
7.3965344 2.7478106 -1.8216537 12 1
9.0017014 3.3369751 -1.8661121 10 2
11.497016 4.2551551 -1.9416648 19 3
14.585332 5.3894901 -1.9092052 22 4
14.613738 5.3912921 -1.3627671 66 5
19.232121 7.0798645 -1.0740386 9 6
6.3151894 2.2997911 -1.8008629 4 0
7.4155378 2.6961062 -1.8216537 13 1
9.0057516 3.2689309 -1.8622959 10 2
11.477424 4.1593056 -1.9335302 15 3
14.83915 5.3658376 -1.937479 11 4
14.952738 5.3980598 -1.3908314 27 5
19.642506 7.0794821 -1.0942403 19 6
6.3379779 2.2593431 -1.8029336 4 0
7.4300475 2.6442573 -1.8207539 14 1
9.0080023 3.1987526 -1.8580981 9 2
11.569484 4.1015182 -1.9441677 19 3
15.010064 5.3123994 -1.9550281 13 4
15.238041 5.3811188 -1.4138404 28 5
19.76491 6.9680872 -1.0983224 9 6
6.3426504 2.2112279 -1.7998277 4 0
7.4409633 2.5897627 -1.8189542 11 1
9.0449524 3.1409349 -1.8611511 9 2
11.612769 4.0258183 -1.9466707 16 3
15.159344 5.2464266 -1.9696525 13 4
15.542662 5.3669491 -1.4385927 29 5
19.575159 6.7479186 -1.0851338 9 6
6.3469615 2.1631548 -1.7967219 4 0
7.4662418 2.5402627 -1.8207539 14 1
9.0778131 3.0815034 -1.8634408 9 2
11.599431 3.930706 -1.9397876 11 3
15.320615 5.1797771 -1.9857392 16 4
20.867203 7.030694 -1.1540079 20 6
6.3806076 2.1237826 -1.8018982 4 0
7.4768305 2.4843125 -1.8189542 13 1
24.610458 8.1677322 1.3589556 6 9
9.0655622 3.0069277 -1.8565717 9 2
11.634764 3.8500843 -1.9410391 8 3
15.482689 5.1144176 -2.0020697 10 4
16.204252 5.3308253 -0.89400291 8 6
6.3732328 2.0720181 -1.7956866 4 0
7.4828706 2.4284444 -1.8162549 14 1
9.0943193 2.9443982 -1.8580981 10 2
11.569255 3.7389982 -1.9257084 9 3
15.535021 5.0116887 -2.0042634 15 4
20.969381 6.7527261 -1.927362 34 5
16.512995 5.3049245 -0.90897095 18 6
6.394907 2.0298152 -1.7977571 4 0
7.4847794 2.3714399 -1.8126557 12 1
28.11762 8.9032316 1.5456903 8 9
9.110404 2.881247 -1.8573349 10 2
11.560528 3.6494632 -1.9200768 11 3
15.711636 4.9478312 -2.0225437 18 4
16.813606 5.2755127 -0.92352033 45 6
6.3901243 1.980517 -1.7925807 4 0
7.511919 2.3238895 -1.8153551 14 1
9.1077871 2.8106229 -1.8527553 9 2
11.600829 3.5733135 -1.9225799 11 3
15.762028 4.8460207 -2.0247374 18 4
16.920536 5.1892862 -1.5484089 32 5
17.146042 5.2486258 -0.93974453 18 6
6.4074926 1.9369786 -1.7936161 4 0
7.5093017 2.265764 -1.810856 14 1
9.1497469 2.7537596 -1.8573349 7 2
11.595223 3.4831443 -1.9175739 9 3
15.848716 4.7518258 -2.0315621 15 4
17.576515 5.2464676 -0.96130687 18 6
6.4393897 1.8976595 -1.7987925 4 0
7.5361538 2.2165835 -1.8135554 14 1
9.1461411 2.6831877 -1.8527553 9 2
11.657172 3.4132168 -1.9238312 9 3
15.824341 4.6243687 -2.02425 20 4
17.954075 5.2229366 -0.97993857 18 6
6.4561944 1.8537242 -1.7998277 4 0
7.532712 2.1585488 -1.8090565 13 1
9.1717443 2.623029 -1.8542819 9 2
11.701032 3.3397479 -1.9272728 8 3
15.67486 4.4621482 -2.0010948 22 4
18.304338 5.1899652 -0.9971047 18 6
6.4686632 1.8097353 -1.7998277 4 0
7.5359688 2.1040812 -1.806357 14 1
9.1822672 2.5568278 -1.8527553 9 2
11.689801 3.2484632 -1.9216411 8 3
15.86364 4.3993802 -2.0213251 20 4
18.750208 5.1752276 -1.0193999 28 6
6.4587717 1.7584413 -1.7936161 4 0
7.554235 2.0524406 -1.8072568 14 1
9.1880903 2.4911842 -1.8504658 10 2
11.728804 3.1734617 -1.9244571 9 3
16.051125 4.3309283 -2.0413115 18 4
19.159811 5.1589565 -1.7359681 38 5
19.10133 5.1324859 -1.0365661 47 6
6.5042048 1.7233434 -1.8029336 5 0
7.5793347 2.0039616 -1.8099562 14 1
9.2242403 2.431988 -1.8542819 7 2
11.720105 3.0834653 -1.9194511 9 3
16.145512 4.2387176 -2.0495987 16 4
19.580847 5.1259847 -1.7708303 38 5
19.596611 5.1191497 -1.061478 28 6
6.5347857 1.6827108 -1.80811 4 0
7.5629416 1.9432397 -1.8027576 15 1
9.2181721 2.36168 -1.8497025 7 2
11.704985 2.9922674 -1.9135066 8 3
16.230495 4.1401186 -2.0566673 11 4
20.067989 5.1040893 -1.8116193 37 5
20.057764 5.0903091 -1.0845058 29 6
6.5463729 1.6370515 -1.80811 4 0
7.5952301 1.8951144 -1.8072568 15 1
9.2191935 2.2934759 -1.8466495 7 2
11.702583 2.9047678 -1.9097521 8 3
16.126047 3.9937794 -2.0398493 15 4
20.613789 5.0899444 -1.8576375 36 5
20.515577 5.0542989 -1.1073242 9 6
6.5538878 1.5903981 -1.8070747 5 0
7.6006999 1.8402094 -1.8054571 13 1
9.2235289 2.2262981 -1.8443599 7 2
11.74178 2.8276277 -1.9128809 8 3
15.846638 3.8073728 -2.0010948 18 4
21.036337 5.0387287 -1.8924997 35 5
27.528044 6.5784168 -1.4833058 11 6
6.5911579 1.5507989 -1.8143215 4 0
7.6209502 1.7888829 -1.8072568 11 1
9.2197313 2.1573787 -1.8405437 7 2
11.761234 2.7455857 -1.9128809 8 3
15.8941 3.7016027 -2.0037761 18 4
21.54067 5.0007811 -1.9346832 34 5
21.481142 4.9751091 -1.155578 40 6
6.5302496 1.4884323 -1.7946514 4 0
7.6370535 1.7364991 -1.8081565 14 1
9.2154207 2.0886207 -1.8367275 7 2
11.745435 2.6555686 -1.9072492 8 3
15.931172 3.5931711 -2.0052383 16 4
29.176291 6.5430746 -1.5670433 12 6
6.5612326 1.447384 -1.8003453 2 0
7.6642165 1.6864907 -1.8117559 13 1
9.2259426 2.0233884 -1.8359643 7 2
11.775268 2.5760326 -1.9091264 8 3
16.02763 3.4975147 -2.0142565 11 4
29.783394 6.461175 -1.5971888 23 6
6.5107179 1.3886474 -1.7837809 2 0
7.691052 1.6361872 -1.8153551 14 1
9.2744131 1.9662635 -1.8428333 7 2
11.796829 2.4945862 -1.9097521 8 3
16.014753 3.3777599 -2.0096257 12 4
30.508038 6.3956847 -1.6336147 10 6
6.5391746 1.347061 -1.7889572 2 0
7.7099223 1.584026 -1.8171545 14 1
9.2725277 1.8983179 -1.8397803 7 2
11.842989 2.4180956 -1.9144453 9 3
16.115749 3.2817175 -2.0193753 8 4
23.782631 4.812705 -1.2716591 31 6
6.5048389 1.2927154 -1.7770516 2 0
7.7475543 1.5354658 -1.8234532 13 1
9.2817011 1.8327811 -1.8390172 7 2
11.832448 2.330014 -1.9100651 9 3
16.144112 3.1702757 -2.0201063 10 4
32.405674 6.3225102 -1.7303315 8 6
6.5269876 1.2498118 -1.7806751 2 0
7.7733998 1.4842606 -1.8270525 12 1
9.3058424 1.7701391 -1.8413069 7 2
11.834839 2.2447798 -1.9078751 8 3
16.161947 3.0567613 -2.019619 10 4
25.398422 4.7486005 6.9234099 3 15
6.5355535 1.2042173 -1.7806751 2 0
7.7203226 1.4183359 -1.8122058 8 1
9.3176775 1.7067506 -1.8413069 7 2
11.807094 2.156357 -1.9009918 8 3
16.163364 2.9402943 -2.0171814 10 4
26.041342 4.7090416 -1.386903 44 6
6.5397949 1.1590291 -1.7796398 2 0
7.6894975 1.3586355 -1.8027576 7 1
9.3177624 1.6396223 -1.8390172 9 2
11.802404 2.0704679 -1.8978633 8 3
16.169315 2.8278196 -2.0154753 8 4
6.5134454 1.1075122 -1.7703223 2 0
7.6680546 1.2997055 -1.7955593 7 1
9.3754435 1.5823737 -1.8481761 7 2
11.830207 1.9903153 -1.9000533 9 3
16.169086 2.7115843 -2.0130382 8 4
6.5305524 1.0635687 -1.7729106 2 0
7.6577053 1.243022 -1.7910603 7 1
9.397892 1.5187571 -1.8504658 9 2
11.836013 1.9064142 -1.8988018 9 3
16.195463 2.5998876 -2.0140131 8 4
28.455757 4.5324173 -1.5101019 23 6
6.5187302 1.0149788 -1.7677342 2 0
7.6507912 1.1871405 -1.7874612 6 1
9.435174 1.4589571 -1.8558085 9 2
11.840904 1.8246068 -1.8975502 9 3
16.185747 2.482553 -2.0106006 8 4
29.749622 4.5310864 -1.5770918 23 6
6.5063791 0.96774453 -1.7625577 2 0
7.6471281 1.1333214 -1.7847617 7 1
9.4878588 1.3993535 -1.8642039 9 2
11.847491 1.7410357 -1.8966117 8 3
16.185009 2.3669097 -2.0084071 10 4
30.642302 4.4483891 -1.6227288 32 6
6.5207882 0.92224336 -1.7646283 2 0
7.6550417 1.0785744 -1.7847617 7 1
9.4371252 1.3246264 -1.8523737 4 2
11.879211 1.6589447 -1.8997405 8 3
16.17951 2.2508504 -2.0057259 11 4
31.88026 4.3954034 -1.6865788 9 6
6.578764 0.88363767 -1.7786045 2 0
7.6546593 1.0240686 -1.7829621 6 1
9.3432198 1.2433364 -1.8321481 4 2
11.902251 1.5775346 -1.9016175 8 3
16.145628 2.1313541 -1.9996324 10 4
33.025135 4.3185287 -1.7455089 16 6
6.5368629 0.8315928 -1.7656636 9 0
7.6654887 0.97109377 -1.7838619 7 1
9.3027716 1.1735628 -1.8226075 4 2
11.912714 1.4964762 -1.9016175 8 3
16.154203 2.0178385 -1.9989011 8 4
6.5462074 0.78754306 -1.7666988 9 0
7.6680512 0.91843414 -1.7829621 7 1
9.326333 1.11045 -1.8256606 6 2
11.916986 1.4125813 -1.900679 9 3
16.139965 1.9045843 -1.9954888 8 4
35.249809 4.115953 -1.8599154 5 6
6.5688219 0.74377888 -1.7713577 2 0
7.6587844 0.86312902 -1.7793628 7 1
9.3026419 1.0418168 -1.8195547 6 2
11.987417 1.3361343 -1.910378 8 3
16.186409 1.7955804 -1.9996324 10 4
6.5815392 0.69871753 -1.7734282 2 0
7.6181121 0.80473018 -1.7685652 9 1
9.3331184 0.97930527 -1.8241341 4 2
11.935547 1.2460554 -1.900679 7 3
16.157087 1.6782197 -1.9945139 8 4
6.5977907 0.6538958 -1.776534 2 0
7.615787 0.75076139 -1.7667656 19 1
9.3102608 0.91288024 -1.8184099 4 2
11.869042 1.1574976 -1.8887899 6 3
16.18224 1.5667278 -1.99622 10 4
6.5366836 0.6029411 -1.7589344 2 0
7.6808791 0.70442575 -1.7807125 21 1
9.2870789 0.84519106 -1.8126855 4 2
11.796173 1.0673097 -1.8759624 4 3
16.234049 1.460277 -2.0013385 8 4
42.206066 3.7445261 -2.2206147 0 6
6.5599823 0.55892867 -1.7641107 2 0
7.7069697 0.65259087 -1.7856615 7 1
9.2906599 0.78179157 -1.8123039 4 2
11.771669 0.98435718 -1.8709565 5 3
16.317043 1.3529835 -2.0103569 10 4
44.312748 3.6276269 -2.3301017 1 6
6.5867457 0.5160771 -1.7703223 2 0
7.6762614 0.59739804 -1.7775632 7 1
9.2919769 0.71660954 -1.8115407 4 2
11.794012 0.90335834 -1.8734595 3 3
16.349628 1.2436843 -2.0132816 10 4
46.63142 3.4898694 -2.4506838 0 6
6.5767002 0.46911827 -1.7666988 2 0
7.6627502 0.54255438 -1.7735142 5 1
9.3103476 0.65431219 -1.814212 6 2
11.803827 0.82333851 -1.8740851 3 3
16.480696 1.1379982 -2.0283935 10 4
47.526878 3.231725 -2.4965301 0 6
6.5816689 0.42446545 -1.7672166 2 0
7.6798787 0.49125379 -1.7766634 6 1
9.3166485 0.58941734 -1.8145936 4 2
11.79943 0.74028808 -1.8725207 4 3
16.529846 1.0254948 -2.0335121 8 4
6.574894 0.37680459 -1.7646283 2 0
7.6890349 0.43661672 -1.7780131 5 1
9.3166161 0.52414441 -1.8138304 4 2
11.77484 0.65419626 -1.8678278 5 3
16.243252 0.8939178 -1.9974388 8 4
48.688652 2.6198575 -2.5553558 0 6
6.5947294 0.33176759 -1.7692871 2 0
7.6860566 0.3826358 -1.7766634 6 1
9.3201284 0.45745838 -1.8138304 4 2
11.757417 0.57091689 -1.8643861 7 3
16.128147 0.77468711 -1.9825708 6 4
6.579514 0.28496724 -1.7646283 2 0
7.6476545 0.32721832 -1.7672155 4 1
9.3387184 0.39467517 -1.8168833 4 2
11.757084 0.49071422 -1.8637605 22 3
16.107378 0.66102201 -1.9794021 3 4
6.5755095 0.23996389 -1.7630754 2 0
7.6847591 0.27641559 -1.7753137 5 1
9.3275108 0.32898903 -1.814212 3 2
11.787861 0.40958834 -1.8681406 3 3
16.087696 0.55055237 -1.9764771 3 4
6.611783 0.19507785 -1.772393 2 0
7.6670222 0.2221946 -1.7708147 4 1
9.3099566 0.26330325 -1.810396 3 2
11.829926 0.32837412 -1.874398 2 3
16.051462 0.43714482 -1.9716024 3 4
6.5782194 0.14813444 -1.7630754 2 0
7.6761799 0.16883835 -1.7726144 4 1
9.2762375 0.19754866 -1.8035268 3 2
11.796381 0.24503922 -1.8687663 3 3
15.986642 0.32370746 -1.9633152 21 4
6.5810246 0.1022362 -1.763593 2 0
7.6771717 0.1152444 -1.7726144 4 1
9.3166523 0.13334544 -1.8111591 3 2
11.778052 0.16240664 -1.8656377 3 3
16.026226 0.21259204 -1.9679463 5 4
6.5893049 0.056355592 -1.7656636 2 0
7.6583023 0.061488375 -1.7681153 4 1
9.3095026 0.068246573 -1.8096325 3 2
11.806554 0.080370255 -1.8700178 3 3
16.021364 0.10067294 -1.9672151 3 4
6.5895381 0.010349055 -1.7656636 2 0
7.6624422 0.0080222702 -1.7690151 4 1
9.301899 0.0032495889 -1.8081062 3 2
11.802876 -0.0020599905 -1.8693922 3 3
15.978005 -0.011154753 -1.9618529 3 4
6.6029725 -0.035725869 -1.7692871 2 0
7.6779017 -0.045562122 -1.7726144 5 1
9.2820625 -0.061561875 -1.8042899 3 2
11.798623 -0.08443062 -1.8687663 2 3
15.979522 -0.12271632 -1.9620966 2 4
24.419863 -0.20458414 -2.1365359 29 5
6.5793819 -0.081534795 -1.7630754 2 0
7.6598587 -0.098935917 -1.7685652 3 1
9.2814064 -0.12636086 -1.8042899 3 2
11.777994 -0.16651857 -1.8656377 3 3
15.954457 -0.23392132 -1.9591717 2 4
6.5805836 -0.12750261 -1.763593 2 0
7.6628776 -0.1524865 -1.769465 3 1
9.2920752 -0.19139627 -1.8065797 3 2
11.752846 -0.24823917 -1.8618832 3 3
15.93656 -0.34495419 -1.9572219 2 4
6.5795331 -0.17344026 -1.763593 2 0
7.6655226 -0.20608409 -1.7703648 3 1
9.2865877 -0.25615376 -1.8058165 3 2
11.766623 -0.33072683 -1.8643861 3 3
15.907967 -0.45546448 -1.9540532 2 4
6.5743008 -0.21924071 -1.7625577 2 0
7.6677928 -0.25972602 -1.7712647 3 1
9.288497 -0.32111526 -1.8065797 3 2
11.760079 -0.41272607 -1.8637605 3 3
15.92027 -0.56707633 -1.9560032 2 4
6.5726099 -0.26513225 -1.7625577 3 0
7.65411 -0.31277317 -1.7685652 3 1
9.2664137 -0.38513759 -1.8027636 3 2
11.749017 -0.49448386 -1.8625089 2 3
15.852458 -0.67550176 -1.9482036 1 4
6.5763879 -0.31128496 -1.7641107 2 0
7.6459002 -0.36592141 -1.7672155 4 1
9.2713423 -0.45020029 -1.8042899 3 2
11.729495 -0.57572007 -1.860006 2 3
15.863216 -0.78694218 -1.9501534 2 4
6.5914154 -0.35813206 -1.7687694 3 0
7.6645632 -0.42046466 -1.7721643 3 1
9.2718935 -0.51513278 -1.8050531 3 2
11.729135 -0.65781397 -1.8606318 3 3
15.891029 -0.89957559 -1.9542971 2 4
6.584898 -0.40390322 -1.7677342 3 0
7.6244855 -0.47167656 -1.7636162 4 1
9.2680721 -0.57984972 -1.8050531 3 2
11.736084 -0.74042827 -1.8625089 3 3
15.870494 -1.0096109 -1.9525908 3 4
6.5664988 -0.44881034 -1.763593 2 0
7.6637778 -0.52783942 -1.7735142 3 1
9.2521591 -0.64210606 -1.8027636 3 2
11.730773 -0.82029545 -1.8625089 4 3
15.863059 -1.1203824 -1.9525908 3 4
6.576777 -0.49451035 -1.7672166 2 0
7.6502914 -0.57925683 -1.7712647 3 1
9.2924747 -0.71012282 -1.8115407 4 2
11.724759 -0.90217113 -1.8625089 4 3
15.851108 -1.2280253 -1.9521034 3 4
6.5847163 -0.54136223 -1.7703223 2 0
7.6538301 -0.63329417 -1.7730643 3 1
9.2659044 -0.77156568 -1.8073429 3 2
11.714411 -0.98162764 -1.8618832 4 3
15.842149 -1.3386561 -1.9521034 3 4
6.569334 -0.58514172 -1.7672166 2 0
7.653223 -0.68572479 -1.7739639 3 1
9.2368288 -0.83411574 -1.8027636 3 2
11.711206 -1.0637424 -1.8625089 4 3
15.820807 -1.4453746 -1.9506408 3 4
6.5650887 -0.63098967 -1.7672166 2 0
7.6482496 -0.73913729 -1.7739639 3 1
9.254385 -0.89924741 -1.8073429 3 2
11.707628 -1.1438171 -1.8631347 4 3
15.845891 -1.5592878 -1.9550281 3 4
6.5758963 -0.67839283 -1.7713577 2 0
7.640965 -0.79231268 -1.7735142 3 1
9.2516193 -0.9658547 -1.8081062 3 2
11.718787 -1.2296263 -1.8662634 3 3
15.785266 -1.6646695 -1.9489347 2 4
6.5748405 -0.72470766 -1.772393 2 0
7.6449323 -0.84670955 -1.7757636 3 1
9.236846 -1.0295491 -1.8065797 3 2
11.702066 -1.3105289 -1.8650119 3 3
15.777204 -1.7752738 -1.9494221 2 4
6.5657835 -0.77014059 -1.7713577 2 0
7.6330285 -0.89937609 -1.7744139 5 1
9.2372322 -1.0949333 -1.8081062 3 2
11.680863 -1.3907909 -1.8631347 3 3
15.758513 -1.884668 -1.948691 2 4
6.5640812 -0.81643611 -1.772393 2 0
7.6226964 -0.95215929 -1.7735142 3 1
9.2293634 -1.1593941 -1.8081062 3 2
11.663029 -1.4713153 -1.8618832 4 3
15.752851 -1.9956346 -1.9496659 2 4
6.5620527 -0.86274546 -1.7734282 2 0
7.6274552 -1.0068823 -1.7762135 3 1
9.2093668 -1.2222488 -1.8058165 3 2
11.648558 -1.5521802 -1.8612576 3 3
15.734598 -2.1050341 -1.9491785 2 4
6.5807457 -0.91198319 -1.7801574 3 0
7.6356812 -1.062255 -1.7798127 3 1
9.2083864 -1.2875992 -1.8073429 3 2
11.656999 -1.6362095 -1.8643861 4 3
15.747039 -2.2187076 -1.9525908 1 4
6.5378966 -0.95261067 -1.7703223 2 0
7.6126537 -1.1132799 -1.7762135 3 1
9.2127695 -1.353852 -1.8100141 4 2
11.641383 -1.7169738 -1.8637605 4 3
15.727239 -2.3280065 -1.9521034 2 4
6.5349064 -0.99881387 -1.7713577 2 0
7.5931387 -1.1646262 -1.7735142 3 1
9.1781158 -1.4126471 -1.8050531 3 2
11.621617 -1.7949677 -1.8625089 3 3
15.698833 -2.4359193 -1.9506408 2 4
23.234236 -3.6176138 -2.0572243 78 5
6.5298638 -1.043577 -1.7718753 1 0
7.5965805 -1.2181349 -1.7762135 4 1
9.1719074 -1.477312 -1.8058165 3 2
11.632204 -1.8798392 -1.8662634 3 3
15.662293 -2.5395434 -1.9482036 2 4
23.272001 -3.7859163 -2.0628021 93 5
6.5357575 -1.0913655 -1.7754986 2 0
7.5686717 -1.2679193 -1.7717146 4 1
9.1732559 -1.5416608 -1.8081062 3 2
11.603557 -1.9563459 -1.8637605 3 3
15.6892 -2.656446 -1.9538096 2 4
6.5034351 -1.1315225 -1.7687694 2 0
7.5713844 -1.321418 -1.7744139 5 1
9.1390638 -1.6015974 -1.8035268 3 2
11.609073 -2.0407255 -1.8668892 3 3
15.664889 -2.7621427 -1.9530783 3 4
6.4936819 -1.1754194 -1.7682518 2 0
7.5545449 -1.3715315 -1.7726144 4 1
9.1395397 -1.6658797 -1.8058165 3 2
11.60657 -2.1218295 -1.8687663 3 3
15.665251 -2.8722851 -1.9555157 3 4
6.4893279 -1.2203069 -1.7692871 2 0
7.5603538 -1.4258105 -1.7762135 4 1
9.1820002 -1.7382765 -1.8165017 3 2
11.580216 -2.1985726 -1.8668892 3 3
15.627266 -2.9782338 -1.9533219 5 4
6.4918051 -1.2689356 -1.772393 2 0
7.5499573 -1.4798744 -1.7762135 4 1
9.1349659 -1.7955205 -1.8096325 3 2
11.548681 -2.2783229 -1.8643861 3 3
15.617778 -3.0895705 -1.9547845 5 4
6.4790015 -1.3134581 -1.7713577 2 0
7.5318036 -1.5309937 -1.7744139 4 1
9.1141891 -1.859273 -1.8081062 3 2
11.575071 -2.3676007 -1.8712693 3 3
15.607495 -3.2009203 -1.9562467 5 4
6.4810181 -1.3610398 -1.7744634 2 0
7.5247455 -1.5843409 -1.7753137 4 1
9.0971451 -1.9220443 -1.8073429 3 2
11.56599 -2.4499891 -1.8725207 3 3
15.528457 -3.297843 -1.9491785 17 4
6.4449291 -1.4005091 -1.7672166 2 0
7.5135012 -1.6368345 -1.7753137 4 1
9.102685 -1.9896996 -1.8111591 3 2
11.529309 -2.5264461 -1.8693922 3 3
15.508934 -3.4070225 -1.9496659 3 4
6.4689221 -1.4530898 -1.776534 2 0
7.5075941 -1.6905326 -1.7766634 3 1
9.092761 -2.0524776 -1.8119223 3 2
11.523405 -2.6074805 -1.8712693 3 3
15.560267 -3.5323501 -1.9591717 5 4
6.4438257 -1.4935986 -1.772393 2 0
7.518692 -1.7468879 -1.7820623 3 1
9.0743866 -2.1150153 -1.8111591 3 2
11.489532 -2.6842694 -1.8687663 4 3
15.533932 -3.6377304 -1.9589281 3 4
52.049137 -12.255945 -2.8023813 0 6
6.4351211 -1.5389978 -1.7729106 2 0
7.4722013 -1.7911584 -1.7739639 3 1
9.0441294 -2.1746423 -1.8081062 3 2
11.441706 -2.757473 -1.8640733 4 3
15.519734 -3.7488847 -1.9603903 3 4
6.4223437 -1.5834229 -1.772393 2 0
7.4651909 -1.8446828 -1.7753137 4 1
9.0782719 -2.2500086 -1.8180283 3 2
11.445182 -2.842998 -1.8678278 5 3
15.489331 -3.8561816 -1.959903 3 4
6.4036431 -1.6263182 -1.7703223 2 0
7.4559078 -1.8977156 -1.7762135 4 1
9.0817699 -2.3166022 -1.8218443 3 2
11.433221 -2.9227936 -1.8690792 4 3
15.475493 -3.967674 -1.9616091 2 4
45.284592 -11.660811 -2.4506838 0 6
6.4129858 -1.6752394 -1.7760164 3 0
7.4578996 -1.95237 -1.7798127 4 1
9.0387907 -2.3729689 -1.8165017 3 2
11.439283 -3.009577 -1.8734595 3 3
15.492277 -4.084559 -1.9672151 3 4
6.3992686 -1.7194679 -1.7754986 2 0
7.4403243 -2.0033748 -1.7789129 4 1
9.0375929 -2.43853 -1.8195547 3 2
11.426159 -3.0894337 -1.8747108 4 3
15.43656 -4.1853428 -1.9638027 3 4
6.3871083 -1.764101 -1.7754986 2 0
7.4242787 -2.0547488 -1.778463 3 1
8.9858608 -2.4936883 -1.8126855 3 2
11.411373 -3.1732347 -1.8759624 4 3
15.428001 -4.2988687 -1.966484 2 4
6.3709202 -1.8075936 -1.7744634 2 0
7.4191256 -2.109194 -1.7807125 5 1
8.9776726 -2.5590515 -1.8145936 4 2
11.411735 -3.2593331 -1.8797168 5 3
15.410972 -4.4102936 -1.9681902 3 4
6.361855 -1.853107 -1.7754986 2 0
7.4210563 -2.1658514 -1.7847617 6 1
8.9369774 -2.6150484 -1.8100141 4 2
11.422823 -3.3489254 -1.8853484 5 3
15.410281 -4.5267262 -1.9720899 3 4
6.3413596 -1.8952627 -1.7734282 2 0
7.39082 -2.2131348 -1.7811624 6 1
8.9410677 -2.68415 -1.8145936 4 2
11.389707 -3.425745 -1.8837841 4 3
15.385906 -4.6364903 -1.9730648 3 4
6.3150439 -1.9355245 -1.7698047 2 0
7.3658752 -2.2618179 -1.7789129 5 1
8.9258652 -2.7476597 -1.815357 4 2
11.37684 -3.5086687 -1.8856614 4 3
15.328507 -4.7361722 -1.9698963 5 4
40.590237 -12.595837 -2.2273138 0 6
6.3050642 -1.9807224 -1.77084 2 0
7.3647761 -2.3178661 -1.7825122 5 1
8.9289303 -2.8169947 -1.8199363 4 2
11.363368 -3.5915799 -1.8875386 3 3
15.33481 -4.8556519 -1.9750148 3 4
6.3076329 -2.0300179 -1.7754986 2 0
7.3539791 -2.3710189 -1.7838619 7 1
8.9202566 -2.8828835 -1.8222259 4 2
11.356811 -3.6769078 -1.8906672 4 3
15.285432 -4.9576907 -1.9730648 3 4
6.3098202 -2.0794458 -1.7801574 3 0
7.322443 -2.4174139 -1.7802627 7 1
8.8850031 -2.9401541 -1.8191731 4 2
11.315865 -3.7511303 -1.8881643 3 3
15.261753 -5.0680351 -1.9745274 3 4
37.073803 -12.361567 -2.0481155 1 6
6.2878275 -2.1209755 -1.7780869 3 0
7.3201575 -2.4734652 -1.7838619 6 1
8.8493843 -2.9970727 -1.8161201 4 2
11.300624 -3.8338456 -1.8900415 3 3
15.256072 -5.1846781 -1.9784272 3 4
35.890255 -12.246005 -1.9874059 2 6
6.2509527 -2.1572583 -1.7718753 3 0
7.2953439 -2.5219622 -1.7820623 7 1
8.8157921 -3.0527418 -1.8134488 3 2
11.278 -3.911972 -1.8906672 4 3
15.242004 -5.2988806 -1.981352 3 4
35.436443 -12.361084 -1.9668901 3 6
6.250699 -2.2048981 -1.7760164 3 0
7.2780089 -2.5715613 -1.7820623 7 1
8.8146229 -3.1214216 -1.8176465 4 2
11.248552 -3.9899507 -1.8903543 4 3
15.226159 -5.4098158 -1.9840331 2 4
35.021957 -12.491425 -1.9486772 3 6
6.2533269 -2.2550354 -1.7811928 3 0
7.26721 -2.6249564 -1.7838619 7 1
8.839325 -3.198046 -1.8271869 4 2
11.248991 -4.07652 -1.8950473 3 3
15.236532 -5.5336008 -1.9903703 2 4
35.405266 -12.90046 -1.9748452 2 6
6.208828 -2.2868648 -1.7729106 4 0
7.2564874 -2.6770594 -1.7856615 7 1
8.8370399 -3.2671666 -1.8313849 4 2
11.209143 -4.1508365 -1.8931701 4 3
15.254351 -5.6578941 -1.9976823 2 4
6.1927118 -2.3301547 -1.7729106 4 0
7.244916 -2.7304027 -1.7874612 6 1
8.7680988 -3.3114395 -1.8218443 3 2
11.161416 -4.2220001 -1.8900415 4 3
15.240466 -5.7740965 -2.0010948 2 4
34.381622 -13.074087 -1.9277428 3 6
6.1762934 -2.3733308 -1.7729106 4 0
7.2329526 -2.7837145 -1.7892607 6 1
8.7520952 -3.3753977 -1.8233709 3 2
11.168523 -4.3140535 -1.8962989 3 3
15.27384 -5.9090033 -2.0108442 2 4
6.1487832 -2.412158 -1.7698047 4 0
7.1806946 -2.8213143 -1.7811624 7 1
8.753891 -3.4464846 -1.8287135 3 2
11.128944 -4.3882957 -1.8947345 4 3
15.293145 -6.0395517 -2.0188875 3 4
34.381397 -13.626442 -1.9382099 3 6
6.1533151 -2.4636421 -1.7760164 4 0
7.1789103 -2.878629 -1.7856615 7 1
8.7478342 -3.5148332 -1.8325297 3 2
11.103536 -4.4680953 -1.8956732 4 3
15.305844 -6.1684308 -2.0262001 3 4
33.148571 -13.406355 -1.8739415 5 6
6.1359653 -2.5065398 -1.7760164 4 0
7.1622462 -2.9301522 -1.7865613 7 1
8.6976509 -3.5653932 -1.8271869 3 2
11.073899 -4.5462537 -1.895986 4 3
15.291783 -6.2872124 -2.0300996 3 4
33.035706 -13.629828 -1.8728948 5 6
6.1076179 -2.5448575 -1.7729106 4 0
7.156003 -2.9860861 -1.7901604 7 1
8.6653032 -3.6229978 -1.8256606 3 2
11.036424 -4.6211629 -1.8950473 4 3
15.313423 -6.4214506 -2.0388744 3 4
6.0932584 -2.5889452 -1.7739457 4 0
7.1493273 -3.0420752 -1.7937597 7 1
8.6729517 -3.6957498 -1.8325297 3 2
11.017431 -4.7016053 -1.8972374 4 3
15.313849 -6.5477114 -2.0449677 5 4
6.0896773 -2.6365008 -1.7780869 5 0
7.132031 -3.0922186 -1.7946595 6 1
8.6685476 -3.7655942 -1.8371091 3 2
11.002454 -4.7862868 -1.9003662 4 3
15.372662 -6.6969881 -2.0588608 11 4
6.0711231 -2.6789501 -1.7780869 5 0
7.1138349 -3.1435091 -1.7955593 7 1
8.6025534 -3.8085349 -1.8287135 3 2
10.950713 -4.8549743 -1.8972374 5 3
15.271104 -6.7799802 -2.0515487 16 4
6.048749 -2.7196841 -1.7770516 5 0
7.0988231 -3.1962965 -1.7973589 6 1
8.5757561 -3.8684988 -1.8287135 3 2
10.941755 -4.9426908 -1.9016175 4 3
15.377134 -6.9559708 -2.0722666 5 4
6.0296144 -2.7618458 -1.7770516 4 0
7.0834212 -3.249027 -1.7991585 7 1
8.584218 -3.9446697 -1.8363459 3 2
10.912366 -5.0214348 -1.9025562 4 3
15.396707 -7.0947208 -2.0815284 6 4
6.007174 -2.8011913 -1.7760164 4 0
7.0576105 -3.2955177 -1.7982588 6 1
8.5358295 -3.9930255 -1.8317665 3 2
10.906554 -5.1090035 -1.907562 3 3
15.418149 -7.2322354 -2.0910344 8 4
5.994452 -2.8463752 -1.7780869 4 0
7.0256319 -3.3405244 -1.7960092 5 1
8.5343313 -4.0651832 -1.8374907 4 2
10.867056 -5.18332 -1.9069364 3 3
15.456846 -7.3824744 -2.1032214 8 4
5.9639993 -2.8831098 -1.774981 4 0
7.0074015 -3.3920379 -1.7973589 6 1
8.505743 -4.1246648 -1.8374907 4 2
10.855482 -5.2711387 -1.9113165 3 3
15.67986 -7.623879 -2.1407571 7 4
5.9541264 -2.9297934 -1.7780869 5 0
6.971314 -3.4348469 -1.7942096 4 1
8.4721889 -4.1798601 -1.8363459 3 2
10.861857 -5.3659053 -1.9188254 3 3
15.770365 -7.8044772 -2.1604998 10 4
5.9357734 -2.9711182 -1.7786045 6 0
6.9512572 -3.4839656 -1.7951094 4 1
8.4428024 -4.2389045 -1.8363459 3 2
10.84884 -5.4540257 -1.9232055 3 3
15.617981 -7.8652749 -2.1470942 12 4
5.9264097 -3.0196567 -1.782228 3 0
6.9261484 -3.533618 -1.7951094 4 1
8.4182482 -4.3004217 -1.8374907 4 2
10.844706 -5.5495157 -1.9294629 3 3
15.486725 -7.9351926 -2.1366136 10 4
5.9154758 -3.0662911 -1.7853339 4 0
6.9134178 -3.5881693 -1.7982588 6 1
8.3907442 -4.3623624 -1.838254 4 2
10.816211 -5.6305628 -1.9313401 3 3
15.362297 -8.0073318 -2.1271076 12 4
5.8973427 -3.1093159 -1.7863692 3 0
6.8985395 -3.6418047 -1.8009582 7 1
8.363555 -4.4226694 -1.8390172 4 2
10.832504 -5.7355156 -1.941352 3 3
15.58664 -8.2631531 -2.1661057 15 4
5.889112 -3.1577139 -1.7905102 4 0
6.8643622 -3.6852677 -1.7987086 5 1
8.3359337 -4.4828095 -1.8397803 4 2
10.802635 -5.8166194 -1.9432292 4 3
15.652635 -8.4386501 -2.1834114 18 4
5.8669233 -3.1987503 -1.7905102 4 0
6.8538613 -3.7415032 -1.8027576 6 1
8.3017826 -4.5375628 -1.8390172 4 2
10.797449 -5.9089808 -1.9494866 4 3
15.840523 -8.6832161 -2.2180221 12 4
5.8450146 -3.238611 -1.7905102 4 0
6.8316436 -3.7899597 -1.8036577 6 1
8.2973585 -4.6106668 -1.8451231 4 2
10.769743 -5.9919009 -1.9519895 4 3
15.810533 -8.8072596 -2.2221658 13 4
5.8222628 -3.2793376 -1.7905102 3 0
6.7982283 -3.8337321 -1.8018579 7 1
8.2615499 -4.6665492 -1.8443599 4 2
10.763759 -6.0873618 -1.9585598 4 3
15.824666 -8.9604588 -2.2328904 13 4
5.7992268 -3.3199046 -1.7905102 4 0
6.7746797 -3.8830366 -1.8027576 6 1
8.2423916 -4.7319312 -1.8474127 4 2
10.738125 -6.1722026 -1.9616885 4 3
15.820224 -9.1043816 -2.2411776 15 4
5.7525311 -3.3467088 -1.7832633 4 0
6.7541423 -3.9341612 -1.8045573 7 1
8.209156 -4.7893581 -1.8474127 4 2
10.722064 -6.2629585 -1.9666944 4 3
15.723721 -9.1955643 -2.2365465 12 4
5.7589602 -3.4044831 -1.7925807 3 0
6.729866 -3.9832027 -1.8054571 6 1
8.1518774 -4.8325357 -1.8420701 4 2
10.720548 -6.362865 -1.974516 6 3
15.266639 -9.0718746 -2.1804864 10 4
5.7284279 -3.4406261 -1.7905102 4 0
6.7018943 -4.0300889 -1.8054571 7 1
8.1591616 -4.9122143 -1.851229 4 2
15.498631 -9.3567524 -2.2228971 11 4
5.7279663 -3.4936216 -1.7977571 3 0
6.6676545 -4.0715518 -1.8036577 7 1
8.1330433 -4.9741774 -1.8531371 3 2
10.638538 -6.5141978 -1.9757676 12 3
15.248482 -9.3516045 -2.1963296 16 4
5.6863995 -3.524343 -1.7925807 3 0
6.648284 -4.1253242 -1.806357 7 1
8.0714369 -5.0142593 -1.8470311 3 2
10.667127 -6.6371188 -1.9898466 5 3
15.406917 -9.5974245 -2.2287467 11 4
5.6714659 -3.5701301 -1.7956866 3 0
6.625916 -4.1757927 -1.8081565 7 1
8.1150379 -5.1221876 -1.8653487 3 2
10.665618 -6.7399182 -1.998294 6 3
15.336185 -9.7026281 -2.2282593 11 4
5.6366377 -3.6033943 -1.7925807 3 0
6.5933199 -4.2198477 -1.8072568 7 1
8.0700674 -5.1709509 -1.8630592 3 2
10.66605 -6.842226 -2.0070546 6 3
15.254714 -9.8008728 -2.2263095 11 4
5.6054974 -3.637471 -1.7905102 4 0
6.5775175 -4.2731218 -1.810856 7 1
8.0864296 -5.2614269 -1.8752708 3 2
10.641194 -6.9316158 -2.0114346 6 3
15.219241 -9.9250851 -2.2309406 13 4
5.5864196 -3.6807678 -1.7925807 3 0
6.5377645 -4.312499 -1.8081565 7 1
8.0495005 -5.3177524 -1.8752708 3 2
10.645267 -7.0406065 -2.0214465 7 3
15.151236 -10.032187 -2.231184 11 4
5.5798554 -3.7325675 -1.7987925 4 0
6.5172138 -4.3645415 -1.810856 7 1
8.0284843 -5.3847537 -1.8790871 3 2
10.631934 -7.1389785 -2.0283296 6 3
17.003412 -11.430127 -2.5156271 17 4
5.5504651 -3.7692606 -1.7977571 3 0
6.4865847 -4.4099336 -1.810856 7 1
7.9744687 -5.4296227 -1.8752708 3 2
10.715682 -7.3042622 -2.0539849 7 3
16.836298 -11.489248 -2.5027092 12 4
5.4992285 -3.7894154 -1.789475 4 0
6.4596262 -4.4561973 -1.8117559 7 1
7.9857836 -5.5172553 -1.8867195 3 2
10.753446 -7.4377117 -2.0708797 9 3
16.707109 -11.568552 -2.4951532 13 4
5.4979687 -3.8454299 -1.7977571 3 0
6.4379363 -4.5078917 -1.8144552 7 1
7.9576898 -5.5782456 -1.8890091 3 2
10.734909 -7.5334282 -2.077137 9 3
16.515503 -11.607288 -2.478579 10 4
12.320271 -8.6845551 3.4799926 9 14
12.280018 -8.6658087 4.0272245 9 15
5.4590621 -3.8738205 -1.7936161 4 0
6.4039259 -4.5493512 -1.8135554 7 1
7.9153528 -5.6313887 -1.8882459 3 2
12.323684 -8.7709408 1.3233728 8 10
10.711016 -7.6288166 -2.0827687 9 3
12.269211 -8.7450819 1.8499768 16 11
12.288696 -8.7622051 -1.8531454 15 4
12.243195 -8.7362108 2.3821843 24 12
12.363399 -8.8284969 -1.329125 25 5
12.208625 -8.7340717 3.465596 19 14
5.4475617 -3.9231267 -1.7987925 3 0
12.314795 -8.8751774 0.26496243 23 8
6.381494 -4.6007857 -1.8162549 7 1
12.249796 -8.8380823 0.79163373 23 9
7.8917632 -5.6980023 -1.8920621 3 2
12.226618 -8.8310976 1.3195379 18 10
10.6655 -7.7091923 -2.0843329 8 3
12.212686 -8.8340149 1.850708 22 11
12.281904 -8.8873501 -1.8614326 19 4
12.201106 -8.8353729 2.3859386 21 12
12.262742 -8.8865356 -1.3249415 37 5
12.226541 -8.863554 2.9354057 31 13
12.224999 -8.8689489 -0.79152906 100 6
12.382319 -8.9896784 3.5326314 4 14
12.259531 -8.9038019 -0.26447377 38 7
5.4231601 -3.9633415 -1.7998277 4 0
12.249306 -8.9585733 0.26489261 23 8
6.3460741 -4.6429234 -1.8153551 7 1
12.245811 -8.9658613 0.79540193 14 9
7.8486242 -5.7506375 -1.8912989 3 2
10.63372 -7.7998204 -2.0887132 8 3
12.21316 -8.9681768 -1.8604575 19 4
12.205221 -8.9754686 -1.3254646 100 5
12.21747 -8.9943371 -0.79508793 26 6
5.3798418 -3.989598 -1.7946514 4 0
6.3135061 -4.6871138 -1.8153551 7 1
7.8476748 -5.8345757 -1.9008393 4 2
10.631302 -7.9127874 -2.0990379 9 3
14.932731 -11.12646 -2.2865129 8 4
12.576975 -9.3780041 2.4848053 1 12
5.3580322 -4.0317049 -1.7967219 4 0
6.2806301 -4.7310758 -1.8153551 6 1
7.8349614 -5.9105015 -1.9077084 4 2
