# .PCD v0.7 - Point Cloud Data file format
VERSION 0.7
FIELDS x y z intensity ring
SIZE 4 4 4 4 2
TYPE F F F F U
COUNT 1 1 1 1 1
WIDTH 1307
HEIGHT 1
VIEWPOINT 0 0 0 1 0 0 0
POINTS 1307
DATA ascii
-6.2963505 1.2113467 -1.7180409 3 0
-7.311306 1.4105829 -1.7190759 6 1
-8.7720985 1.6971803 -1.7367436 4 2
-11.04189 2.1423259 -1.7814759 4 3
-14.999464 2.9210298 -1.8763006 4 4
-42.185719 8.2612228 -2.2528539 0 6
-6.2879591 1.2541752 -1.7180409 3 0
-7.2900705 1.458022 -1.7163765 6 1
-8.76966 1.7603095 -1.7386516 4 2
-11.034411 2.2209172 -1.7827275 4 3
-14.97145 3.0214894 -1.8753256 5 4
-39.962246 8.1158819 -2.1370866 0 6
-6.2868443 1.29851 -1.7201115 3 0
-7.2914262 1.5099813 -1.7190759 7 1
-8.7632418 1.8211603 -1.7397964 4 2
-11.07512 2.3076601 -1.7918006 6 3
-14.942763 3.121707 -1.8743507 5 4
-38.85062 8.1658659 -2.0805638 0 6
-6.2627459 1.338044 -1.7159703 3 0
-7.2771683 1.5587614 -1.7181761 9 1
-8.7525625 1.8811784 -1.7401782 3 2
-11.159572 2.4046273 -1.8080698 6 3
-14.922546 3.2263668 -1.8745944 6 4
-6.2643285 1.3853278 -1.7190762 4 0
-7.2639256 1.6103737 -1.7177262 5 1
-8.765707 1.9497318 -1.7455208 3 2
-11.165215 2.4895833 -1.8118242 7 3
-14.899077 3.3330677 -1.8745944 7 4
-35.26873 7.9352102 -1.8945618 9 6
-6.2429552 1.4275335 -1.7159703 4 0
-7.2693114 1.6662288 -1.7217753 7 1
-8.7362232 2.0088878 -1.7424678 3 2
-11.131715 2.5658667 -1.8093213 7 3
-14.921263 3.4503272 -1.880444 7 4
-6.2231803 1.4699502 -1.7133821 19 0
-7.2496166 1.7164083 -1.7199757 7 1
-8.7235355 2.0718052 -1.7428495 4 2
-11.101538 2.6427126 -1.8074441 7 3
-14.938669 3.5671563 -1.8858064 6 4
-6.2132945 1.5111917 -1.7133821 6 0
-7.249434 1.7672212 -1.7226752 7 1
-8.7401161 2.1370752 -1.7489554 4 2
-11.079929 2.7153399 -1.8068182 7 3
-14.899899 3.6597676 -1.8838565 6 4
-41.004524 10.124814 -2.2134972 0 6
-6.2194586 1.5587572 -1.7180409 3 0
-7.2369199 1.8177869 -1.7226752 7 1
-8.7287903 2.1989999 -1.7497185 4 2
-11.051127 2.7902086 -1.805254 8 3
-14.927871 3.7773309 -1.8906811 7 4
-39.647583 10.083931 -2.143995 0 6
-6.1972003 1.5992444 -1.7149351 4 0
-7.216506 1.8663161 -1.7208756 7 1
-8.7683382 2.2741768 -1.7607856 4 2
-11.050498 2.8722587 -1.8083826 8 3
-14.874243 3.8744459 -1.8872689 7 4
-29.482668 7.718133 -1.5971888 23 6
-6.1896191 1.6434599 -1.7159703 3 0
-7.2296662 1.9236647 -1.7271742 7 1
-8.8607817 2.3626392 -1.7825377 7 2
-11.026875 2.9463906 -1.8077569 8 3
-14.86217 3.982307 -1.8892187 7 4
-28.461262 7.6581244 -1.5446436 35 6
-6.1820168 1.6865705 -1.7170056 4 0
-7.1938472 1.9666641 -1.7217753 7 1
-8.8062038 2.4140606 -1.7749053 7 2
-11.028894 3.0295801 -1.8115114 8 3
-14.846204 4.0865397 -1.8906811 7 4
-27.540861 7.6170483 -1.4975412 23 6
-6.1663713 1.7286435 -1.7159703 4 0
-7.2024555 2.0231628 -1.7271742 7 1
-8.7626791 2.4680293 -1.7695627 7 2
-11.015079 3.1086485 -1.8127627 8 3
-14.866978 4.2041268 -1.8970184 7 4
-26.253582 7.4587202 -1.4303418 22 6
-6.1467271 1.7695131 -1.7138997 3 0
-7.1956458 2.0755548 -1.7289737 7 1
-8.7414656 2.5280516 -1.7687995 7 2
-11.017774 3.1926169 -1.81683 9 3
-14.892549 4.3238664 -1.9040867 9 4
-33.540569 9.7825317 -1.8310258 6 6
-6.1379294 1.8134769 -1.7149351 4 0
-7.1772432 2.1246331 -1.728074 7 1
-8.7254839 2.5895774 -1.7691811 6 2
-11.014151 3.2750907 -1.8199588 9 3
-14.909561 4.4419003 -1.9101802 7 4
-6.132515 1.8585248 -1.7170056 4 0
-7.1957998 2.1848791 -1.7361722 7 1
-8.7090712 2.6509991 -1.7695627 7 2
-11.013693 3.3588161 -1.8237133 9 3
-14.916158 4.557478 -1.915055 7 4
-23.979853 7.3588443 -1.3145747 32 6
-6.1230807 1.9024377 -1.7180409 4 0
-7.2399139 2.2535942 -1.7505691 7 1
-8.7058191 2.7148945 -1.7726158 7 2
-11.001887 3.4372411 -1.8255905 9 3
-14.925653 4.6745534 -1.9204172 7 4
-6.1063075 1.9429005 -1.7170056 5 0
-7.2466865 2.3099246 -1.7559679 8 1
-8.6754332 2.7720211 -1.770326 9 2
-10.985147 3.5163734 -1.8268418 9 3
-14.916172 4.7833157 -1.9233421 7 4
-30.149794 9.7090673 -1.6599921 10 6
-6.0962677 1.9866819 -1.7180409 4 0
-7.2192678 2.3568325 -1.7532685 8 1
-8.6558695 2.8325176 -1.770326 7 2
-10.965963 3.5948219 -1.8277806 8 3
-14.86167 4.8805175 -1.9206611 9 4
-29.576729 9.7529402 -1.6321492 10 6
-6.0822501 2.029192 -1.7180409 4 0
-7.1952453 2.4047027 -1.7514689 9 1
-8.6582222 2.9003608 -1.7749053 9 2
-10.979927 3.6844912 -1.8343508 9 3
-14.802773 4.9759331 -1.9174925 10 4
-21.633255 7.2845993 -1.9970866 32 5
-21.673454 7.3149858 -1.1988075 41 6
-6.0898747 2.079093 -1.7242525 4 0
-7.1672196 2.4510911 -1.7487694 9 1
-8.6494246 2.9630439 -1.777195 7 2
-10.963936 3.7623472 -1.8359152 8 3
-14.775185 5.0817337 -1.9184674 13 4
-27.845984 9.6098862 -1.5438062 23 6
-6.0719337 2.1192243 -1.7232174 4 0
-7.1706052 2.5068946 -1.7537185 13 1
-8.6248217 3.0220599 -1.7764318 7 2
-10.956041 3.84534 -1.8390437 8 3
-14.764596 5.1907468 -1.921636 18 4
-27.122791 9.5727358 -1.5073804 11 6
-6.1261301 2.1862366 -1.7428875 4 0
-7.118063 2.5444305 -1.7451702 14 1
-8.6256933 3.0901425 -1.7810113 7 2
-10.951241 3.9297376 -1.8427982 8 3
-14.591629 5.2446775 -1.903843 18 4
-26.728407 9.6439009 -1.4891675 11 6
-6.1597195 2.2468257 -1.7568637 6 0
-7.0964651 2.5927246 -1.7442704 14 1
-8.5910044 3.1455605 -1.77834 6 2
-10.951359 4.0162983 -1.8474913 9 3
-14.515528 5.3320479 -1.8987246 21 4
-19.458216 7.1630812 -1.8140596 37 5
-19.37833 7.145196 -1.0824124 39 6
-6.1348333 2.2864008 -1.7542756 7 0
-7.070889 2.639478 -1.7424709 14 1
-8.5927391 3.2144027 -1.783301 10 2
-10.952649 4.1037445 -1.8524972 9 3
-14.7177 5.5232248 -1.9301667 19 4
-19.314487 7.2636876 -1.805344 37 5
-25.006186 9.419138 -1.4004056 22 6
-6.1295547 2.3332963 -1.7573814 9 0
-7.055932 2.6901646 -1.7433707 12 1
-8.5664215 3.2729094 -1.7825377 7 2
-10.945871 4.18858 -1.8562515 9 3
-14.788146 5.6677542 -1.9445474 20 4
-18.842964 7.2369075 -1.7659496 38 5
-24.548359 9.4428968 -1.3784245 22 6
-6.1095147 2.3746321 -1.7563461 9 0
-7.051507 2.7450142 -1.7469698 13 1
-8.572628 3.3440526 -1.7886436 7 2
-10.942122 4.2749581 -1.8606318 9 3
-14.443196 5.6515045 -1.9043305 19 4
-18.287451 7.1704497 -1.7185369 38 5
-23.920403 9.3935719 -1.3468137 11 6
-6.0784225 2.4115274 -1.752205 9 0
-7.0249271 2.7912977 -1.7451702 14 1
-8.552722 3.4052694 -1.7894068 9 2
-10.92302 4.3556318 -1.8625089 9 3
-14.661484 5.855269 -1.938454 19 4
-17.747467 7.1128569 -1.0020244 18 6
-6.061439 2.4539025 -1.752205 9 0
-7.0197172 2.8461289 -1.7487694 13 1
-27.14539 11.011563 1.5352231 8 9
-8.5293446 3.4634073 -1.7894068 9 2
-10.89678 4.4313707 -1.8631347 9 3
-14.737901 6.005424 -1.9540532 20 4
-17.380646 7.1035242 -0.98402071 27 6
-6.0374522 2.4921563 -1.7501343 9 0
-7.0073857 2.8968229 -1.7505691 13 1
-8.5122128 3.5258741 -1.7909334 9 2
-10.89842 4.5209599 -1.8687663 9 3
-14.535361 6.0385838 -1.9326042 19 4
-16.969646 7.0603056 -1.6080234 69 5
-16.982212 7.0794449 -0.96423781 64 6
-6.019906 2.5342462 -1.7501343 9 0
-6.994173 2.9487028 -1.7523687 11 1
-8.5169535 3.5959513 -1.7970392 9 2
-10.872852 4.5973463 -1.869705 8 3
-14.514785 6.1492009 -1.9355291 18 4
-16.656063 7.0769358 -0.94843233 27 6
-6.0056186 2.577734 -1.7511697 9 0
-6.9698367 2.9959188 -1.7514689 13 1
-8.5090361 3.664571 -1.8008554 10 2
-10.846932 4.6781626 -1.8709565 8 3
-14.300198 6.1764002 -1.9126177 19 4
-16.245806 7.0402894 -0.92791665 27 6
-5.9874763 2.6195967 -1.7511697 9 0
-6.9451823 3.0429385 -1.7505691 12 1
-8.5162554 3.7366016 -1.8077245 7 2
-10.834732 4.7606254 -1.874398 7 3
-14.169522 6.237689 -1.9009181 16 4
-15.890552 7.0151916 -0.91033173 27 6
-5.9730363 2.6618643 -1.752205 9 0
-6.9456625 3.0996742 -1.7559679 14 1
-8.4612865 3.7831442 -1.8016186 7 2
-10.770583 4.8224273 -1.8690792 13 3
-14.237227 6.3835349 -1.9157863 10 4
-15.553398 6.9965029 -0.89379358 26 6
-5.9437532 2.6987073 -1.7490991 9 0
-6.9344983 3.1529264 -1.7586673 13 1
-8.4710751 3.8569191 -1.809251 7 2
-10.742903 4.8980846 -1.8700178 18 3
-14.360241 6.5594788 -1.938454 13 4
-15.254829 6.9874253 -0.87934875 26 6
-5.9217386 2.7374814 -1.7480639 9 0
-6.9128766 3.2000551 -1.7586673 14 1
-8.4581909 3.9225719 -1.8123039 7 2
-10.760402 4.9970932 -1.8790911 10 3
-14.15326 6.5817394 -1.9165175 11 4
-14.808696 6.8959713 -1.4291798 29 5
-14.807481 6.9079881 -0.85632104 52 6
-5.9024835 2.7787547 -1.7480639 7 0
-6.9009442 3.2532222 -1.7613667 14 1
-8.4597025 3.9934621 -1.8184099 10 2
-10.676133 5.0465813 -1.8703307 15 3
-13.157891 6.230947 -1.7875797 2 4
-14.623 6.9435072 -0.84836596 26 6
-5.9008541 2.8272145 -1.7532402 9 0
-6.8751264 3.2984345 -1.7604669 14 1
-8.4174595 4.0456233 -1.815357 9 2
-10.754559 5.1758194 -1.8903543 11 3
-14.009918 6.7545676 -1.9096928 13 4
-14.361983 6.942852 -0.83601463 26 6
-5.883945 2.8710623 -1.7542756 9 0
-6.8583512 3.3509693 -1.7622666 12 1
-8.4313345 4.1249938 -1.8245157 7 2
-10.703056 5.2456899 -1.8878514 16 3
-12.768443 6.266253 -1.7463878 1 4
-14.095113 6.9387102 -0.8233493 17 6
-5.8602977 2.9103496 -1.7532402 9 0
-6.8522382 3.4074464 -1.7667656 13 1
-8.3840284 4.1764679 -1.8206996 7 2
-10.680316 5.3273344 -1.8903543 14 3
-13.946212 6.9654818 -1.91408 14 4
-13.835616 6.9313803 -0.81099802 17 6
-5.8570781 2.9599061 -1.7584167 9 0
-6.8352389 3.4587188 -1.7685652 14 1
-8.3764219 4.2440872 -1.8252789 7 2
-10.569818 5.3623734 -1.8772138 15 3
-13.987495 7.1085458 -1.9265107 16 4
-13.664052 6.9531741 -1.3413268 26 5
-13.576346 6.9174943 -0.79854208 8 6
-5.8436689 3.0032365 -1.7604873 9 0
-6.8080721 3.5033815 -1.7676654 14 1
-8.3430986 4.3006611 -1.8245157 7 2
-10.56021 5.4505277 -1.8822197 18 3
-13.873537 7.1698666 -1.9174925 18 4
-13.395781 6.9348149 -1.3197123 25 5
-17.733749 9.1922989 -1.0468239 19 6
-5.8294077 3.0475399 -1.7625577 9 0
-6.7972608 3.558054 -1.7712647 13 1
-18.348063 9.6125288 1.0855525 3 9
-8.3337355 4.3697448 -1.8290951 9 2
-10.626839 5.579215 -1.9009918 13 3
-13.587691 7.1427751 -1.8848314 18 4
-13.142542 6.9204798 -1.2994921 24 5
-22.43227 11.827185 -1.3290194 21 6
-5.8079901 3.0881627 -1.7625577 9 0
-6.7825761 3.6109154 -1.7739639 12 1
-8.2857037 4.4185781 -1.8252789 9 2
-10.685213 5.7053704 -1.9185126 15 3
-13.372938 7.1494813 -1.86192 18 4
-12.877318 6.8931832 -1.2778774 23 5
-15.248538 8.1761942 -0.90677285 9 6
-5.7896872 3.1304722 -1.763593 9 0
-6.7674842 3.6637454 -1.7766634 13 1
-8.2347231 4.4636483 -1.8206996 10 2
-10.642657 5.7760854 -1.9178867 15 3
-13.099463 7.1213088 -1.8307214 18 4
-12.632886 6.8762369 -1.2583545 22 5
-12.376046 6.7448378 -0.73866975 17 6
-5.7784038 3.17539 -1.7666988 9 0
-6.7389755 3.7078452 -1.7757636 14 1
-8.2308712 4.5361905 -1.8268054 10 2
-10.460252 5.7719865 -1.8922316 17 3
-12.313968 6.8032837 -1.7273762 31 4
-12.349234 6.834024 -1.2348225 55 5
-12.374081 6.8562398 -0.74139124 26 6
-5.7493482 3.2118862 -1.7646283 7 0
-6.7163262 3.7567058 -1.7766634 14 1
-8.1955776 4.5916214 -1.8260422 10 2
-10.409365 5.8390713 -1.8903543 17 3
-12.217711 6.8618646 -1.7205516 18 4
-12.205716 6.8663445 -1.2252353 32 5
-20.63368 11.621736 -1.2410949 10 6
-5.736865 3.2576683 -1.7677342 9 0
-6.7068768 3.813133 -1.7811624 14 1
-8.1650276 4.6496964 -1.8264238 10 2
-10.289408 5.8665957 -1.8759624 16 3
-11.97987 6.8387408 -1.6937402 21 4
-11.963766 6.8406258 -1.2057126 31 5
-20.222712 11.576969 -1.2212074 20 6
-5.7139831 3.2976384 -1.7677342 9 0
-6.7003422 3.8715608 -1.7865613 14 1
-8.2122297 4.7528057 -1.8443599 10 2
-10.14907 5.8808422 -1.8578159 18 3
-11.770433 6.8285694 -1.6708289 21 4
-11.788241 6.8499045 -1.1928135 30 5
-19.934235 11.597344 -1.2086468 10 6
-5.6808224 3.3315866 -1.7646283 9 0
-6.6899538 3.9281125 -1.7910603 14 1
-8.1585436 4.7980776 -1.8397803 7 2
-10.223517 6.0197082 -1.8790911 17 3
-11.568567 6.8198462 -1.6488924 20 4
-11.61094 6.8530197 -1.1795658 20 5
-19.550188 11.55734 -1.1902244 10 6
-5.6574259 3.3711638 -1.7646283 9 0
-6.67241 3.9807103 -1.7937597 12 1
-8.1290665 4.855514 -1.8405437 10 2
-10.145009 6.0668511 -1.8722079 15 3
-11.350377 6.7984424 -1.6245185 20 4
-14.159374 8.5010824 -0.8655321 17 6
-5.6409593 3.4135952 -1.7666988 9 0
-6.6484923 4.0280552 -1.7946595 14 1
-8.0697927 4.8968711 -1.8348193 10 2
-10.102406 6.1375308 -1.8722079 17 3
-11.164765 6.7909536 -1.6045319 20 4
-14.818461 9.027482 -1.5180787 31 5
-14.580529 8.8930035 -0.89504963 8 6
-5.6202822 3.4549167 -1.7677342 9 0
-6.6334867 4.0825438 -1.7982588 13 1
-8.0755205 4.9778118 -1.8439783 10 2
-10.066037 6.2120571 -1.8734595 14 3
-10.965097 6.7748237 -1.5825955 19 4
-14.389119 8.9042578 -1.4804274 30 5
-5.5894704 3.4899771 -1.7656636 9 0
-6.611433 4.1328869 -1.8000585 12 1
-8.0422373 5.0351081 -1.8443599 13 2
-9.9922953 6.2632947 -1.8678278 14 3
-10.796471 6.775238 -1.5650463 19 4
-14.522285 9.1274786 -1.5006475 31 5
-14.203066 8.9372225 -0.87945348 17 6
-5.5584445 3.5247741 -1.763593 9 0
-6.6054525 4.1935639 -1.806357 13 1
-8.0483055 5.1174684 -1.8539003 12 2
-9.9349957 6.3244157 -1.8653249 13 3
-13.09254 8.3440809 -1.9062805 5 4
-5.5466957 3.5718608 -1.7677342 9 0
-6.5661879 4.2332401 -1.8036577 12 1
-7.9431129 5.1288018 -1.8378724 12 2
-9.9171448 6.4107766 -1.8703307 10 3
-10.280854 6.6535249 -1.5036241 19 4
-10.300098 6.6736374 -1.0737587 40 5
-13.733435 8.9117813 -0.85799575 26 6
-5.5280914 3.6147261 -1.7698047 9 0
-6.5429964 4.2832475 -1.8054571 14 1
-7.9671316 5.2214913 -1.8516105 12 2
-9.7791367 6.4163632 -1.8524972 12 3
-10.244105 6.7316804 -1.5050865 31 4
-10.278224 6.7618079 -1.0763733 24 5
-13.408915 8.83148 -0.84145761 8 6
-5.5033593 3.6522696 -1.7698047 9 0
-6.508821 4.3244481 -1.8041074 16 1
-7.9533672 5.2922115 -1.8569533 10 2
-9.6338196 6.4176726 -1.8334121 13 3
-12.70999 8.4765072 -1.8758131 11 4
-13.256094 8.8540897 -1.3946662 28 5
-21.060562 14.08285 -1.3277633 10 6
-5.48734 3.6970792 -1.7729106 9 0
-6.4720087 4.3654256 -1.8023077 17 1
-7.773066 5.250896 -1.8233709 10 2
-9.5069675 6.4294405 -1.8177687 13 3
-12.476261 8.4470634 -1.8499768 7 4
-13.197256 8.9486551 -1.3950148 28 5
-12.871181 8.7373953 -0.81528962 8 6
-5.4645853 3.737478 -1.7739457 9 0
-6.4381599 4.408299 -1.8014081 23 1
-7.9127026 5.4260592 -1.8649671 10 2
-9.4537058 6.4900675 -1.8162043 12 3
-12.294289 8.4496307 -1.8316964 13 4
-13.119625 9.0269861 -1.3932717 28 5
-12.601004 8.6831141 -0.80199623 17 6
-5.4447083 3.7799423 -1.7760164 9 0
-6.4072285 4.4531369 -1.8014081 17 1
-7.856246 5.4663377 -1.8603877 18 2
-9.3444738 6.5091033 -1.8036896 12 3
-12.140574 8.4693785 -1.8175595 11 4
-12.65128 8.8453608 -0.80900931 26 6
-5.4283295 3.8235908 -1.7791222 9 0
-6.3688035 4.4910326 -1.7991585 23 1
-7.7617655 5.4814119 -1.8470311 12 2
-14.951349 10.56265 1.6015739 1 10
-9.3600988 6.6175132 -1.8155787 9 3
-12.037274 8.5197096 -1.8107349 13 4
-12.415182 8.7969446 -1.3312168 25 5
-12.387242 8.7901468 -0.79602998 17 6
-5.4109325 3.8681352 -1.782228 9 0
-6.342051 4.5387864 -1.8005083 20 1
-7.7162948 5.5283995 -1.8451231 19 2
-9.7225523 6.9735055 -1.8950473 9 3
-11.919461 8.5618458 -1.8019602 15 4
-12.178766 8.7577782 -1.3123912 25 5
-12.103437 8.7132254 -0.78158528 17 6
-12.189969 8.7884464 -0.26230967 25 7
-5.3969889 3.9139502 -1.7863692 9 0
-6.3110094 4.5818505 -1.8005083 22 1
-7.6838646 5.5867515 -1.8466495 19 2
-9.5794039 6.9726224 -1.876588 11 3
-11.742184 8.5562716 -1.7839236 15 4
-12.065827 8.8050051 -1.3068131 24 5
-12.006832 8.7715912 -0.77928245 8 6
-12.062074 8.8216372 -0.26084366 25 7
-5.3633103 3.9469512 -1.7842987 9 0
-6.3086786 4.6477585 -1.8090565 24 1
-11.95237 8.8120451 0.77823573 4 9
-7.5878019 5.5982985 -1.8329114 15 2
-9.5956402 7.0874481 -1.8894157 7 3
-11.602359 8.5790253 -1.7717367 13 4
-11.978446 8.8700533 -1.3040242 24 5
-11.938887 8.850441 -0.77886379 17 6
-5.3294315 3.9796755 -1.782228 9 0
-6.2635899 4.6823545 -1.8054571 24 1
-7.5406756 5.6452513 -1.8310033 12 2
-9.3483372 7.0061808 -1.8503071 13 3
-11.021364 8.2690582 -1.6917903 15 4
-11.830215 8.888833 -1.2946115 24 5
-11.436274 8.6022148 -0.74997431 8 6
-5.3076787 4.0214505 -1.7842987 9 0
-6.2214332 4.7189012 -1.8027576 23 1
-7.4948263 5.6930075 -1.8294767 12 2
-9.3542318 7.1131229 -1.8612576 9 3
-11.189236 8.5177412 -1.726645 10 4
-14.455134 11.019835 -1.5902436 34 5
-11.477555 8.7593918 -0.75667334 17 6
-5.2856007 4.0631166 -1.7863692 9 0
-6.1883368 4.7622213 -1.8027576 23 1
-7.4549003 5.7451906 -1.8294767 12 2
-9.1886082 7.0889606 -1.8381052 3 3
-11.190772 8.6429691 -1.7361507 11 4
-11.444883 8.8487968 -1.2656757 23 5
-11.311895 8.758605 -0.74976498 26 6
-5.2631998 4.10467 -1.7884396 9 0
-6.1810532 4.8256936 -1.8104061 21 1
-7.3846846 5.7716222 -1.8218443 12 2
-9.0343504 7.0685687 -1.81683 3 3
-11.000465 8.6192694 -1.7159206 9 4
-11.22606 8.8055201 -1.2482445 22 5
-11.154623 8.7589235 -0.74327534 8 6
-5.2290773 4.1356072 -1.7863692 9 0
-6.1694522 4.8845901 -1.8167046 19 1
-7.3519039 5.8291335 -1.8237525 13 2
-9.0745192 7.2026982 -1.8349764 1 3
-10.829638 8.605032 -1.6983713 16 4
-10.995937 8.7496948 -1.2294189 21 5
-14.251979 11.352786 -0.9549219 9 6
-5.2151475 4.1841002 -1.7915455 9 0
-6.132164 4.9250998 -1.815805 21 1
-7.29879 5.8704753 -1.8206996 15 2
-11.868956 9.5497046 1.3327856 2 10
-9.6856232 7.7985802 -1.9695101 4 3
-10.641024 8.5770264 -1.678141 15 4
-10.888074 8.7887049 -1.2241895 21 5
-10.950459 8.8485384 -0.73783237 26 6
-5.1947994 4.2277236 -1.7946514 9 0
-6.0674148 4.9431729 -1.8068069 22 1
-7.2576299 5.9212861 -1.8206996 13 2
-8.0030937 6.5364704 -1.6366177 26 3
-7.9683228 6.515029 -1.2637852 31 4
-7.9787707 6.5305443 -0.90206194 44 5
-10.559404 8.6550894 -0.71553725 17 6
-5.1681371 4.2663465 -1.7956866 9 0
-6.0612984 5.0089979 -1.8153551 24 1
-7.2216949 5.9743047 -1.8218443 10 2
-7.9508085 6.5844941 -1.6350533 30 3
-7.9638987 6.6047163 -1.2703662 45 4
-7.9851027 6.6293607 -0.90798849 19 5
-5.1478667 4.3088651 -1.7987925 9 0
-6.0061517 5.0326161 -1.8090565 25 1
-7.1196532 5.9740977 -1.8065797 10 2
-7.8743954 6.6144295 -1.6287959 17 3
-7.8595047 6.6089439 -1.2608603 6 4
-10.385621 8.7547998 -0.71187371 26 6
-5.1088223 4.3371983 -1.7956866 9 0
-5.9797797 5.0819979 -1.8117559 25 1
-7.0568409 6.0058427 -1.801237 10 2
-14.870181 12.659986 1.7086011 1 10
-7.746829 6.6000648 -1.6119009 17 3
-10.158242 8.6759567 -1.1687585 19 5
-10.224057 8.7414293 -0.70496535 26 6
-5.0813479 4.3752785 -1.7967219 9 0
-5.9574409 5.1350703 -1.815805 22 1
-6.9805603 6.025455 -1.7924597 10 2
-7.600419 6.5674534 -1.5909387 18 3
-7.6133256 6.5855713 -1.235999 25 4
-10.091401 8.7414446 -1.1680613 19 5
-9.9967966 8.6686611 -0.69345152 26 6
-5.0565004 4.4157281 -1.7987925 9 0
-5.9155784 5.1714039 -1.8140053 21 1
-6.9604826 6.0934401 -1.7981842 10 2
-7.5276451 6.5969181 -1.5853071 18 3
-7.5194135 6.5966682 -1.2281992 25 4
-9.9493027 8.7406731 -1.1586484 19 5
-9.8235502 8.6393166 -0.68560106 17 6
-5.022656 4.4483609 -1.7977571 7 0
-5.8764138 5.2099924 -1.8131055 19 1
-6.891346 6.1184225 -1.791315 10 2
-7.4193935 6.5941949 -1.5721666 23 3
-7.3901248 6.5751104 -1.21455 29 4
-9.6262226 8.5766487 -1.1279696 18 5
-9.6571693 8.6132994 -0.67816937 26 6
-5.0029769 4.4936438 -1.8018982 9 0
-5.8688812 5.2769475 -1.8221035 18 1
-6.8630528 6.1795206 -1.7951311 10 2
-7.3086162 6.5876393 -1.5584004 18 3
-7.2821422 6.5706906 -1.204313 24 4
-9.4537611 8.5421267 -1.114722 17 5
-9.5642176 8.6510324 -0.6758666 17 6
-9.5090904 8.6102257 -0.22391438 18 7
-4.9508476 4.5080838 -1.7941337 10 0
-5.8040218 5.2905183 -1.8131055 21 1
-6.8846316 6.2843304 -1.8119223 10 2
-7.2052751 6.5839343 -1.5458857 20 3
-7.1757288 6.5638328 -1.1940759 27 4
-7.182816 6.5795288 -0.85220885 18 5
-12.004674 11.007966 -0.85359955 8 6
-4.9135776 4.5372953 -1.7920631 11 0
-5.7669458 5.3309093 -1.8131055 21 1
-6.7699971 6.26689 -1.7932231 13 2
-7.0823431 6.5629134 -1.5293034 17 3
-7.0686069 6.5570664 -1.183839 23 4
-7.05058 6.549511 -0.84192449 35 5
-11.791507 10.965017 -0.84386504 17 6
-9.3748341 8.7268906 -0.22356533 17 7
-4.8817816 4.5714879 -1.7920631 10 0
-5.6769843 5.3217273 -1.7964592 23 1
-14.818551 13.90095 1.0648274 3 9
-6.6945896 6.2844386 -1.7848274 13 2
-6.9974842 6.575675 -1.520856 18 3
-6.9821715 6.568172 -1.1770141 27 4
-6.9753757 6.5686669 -0.83826387 41 5
-4.8875718 4.6413741 -1.8060393 9 0
-5.6439319 5.3652577 -1.7978089 22 1
-8.6940517 8.2676678 0.62876427 2 9
-6.601881 6.2824931 -1.7714708 12 2
-6.8910632 6.5645638 -1.5074027 16 3
-6.8585854 6.5427637 -1.1638523 29 4
-6.8659496 6.5566583 -0.83059424 41 5
-4.8502979 4.6691761 -1.8039688 9 0
-5.6465697 5.4414144 -1.8104061 15 1
-6.5790524 6.3488779 -1.777195 10 2
-6.8138094 6.5823178 -1.5005195 7 3
-6.7710819 6.5478992 -1.1565402 25 4
-6.7713442 6.5573068 -0.82466763 40 5
-14.545486 14.100478 -1.0616874 19 6
-4.8258777 4.7110205 -1.8070747 9 0
-5.5694203 5.442565 -1.7978089 18 1
-6.7169809 6.5731597 -1.8268054 7 2
-6.7154808 6.5785794 -1.4889435 2 3
-6.6741791 6.5449739 -1.1477655 29 4
-6.6543226 6.5346198 -0.81595206 46 5
-8.6383896 8.4918842 -0.63483518 8 6
-4.7791424 4.7310047 -1.8018982 9 0
-5.4953003 5.4456487 -1.7861114 18 1
-6.7949538 6.7429709 -1.8607695 10 2
-8.2698193 8.2151518 -1.8462398 2 3
-6.5635772 6.5270195 -1.1365535 24 4
-6.5701542 6.5404048 -0.81107134 45 5
-8.6001139 8.5731344 -0.63640529 35 6
-4.7650838 4.7834163 -1.8091452 9 0
-5.4406519 5.4673052 -1.7807125 16 1
-6.4914541 6.5300899 -1.7897884 6 2
-8.1970062 8.2544327 -1.8424854 1 3
-6.4815073 6.5360346 -1.1302164 29 4
-6.4542241 6.5153403 -0.80235577 39 5
-8.4741259 8.5633316 -0.63138103 17 6
-4.7134585 4.7964487 -1.8018982 14 0
-5.3841991 5.4847431 -1.7744139 20 1
-6.6573601 6.7911525 -1.8485577 6 2
-8.5929012 8.7686577 1.0741073 2 10
-8.1115398 8.2832279 -1.836228 2 3
-6.3757911 6.5175638 -1.1194919 29 4
-6.3863053 6.5374379 -0.79956681 45 5
-8.4015818 8.6094189 -0.63043898 17 6
-4.7067461 4.8569841 -1.812251 13 0
-5.3186698 5.494194 -1.7654159 21 1
-6.5224547 6.7471271 -1.8241341 12 2
-7.9739242 8.2572412 -1.8180816 11 3
-6.2805171 6.5104852 -1.1107173 21 4
-6.2769265 6.5158567 -0.79154849 49 5
-8.2027845 8.5239487 -0.61997181 26 6
-4.6420264 4.8576007 -1.8003453 11 0
-5.3097868 5.562202 -1.7753137 15 1
-6.5930467 6.9161253 -1.8573349 4 2
-7.8915634 8.2869558 -1.8124499 4 3
-6.2048135 6.5225286 -1.105355 23 4
-6.1873713 6.5132961 -0.78597051 44 5
-8.0825806 8.5172634 -0.61536622 18 6
-4.5947509 4.8758316 -1.795169 12 0
-5.2280827 5.55373 -1.7609169 19 1
-6.3307991 6.7345428 -1.7966576 12 2
-7.7659078 8.2698479 -1.7968066 9 3
-6.1102319 6.5135694 -1.0965804 21 4
-6.1008868 6.5127096 -0.7807411 49 5
-8.0938883 8.6493139 -0.6208092 8 6
-4.5974216 4.9474134 -1.8096628 11 0
-5.1573644 5.5558147 -1.7501192 20 1
-6.3570337 6.8577666 -1.8176465 19 2
-7.6677184 8.2803822 -1.7874204 9 3
-6.0241718 6.5123501 -1.0892683 16 4
-6.0158501 6.5101881 -0.7755118 48 5
-8.1985512 8.8846827 -0.63357919 8 6
-4.532752 4.94663 -1.7977571 13 0
-5.1526628 5.6290579 -1.7618166 17 1
-6.3393555 6.9327521 -1.8260422 10 2
-7.5911956 8.310504 -1.7827275 13 3
-5.9531436 6.526381 -1.0846373 7 4
-5.9407325 6.5196266 -0.7716769 53 5
-9.8990984 10.875153 -0.77069938 17 6
-7.902143 8.6934805 -0.20506579 14 7
-4.5805879 5.0676579 -1.8303684 11 0
-5.1364293 5.6885891 -1.769465 14 1
-6.2579336 6.9403882 -1.8165017 12 2
-7.4708567 8.2943134 -1.7680227 10 3
-7.6253905 8.4747982 -1.3997915 7 4
-5.8471327 6.5075912 -0.76540172 53 5
-9.7455578 10.857789 -0.76462841 17 6
-7.7092915 8.5981808 -0.20157529 14 7
-4.485971 5.0331726 -1.8065571 19 0
-5.0745621 5.6995659 -1.7618166 16 1
-5.6940589 6.4043608 -1.6657627 22 2
-5.6891131 6.4055495 -1.3569127 27 3
-8.460928 9.5331163 1.5650463 2 11
-5.680006 6.4110527 -0.74936509 52 5
-7.5847168 8.5699453 -0.59977013 37 6
-7.6053691 8.6023512 -0.20042343 70 7
-4.4443455 5.0571127 -1.8039688 13 0
-5.0372181 5.7377844 -1.7627165 16 1
-5.615561 6.4055724 -1.6558405 25 2
-5.6247339 6.4228196 -1.3522196 27 3
-5.6372552 6.4439216 -1.0512451 29 4
-71.800537 82.132706 17.278502 33 12
-5.6285563 6.443048 -0.74849349 63 5
-7.3789353 8.4556513 -0.58815157 28 6
-4.3836308 5.0588169 -1.7936161 13 0
-4.9587774 5.7286072 -1.7492194 17 1
-5.6130724 6.4936342 -1.6684339 10 2
-7.1586657 8.2904701 -1.7348584 8 3
-7.3762178 8.551465 -1.3866295 15 4
-71.331154 82.754669 17.304157 33 12
-5.606843 6.5093584 -0.75163114 57 5
-7.3119082 8.4978762 -0.58752352 28 6
-4.3607569 5.1039834 -1.7987925 13 0
-4.9313154 5.7779083 -1.7537185 20 1
-6.479403 7.6025147 -1.9416724 3 2
-7.06988 8.3041458 -1.7273496 10 3
-7.0411234 8.2791471 -1.3344694 18 4
-5.531599 6.5134144 -0.74762189 52 5
-7.1141515 8.3857517 -0.57632357 19 6
-4.3648458 5.1815829 -1.8153569 13 0
-4.9084239 5.8330688 -1.760017 14 1
-6.3706007 7.5814266 -1.9248812 3 2
-7.016818 8.3593493 -1.728601 9 3
-7.1489668 8.5258436 -1.3661555 16 4
-5.4271541 6.4816036 -0.73960358 46 5
-7.0797815 8.4643221 -0.57831234 29 6
-4.2866001 5.1613998 -1.7977571 13 0
-4.8850017 5.8881917 -1.7663157 17 1
-6.145927 7.4185948 -1.8725995 4 2
-6.9205017 8.3624811 -1.719215 9 3
-7.0778837 8.5617781 -1.3639618 13 4
-5.3549991 6.4845972 -0.7357688 51 5
-6.9544454 8.4334116 -0.57286942 20 6
-4.2578053 5.2001681 -1.8008629 13 0
-4.8363724 5.9131007 -1.7636162 19 1
-5.4717231 6.697052 -1.6810273 10 2
-6.0528021 7.4161787 -1.516163 4 3
-6.0560479 7.4307394 -1.1770141 3 4
-5.2869582 6.49401 -0.73263115 46 5
-6.9220824 8.5115433 -0.57496285 19 6
-6.9472632 8.5547075 -0.19236042 13 7
-4.2587194 5.2741208 -1.8163921 13 0
-4.8033519 5.9549847 -1.7663157 17 1
-5.2167082 6.4766927 -1.6165339 12 2
-6.7327251 8.367836 -1.7010686 9 3
-6.8422685 8.5131054 -1.3410504 18 4
-5.2176852 6.4987745 -0.72914493 40 5
-6.7850351 8.4630489 -0.56847322 10 6
-6.868876 8.5768213 -0.19180195 13 7
-4.188108 5.2614031 -1.8018982 13 0
-4.7519588 5.9761715 -1.7627165 21 1
-5.1297646 6.4582467 -1.6031773 19 2
-6.6682439 8.4041853 -1.6991913 9 3
-6.7099366 8.4688673 -1.3266698 13 4
-5.1425133 6.4975481 -0.72496146 45 5
-4.1610818 5.3049183 -1.8065571 14 0
-4.6766205 5.9686055 -1.7505691 24 1
-5.0556707 6.4616599 -1.5947818 19 2
-6.5249581 8.3485613 -1.6782292 14 3
-6.6064072 8.4619017 -1.318139 10 4
-5.0604458 6.4910731 -0.72008073 40 5
-6.6585808 8.5502424 -0.56794983 40 6
-4.1121311 5.3185534 -1.8013806 10 0
-4.5752797 5.9239941 -1.728074 23 1
-4.9888549 6.4688134 -1.5879126 22 2
-6.468926 8.3970394 -1.6788548 17 3
-6.5047979 8.452754 -1.3096081 19 4
-4.9810143 6.482008 -0.71520001 40 5
-6.6048074 8.6044416 -0.56847322 10 6
-4.0901227 5.3671069 -1.80811 9 0
-4.5302701 5.9511395 -1.7267244 21 1
-4.9066801 6.4526138 -1.5757008 22 2
-6.3766975 8.3979464 -1.6700946 17 3
-6.4936137 8.5612249 -1.3193576 18 4
-4.8982739 6.4649448 -0.70962203 39 5
-8.110589 10.716343 -0.70433736 8 6
-4.0476904 5.3871026 -1.8055217 10 0
-4.3867149 5.8446827 -1.687133 35 1
-4.8343801 6.4481635 -1.5665419 18 2
-6.2640219 8.3641596 -1.6550769 18 3
-6.3617759 8.5039635 -1.3040022 20 4
-4.8279257 6.4630184 -0.70578718 48 5
-6.2959528 8.4374371 -0.55172575 21 6
-4.0141754 5.4169321 -1.8065571 10 0
-4.4788733 6.0506382 -1.7379718 12 1
-4.771709 6.455658 -1.560436 18 2
-6.1952143 8.3907099 -1.6519481 15 3
-6.3010783 8.5465689 -1.3037584 15 4
-4.7601924 6.4636464 -0.70230097 39 5
-10.162902 13.819944 -0.89902717 9 6
-6.2566261 8.5173655 -0.18447194 18 7
-3.9673364 5.4345956 -1.8029336 9 0
-5.8747997 8.0534067 0.17400049 9 8
-4.4412022 6.0904064 -1.7402214 25 1
-4.690722 6.4420252 -1.5489874 22 2
-6.1373372 8.4380207 -1.6525738 10 3
-6.2689214 8.6315937 -1.3098518 21 4
-4.6810584 6.4523883 -0.6974203 34 5
-11.736938 16.20204 -1.0484986 9 6
-6.2353745 8.6170006 -0.18565871 18 7
-3.9001493 5.4236355 -1.7899926 12 0
-4.3429356 6.0460596 -1.718626 20 1
-4.6193304 6.4403296 -1.540592 22 2
-6.0698957 8.4720888 -1.6506966 14 3
-7.8374629 10.951286 -1.6535234 21 4
-4.6058059 6.4451938 -0.69306242 52 5
-5.9933743 8.3961954 -0.54063052 10 6
-3.8566055 5.4428501 -1.7874043 13 0
-4.2510848 6.0062442 -1.6988304 10 1
-4.5515947 6.4403558 -1.5329596 19 2
-5.9866776 8.4803686 -1.6441264 11 3
-8.4241276 11.941958 1.7944044 0 11
-7.7516665 10.992757 -1.6515735 4 4
-4.5411978 6.4494972 -0.69009912 47 5
-5.9311647 8.4329309 -0.54031646 21 6
-3.7621152 5.3888564 -1.7610049 12 0
-4.1365948 5.9318757 -1.6695868 14 1
-4.4751091 6.4268627 -1.5222743 24 2
-5.7536249 8.2722168 -1.5959446 21 3
-5.9180164 8.5180807 -1.2735348 13 4
-4.4722018 6.4442492 -0.68626434 37 5
-5.8641844 8.4626417 -0.53958374 32 6
-3.7539606 5.4579654 -1.774981 13 0
-4.3168845 6.2834563 -1.760017 20 1
-4.4179287 6.4377503 -1.5176948 24 2
-5.6491585 8.2411289 -1.5824912 19 3
-5.7574949 8.4117575 -1.2515982 11 4
-4.4023647 6.4391294 -0.68242943 37 5
-5.7343569 8.3968029 -0.53288472 33 6
-3.7319 5.5057774 -1.782228 9 0
-4.1898918 6.1884403 -1.7253746 23 1
-4.3398938 6.4196405 -1.5062463 26 2
-5.6224408 8.3262053 -1.5912516 13 3
-5.7345161 8.50177 -1.2591542 16 4
-4.350626 6.4597912 -0.68138355 37 5
-5.6443815 8.3902321 -0.52995396 22 6
-7.21947 10.743704 -0.22593886 18 7
-3.6987348 5.5397301 -1.7848163 11 0
-4.164968 6.2451019 -1.7330229 18 1
-4.2666755 6.4072981 -1.4963243 24 2
-5.6967425 8.5580683 0.89944726 1 10
-5.4416451 8.1810408 -1.5562103 19 3
-5.586041 8.4076691 -1.2394112 11 4
-4.2856002 6.4601202 -0.67824602 37 5
-7.1268859 10.75531 -0.67618066 17 6
-7.1442885 10.793842 -0.22593886 18 7
-3.682261 5.5993133 -1.7956866 9 0
-4.0998693 6.2414513 -1.7240249 18 1
-4.2089224 6.4172268 -1.4917448 22 2
-5.4082174 8.2551804 -1.5630934 13 3
-5.5130816 8.4248657 -1.2362427 21 4
-4.2022491 6.4315066 -0.67214507 27 5
-5.5059438 8.4364433 -0.52796519 22 6
-3.6430807 5.6248837 -1.7956866 9 0
-3.7619307 5.8150578 -1.5989521 10 1
-3.7549672 5.8131876 -1.3452035 9 2
-8.3499146 12.931727 1.3467305 2 10
-5.3290353 8.2595387 -1.556836 8 3
-5.3896108 8.3630333 -1.2216184 20 4
-4.1389217 6.4322019 -0.66918176 31 5
-5.3864431 8.3805857 -0.52210355 22 6
-3.5715191 5.599689 -1.7796398 11 0
-3.6929717 5.796803 -1.5868047 13 1
-3.704809 5.8243523 -1.341769 13 2
-3.7129629 5.8439255 -1.0966057 18 3
-3.7366588 5.8880291 -0.8562541 35 4
-4.0150404 6.3340163 -0.65610844 21 5
-5.2530317 8.2998533 -0.51477653 22 6
-3.5066528 5.5835867 -1.7666988 13 0
-3.6461995 5.8125386 -1.5841054 10 1
-3.6431873 5.8144979 -1.3337549 11 2
-3.658427 5.8456211 -1.0922256 13 3
-3.6512802 5.8432679 -0.84601706 24 4
-3.4482396 5.5744677 -1.7563461 14 0
-3.6116714 5.8455129 -1.5863549 9 1
-3.590137 5.8197403 -1.3291756 11 2
-41.587807 67.441658 6.9320188 46 10
-3.6030209 5.8474746 -1.0878454 15 3
-5.6023612 9.0993881 1.3120455 2 11
-3.6051788 5.857842 -0.8445546 23 4
-3.6200721 5.8981719 -0.36268821 12 6
-3.665292 5.9788671 -0.12241118 22 7
-3.4444089 5.6561532 -1.7744634 10 0
-3.6589661 6.0108504 0.12283003 26 8
-3.5849547 5.8938918 -1.5926535 21 1
-3.5657301 5.8692102 -1.3348998 13 2
-41.260708 67.968796 6.9564223 47 10
-3.5662088 5.8769302 -1.088784 12 3
-3.56831 5.8896599 -0.84552956 23 4
-3.565377 5.898747 -0.3612228 24 6
-3.5831668 5.9375386 -0.1210499 27 7
-3.3939064 5.659586 -1.7682518 10 0
-3.5953319 6.0002251 0.12209704 29 8
-3.5707853 5.9616256 -1.6043509 17 1
-3.5939672 6.0050764 0.36677042 14 9
-3.5528822 5.9411397 -1.3455851 15 2
-3.6106915 6.0401955 0.61566812 15 10
-3.5413008 5.9288182 -1.0937898 21 3
-3.7306042 6.2507033 0.89378983 1 11
-3.5301719 5.9172215 -0.84601706 23 4
-3.51861 5.9072099 -0.60154891 114 5
-3.5200243 5.9166284 -0.36080414 24 6
-3.5375605 5.9531951 -0.12087537 33 7
-3.336637 5.6531959 -1.7589344 12 0
-3.5442095 6.0096784 0.12178289 36 8
-3.5316796 5.9956045 0.36467698 16 9
-4.7182755 8.0164337 -1.8081062 3 2
-3.5411537 6.0188918 0.61096174 12 10
-3.5408711 6.0232148 -1.1066176 16 3
-3.5410891 6.0284071 0.85844773 14 11
-3.5108886 5.9793825 -0.85137933 17 4
-3.5536036 6.056972 1.1122491 18 12
-3.4883678 5.9505377 -0.60346633 111 5
-3.4927609 5.9651875 -0.36226952 24 6
-3.5019703 5.9881039 -0.12108479 33 7
-3.3029108 5.6863747 -1.76204 10 0
-3.5061858 6.0411921 0.12192252 39 8
-3.6935394 6.3665633 -1.6992803 0 1
-3.4917426 6.0235686 0.36488631 16 9
-4.5677276 7.8860903 -1.7714708 12 2
-3.5000489 6.0451899 0.61113608 13 10
-3.7044816 6.403441 -1.1716943 30 3
-3.4860015 6.0306392 0.85527909 14 11
-4.9190516 8.5131855 -1.2072377 31 4
-3.4816008 6.0303111 1.1028631 18 12
-3.5100567 6.086956 1.3658109 21 13
-3.4649937 6.0136528 -0.36373493 24 6
-3.5265589 6.1254501 1.6317949 16 14
-3.4630723 6.0176058 -0.12118951 35 7
-3.2477942 5.6824594 -1.753758 11 0
-3.4619412 6.0620494 0.1218527 43 8
-3.6045613 6.3143439 -1.6785848 0 1
-3.4555423 6.058208 0.36551434 16 9
-4.5631146 8.0064802 -1.791315 4 2
-3.4498672 6.0556297 0.60974157 16 10
-3.6450315 6.4033947 -1.1670012 31 3
-3.4340036 6.0375729 0.85284173 15 11
-4.7466741 8.3488646 -1.1792079 11 4
-3.4423466 6.0596213 1.1038017 26 12
-3.4510088 6.0822825 1.3593234 19 13
-4.815733 8.4944763 -0.51174104 11 6
-3.4635391 6.1143141 1.622347 15 14
-3.4505365 6.0938396 -0.12223665 24 7
-3.4484234 6.0950685 1.8764381 19 15
-3.2042563 5.6982589 -1.7516873 11 0
-3.4528399 6.1453447 0.12303946 37 8
-3.4268479 6.1065693 0.36697978 14 9
-3.5305998 6.2966013 -1.4032094 24 2
-3.4211478 6.1038976 0.6121819 16 10
-3.5278478 6.2994223 -1.1435361 30 3
-3.4043713 6.08392 0.85601032 13 11
-3.5195959 6.2924128 -0.88525897 26 4
-3.4009225 6.0852308 1.1041147 22 12
-3.51841 6.3006129 -0.63135618 48 5
-3.4036748 6.0976567 1.3574153 18 13
-4.6823792 8.3953209 -0.50378597 23 6
-3.4112854 6.1213207 1.617848 16 14
-4.7634869 8.5512648 -0.17085907 10 7
-3.4104853 6.1274343 1.8790263 18 15
-3.1681376 5.727252 -1.753758 10 0
-3.4840062 6.3060617 -1.6632881 42 1
-3.4751768 6.3004675 -1.39863 26 2
-3.4092343 6.1834655 0.61775988 10 10
-3.4704394 6.299675 -1.139156 30 3
-3.3742585 6.130146 0.8591789 15 11
-3.4803653 6.3255272 -0.88647765 25 4
-3.370728 6.1313286 1.1081818 25 12
-3.4820113 6.3389926 -0.63275069 49 5
-3.371419 6.1401987 1.361613 20 13
-4.6082807 8.3997908 -0.50211126 34 6
-3.3665938 6.1415691 1.6169481 12 14
-4.6709967 8.5246878 -0.1696723 10 7
-3.3592782 6.1358428 1.8743677 15 15
-3.1317697 5.7560182 -1.7558285 11 0
-3.4519928 6.3524904 -1.6691369 35 1
-3.4535747 6.3659911 -1.4077889 17 2
-3.4593115 6.3845382 -1.1501063 22 3
-4.4810328 8.2805843 -1.1560526 20 4
-3.3250225 6.1494985 1.1072433 10 12
-4.5784121 8.4711266 -0.8424474 11 5
-3.3350005 6.1756787 1.3642844 17 13
-4.509697 8.3579321 -0.49771497 11 6
-3.3404374 6.1935005 1.6245965 13 14
-3.3273504 6.1795568 1.8805792 15 15
-3.0887747 5.7726321 -1.7542756 9 0
-4.2994485 8.0555353 -1.7749053 7 2
-3.4018352 6.3817897 -1.1454133 26 3
-4.4305749 8.3256865 -1.1580026 20 4
-4.4911094 8.4501038 -0.83721811 11 5
-4.4583201 8.3990192 -0.49834302 23 6
-3.3226836 6.2648745 1.6371938 3 14
-4.4560146 8.4088449 -0.16611201 10 7
-3.3286154 6.2840052 1.9054259 33 15
-3.0323164 5.7610407 -1.7444404 10 0
-3.8555453 7.3343916 -1.9129838 2 1
-4.2367196 8.0731869 -1.772234 6 2
-3.3461945 6.3843875 -1.1416589 28 3
-4.305676 8.2255058 -1.1399659 21 4
-4.3397312 8.3046694 -0.81978685 23 5
-4.3219523 8.2812071 -0.48955056 12 6
-3.0000107 5.797513 -1.7490991 9 0
-3.7872446 7.3282375 -1.9044356 3 1
-27.630772 53.510677 3.1561725 0 9
-4.1388521 8.0223074 -1.7546796 6 2
-3.2834492 6.3724718 -1.1354015 30 3
-4.2499671 8.258893 -1.1404535 15 4
-4.2871103 8.345397 -0.82083273 17 5
-4.2913842 8.3644886 -0.49269074 11 6
-4.3159428 8.4232121 -0.16520448 20 7
-2.9577143 5.8148704 -1.7480639 9 0
-3.7298169 7.3423352 -1.9012864 5 1
-26.905794 53.01125 3.1155598 0 9
-4.0818534 8.0492582 -1.754298 13 2
-3.2237055 6.365283 -1.1300827 37 3
-4.2531266 8.4088192 -1.1570276 18 4
-4.2086463 8.3317051 -0.81664932 23 5
-4.2041078 8.3371773 -0.48934123 24 6
-2.9153192 5.8319211 -1.7470287 9 0
-3.679337 7.3699389 -1.9017363 3 1
-27.06871 54.24398 3.1771069 1 9
-4.0120811 8.0469856 -1.7478106 12 2
-28.691051 57.59565 5.6295638 11 10
-3.1670959 6.3605533 -1.1253897 28 3
-4.1527948 8.3547573 -1.1455719 21 4
-4.166327 8.3930035 -0.81978685 17 5
-4.1969438 8.4658079 -0.4952029 11 6
-2.8747029 5.849896 -1.746511 10 0
-3.134562 6.3871446 -1.6425927 0 1
-3.9635782 8.0906658 -1.751245 15 2
-28.321127 57.836132 5.6340957 11 10
-3.1104634 6.357666 -1.1210095 27 3
-4.0757856 8.3418083 -1.1399659 16 4
-4.1181078 8.4433765 -0.82187861 23 5
-4.1001267 8.4176931 -0.49070197 24 6
-6.5368271 13.438184 -0.26084366 25 7
-2.8220344 5.8454666 -1.739264 11 0
-3.1914527 6.6195173 -1.6965809 15 1
-27.347076 56.772297 3.3025038 7 9
-3.8474011 7.9943066 -1.7245318 16 2
-28.056583 58.323299 5.662334 11 10
-3.0540228 6.3543005 -1.1166294 27 3
-3.9702058 8.2716303 -1.1265603 23 4
-3.9824474 8.3120031 -0.80636495 28 5
-4.0248857 8.4118786 -0.4887132 24 6
-2.789434 5.8824816 -1.7444404 10 0
-3.1818597 6.7191315 -1.7163765 2 1
-3.8099549 8.0600204 -1.7329274 15 2
-27.766188 58.766357 5.686389 12 10
-2.9994678 6.3540306 -1.1128749 31 3
-3.9453745 8.369174 -1.1360661 16 4
-3.9329329 8.369276 -0.484631 24 6
-2.7417743 5.8878016 -1.7402993 10 0
-3.1743164 6.8259974 -1.7379718 7 1
-25.260803 54.370045 3.1419373 0 9
-3.7254882 8.025877 -1.7199525 10 2
-26.964476 58.116547 5.6051602 10 10
-2.9483893 6.3604789 -1.1103719 28 3
-3.8584974 8.3352642 -1.127779 16 4
-3.8334119 8.2962608 -0.79956681 22 5
-10.494726 22.723076 4.8652482 3 13
-3.8585091 8.362071 -0.48264223 24 6
-3.8420947 8.3379717 -0.160248 9 7
-2.7158678 5.9401798 -1.7501343 9 0
-3.0731697 6.7309918 -1.7082783 15 1
-3.6384289 7.9838042 -1.7054509 13 2
-25.04006 54.970825 5.2847753 1 10
-2.8908212 6.3521399 -1.1053661 34 3
-3.7952845 8.3511553 -1.1263165 16 4
-3.744946 8.2556868 -0.79311723 27 5
-3.7555344 8.2905636 -0.47698995 36 6
-3.8035715 8.4083176 -0.16108571 23 7
-2.6743286 5.9589963 -1.7501343 9 0
-3.0643551 6.8376436 -1.7298737 15 1
-24.394766 54.484104 3.1285391 0 9
-3.5946274 8.0358925 -1.7111752 10 2
-26.34236 58.916611 5.6462975 11 10
-2.835125 6.3469162 -1.1009859 33 3
-5.5731454 12.488152 1.679116 0 11
-3.7110121 8.3194351 -1.1185169 18 4
-3.7034266 8.3180323 -0.79660344 28 5
-3.6853929 8.2892056 -0.47541988 24 6
-3.7025828 8.3396292 -0.15927066 18 7
-2.6163127 5.940393 -1.739264 11 0
-2.917696 6.6341047 -1.6731859 15 1
-3.5550141 8.0985413 -1.719189 18 2
-24.394979 55.599701 5.3119678 2 10
-2.7780573 6.3376074 -1.09598 34 3
-3.5843854 8.1887484 -1.0975554 14 4
-3.6148028 8.2700233 -0.78963101 33 5
-3.6306276 8.322053 -0.47583854 24 6
-2.5832064 5.9780207 -1.744958 9 0
-2.8226702 6.5415878 -1.6448421 16 1
-3.4998066 8.1225519 -1.719189 10 2
-24.207922 56.237141 5.3565917 3 10
-2.7208011 6.3237085 -1.0903484 30 3
-3.5593388 8.3005505 -0.79015392 16 5
-3.5999269 8.4236107 -0.15989895 27 7
-2.5484891 6.0096941 -1.7490991 9 0
-2.6838539 6.3381333 -1.5890542 16 1
-3.3795815 7.9966917 -1.6875149 4 2
-2.6704459 6.3279881 -1.0878454 28 3
-3.488873 8.2794628 -1.1031613 16 4
-3.4811199 8.2731647 -0.78527319 11 5
-2.49757 6.0059342 -1.7428875 9 0
-3.3107843 7.9850531 -1.6802641 15 2
-23.363138 56.403584 5.3412523 3 10
-2.6182432 6.3241172 -1.0840909 28 3
-3.368068 8.1513433 -1.0829312 19 4
-3.4468303 8.3543634 -0.79067689 27 5
-3.407505 8.2713289 -0.46882552 37 6
-2.441309 5.9852314 -1.7320172 11 0
-2.5822439 6.3402443 -1.5805061 42 1
-5.6265011 13.828695 0.7824226 2 9
-3.2771351 8.0625343 -1.6917126 10 2
-23.169147 57.030159 5.3855276 4 10
-2.5665998 6.3239379 -1.0809623 31 3
-3.339345 8.2403107 -1.0917057 31 4
-3.3301587 8.2341518 -0.7770806 26 5
-3.3466897 8.2875071 -0.46840689 25 6
-2.41309 6.036212 -1.7418523 9 0
-2.5306935 6.3400183 -1.5760071 42 1
-3.203331 8.0414429 -1.6825539 18 2
-2.5180075 6.330689 -1.0790851 33 3
-22.259489 56.020977 7.4016132 1 11
-3.2553589 8.1970062 -1.0829312 20 4
-3.2498353 8.1997805 -0.7716769 10 5
-3.2975693 8.3329544 -0.4696629 37 6
-3.3089809 8.3746042 -0.15717638 9 7
-2.3504579 6.0007463 -1.7268407 11 0
-2.4764328 6.3321228 -1.5697085 40 1
-21.751141 55.673847 3.1325166 0 9
-3.1271267 8.0124016 -1.6718684 18 2
-22.348921 57.292393 5.3802981 4 10
-2.4651432 6.3260269 -1.0753307 30 3
-21.794394 55.986328 7.3767519 0 11
-3.1966136 8.2158327 -1.0824436 23 4
-3.2040465 8.2477131 -0.77411723 10 5
-3.2169342 8.2980442 -0.46641809 50 6
-2.3278863 6.0675111 -1.7413346 11 0
-2.4196215 6.3165002 -1.5616102 40 1
-21.390242 55.869102 3.1352382 0 9
-3.0837409 8.0628405 -1.6779745 15 2
-3.0420246 7.9621072 0.74570453 1 10
-2.4121602 6.3168244 -1.0709505 37 3
-21.550058 56.493198 7.4240375 1 11
-3.2056236 8.4123163 -1.105355 10 4
-23.160902 60.811592 10.306529 19 12
-3.1832299 8.3667126 -0.78318143 22 5
-3.1582487 8.3141479 -0.46610406 37 6
-3.1917295 8.4199886 -0.15717638 9 7
-2.2810946 6.0687494 -1.7371935 11 0
-2.3683538 6.3109293 -1.5562114 45 1
-20.915524 55.792664 3.1226776 0 9
-3.0142908 8.0492411 -1.6707237 12 2
-20.787197 55.538803 5.1882071 1 10
-2.3610837 6.3150077 -1.0678217 32 3
-21.246845 56.88773 7.4562106 1 11
-3.1010814 8.307478 -1.0887808 16 4
-22.717875 60.923672 10.298394 19 12
-3.9750752 10.66586 -0.9958415 21 5
-3.9564397 10.638547 -0.59485054 28 6
-3.0870109 8.314044 -0.15480286 21 7
-2.2406723 6.0899653 -1.7387464 13 0
-2.3168435 6.3071899 -1.5512625 38 1
-20.153955 54.895039 3.0646892 0 9
-2.9323924 7.9958434 -1.6554589 12 2
-20.460665 55.850929 5.2038951 0 10
-2.3126106 6.3160934 -1.0653188 32 3
-2.9885149 8.1797609 -1.0692817 19 4
-22.912462 62.74688 10.579977 12 12
-3.1017103 8.5033932 -0.79189706 11 5
-3.8832555 10.663353 -0.59474587 19 6
-2.1998217 6.1068931 -1.739264 11 0
-2.2718823 6.3173113 -1.5499128 40 1
-2.8612521 7.9736171 -1.6466817 21 2
-20.429781 56.964127 5.2945366 1 10
-2.2598016 6.3079081 -1.0612515 27 3
-20.693224 57.825687 7.5410318 3 11
-2.956166 8.2653341 -1.0778127 9 4
-22.241243 62.254238 10.470473 22 12
-2.9486191 8.257865 -0.7671448 16 5
-4.7357531 13.292204 -0.73950714 8 6
-2.9560013 8.3105984 -0.15396513 12 7
-2.1430099 6.0820169 -1.7278759 12 0
-2.2238441 6.3219881 -1.5472133 42 1
-2.836834 8.0781174 -1.6642361 18 2
-20.003901 57.026405 5.2872157 1 10
-2.2115843 6.3082304 -1.0587486 26 3
-20.2952 57.95396 7.5395694 2 11
-3.6462569 10.423732 -1.3559184 19 4
-21.849571 62.497425 10.486116 11 12
-3.6870263 10.558014 -0.97841036 14 5
-3.6661634 10.515974 -0.58365065 19 6
-2.1055315 6.1114421 -1.7320172 11 0
-2.169513 6.3078747 -1.5400149 48 1
-2.6973903 7.8605194 -1.6153891 19 2
-2.1625462 6.3126826 -1.0568714 26 3
-19.836271 57.969994 7.5229955 2 11
-3.5843167 10.480865 -1.360062 10 4
-2.8071356 8.2270708 -0.76052105 10 5
-2.7929349 8.1994953 -0.45396215 12 6
-2.0628142 6.1259923 -1.7320172 10 0
-2.1179719 6.3007011 -1.5346161 48 1
-17.795786 53.00148 2.9300811 0 9
-2.6605511 7.9331379 -1.6264559 10 2
-2.1134055 6.3126402 -1.0543684 26 3
-19.20822 57.440617 7.4367118 1 11
-2.7314527 8.1729298 -1.0580697 19 4
-2.9698195 8.8964872 1.4855019 3 12
-2.722532 8.1651926 -0.75302559 26 5
-2.760854 8.2945948 -0.45814902 12 6
-2.0151668 6.1255631 -1.7278759 12 0
-2.0702851 6.304225 -1.5319167 64 1
-2.6582801 8.1138325 -1.6596566 9 2
-19.167301 58.538624 5.3890138 4 10
-2.0662136 6.3178539 -1.0528041 19 3
-18.858517 57.731819 7.4571857 1 11
-2.6854177 8.2257671 -1.0624571 31 4
-3.4114208 10.474384 -0.96376818 13 5
-2.7055218 8.3366375 -0.15298781 12 7
-1.9782648 6.1578736 -1.7330524 11 0
-2.0208673 6.3018236 -1.5278676 52 1
-2.52859 7.9040661 -1.6130993 13 2
-18.479078 57.798027 5.3088303 2 10
-2.021455 6.3302422 -1.0524912 14 3
-18.59013 58.285706 7.5117836 2 11
-2.6206911 8.2216177 -1.0595322 19 4
-2.6481104 8.3277245 -0.76453012 26 5
-2.6314797 8.290453 -0.45584619 12 6
-2.6424232 8.3400707 -0.15270855 8 7
-1.923088 6.1328244 -1.722182 13 0
-1.9698406 6.2934604 -1.5224687 56 1
-2.4610636 7.8821712 -1.6050854 12 2
-17.983702 57.63274 5.2819867 1 10
-1.9666359 6.3102536 -1.0468596 13 3
-18.070698 58.053936 7.4654727 2 11
-2.5561535 8.2169676 -1.0566072 25 4
-2.5618229 8.2504187 -0.75581461 31 5
-2.581811 8.3353329 -0.45731166 12 6
-2.5640519 8.2933598 -0.15152179 8 7
-1.8864424 6.1664214 -1.7278759 10 0
-1.9167506 6.2772388 -1.5152704 56 1
-2.4605839 8.0733919 -1.6405759 10 2
-18.597429 61.09626 5.5873799 9 10
-1.9178857 6.3045964 -1.0437309 8 3
-17.922104 58.988522 7.5697927 3 11
-2.4353213 8.0256605 -1.0297961 21 4
-2.4885681 8.2166166 -0.75110817 15 5
-3.1919551 10.558946 -0.57810301 19 6
-3.124964 10.363454 -0.18893975 19 7
-1.8289537 6.1272874 -1.7133821 11 0
-1.8728652 6.2864046 -1.5143706 47 1
-15.842056 53.242893 2.9112403 0 9
-2.4131088 8.1204824 -1.6466817 10 2
-16.832321 56.679581 5.1728673 1 10
-2.4057562 8.1112919 -1.3400177 10 3
-17.536884 59.203575 7.5814924 3 11
-3.871568 13.078563 -1.6747286 5 4
-2.4325852 8.2333641 -0.75110817 21 5
-4.6334887 15.722985 -0.85904253 8 6
-3.1209328 10.610861 -0.19305852 13 7
-1.7456615 6.0007849 -1.6745592 14 0
-1.8234987 6.2806125 -1.5098715 59 1
-15.530478 53.525963 2.9208698 0 9
-2.3293648 8.0386648 -1.6268375 10 2
-16.550306 57.189968 5.208776 0 10
-2.3954897 8.283083 -1.3656731 9 3
-17.10047 59.207134 7.5668683 3 11
-3.0517528 10.579967 -1.3520186 7 4
-2.3866217 8.2903547 -0.75476873 31 5
-2.3974748 8.3445015 -0.45500883 12 6
-1.7616886 6.2132559 -1.7304642 9 0
-1.7679712 6.2478766 -1.4990739 42 1
-2.2635894 8.0207214 -1.6199685 10 2
-16.174704 57.351154 5.2133079 1 10
-2.269592 8.0581284 -1.3259387 14 3
-16.852259 59.913643 7.6419396 4 11
-3.0151193 10.726623 -1.3681054 11 4
-2.9476964 10.51493 -0.95540124 20 5
-2.9364672 10.496014 -0.57119471 20 6
-1.7367725 6.2924433 -1.7490991 9 0
-1.7315545 6.2863698 -1.5053725 59 1
-15.264716 55.493858 3.0163307 0 9
-2.22314 8.0931225 -1.6314169 18 2
-15.893119 57.896893 5.2527022 0 10
-2.236259 8.1575994 -1.3397049 14 3
-16.447201 60.079617 7.6482768 4 11
-2.2958703 8.3922863 -1.0683068 22 4
-3.0220964 11.077296 -1.0045571 14 5
-2.2293193 8.1883049 -0.44475099 26 6
-2.8915088 10.642511 -0.19250005 13 7
-1.7634383 6.5674872 -1.8220862 10 0
-1.6815728 6.2757168 -1.4999737 66 1
-2.1883779 8.1900053 -1.6478267 10 2
-15.307611 57.328854 5.1913447 0 10
-2.1868877 8.2016439 -1.344398 21 3
-16.191832 60.810654 7.7267609 5 11
-2.2055786 8.2891722 -1.0531949 13 4
-2.2113752 8.3285027 -0.75389719 10 5
-2.7323778 10.319749 -0.55947143 20 6
-2.7619712 10.453635 -0.18873031 25 7
-1.6843659 6.4525318 -1.7868867 11 0
-1.6357541 6.2797599 -1.4981741 66 1
-2.1192446 8.1534071 -1.6375229 10 2
-2.0987747 8.0920525 -1.3240615 14 3
-16.155783 62.379948 7.9120026 7 11
-2.1491466 8.3101339 -1.0539262 21 4
-2.9453015 11.396841 1.8643861 3 12
-2.7067804 10.488996 -0.94773155 13 5
-2.6237202 10.189178 -0.55141169 21 6
-2.6929026 10.488159 -0.18900958 12 7
-1.587661 6.256 -1.7294289 9 0
-1.5891473 6.2756352 -1.4945749 70 1
-2.0617909 8.1661005 -1.6371413 12 2
-14.525466 57.573101 5.1948309 0 10
-2.0711846 8.2214384 -1.3428336 6 3
-2.0644805 8.2190447 -1.0405205 18 4
-2.6741741 10.669977 -0.96237373 13 5
-2.6121202 10.44557 -0.56428635 30 6
-2.6109078 10.471777 -0.18838128 19 7
-1.635674 6.6442456 -1.8334742 11 0
-1.5404804 6.2717066 -1.4909756 73 1
-1.992117 8.1288099 -1.6268375 10 2
-2.0033963 8.1995888 -1.3368891 11 3
-2.5486631 10.455021 -1.3213075 3 4
-2.0223479 8.314909 -0.74866778 10 5
-2.5655458 10.580455 -0.57056665 10 6
-1.6237943 6.800189 -1.8733324 9 0
-1.4930423 6.2671432 -1.4873765 63 1
-1.9370731 8.1562271 -1.6295089 12 2
-14.590662 61.48307 5.5284629 8 10
-1.9310738 8.1499443 -1.3265644 13 3
-1.9513533 8.2547941 -1.0414956 12 4
-2.4947572 10.578288 -0.95086914 13 5
-2.457341 10.45229 -0.56271625 20 6
-2.4881933 10.608447 -0.19019634 13 7
-1.563217 6.7548952 -1.8578032 3 0
-1.4431187 6.2508302 -1.4810777 66 1
-1.864326 8.0946112 -1.6146259 21 2
-14.47362 62.942635 5.6504807 11 10
-1.8538789 8.0685644 -1.3112338 19 3
-1.8803772 8.2101669 -1.0341833 10 4
-2.4004269 10.5061 -0.94285083 13 5
-2.3510683 10.314937 -0.55444717 10 6
-2.4034388 10.578758 -0.18935861 12 7
-1.4994466 6.6862078 -1.8360624 3 0
-1.3996863 6.2567048 -1.480178 66 1
-1.7923876 8.0384455 -1.6008875 13 2
-13.543121 60.78772 5.4486284 6 10
-1.7962179 8.0755253 -1.3102952 17 3
-1.3841417 6.2383018 -0.78459489 16 4
-2.2667968 10.250245 -0.91844714 13 5
-1.8177822 8.240304 -0.4422389 26 6
-2.3416896 10.641746 -0.19019634 13 7
-1.4920532 6.8777542 -1.8857557 2 0
-1.352675 6.2510862 -1.4765787 66 1
-1.7366389 8.0526819 -1.6012691 10 2
-2.7975988 12.98328 1.1619604 1 10
-2.2503526 10.461314 -1.6948112 3 3
-1.3363919 6.228404 -0.78215748 21 4
-2.8034201 13.143915 -0.70433736 8 6
-2.2465341 10.560038 -0.18845108 12 7
-1.2664213 6.0409479 -1.6538538 3 0
-1.3066082 6.2489333 -1.4738793 66 1
-1.2807107 6.1464777 -1.2204144 17 2
-12.655707 60.791439 5.4325919 5 10
-1.2801554 6.1599612 -0.99648768 42 3
-1.273941 6.146224 -0.77070183 39 4
-1.7098026 8.2708578 -0.73890638 15 5
-1.6969097 8.2374935 -0.44077346 13 6
