# .PCD v0.7 - Point Cloud Data file format
VERSION 0.7
FIELDS x y z intensity ring
SIZE 4 4 4 4 2
TYPE F F F F U
COUNT 1 1 1 1 1
WIDTH 1320
HEIGHT 1
VIEWPOINT 0 0 0 1 0 0 0
POINTS 1320
DATA ascii
6.4076247 -4.2443318 -1.7744139 2 1
35.639904 -23.625338 2.240921 1 9
7.7840614 -5.163888 -1.8157386 3 2
10.192376 -6.7692342 -1.9379103 1 3
15.60637 -10.3767 -2.301137 5 4
40.736225 -27.157415 -2.5658228 0 6
5.4251437 -3.6441705 -1.7511697 4 0
6.3584328 -4.2759118 -1.7690151 5 1
35.586777 -23.9494 2.248039 2 9
7.7641048 -5.2290716 -1.8195547 3 2
10.223487 -6.8932323 -1.9529281 2 3
15.533547 -10.485401 -2.301137 6 4
40.555565 -27.447861 -2.5664508 0 6
5.4059544 -3.6863101 -1.7532402 4 0
6.3284259 -4.3201976 -1.7690151 4 1
35.537453 -24.278376 2.2555754 2 9
7.7598233 -5.3053088 -1.8271869 3 2
10.191416 -6.975595 -1.9560568 2 3
15.446867 -10.584611 -2.2991872 5 4
40.557209 -27.863775 -2.5788021 0 6
5.3991494 -3.7371542 -1.759452 3 0
6.3125277 -4.3742619 -1.7730643 3 1
35.473774 -24.599859 2.2623789 2 9
7.7306619 -5.3649492 -1.8290951 4 2
10.236561 -7.1119466 -1.9742032 2 3
15.388893 -10.703528 -2.3016248 5 4
40.51569 -28.253624 -2.5886414 0 6
5.3824124 -3.7814198 -1.7625577 3 0
6.3025575 -4.4327989 -1.7789129 4 1
35.432915 -24.930401 2.2705433 3 9
7.7132277 -5.4310093 -1.8336746 4 2
10.226664 -7.2087727 -1.981712 3 3
15.304064 -10.803831 -2.3001621 5 4
5.3659873 -3.8246958 -1.7656636 3 0
6.2754111 -4.47786 -1.7798127 5 1
35.37991 -25.264204 2.2783937 2 9
7.7022786 -5.5041294 -1.8401619 3 2
10.227499 -7.316771 -1.9917238 3 3
15.268903 -10.935493 -2.3060119 6 4
41.682983 -29.930204 -2.6893356 1 6
5.3454165 -3.8665936 -1.7677342 3 0
6.236105 -4.5158463 -1.7775632 3 1
33.478683 -24.261253 2.1668134 0 9
7.6811471 -5.5704455 -1.8443599 4 2
10.230519 -7.4274516 -2.0023613 4 3
15.179342 -11.032484 -2.3040619 6 4
31.168121 -22.711523 -2.0211101 1 6
5.3027191 -3.8923852 -1.7625577 4 0
6.2201309 -4.5708113 -1.7820623 3 1
35.303692 -25.961609 2.2966068 0 9
7.6626287 -5.6390615 -1.8493209 4 2
10.238851 -7.5432172 -2.0142503 4 3
15.098756 -11.135832 -2.3035746 6 4
5.2785144 -3.931618 -1.763593 3 0
6.1865067 -4.6129599 -1.7816124 5 1
7.6398001 -5.7028317 -1.8531371 4 2
10.23474 -7.6482096 -2.0236366 4 3
15.023826 -11.243345 -2.3040619 6 4
20.655607 -15.474873 -2.2580309 26 5
5.279377 -3.9884176 -1.7729106 3 0
6.187604 -4.6796484 -1.7910603 6 1
7.6138849 -5.7666965 -1.8565717 4 2
10.288134 -7.800631 -2.0449116 3 3
14.965919 -11.359752 -2.3069868 5 4
5.226872 -4.0063729 -1.7646283 3 0
6.151691 -4.7203584 -1.7901604 7 1
7.6014628 -5.8412433 -1.8634408 4 2
10.299185 -7.9228525 -2.0580521 3 3
14.883104 -11.461534 -2.3064992 5 4
19.964222 -15.396735 -2.2057374 27 5
5.2262249 -4.0641122 -1.7739457 3 0
6.1062856 -4.7536135 -1.7865613 6 1
7.5806265 -5.9098606 -1.8684019 4 2
27.619837 -21.54019 3.0643957 1 10
10.330828 -8.0626192 -2.0755727 3 3
14.79647 -11.560269 -2.3055246 6 4
5.1946917 -4.0981059 -1.7729106 3 0
6.0867147 -4.8069973 -1.7906104 5 1
31.275146 -24.717354 2.0891469 0 9
7.5607414 -5.9796891 -1.8737445 3 2
10.342433 -8.1884975 -2.089339 3 3
14.718514 -11.66575 -2.3060119 5 4
40.007828 -31.789474 -2.6780312 0 6
5.1780219 -4.1439276 -1.7770516 3 0
6.0697365 -4.8627763 -1.7955593 7 1
31.210909 -25.022541 2.0964739 2 9
7.5387192 -6.0482984 -1.8787055 4 2
10.485232 -8.4213085 -2.1300118 3 3
14.639808 -11.770708 -2.3064992 5 4
39.903107 -32.163265 -2.6859863 0 6
5.1436949 -4.1742077 -1.774981 3 0
6.0455718 -4.9113507 -1.7982588 6 1
31.157642 -25.33016 2.104429 2 9
7.492806 -6.0957541 -1.8775605 3 2
10.767701 -8.7694111 -2.1994689 7 3
14.580889 -11.887646 -2.3099117 5 4
5.1270971 -4.2189436 -1.7791222 3 0
6.0135055 -4.9536266 -1.7987086 4 1
31.123205 -25.655993 2.1138496 2 9
7.4844584 -6.1741009 -1.8859563 3 2
10.735177 -8.8651428 -2.2051005 7 3
14.484336 -11.973969 -2.3074741 5 4
31.082077 -25.759048 -2.115629 1 6
5.1130943 -4.2661209 -1.7842987 3 0
31.115818 -25.979975 0.70755547 0 8
5.9826393 -4.9969425 -1.7996083 3 1
30.984632 -25.897985 2.1163616 2 9
7.4693656 -6.2475743 -1.8928252 3 2
10.674585 -8.9380083 -2.2051005 7 3
14.411625 -12.079935 -2.3089368 5 4
5.0846334 -4.3059835 -1.7853339 3 0
5.9503088 -5.0444441 -1.8009582 6 1
30.938646 -26.247162 2.1263053 2 9
7.453301 -6.3275709 -1.9004576 3 2
10.610286 -9.0172949 -2.2054133 8 3
14.319663 -12.182679 -2.3084493 5 4
17.829203 -15.189946 -2.0492058 31 5
5.051517 -4.3388581 -1.7842987 3 0
5.9445 -5.1112714 -1.8099562 7 1
30.942387 -26.624048 2.1392848 2 9
7.4267983 -6.3948226 -1.905037 3 2
10.530616 -9.0769615 -2.2019718 7 3
14.231258 -12.279759 -2.3079619 5 4
19.031391 -16.462267 -1.3187616 32 6
5.0225601 -4.3752871 -1.7848163 2 0
5.9204211 -5.1628938 -1.8135554 7 1
30.916777 -26.979927 2.1504846 1 9
7.4174638 -6.4775081 -1.914196 3 2
10.474426 -9.1567583 -2.203536 8 3
14.142196 -12.376197 -2.3074741 5 4
19.021097 -16.686928 -1.3260885 32 6
5.0005794 -4.4179192 -1.787922 2 0
5.8988314 -5.21701 -1.8180546 8 1
30.882002 -27.322088 2.1609519 0 9
7.40554 -6.556478 -1.9225914 3 2
10.389682 -9.208189 -2.198843 7 3
14.068811 -12.486485 -2.3096681 4 4
19.002586 -16.900963 -1.3327876 32 6
4.9718308 -4.4531431 -1.7884396 3 0
5.866086 -5.2596426 -1.8189542 7 1
7.371273 -6.6185107 -1.9256444 3 2
10.319267 -9.2752171 -2.1975915 6 3
13.973165 -12.572664 -2.3079619 5 4
18.9835 -17.122839 -1.3398006 22 6
4.9377608 -4.4851465 -1.7874043 3 0
5.8349919 -5.3057117 -1.8207539 7 1
7.4247789 -6.7583971 -1.9515946 3 2
10.277797 -9.3652 -2.2022848 8 3
13.89678 -12.680611 -2.3099117 5 4
4.921329 -4.5317388 -1.7925807 3 0
5.8216672 -5.3664384 -1.8279523 7 1
29.054203 -26.80106 2.0715621 0 9
7.3658748 -6.7994146 -1.9485416 3 2
10.209263 -9.434041 -2.201659 8 3
13.819572 -12.788107 -2.3118618 5 4
4.8915982 -4.5694761 -1.7936161 3 0
5.7802701 -5.4052973 -1.8270525 7 1
28.778553 -26.930494 2.0655959 2 9
7.3354249 -6.8667707 -1.9531209 3 2
10.155906 -9.5203657 -2.2047877 8 3
13.727062 -12.881556 -2.3113742 5 4
4.8455534 -4.5902286 -1.7884396 4 0
5.765018 -5.4669747 -1.8342509 7 1
7.3231139 -6.954236 -1.963043 3 2
10.074877 -9.577424 -2.201659 8 3
13.648303 -12.988021 -2.313324 5 4
4.8412533 -4.6507115 -1.7987925 3 0
5.743567 -5.5232973 -1.8396497 7 1
7.3378425 -7.0638309 -1.9798342 3 2
10.012298 -9.6485214 -2.2022848 8 3
13.565869 -13.091259 -2.3147867 5 4
4.7901087 -4.6646876 -1.7915455 4 0
5.7030473 -5.5595446 -1.83875 7 1
26.799114 -26.143028 1.9620752 2 9
7.315042 -7.1409426 -1.987085 4 2
9.9404554 -9.7140427 -2.2013459 7 3
13.467931 -13.174965 -2.313324 5 4
4.7684231 -4.7088742 -1.7956866 4 0
5.6862702 -5.6211433 -1.8459483 7 1
26.733799 -26.446064 1.970763 8 9
7.2831488 -7.2097926 -1.992046 3 2
9.858367 -9.7692976 -2.1982174 7 3
13.38408 -13.277057 -2.3147867 5 4
4.7327032 -4.739315 -1.7946514 3 0
5.663404 -5.677259 -1.8513472 7 1
26.681068 -26.765018 1.9806021 7 9
7.2811322 -7.3091435 -2.0054026 4 2
9.7899237 -9.8378839 -2.1982174 7 3
13.288266 -13.367355 -2.3142991 5 4
4.7157669 -4.7887578 -1.8008629 4 0
5.6290979 -5.7222147 -1.8531467 7 1
26.636379 -27.095913 1.9912785 7 9
7.2368073 -7.3667998 -2.0073106 3 2
9.7127037 -9.8975306 -2.1963401 7 3
13.180723 -13.445622 -2.3118618 5 4
4.6902952 -4.8298783 -1.8039688 3 0
5.6052947 -5.7781587 -1.8585455 7 1
26.585583 -27.424614 2.0017457 6 9
7.2234488 -7.456625 -2.0179961 3 2
9.6351271 -9.9565792 -2.194463 7 3
13.090675 -13.541594 -2.312593 4 4
30.516258 -31.64469 -2.3039339 1 6
4.6698241 -4.8764577 -1.8091452 3 0
5.5729027 -5.8255992 -1.8612449 7 1
26.523209 -27.745251 2.011585 6 9
7.203764 -7.5409417 -2.0271549 3 2
9.5735655 -10.032177 -2.1963401 7 3
12.99171 -13.628343 -2.3118618 5 4
30.140442 -31.69486 -2.2922103 1 6
4.6489301 -4.9229851 -1.8143215 3 0
5.5334334 -5.8657804 -1.8616948 5 1
26.478197 -28.088156 2.0229943 5 9
7.2115207 -7.6553569 -2.0443277 4 2
9.5141249 -10.110275 -2.198843 7 3
12.913924 -13.737511 -2.3150301 4 4
30.082386 -32.079334 -2.3047709 1 6
4.6144481 -4.9553208 -1.8143215 2 0
5.5122585 -5.9256711 -1.8684435 6 1
26.436005 -28.428619 2.034508 3 9
7.226068 -7.7761745 -2.0634086 4 2
9.4558382 -10.186383 -2.2013459 7 3
12.868986 -13.882652 -2.3242922 4 4
45.386997 -49.065006 -3.5028458 22 6
4.5779982 -4.9837704 -1.8132863 3 0
5.494194 -5.987463 -1.8760917 5 1
26.379976 -28.768524 2.0456035 2 9
7.3214827 -7.989996 -2.1065314 3 2
9.3978319 -10.266721 -2.2044747 7 3
12.806577 -14.010252 -2.3306296 4 4
4.5474048 -5.02213 -1.8153569 4 0
5.4564376 -6.0324063 -1.8778914 5 1
26.320761 -29.119541 2.0571175 1 9
7.4076757 -8.1982365 -2.1477461 6 2
9.3241243 -10.333707 -2.2044747 7 3
12.757632 -14.153874 -2.339648 6 4
4.5122333 -5.0537539 -1.8153569 5 0
5.4193783 -6.076169 -1.8796909 4 1
26.270977 -29.475536 2.0692592 1 9
7.3945227 -8.3023462 -2.1611028 9 2
9.2701368 -10.41921 -2.2088549 7 3
12.611033 -14.189178 -2.3308733 5 4
29.76589 -33.573311 -2.3514547 0 6
4.4908834 -5.1010818 -1.8210509 6 0
5.4012794 -6.1416588 -1.888239 6 1
26.212158 -29.815678 2.0805638 0 9
7.345614 -8.3613367 -2.1633925 7 2
9.2068205 -10.490975 -2.2107322 7 3
12.54961 -14.320168 -2.3379416 4 4
29.657639 -33.91346 -2.3610845 0 6
4.4661913 -5.1432014 -1.825192 6 0
5.3785048 -6.2003632 -1.8949877 5 1
26.157738 -30.176025 2.0929151 0 9
7.2844911 -8.4094467 -2.1626294 7 2
9.138526 -10.56097 -2.2119834 7 3
12.501175 -14.462326 -2.3472037 4 4
41.494987 -48.123322 -3.3301373 11 6
4.4352016 -5.1801257 -1.8272625 6 0
5.3401532 -6.2436843 -1.8967873 4 1
26.120464 -30.550726 2.1065226 1 9
7.2168794 -8.4468937 -2.1595764 7 2
9.0638638 -10.619925 -2.2113578 7 3
12.526094 -14.697309 -2.3710902 4 4
40.765339 -47.932999 -3.297689 9 6
4.4014225 -5.2139144 -1.8282977 6 0
5.3215599 -6.3106084 -1.9057853 5 1
26.050472 -30.914019 2.1186645 1 9
7.1663675 -8.510334 -2.1626294 9 2
9.0054388 -10.705675 -2.2157381 6 3
12.515131 -14.893822 -2.3886392 4 4
40.026131 -47.752041 -3.26545 7 6
4.379745 -5.2623334 -1.8345095 6 0
5.2848492 -6.356596 -1.9084847 4 1
25.999939 -31.294844 2.1322718 1 9
7.1017628 -8.5541143 -2.1611028 7 2
8.9241762 -10.760681 -2.2141736 5 3
12.474168 -15.057263 -2.4008262 4 4
39.358444 -47.626938 -3.2380259 6 6
4.3441262 -5.2942743 -1.8350271 4 0
5.2564025 -6.4129295 -1.9143335 3 1
25.950415 -31.68264 2.1462977 1 9
7.0443583 -8.6065245 -2.1618662 7 2
8.8700914 -10.848719 -2.2194924 4 3
12.474225 -15.273128 -2.4213002 4 4
38.631397 -47.417435 -3.2053683 4 6
4.3192091 -5.3394928 -1.8402034 5 0
5.2384505 -6.4828162 -1.9242314 6 1
25.877232 -32.035664 2.1582303 1 9
7.0016441 -8.6741333 -2.1668272 6 2
8.8034821 -10.91807 -2.2213697 4 3
12.435768 -15.444883 -2.434706 3 4
37.974995 -47.265141 -3.1775258 2 6
4.2839694 -5.3702788 -1.8407211 6 0
5.205132 -6.5320387 -1.9282805 2 1
25.807228 -32.409279 2.1712098 1 9
6.945806 -8.7289476 -2.1683536 6 2
8.7159824 -10.965347 -2.218554 5 3
12.435274 -15.661314 -2.4554236 4 4
37.296886 -47.090714 -3.1482174 0 6
4.2499561 -5.4046121 -1.8422741 5 0
5.1882939 -6.6049972 -1.9390782 2 1
25.76285 -32.821175 2.1867011 1 9
6.8931794 -8.7880383 -2.1710248 7 2
8.6599312 -11.052361 -2.2238727 6 3
12.377024 -15.813401 -2.4656608 4 4
36.689445 -46.994156 -3.1245615 0 6
4.2286911 -5.4555259 -1.849521 5 0
5.1396699 -6.6379762 -1.9381782 3 1
25.699306 -33.215061 2.2009366 1 9
6.8316598 -8.835947 -2.1710248 7 2
8.5825596 -11.11255 -2.2238727 7 3
12.341502 -15.996869 -2.4807725 4 4
35.975567 -46.74897 -3.0914853 0 6
4.1858101 -5.4787745 -1.8474505 4 0
5.1121202 -6.698482 -1.9453768 4 1
25.631516 -33.609653 2.2151718 1 9
6.7626672 -8.8740559 -2.168735 7 2
8.5095577 -11.178483 -2.2251241 6 3
12.26557 -16.130043 -2.4880846 4 4
35.40451 -46.677547 -3.0703416 0 6
4.1544318 -5.5171227 -1.8505563 4 0
5.085145 -6.7604828 -1.953025 6 1
25.571459 -34.020874 2.2304542 1 9
6.7076244 -8.9304705 -2.1710248 7 2
8.4431639 -11.253418 -2.2282526 6 3
12.209808 -16.291527 -2.4997842 4 4
34.790783 -46.539654 -3.0452204 0 6
8.6730928 -11.62314 3.8859093 2 15
4.1250243 -5.5584021 -1.8546973 4 0
5.0494299 -6.8114729 -1.9575242 6 1
25.511656 -34.439293 2.2461548 1 9
6.6544609 -8.9897051 -2.174078 9 2
8.3831863 -11.337502 -2.2332587 6 3
12.147668 -16.446627 -2.5105085 4 4
34.16412 -46.372971 -3.0186336 1 6
4.0952425 -5.5995388 -1.8588384 2 0
5.0086522 -6.8560004 -1.9602236 6 1
25.444891 -34.855305 2.2616463 1 9
6.5776544 -9.0169086 -2.1694984 7 2
8.3201189 -11.418101 -2.237639 6 3
12.088629 -16.60807 -2.5222082 4 4
33.56263 -46.228916 -2.9939308 1 6
4.0605688 -5.6342621 -1.8609091 2 0
4.98913 -6.9303389 -1.9714712 5 1
25.386709 -35.277348 2.2777658 1 9
6.513834 -9.0582838 -2.168735 9 2
8.2399025 -11.471261 -2.2370131 6 3
12.037178 -16.782391 -2.5358574 4 4
32.963566 -46.060001 -2.9683909 0 6
4.0221238 -5.6617708 -1.8609091 1 0
4.9598856 -6.9895658 -1.9786695 4 1
6.4458966 -9.0971317 -2.1672087 9 2
8.1664639 -11.53818 -2.2388902 6 3
11.989134 -16.957951 -2.5499945 4 4
32.420216 -45.975613 -2.9482942 0 6
3.9802837 -5.6865463 -1.8598738 2 0
4.9422345 -7.0687399 -1.9912667 5 1
6.3973155 -9.1601105 -2.1717882 9 2
8.09904 -11.609701 -2.2420189 6 3
11.943068 -17.145483 -2.5655937 4 4
31.878546 -45.867214 -2.9273596 0 6
3.9656186 -5.7484913 -1.8712618 1 0
4.9050627 -7.1182642 -1.9957658 5 1
6.33321 -9.2045488 -2.1717882 7 2
8.0110788 -11.656192 -2.2401419 6 3
11.893497 -17.32457 -2.5802178 4 4
31.769695 -46.398464 -2.9470379 1 6
3.9340775 -5.7888184 -1.8754028 1 0
4.8771391 -7.1845808 -2.0047638 5 1
6.2748175 -9.2539434 -2.1733146 7 2
7.9537077 -11.743162 -2.2463992 6 3
11.794501 -17.440069 -2.5850928 4 4
31.669861 -46.934822 -2.9673443 0 6
3.8902833 -5.8090425 -1.8733324 2 0
4.8519592 -7.2532458 -2.0146616 5 1
6.1980658 -9.2795668 -2.169117 6 2
7.8792071 -11.809905 -2.2485893 5 3
11.70304 -17.561243 -2.5911863 3 4
31.536003 -47.447533 -2.9857666 0 6
3.8783548 -5.8796005 -1.8873086 2 0
4.8226471 -7.3194871 -2.0236597 5 1
6.1385264 -9.3308105 -2.1710248 7 2
7.8084993 -11.882784 -2.2520308 6 3
11.637889 -17.730474 -2.6041045 5 4
31.383394 -47.940586 -3.0029328 1 6
3.8361611 -5.9049129 -1.886791 3 0
4.8096194 -7.4118271 -2.0398562 5 1
6.0721693 -9.3717909 -2.1706433 6 2
7.7339387 -11.950274 -2.2545338 6 3
11.526754 -17.831293 -2.6070292 5 4
31.255733 -48.480812 -3.0230298 1 6
8.5938187 -13.340108 3.663553 3 14
3.8031719 -5.9445686 -1.890932 3 0
4.8605952 -7.6061487 -2.0839467 5 1
6.0044818 -9.4106436 -2.1698802 6 2
7.6630626 -12.023965 -2.2582881 7 3
11.431837 -17.95822 -2.6138539 5 4
30.824453 -48.552826 -3.0140281 1 6
3.7718761 -5.9873199 -1.8961084 3 0
4.905973 -7.796586 -2.1266873 7 1
5.9678807 -9.4988804 -2.1805654 6 2
7.5894322 -12.093903 -2.2614169 7 3
11.320948 -18.061136 -2.6172664 5 4
30.292059 -48.458607 -2.9949777 0 6
3.7360947 -6.0233569 -1.8992143 4 0
4.8719492 -7.8637772 -2.1356852 8 1
5.898324 -9.5353031 -2.1794205 7 2
7.504818 -12.146591 -2.2614169 7 3
11.211261 -18.166759 -2.621166 5 4
29.749937 -48.338917 -2.9746714 1 6
3.7201304 -6.0921602 -1.9126729 3 0
4.8331676 -7.9242167 -2.1428835 7 1
5.8377376 -9.5863094 -2.1817102 7 2
7.4403667 -12.232442 -2.2676742 6 3
11.122299 -18.307358 -2.6301844 3 4
29.229597 -48.244793 -2.9562492 1 6
3.6615841 -6.0914912 -1.9043906 3 0
4.7837472 -7.9677906 -2.1455832 8 1
40.73196 -67.896683 4.149509 47 9
5.7716808 -9.6285143 -2.182092 6 2
7.3608742 -12.294256 -2.2695515 7 3
10.996256 -18.387968 -2.6306717 3 4
28.740675 -48.193798 -2.9407578 1 6
3.6367643 -6.1445355 -1.9131904 2 0
4.7353506 -8.0102329 -2.1482825 8 1
5.7000217 -9.6574326 -2.1798022 6 2
41.579777 -70.475891 7.1589727 50 10
7.2710023 -12.333864 -2.2676742 7 3
10.900049 -18.511997 -2.6377404 3 4
28.260273 -48.129967 -2.9250569 1 6
3.6103082 -6.198153 -1.9219903 3 0
4.6753955 -8.0363588 -2.1464829 9 1
40.747711 -70.067818 4.2479005 50 9
5.6528945 -9.72826 -2.187053 7 2
40.024326 -68.934608 6.9738541 48 10
7.1967974 -12.400155 -2.270803 7 3
7.9520097 -13.723458 -1.9474722 21 4
27.780081 -48.058376 -2.9091468 0 6
3.5757234 -6.2359915 -1.9261314 3 0
4.6205859 -8.067997 -2.1464829 8 1
5.5799685 -9.7589664 -2.1851447 6 2
39.999065 -69.983849 7.0522938 49 10
7.112011 -12.453526 -2.2714286 6 3
7.7797327 -13.639321 -1.9279732 18 4
27.288866 -47.97858 -2.8927133 1 6
3.5358977 -6.2675323 -1.9282019 2 0
4.5737147 -8.1170349 -2.1509819 8 1
5.5232534 -9.8182154 -2.1897242 6 2
7.0210276 -12.495986 -2.2701774 6 3
7.6124353 -13.565198 -1.9099365 19 4
8.4944954 -15.168011 3.3792274 5 13
26.780621 -47.859425 -2.8741863 1 6
3.4929943 -6.2937536 -1.9287195 2 0
4.5169353 -8.1487684 -2.1509819 9 1
39.619743 -71.534798 4.2855825 50 9
5.4469705 -9.8427944 -2.1866713 6 2
6.9508176 -12.575816 -2.2758088 6 3
7.4887667 -13.565875 -1.9026244 18 4
25.112915 -45.623619 -2.7293203 0 6
3.4647067 -6.3468127 -1.9375196 3 0
4.4711313 -8.200635 -2.1563809 9 1
5.389236 -9.896884 -2.1904874 6 2
6.8593931 -12.612426 -2.2739315 7 3
7.4374475 -13.698075 -1.9138362 31 4
24.761839 -45.719738 -2.7249241 0 6
3.4287384 -6.3838634 -1.9416605 3 0
4.4096813 -8.2205744 -2.1536813 9 1
5.3163037 -9.9273434 -2.1889608 4 2
6.7842193 -12.684391 -2.278312 7 3
7.237412 -13.548775 -1.8860501 21 4
25.332117 -47.562649 -2.8241532 1 6
3.3840868 -6.4076452 -1.9416605 3 0
4.3503656 -8.2477131 -2.1527817 9 1
5.2403736 -9.9476671 -2.1855264 7 2
6.7014008 -12.737269 -2.2795632 7 3
7.1094165 -13.535703 -1.8772755 18 4
24.857637 -47.447372 -2.8071964 1 6
3.3582044 -6.464818 -1.9520133 4 0
4.2977147 -8.2840519 -2.1545811 9 1
5.1834383 -10.008416 -2.1908689 7 2
6.6177611 -12.79427 -2.2814405 7 3
7.0165701 -13.588533 -1.877763 20 4
24.387695 -47.351639 -2.7913909 1 6
3.3048313 -6.4749179 -1.9478723 4 0
4.2480607 -8.3336916 -2.1595302 10 1
5.1107693 -10.03911 -2.1897242 6 2
6.5314093 -12.851863 -2.2833178 7 3
6.8694239 -13.534519 -1.8636261 16 4
23.926493 -47.284355 -2.7772601 0 6
3.283802 -6.5461812 -1.9623661 4 0
4.1836667 -8.3509502 -2.1563809 9 1
5.0317755 -10.061378 -2.1866713 6 2
6.4485888 -12.911286 -2.2858207 7 3
6.7783136 -13.589252 -1.8646011 18 4
23.439291 -47.13549 -2.7588377 1 6
3.2260633 -6.5446887 -1.9551191 5 0
4.126986 -8.3834486 -2.1572804 9 1
4.9753008 -10.12006 -2.192014 6 2
6.3683901 -12.97084 -2.2886364 8 3
6.6308594 -13.52929 -1.8499768 16 4
23.007397 -47.067848 -2.7456491 1 6
3.1949172 -6.5943127 -1.9634014 3 0
4.0749187 -8.4218721 -2.1599801 9 1
4.9113588 -10.168691 -2.1950669 6 2
6.2776828 -13.014983 -2.2886364 8 3
6.5635991 -13.625977 -1.8570452 11 4
8.3650923 -17.381374 3.0551655 1 12
22.560659 -46.982468 -2.7314138 0 6
3.1604261 -6.6408772 -1.9706483 3 0
4.019371 -8.4571552 -2.1617796 9 1
4.8302436 -10.177055 -2.1897242 6 2
6.1779485 -13.034207 -2.2845693 9 3
6.3749251 -13.474082 -1.8302339 20 4
22.127842 -46.896515 -2.7175972 1 6
3.1167862 -6.6657362 -1.9716836 3 0
3.9633605 -8.4878492 -2.1626794 8 1
4.7615662 -10.215866 -2.1908689 7 2
6.0809689 -13.064484 -2.2823792 8 3
6.3123493 -13.580167 -1.8387648 14 4
21.668919 -46.767151 -2.7012682 1 6
3.0959685 -6.7435136 -1.988248 3 0
3.9056339 -8.5188541 -2.1635792 8 1
4.6925817 -10.254214 -2.192014 6 2
5.9937201 -13.1156 -2.2839434 10 3
6.1918402 -13.567922 -1.8312089 28 4
21.254232 -46.724583 -2.6901731 1 6
3.0424645 -6.7508731 -1.9841069 3 0
3.839668 -8.5316973 -2.1599801 8 1
4.6128345 -10.268815 -2.1881976 6 2
5.8874569 -13.124682 -2.278312 22 3
6.0417852 -13.487626 -1.8146347 12 4
20.805386 -46.598255 -2.6744723 1 6
3.0202668 -6.8284855 -2.0006714 3 0
3.7863107 -8.5725555 -2.1635792 8 1
4.5434098 -10.306159 -2.1893425 9 2
5.7630539 -13.091338 -2.2654841 18 3
6.0089879 -13.669406 -1.8334025 14 4
7.8155928 -17.83824 -1.0206559 19 6
2.970983 -6.84586 -1.9996361 3 0
3.7263706 -8.5987797 -2.1635792 8 1
4.4744658 -10.344833 -2.1908689 7 2
5.6527224 -13.08773 -2.2579753 21 3
5.7774091 -13.395679 -1.7912358 20 4
7.79498 -18.134579 -1.0344726 9 6
2.935226 -6.8948736 -2.0079181 3 0
3.6692998 -8.6317587 -2.1653788 8 1
4.4039469 -10.375051 -2.1908689 7 2
5.5434628 -13.078616 -2.2498407 31 3
5.7572222 -13.609369 -1.8143909 13 4
7.5652461 -17.909443 -1.7009314 37 5
7.5619168 -17.92774 -1.0197139 19 6
2.8867362 -6.911128 -2.0068829 3 0
3.6059589 -8.6457434 -2.1626794 8 1
4.3389544 -10.423667 -2.1946852 7 2
5.4224548 -13.045858 -2.237639 22 3
5.5951362 -13.487875 -1.7929419 18 4
7.4019079 -17.869785 -1.6922158 37 5
7.3022227 -17.655264 -1.0012915 18 6
2.8503807 -6.9637899 -2.0162005 4 0
3.5366278 -8.6532869 -2.1581805 7 1
4.2794309 -10.486423 -2.2015543 7 2
5.3118262 -13.042248 -2.2304428 25 3
5.4873776 -13.493507 -1.7885547 15 4
7.3144522 -18.013325 -1.7009314 37 5
7.1689487 -17.690407 -1.0003495 28 6
2.8103266 -7.0050349 -2.0224121 4 0
3.4717822 -8.6669121 -2.1554811 7 1
4.198452 -10.502193 -2.1985013 7 2
5.1920838 -13.007463 -2.218241 23 3
8.1931009 -20.546591 2.7159805 1 11
5.3370523 -13.397805 -1.7707617 21 4
7.286984 -18.320688 -1.7249866 38 5
7.1064587 -17.894091 -1.0090374 18 6
2.7700188 -7.050138 -2.029659 3 0
3.4068277 -8.6842766 -2.1536813 7 1
4.1336231 -10.553185 -2.2030807 7 2
5.0787354 -12.992769 -2.2094805 20 3
5.2376156 -13.419944 -1.7688118 21 4
7.0286894 -18.036959 -1.6936104 37 5
6.942759 -17.853273 -1.0039084 28 6
2.7287555 -7.0827761 -2.0338001 3 0
3.3449595 -8.6957674 -2.1509819 7 1
4.0652132 -10.590241 -2.204989 6 2
4.9783149 -12.989275 -2.2032232 23 3
5.1484971 -13.454386 -1.7688118 23 4
6.976831 -18.270514 -1.7110416 38 5
6.9067369 -18.11541 -1.0160503 19 6
2.6956089 -7.1450329 -2.0462234 3 0
3.2910404 -8.7371445 -2.1554811 7 1
3.9973969 -10.634903 -2.2084234 7 2
4.8646073 -12.962683 -2.1928985 26 3
5.0523529 -13.484424 -1.7680806 16 4
8.5667982 -22.949568 -1.2838011 10 6
2.664402 -7.2144194 -2.0607173 4 0
3.221873 -8.7379656 -2.1500821 7 1
3.9298344 -10.680976 -2.2122397 7 2
4.7501531 -12.931431 -2.1819482 23 3
5.0325918 -13.722512 -1.7946482 4 4
6.679863 -18.283239 -1.0201325 19 6
2.6257901 -7.2655482 -2.0700347 5 0
3.1607933 -8.7602453 -2.1500821 7 1
3.8663564 -10.733336 -2.2175822 7 2
4.6486535 -12.926287 -2.1756909 20 3
4.891747 -13.632127 -1.7783177 13 4
8.0674601 -22.519161 -2.0927837 30 5
8.0154953 -22.411058 -1.2473754 31 6
2.5749865 -7.2796102 -2.0689995 4 0
3.1023898 -8.7852325 -2.1509819 7 1
3.7874148 -10.748958 -2.2152925 7 2
4.547811 -12.928609 -2.1706848 20 3
4.7705612 -13.584571 -1.7678368 9 4
7.8771129 -22.480915 -2.0840681 30 5
7.8337812 -22.394829 -1.2433978 31 6
2.5304174 -7.3156667 -2.0741758 4 0
3.0371649 -8.7956238 -2.1482825 7 1
3.7199557 -10.79741 -2.219872 7 2
4.432385 -12.887193 -2.158483 17 3
4.6698065 -13.600647 -1.7656432 19 4
7.6513996 -22.373383 -1.239211 31 6
2.4829953 -7.3441343 -2.0772817 4 0
2.9731936 -8.8092279 -2.1464829 7 1
8.0424404 -23.856289 1.3193896 6 9
3.6570153 -10.86033 -2.2275043 7 2
4.3322387 -12.887863 -2.1534772 13 3
6.5040431 -19.382303 -2.5102651 12 4
7.4260111 -22.219776 -1.2278017 20 6
2.4310577 -7.3594556 -2.0767641 6 0
2.9079607 -8.8186665 -2.1437836 7 1
3.5891447 -10.903617 -2.2313204 7 2
4.23208 -12.879521 -2.1472197 12 3
6.4495764 -19.674345 -2.5421946 16 4
7.2851396 -22.302084 -1.2295811 31 6
2.3755662 -7.3592873 -2.0721054 5 0
2.8454757 -8.8308363 -2.141984 7 1
3.5117354 -10.92467 -2.2305572 7 2
4.1444764 -12.916274 -2.1484711 8 3
6.3895302 -19.960888 -2.5733933 9 4
7.1037741 -22.272482 -1.2251849 31 6
7.1356721 -22.426569 -0.41079476 34 7
2.3298078 -7.3982091 -2.0783172 4 0
2.7845492 -8.858408 -2.1437836 7 1
3.4412589 -10.967653 -2.2343736 7 2
4.0584359 -12.966338 -2.1519127 9 3
4.2183795 -13.50215 -1.7368821 13 4
6.9246364 -22.259811 -1.2217307 41 6
6.9492841 -22.38035 -0.40904951 34 7
2.2724278 -7.3958273 -2.0731406 5 0
2.7260664 -8.8888102 -2.1464829 7 1
7.270246 -23.735443 1.3009673 11 9
3.3672843 -11.007016 -2.2374265 10 2
3.9580083 -12.962238 -2.146594 13 3
6.2757287 -20.591227 -2.6431026 15 4
6.7557287 -22.263651 -1.2193232 31 6
2.2273946 -7.4337182 -2.0793524 5 0
2.6605954 -8.8964233 -2.1437836 7 1
3.296777 -11.044731 -2.2404792 9 2
3.8792729 -13.021062 -2.1519127 18 3
6.2228608 -20.940897 -2.6823444 7 4
6.5773821 -22.21911 -1.2144036 41 6
2.1810782 -7.4635415 -2.0834932 4 0
2.5977948 -8.9068432 -2.141984 7 1
9.1966267 -31.57272 1.7234231 6 9
3.2272673 -11.093868 -2.245822 7 2
3.7579832 -12.94349 -2.1347051 27 3
5.5205035 -19.051325 -2.4354372 1 4
6.3949833 -22.170456 -1.2092748 31 6
2.1299787 -7.4823027 -2.0845287 5 0
2.5430059 -8.9510059 -2.1482825 8 1
3.1438513 -11.095351 -2.2416241 6 2
3.6712918 -12.982717 -2.1368952 20 3
5.3663378 -19.014893 -2.4259312 5 4
6.224925 -22.160721 -1.2063439 31 6
6.2446508 -22.275736 -0.40381378 35 7
2.0818179 -7.5118842 -2.0886698 5 0
2.4825332 -8.9760542 -2.1500821 8 1
3.0647488 -11.111352 -2.2404792 7 2
3.5873811 -13.032789 -2.1409624 17 3
5.2213645 -19.007866 -2.4203253 4 4
6.0489974 -22.126575 -1.202157 30 6
2.0253017 -7.5113125 -2.0845287 5 0
2.4198091 -8.993166 -2.1500821 8 1
2.9946468 -11.152812 -2.2446773 6 2
3.4622879 -12.921432 -2.1187487 18 3
5.0752139 -18.993992 -2.4139881 1 4
5.876163 -22.084242 -1.1976562 41 6
1.9780495 -7.5398736 -2.0886698 5 0
2.3624864 -9.0245104 -2.1536813 8 1
2.923656 -11.200041 -2.2500198 6 2
3.3670154 -12.926172 -2.1156199 19 3
4.9408164 -19.008884 -2.4115508 1 4
5.7048402 -22.058985 -1.1940973 41 6
1.9291804 -7.5684748 -2.0928109 5 0
2.2965448 -9.0294523 -2.1509819 7 1
2.8483188 -11.223487 -2.250783 6 2
3.2852571 -12.973686 -2.1196871 17 3
5.1831427 -20.528778 -2.5997169 1 4
4.7737975 -18.949287 -1.7096471 38 5
5.5472565 -22.068251 -1.1925272 30 6
1.880406 -7.5926819 -2.0959167 5 0
2.2378359 -9.0562258 -2.1536813 8 1
2.7764697 -11.269787 -2.2561257 6 2
3.1771586 -12.925329 -2.1081111 18 3
3.2592721 -13.289403 -1.6800909 2 4
5.4086766 -22.170471 -1.1959814 41 6
1.8273532 -7.6056242 -2.0959167 5 0
2.1791 -9.090579 -2.1581805 8 1
8.0264111 -33.535534 1.8071609 4 9
2.6949861 -11.277438 -2.2538359 6 2
3.0822639 -12.927979 -2.1049824 24 3
4.8720469 -20.482418 -2.5850928 4 4
5.2408967 -22.153267 -1.1930506 41 6
1.7750877 -7.6219587 -2.096952 5 0
2.1155825 -9.1055708 -2.1581805 9 1
2.6099889 -11.269201 -2.2484932 6 2
2.9737036 -12.870272 -2.0921547 17 3
4.7186785 -20.471441 -2.5794866 3 4
4.3312922 -18.850925 -1.6922158 37 5
5.074954 -22.140646 -1.1904337 30 6
1.7260836 -7.6530113 -2.1021285 5 0
2.0545287 -9.131525 -2.1608799 9 1
2.5467172 -11.356112 -2.2622316 6 2
2.8846421 -12.894572 -2.0927804 25 3
4.9556913 -22.206892 -2.7937331 4 4
4.9271817 -22.206736 -1.1921085 10 6
1.6750865 -7.6761994 -2.1052344 4 0
1.9857558 -9.1227961 -2.1554811 9 1
2.4657114 -11.36594 -2.260705 4 2
2.8116801 -12.993557 -2.1056082 19 3
4.7858787 -22.173033 -2.7852023 8 4
4.0257683 -18.714781 -1.6747848 36 5
1.6222531 -7.6914873 -2.1062696 4 0
1.9276359 -9.1631346 -2.1617796 8 1
2.386302 -11.382877 -2.260705 4 2
2.7111979 -12.966462 -2.0980992 20 3
2.7399979 -13.138541 -1.6479174 4 4
3.8747506 -18.644892 -1.6660691 36 5
4.5620227 -22.067957 -0.39334235 36 7
1.5731426 -7.7253413 -2.1124811 4 0
1.8612911 -9.1649103 -2.1590803 8 1
2.3122292 -11.426198 -2.2660477 6 2
2.6448388 -13.105126 -2.1174972 18 3
3.7421978 -18.592712 -2.3286798 1 4
3.736655 -18.63242 -1.6625829 36 5
1.5161942 -7.7209706 -2.1083403 4 0
1.8010076 -9.196805 -2.1635792 8 1
2.2354105 -11.457478 -2.2691007 6 2
2.9494047 -15.159241 -2.4460096 4 3
3.6032305 -18.571613 -2.32283 1 4
3.5906043 -18.575893 -1.6552618 36 5
4.2157164 -21.933126 -0.38985187 36 7
1.4636906 -7.7389593 -2.1104105 5 0
1.7396482 -9.2244749 -2.1671786 8 1
2.1553676 -11.472804 -2.2691007 6 2
2.8369544 -15.144513 -2.440378 6 3
3.4640117 -18.545582 -2.3164928 1 4
3.4502187 -18.525469 -1.648638 36 5
4.0624914 -21.962023 -0.38985187 36 7
1.4117023 -7.7603936 -2.1135163 5 0
1.6772935 -9.2478991 -2.169878 8 1
2.0828156 -11.51812 -2.2752066 6 2
2.7359076 -15.175137 -2.442255 6 3
3.3208022 -18.549107 -1.648638 36 5
3.9090714 -21.989849 -0.38985187 36 7
1.3615085 -7.7850461 -2.1176574 5 0
1.6156459 -9.2667809 -2.1716774 8 1
2.0010099 -11.524644 -2.27368 6 2
2.6312463 -15.201653 -2.4435067 7 3
3.1823292 -18.442907 -2.2979686 1 4
3.1809578 -18.492739 -1.6416655 35 5
3.7424712 -21.917389 -0.38810661 36 7
1.3090435 -7.8057933 -2.1207633 5 0
1.5528412 -9.2893667 -2.174377 8 1
1.9221963 -11.53606 -2.2732985 7 2
2.5315967 -15.242596 -2.4472611 7 3
3.0547912 -18.472509 -2.2989435 4 4
3.0323343 -18.396544 -1.6312069 35 5
1.254349 -7.8049855 -2.118175 6 0
1.4914225 -9.3112669 -2.1770763 8 1
7.5775871 -47.414413 2.5164175 0 9
1.841614 -11.549198 -2.2732985 7 2
2.4251215 -15.259897 -2.4472611 7 3
2.9025884 -18.32622 -2.2782257 2 4
2.9070449 -18.416758 -1.6312069 35 5
1.204422 -7.8343468 -2.1238692 5 0
1.4303699 -9.3366117 -2.1806755 7 1
7.0301595 -45.995991 2.4385417 0 9
1.7712446 -11.615808 -2.2839837 7 2
2.3217893 -15.279957 -2.4478867 6 3
2.7816181 -18.436119 -1.6312069 35 5
1.1516284 -7.8461862 -2.1249044 5 0
1.3662215 -9.3422766 -2.1797757 7 1
1.6963781 -11.656738 -2.2897081 6 2
2.2171612 -15.291497 -2.4472611 6 3
2.6411326 -18.305555 -2.2709136 15 4
1.0978556 -7.8714461 -2.1295633 6 0
1.299336 -9.3518133 -2.1797757 8 1
6.3834314 -46.061966 2.4370763 0 9
1.6157677 -11.674131 -2.290853 7 2
2.1109164 -15.330455 -2.4510155 6 3
2.5027533 -18.246849 -2.2614079 20 4
2.4969678 -18.275753 -1.6137757 34 5
1.0431292 -7.8808336 -2.1300809 5 0
1.2355443 -9.3722486 -2.1824751 7 1
6.0414019 -45.950951 2.4289122 1 9
1.5362705 -11.716539 -2.2969587 7 2
5.9703307 -45.595127 4.023109 0 10
2.0056286 -15.358529 -2.4532056 8 3
2.3635285 -18.173323 -2.2501957 2 4
2.3610165 -18.253635 -1.6102896 34 5
0.98832536 -7.8898416 -2.1305985 6 0
1.1705662 -9.3845139 -2.1833749 7 1
5.711587 -45.920654 2.4251437 1 9
1.4566125 -11.744514 -2.3003933 6 2
5.6516318 -45.633717 4.0229344 2 10
1.9167589 -15.521152 -2.4769835 8 3
2.2341764 -18.169676 -2.2477584 1 4
2.2243371 -18.194523 -1.6036657 34 5
2.4198027 -19.879787 -1.0495454 9 6
0.93208796 -7.8869557 -2.1280103 5 0
1.1063875 -9.4040689 -2.1860743 7 1
5.4467034 -46.43549 2.4502649 0 9
1.3754969 -11.762197 -2.3019197 6 2
5.3095779 -45.472187 4.0053291 1 10
1.8124655 -15.569474 -2.4826152 8 3
2.1040747 -18.157227 -2.2443459 4 4
2.0954375 -18.193773 -1.6022711 34 5
2.4868782 -21.793228 -0.38287091 37 7
0.87828398 -7.9047909 -2.1311162 5 0
1.0402817 -9.40769 -2.1851747 7 1
5.0449266 -45.769611 2.4132111 1 9
1.2946357 -11.783221 -2.3042095 6 2
4.965054 -45.262569 3.9837148 1 10
1.7065191 -15.607276 -2.4866827 7 3
2.0238593 -18.59971 -2.2972372 11 4
1.9546669 -18.081184 -1.5911152 34 5
2.3219016 -21.690758 -0.38077661 37 7
0.82347655 -7.9145727 -2.1321514 5 0
0.97578222 -9.4263535 -2.1878741 7 1
4.5727844 -44.3256 2.3353353 0 9
1.2137486 -11.805643 -2.3068807 7 2
4.6678581 -45.480446 3.9999254 2 10
1.6003339 -15.646321 -2.4910626 7 3
1.8819048 -18.494892 -2.282613 11 4
1.8351585 -18.129751 -1.5942529 34 5
1.8355478 -18.260792 -0.96183026 18 6
2.1624591 -21.626846 -0.3793804 37 7
0.7704404 -7.9432025 -2.1383629 5 0
0.90957582 -9.4290562 -2.186974 7 1
4.3674483 -45.357681 2.3880899 1 9
1.1344868 -11.825357 -2.3091705 7 2
4.3441648 -45.44846 3.9943476 1 10
1.4964223 -15.684381 -2.4954429 6 3
1.7504966 -18.483866 -2.2796881 11 4
1.7001423 -18.052858 -1.5864089 19 5
0.71444821 -7.9270988 -2.1326692 6 0
0.84537417 -9.435029 -2.186974 7 1
4.075542 -45.665577 2.4027441 1 9
1.0510335 -11.823213 -2.3072627 6 2
4.0362959 -45.494839 3.9959166 0 10
1.3886268 -15.714123 -2.4985716 7 3
1.6263771 -18.515127 -2.2821257 5 4
1.8640698 -21.654606 -0.3793804 37 7
0.65956914 -7.9376688 -2.1342218 5 0
0.78012609 -9.4484701 -2.1887739 7 1
3.7180262 -45.223152 2.3780415 1 9
0.97119069 -11.863525 -2.31375 9 2
1.2798506 -15.735249 -2.5004489 7 3
1.7450739 -21.594904 -2.6601644 10 4
1.7128494 -21.667093 -0.3793804 37 7
0.6053108 -7.95749 -2.1383629 5 0
0.71355718 -9.4459124 -2.186974 7 1
3.4082081 -45.327667 2.3822284 0 9
0.88907665 -11.879805 -2.3156581 6 2
3.5790136 -47.934963 4.2054391 1 10
1.1730409 -15.785169 -2.507019 9 3
1.591203 -21.564985 -2.6550457 14 4
1.388178 -18.948645 -1.6622343 100 5
1.5662066 -21.585554 -1.1342249 40 6
0.55040866 -7.971158 -2.1409512 6 0
0.64892823 -9.4701061 -2.1914732 7 1
3.4169204 -49.992599 2.6261139 0 9
0.80872685 -11.893417 -2.3171847 6 2
3.2124076 -47.487663 4.1641273 2 10
1.0659682 -15.7987 -2.5079577 6 3
1.4366447 -21.51615 -2.6477337 14 4
1.4164939 -21.553862 -1.1320268 40 6
1.3971859 -21.489347 -0.37588993 37 7
0.49697849 -7.9882164 -2.1445746 5 0
0.58493203 -9.4820833 -2.1932726 7 1
0.72543776 -11.894854 -2.3164213 4 2
2.8918815 -47.554169 4.1681361 1 10
0.95671934 -15.823503 -2.5107734 5 3
1.2886138 -21.49967 -2.6445649 29 4
1.278991 -21.591534 -1.8923255 35 5
1.2645804 -21.539299 -1.1307708 50 6
1.2485595 -21.458435 -0.37519184 37 7
0.44119811 -7.9914913 -2.1445746 5 0
0.51914823 -9.4937191 -2.1950724 7 1
2.7530394 -50.669628 2.6593995 0 9
0.6440717 -11.930995 -2.3225272 6 2
2.5710607 -47.782097 4.1864386 1 10
0.84791619 -15.861357 -2.5157793 5 3
1.1367027 -21.474442 -2.6404214 31 4
1.1257334 -21.552183 -1.888142 35 5
1.1134549 -21.53364 -1.130038 40 6
0.38651255 -8.0175323 -2.1507864 5 0
0.45248562 -9.4893255 -2.1932726 7 1
2.3087661 -48.776379 2.5591238 0 9
0.56076193 -11.935201 -2.3225272 6 2
2.267693 -48.445702 4.2430902 1 10
0.73697907 -15.862945 -2.5151536 4 3
0.9853003 -21.450127 -2.6365216 33 4
0.97182208 -21.483885 -1.8815181 35 5
0.96122646 -21.498989 -1.1278399 40 6
0.32997334 -8.0065241 -2.1471629 6 0
0.3860682 -9.4883595 -2.192373 8 1
0.4783676 -11.962364 -2.3271067 4 2
1.9155519 -48.111958 4.2125859 1 10
0.62637454 -15.87165 -2.5157793 5 3
0.82788175 -21.260107 -2.6123915 26 4
0.81374222 -21.279106 -1.8630412 36 5
0.80328292 -21.297607 -1.1169541 29 6
0.2738719 -8.0028391 -2.1456099 5 0
0.32047382 -9.5103006 -2.196872 7 1
0.39536092 -11.981111 -2.3301597 4 2
1.5737493 -47.944942 4.1968975 1 10
0.51606721 -15.891431 -2.5182824 5 3
0.67886752 -21.247511 -2.6101978 33 4
0.68875456 -21.795305 3.4537606 2 12
0.6660375 -21.312149 -1.8654815 36 5
0.65384191 -21.27874 -1.115698 29 6
0.21804848 -8.0064888 -2.1461277 6 0
0.25407276 -9.5123062 -2.196872 7 1
1.2748731 -48.362808 2.5354681 0 9
0.31160665 -11.979652 -2.3293962 6 2
1.2397126 -47.982643 4.199338 1 10
0.4057155 -15.918344 -2.5220368 4 3
0.52987134 -21.225935 -2.6070292 26 4
0.51675367 -21.29636 -1.8637383 36 5
0.50475097 -21.260824 -1.1145467 39 6
0.49519622 -21.329002 -0.37239945 38 7
0.16234286 -8.0174732 -2.1487157 5 0
0.187813 -9.5216408 -2.1986716 8 1
0.93975967 -48.502327 2.5423763 0 9
0.22819082 -11.993314 -2.331686 6 2
0.91465193 -48.518017 4.2455306 1 10
0.29457653 -15.920789 -2.5220368 4 3
0.39002886 -21.485085 2.6384716 8 11
0.38624099 -21.483168 -2.6382277 10 4
0.3778314 -21.431484 3.3949413 20 12
0.37116516 -21.478737 -1.8794264 35 5
0.36734924 -21.474861 4.174901 12 13
0.35848773 -21.393633 -1.1213503 79 6
0.35147664 -21.421566 4.9462237 7 14
0.10623828 -8.0087528 -2.1461277 6 0
0.12158313 -9.5422068 -2.2031708 7 1
0.26536053 -21.412968 1.1222923 15 9
0.14455074 -12.002467 -2.3332126 6 2
0.25444934 -21.438593 1.8757659 15 10
0.1835597 -15.934307 -2.5239139 4 3
0.2397148 -21.459496 2.6350594 19 11
0.23433514 -21.310663 -2.6167786 19 4
0.2285808 -21.469154 3.4005728 20 12
0.21985219 -21.349314 -1.8679218 35 5
0.21767582 -21.502422 4.179862 4 13
0.20850116 -21.331707 -1.1180009 59 6
0.19882853 -21.493809 -0.37519184 37 7
0.05042211 -8.0247536 -2.1502688 6 0
0.12789728 -21.55234 0.37620407 38 8
0.054874349 -9.5272331 -2.1995716 7 1
0.11620091 -21.476212 1.1255372 11 9
0.06071445 -11.995331 -2.331686 6 2
0.072187297 -15.907546 -2.5195339 4 3
0.08545734 -21.28796 -2.6138539 21 4
0.07062874 -21.298529 -1.8633897 36 5
0.059461139 -21.292696 -1.1159073 9 6
0.048861932 -21.534664 -0.37588993 37 7
-0.0056011095 -8.0229788 -2.1497512 5 0
-0.0116539 -9.5390759 -2.202271 8 1
-0.023037767 -11.99939 -2.3324494 6 2
-0.03887973 -15.911613 -2.5201595 4 3
-0.063622124 -21.442871 -2.6328654 1 4
-0.089473262 -21.3605 -1.1194662 19 6
-0.061581295 -8.0188799 -2.1487157 5 0
-0.19345653 -24.095554 0.42060298 45 8
-0.078280896 -9.5426607 -2.2031708 7 1
-0.20674345 -24.173941 1.2669491 21 9
-0.10663112 -11.979303 -2.3286331 6 2
-0.21975118 -24.212513 2.1184075 22 10
-0.1498697 -15.901077 -2.5185952 4 3
-0.24948233 -21.990118 5.0771456 11 14
-0.11761878 -8.0221186 -2.1497512 5 0
-0.14525324 -9.5652637 -2.2085695 7 1
-0.1888492 -12.021486 -2.3370285 6 2
-0.25819594 -15.905615 -2.5195339 4 3
-0.35769534 -21.126295 -2.5943546 1 4
-0.48910171 -27.204266 -1.4259456 11 6
-0.17222004 -8.0211315 -2.1497512 5 0
-0.21035756 -9.5640526 -2.2085695 7 1
-0.27232212 -12.000249 -2.3332126 6 2
-0.36895472 -15.891573 -2.5176563 5 3
-0.50064147 -21.08765 -2.5899675 1 4
-0.22837871 -8.025526 -2.151304 6 0
-0.2768963 -9.5545597 -2.2067699 7 1
-0.35655895 -12.013754 -2.3362653 4 2
-0.48066324 -15.914281 -2.521724 6 3
-0.64650249 -21.039988 -2.5846052 3 4
-1.0034583 -31.406851 -1.6468034 20 6
-0.28487995 -8.0372515 -2.1549275 5 0
-0.34457248 -9.5796576 -2.2130685 7 1
-0.43970269 -11.991352 -2.3324494 4 2
-0.59168071 -15.908562 -2.5214109 5 3
-0.79367286 -21.042898 -2.5855803 1 4
-1.3019644 -33.434738 -1.7535686 31 6
-0.3409836 -8.0350666 -2.1549275 5 0
-0.41127545 -9.5731258 -2.2121687 7 1
-0.52494884 -12.023294 -2.3393183 6 2
-0.70063627 -15.856682 -2.5139022 5 3
-0.93931937 -21.009081 -2.5821679 1 4
-1.6271766 -35.423981 -1.8584501 5 6
-0.39687893 -8.0286312 -2.1538923 5 0
-0.47926524 -9.5933771 -2.2175674 7 1
-0.60827702 -12.007572 -2.3370285 4 2
-0.81020892 -15.829702 -2.5104606 6 3
-1.0871975 -21.025801 -2.5850928 3 4
-0.45248428 -8.0179501 -2.1518216 5 0
-0.54711336 -9.605361 -2.2211666 7 1
-0.69112283 -12.022755 -2.3408449 6 2
-0.91805238 -15.825794 -2.5107734 4 3
-1.2318621 -20.982027 -2.5807054 4 4
-0.50851309 -8.0378199 -2.1580334 5 0
-0.61198622 -9.5936356 -2.219367 7 1
-0.77453232 -12.0098 -2.3393183 4 2
-1.0277458 -15.80717 -2.5088961 4 3
-1.3759524 -20.992966 -2.5831428 3 4
-3.3546185 -50.241028 -2.6388838 0 6
-0.56271929 -8.0070953 -2.1507864 4 0
-0.678671 -9.5852413 -2.2184672 7 1
-0.85765958 -12.023832 -2.3431346 4 2
-1.1371568 -15.825424 -2.5129635 4 3
-1.521613 -20.97097 -2.5816805 1 4
-3.6818593 -50.017845 -2.6284168 0 6
-0.61839628 -8.0184879 -2.1549275 4 0
-0.74510586 -9.5959425 -2.2220664 7 1
-0.94188756 -12.021466 -2.3438978 6 2
-1.2486968 -15.830884 -2.5151536 4 3
-1.664637 -20.964083 -2.5821679 1 4
-0.67338884 -8.0024252 -2.1518216 3 0
-0.81240892 -9.5943918 -2.2229664 7 1
-1.0227826 -11.979387 -2.3370285 4 2
-1.3581704 -15.809971 -2.5132763 4 3
-1.8059911 -20.894598 -2.5750995 3 4
-0.72958988 -8.0013771 -2.1528571 4 0
-0.88079447 -9.6040106 -2.2265656 7 1
-1.1074735 -11.983684 -2.3393183 4 2
-1.4686946 -15.802072 -2.5135894 4 3
-1.9512645 -20.875551 -2.5743682 3 4
-4.7002969 -49.631512 -2.6127157 0 6
-0.78807616 -8.0230055 -2.1601038 4 0
-0.94820338 -9.6015053 -2.2274654 7 1
-1.1901808 -11.987591 -2.341608 4 2
-1.5783802 -15.813329 -2.5170307 4 3
-2.0981469 -20.87327 -2.5758307 1 4
-5.0077386 -49.300316 -2.5970151 0 6
-0.84064943 -7.9982419 -2.1549275 4 0
-1.0131276 -9.5909538 -2.2265656 7 1
-1.2755016 -11.994608 -2.344661 4 2
-1.6897873 -15.811747 -2.5185952 4 3
-2.2384803 -20.842716 -2.5738807 1 4
-5.2935576 -48.72805 -2.5687535 0 6
-0.89926571 -8.0171356 -2.1616566 6 0
-1.0822415 -9.6030111 -2.2310646 7 1
-1.3593259 -12.005156 -2.3484771 4 2
-1.7989384 -15.813617 -2.5207851 4 3
-2.3789687 -20.783192 -2.5685184 4 4
-5.6581178 -48.976593 -2.5838265 0 6
-0.95038986 -7.9820547 -2.1538923 5 0
-1.1475822 -9.5954218 -2.2310646 7 1
-1.4426341 -11.991475 -2.3477139 6 2
-1.9121362 -15.824206 -2.5245397 4 3
-2.5208566 -20.770458 -2.569006 1 4
-6.0635824 -49.455288 -2.6112504 0 6
-1.0089917 -7.9982262 -2.1601038 5 0
-1.2140532 -9.5833111 -2.2301648 7 1
-1.5252151 -11.989167 -2.3492403 4 2
-2.0220568 -15.828459 -2.5273554 4 3
-2.6733878 -20.81142 -2.5763183 1 4
-6.4329062 -49.666405 -2.6246483 0 6
-1.0627637 -7.975666 -2.1559627 5 0
-1.2819591 -9.5823288 -2.2319643 7 1
-1.6088738 -11.962381 -2.3461876 6 2
-2.1363266 -15.821416 -2.5286071 4 3
-2.8159473 -20.772577 -2.5738807 1 4
-6.7708263 -49.492455 -2.6179495 0 6
-1.1211038 -7.9871845 -2.161139 5 0
-1.3504562 -9.5847216 -2.2346637 7 1
-1.6989528 -11.99751 -2.3553464 4 2
-2.2458947 -15.800248 -2.5276685 4 3
-2.9536059 -20.701319 -2.5675435 3 4
-7.0592675 -49.048603 -2.5970151 0 6
-1.1762738 -7.9753408 -2.1601038 5 0
-1.4173373 -9.5750599 -2.2346637 7 1
-1.7797812 -11.965938 -2.3515301 6 2
-2.3564363 -15.786138 -2.527981 4 3
-3.0986419 -20.68412 -2.5680311 11 4
-7.3657217 -48.761143 -2.5844545 0 6
-1.2307416 -7.9592972 -2.1580334 5 0
-1.484746 -9.5687847 -2.2355635 7 1
-1.865695 -11.96874 -2.354583 4 2
-2.468724 -15.782966 -2.5301714 4 3
-3.249125 -20.701206 -2.5729058 3 4
-7.722188 -48.811111 -2.5898974 0 6
-1.2875115 -7.9581399 -2.1601038 5 0
-1.5521368 -9.5620327 -2.2364633 7 1
-1.9536287 -11.982551 -2.3599257 4 2
-2.5820384 -15.784839 -2.5332999 4 3
-3.3858519 -20.631006 -2.5670562 1 4
-7.6619511 -46.332298 -2.4611509 0 6
-1.3411071 -7.9375281 -2.1569982 4 0
-1.6188533 -9.5509634 -2.2364633 7 1
-2.0397537 -11.996072 -2.3652685 6 2
-2.6937389 -15.792212 -2.5373673 4 3
-3.5458882 -20.700781 -2.5787556 1 4
-8.4514418 -49.030666 -2.6074822 0 6
-1.3951043 -7.928216 -2.1569982 4 0
-1.6838263 -9.5397234 -2.2364633 7 1
-2.1193395 -11.958343 -2.3606889 4 2
-2.8094537 -15.804141 -2.5423732 3 3
-3.6720743 -20.594086 -2.5685184 3 4
-1.4511157 -7.9220824 -2.1580334 4 0
-1.7524979 -9.5392361 -2.2391627 7 1
-2.2028215 -11.955224 -2.3629787 4 2
-2.9205539 -15.804077 -2.5455019 4 3
-3.8324125 -20.65773 -2.5797305 3 4
-1.5064493 -7.9196143 -2.1601038 4 0
-1.8181179 -9.5309143 -2.2400625 7 1
-2.2825387 -11.920272 -2.3591626 6 2
-3.0367742 -15.814341 -2.5505078 4 3
-3.9774411 -20.654556 -2.5826554 1 4
-1.5564626 -7.8823709 -2.1528571 5 0
-1.8883973 -9.5371065 -2.2445617 7 1
-2.3725905 -11.938706 -2.3660316 4 2
-3.1417003 -15.765633 -2.5461278 4 3
-4.1176481 -20.606819 -2.5802178 1 4
-1.6130036 -7.8788824 -2.1549275 5 0
-1.951798 -9.508419 -2.2409625 7 1
-2.4503336 -11.894933 -2.3606889 4 2
-3.2620757 -15.793613 -2.5542624 4 3
-4.259798 -20.569798 -2.5792429 3 4
-10.189675 -48.903145 -2.6179495 0 6
-1.6695712 -7.874989 -2.1569982 5 0
-2.0221834 -9.5136213 -2.2454615 7 1
-2.5345168 -11.893338 -2.3637419 4 2
-3.3761075 -15.801952 -2.5592682 4 3
-4.409956 -20.570614 -2.5831428 3 4
-1.7181736 -7.8407974 -2.1507864 5 0
-2.0860565 -9.4958305 -2.2445617 7 1
-2.6174846 -11.875354 -2.3637419 4 2
-3.4982774 -15.832004 -2.5680285 4 3
-4.5515909 -20.547869 -2.5841177 1 4
-10.819534 -48.563061 -2.6074822 0 6
-1.7771357 -7.8474522 -2.1559627 4 0
-2.1540246 -9.4886379 -2.246361 8 1
-2.6955295 -11.835734 -2.359544 4 2
-3.6087182 -15.807196 -2.5680285 4 3
-4.7064424 -20.565907 -2.5904548 1 4
-11.041843 -47.980278 -2.5802677 0 6
-1.8283594 -7.8198061 -2.1518216 5 0
-2.2228808 -9.4847517 -2.2490606 8 1
-2.7830353 -11.837651 -2.3637419 4 2
-3.7207966 -15.789311 -2.5692801 4 3
-4.8462548 -20.517094 -2.5885053 3 4
-1.8838134 -7.8106074 -2.1528571 4 0
-2.2862954 -9.4576378 -2.246361 8 1
-2.8748629 -11.856093 -2.3713744 4 2
-3.8374667 -15.789823 -2.5736601 4 3
-5.0175586 -20.598482 -2.6031294 1 4
-1.9336354 -7.7785177 -2.1476805 4 0
-2.3532088 -9.4452276 -2.247261 7 1
-2.9575624 -11.835734 -2.3713744 4 2
-3.9543235 -15.789474 -2.5780404 4 3
-5.1477098 -20.509041 -2.5963047 3 4
-1.9926838 -7.7835436 -2.1528571 4 0
-2.4181228 -9.4247942 -2.246361 8 1
-3.0370798 -11.811525 -2.3706112 4 2
-4.0656509 -15.777494 -2.5805433 4 3
-5.3086429 -20.541794 -2.6050794 1 4
-12.395999 -47.759823 -2.5859199 1 6
-2.0436502 -7.7623272 -2.1507864 5 0
-2.4842069 -9.4156542 -2.2481608 7 1
-3.1214728 -11.797626 -2.3721375 4 2
-4.1807623 -15.767821 -2.583672 3 3
-5.4503822 -20.512857 -2.6060543 1 4
-12.581762 -47.120235 -2.5559835 0 6
-2.091732 -7.7254934 -2.1445746 5 0
-2.5488596 -9.3943195 -2.247261 7 1
-3.2047906 -11.779337 -2.3729007 4 2
-4.2928166 -15.745872 -2.5849233 4 3
-5.5986857 -20.493458 -2.6084917 1 4
-12.978091 -47.277779 -2.5693817 0 6
-2.1539009 -7.7404814 -2.1528571 4 0
-2.613333 -9.3725424 -2.246361 8 1
-3.2922323 -11.775583 -2.3767169 4 2
-4.4090314 -15.738344 -2.5886779 4 3
-5.746449 -20.471069 -2.6106853 3 4
-13.830457 -49.039093 -2.6702855 0 6
-2.206825 -7.7215405 -2.1518216 5 0
-2.6765563 -9.3465767 -2.2445617 7 1
-3.3723085 -11.752901 -2.3767169 4 2
-4.5215158 -15.726954 -2.5918064 4 3
-5.9073658 -20.493401 -2.6187286 1 4
-14.152826 -48.905445 -2.6681919 0 6
-2.257158 -7.6989255 -2.1497512 4 0
-2.7390149 -9.3244009 -2.2436619 7 1
-3.4520588 -11.721539 -2.3751905 4 2
-4.6278443 -15.68364 -2.5899293 4 3
-6.0433469 -20.441294 -2.6172664 1 4
-14.334699 -48.269356 -2.6388838 0 6
-2.3108518 -7.6829801 -2.1497512 5 0
-2.8062937 -9.3125153 -2.2454615 7 1
-3.5334659 -11.703409 -2.3763354 4 2
-4.7344909 -15.651775 -2.5899293 4 3
-6.1933928 -20.423302 -2.6204348 3 4
-2.3632941 -7.6629677 -2.1487157 5 0
-2.868938 -9.2852497 -2.2436619 7 1
-3.62816 -11.713456 -2.3835862 4 2
-4.8604236 -15.662773 -2.5974381 3 3
-6.3564496 -20.44591 -2.6289656 1 4
-13.758374 -44.064697 -2.4192822 0 6
-2.4248846 -7.6720695 -2.1559627 5 0
-2.9278088 -9.2464161 -2.2391627 7 1
-3.7062831 -11.676614 -2.3812964 4 2
-4.960072 -15.598338 -2.5924323 3 3
-2.47541 -7.6457663 -2.1533747 6 0
-2.9946933 -9.2331667 -2.2409625 7 1
-3.7913516 -11.661657 -2.3835862 4 2
-5.0749655 -15.582114 -2.595561 3 3
-6.6499195 -20.38159 -2.6323779 3 4
-2.5256877 -7.6191292 -2.1507864 5 0
-3.0566223 -9.2046366 -2.2391627 7 1
-3.8701925 -11.627453 -2.3820596 4 2
-5.1823745 -15.542558 -2.5949352 4 3
-7.2001996 -21.556629 -2.7905643 4 4
-12.092209 -36.056133 -1.9930581 2 6
-2.5775766 -7.597652 -2.1497512 5 0
-3.119554 -9.1793823 -2.2382631 7 1
-3.9474735 -11.589001 -2.3797698 4 2
-5.2818232 -15.479827 -2.5905552 4 3
-6.9749327 -20.406973 -2.6479774 17 4
-7.013588 -20.438448 -1.1324455 30 6
-2.6305552 -7.5794721 -2.1497512 4 0
-3.1861217 -9.1647425 -2.2400625 7 1
-4.0321598 -11.572283 -2.3820596 4 2
-5.3793478 -15.412732 -2.5855491 3 3
-7.0071673 -20.042971 -2.6070292 29 4
-7.0430164 -20.100452 -1.8633897 36 5
-7.0423369 -20.064844 -1.114442 29 6
-2.6808205 -7.5536404 -2.1476805 5 0
-3.2434978 -9.1239157 -2.2355635 7 1
-4.1168051 -11.554948 -2.3843493 4 2
-5.4868183 -15.374802 -2.5855491 3 3
-7.1522679 -20.008518 -2.6089792 28 4
-7.1971331 -20.100817 -1.8679218 35 5
-7.1849432 -20.022711 -1.1148607 29 6
-2.7348061 -7.538373 -2.1487157 4 0
-3.3057842 -9.0973854 -2.2346637 7 1
-4.1859598 -11.50083 -2.3790066 4 2
-5.5872836 -15.325965 -2.583672 4 3
-7.3040419 -19.991661 -2.6133664 26 4
-7.3153772 -19.99021 -1.8623439 36 5
-7.3361859 -20.014595 -1.1171634 29 6
-2.7820268 -7.5087132 -2.1456099 5 0
-3.3676307 -9.0746737 -2.2346637 7 1
-4.2593036 -11.452926 -2.3751905 4 2
-5.6941428 -15.286585 -2.583672 3 3
-7.4524398 -19.974958 -2.6177537 22 4
-7.4868531 -20.024496 -1.8703622 35 5
-7.4834404 -19.983467 -1.1183149 19 6
-2.840534 -7.5053701 -2.1502688 6 0
-3.4364266 -9.0655203 -2.2382631 7 1
-4.3391566 -11.422911 -2.3751905 4 2
-5.7936983 -15.227997 -2.5805433 3 3
-7.6016054 -19.948414 -2.621166 26 4
-7.6591587 -20.057362 -1.8783807 35 5
-7.6348958 -19.96245 -1.1200942 29 6
-2.8879876 -7.4727435 -2.1466453 4 0
-3.4996321 -9.0413084 -2.2382631 7 1
-4.4195065 -11.394171 -2.3755722 4 2
-5.8912826 -15.165084 -2.5767887 3 3
-7.7565193 -19.935558 -2.6265285 26 4
-7.8099785 -20.041891 -1.8818668 35 5
-7.7842417 -19.934708 -1.1215596 29 6
-2.9443405 -7.4631815 -2.1497512 4 0
-3.5598025 -9.0094061 -2.2364633 7 1
-4.4897375 -11.345569 -2.3717558 4 2
-5.9870944 -15.106269 -2.5736601 3 3
-7.9086933 -19.914131 -2.6309156 28 4
-7.9511747 -19.990582 -1.8822154 35 5
-7.9463644 -19.948055 -1.1253278 29 6
-2.9979563 -7.4501352 -2.1518216 4 0
-3.6210442 -8.9849672 -2.2364633 7 1
-4.5754499 -11.330333 -2.3751905 4 2
-6.0938907 -15.067764 -2.574286 3 3
-8.0609474 -19.891548 -2.6353028 29 4
-8.0965357 -19.949356 -1.8836099 35 5
-8.0952063 -19.916149 -1.1266886 20 6
-3.0453188 -7.4141965 -2.1476805 4 0
-3.6852465 -8.9588251 -2.2364633 7 1
-4.6559348 -11.301744 -2.3759537 4 2
-6.192513 -15.001862 -2.5705316 3 3
-8.2254047 -19.897161 -2.64359 17 4
-8.2508535 -19.929161 -1.887096 35 5
-8.2520561 -19.892763 -1.1286774 30 6
-3.0925264 -7.3820643 -2.1445746 5 0
-3.7461925 -8.929287 -2.2355635 7 1
-4.7290797 -11.25004 -2.3721375 4 2
-6.2955585 -14.954624 -2.5699058 3 3
-8.3641129 -19.839252 -2.64359 26 4
-8.4130335 -19.92614 -1.8923255 35 5
-8.4125214 -19.886173 -1.1316082 30 6
-3.1363986 -7.3425298 -2.1393983 4 0
