# .PCD v0.7 - Point Cloud Data file format
VERSION 0.7
FIELDS x y z intensity ring
SIZE 4 4 4 4 2
TYPE F F F F U
COUNT 1 1 1 1 1
WIDTH 1312
HEIGHT 1
VIEWPOINT 0 0 0 1 0 0 0
POINTS 1312
DATA ascii
-5.7746849 3.1419251 -1.7615224 9 0
-14.918918 8.1239233 0.29651639 27 8
-6.7167983 3.6590767 -1.7658658 14 1
-25.256521 13.770295 1.5075897 8 9
-8.1291637 4.4358454 -1.8000921 7 2
-27.401709 14.958505 2.7312865 5 10
-10.25898 5.6049962 -1.8515586 8 3
-25.57012 13.981833 3.5783279 7 11
-12.800385 7.0021982 -1.7914795 9 4
-25.626549 14.030123 4.6273322 8 12
-14.343443 7.8593173 -1.430923 29 5
-27.212814 14.917102 6.0322361 3 13
-14.202769 7.7919078 -0.84899396 26 6
-14.345707 7.8801007 -0.28569591 29 7
-5.7526093 3.1821632 -1.7615224 9 0
-6.6876807 3.7039895 -1.7649659 13 1
-16.582771 9.1919823 0.9936505 2 9
-8.1117334 4.5001073 -1.8031452 9 2
-25.131205 13.947662 2.5146174 25 10
-10.205786 5.6688051 -1.8490556 8 3
-25.895233 14.395341 3.6378002 23 11
-12.452793 6.9254427 -1.7495564 9 4
-25.358826 14.114533 4.5966706 7 12
-14.410067 8.0271282 -1.4431248 29 5
-27.821428 15.504284 6.1909895 9 13
-12.12115 6.760406 -0.7273652 8 6
-5.7302532 3.2222464 -1.7615224 9 0
-14.31957 8.0587864 0.28681284 26 8
-6.6616588 3.7505882 -1.7649659 14 1
-26.022297 14.662807 1.5653687 35 9
-8.0869589 4.5604854 -1.8046715 9 2
-24.800694 13.991582 2.4912598 21 10
-10.138439 5.7243772 -1.8440496 8 3
-24.847021 14.040601 3.5042315 7 11
-12.227878 6.9125638 -1.7246951 9 4
-25.766855 14.578187 4.6889672 12 12
-14.159499 8.01758 -1.423602 28 5
-27.319616 15.475583 6.1032171 3 13
-11.77829 6.6774073 -0.70957094 8 6
-5.6975546 3.2564209 -1.7584167 9 0
-14.328921 8.1962862 0.28813922 26 8
-6.6353126 3.7970037 -1.7649659 14 1
-25.905434 14.836172 1.5645312 8 9
-8.0753632 4.6285472 -1.809251 9 2
-24.507099 14.052392 2.4715626 6 10
-10.084522 5.7871513 -1.8415467 8 3
-25.769178 14.799983 3.6487684 15 11
-12.14834 6.9799614 -1.7203078 9 4
-25.847689 14.863075 4.7224441 28 12
-11.445845 6.5949507 -0.69230008 100 6
-5.6913877 3.3058197 -1.763593 9 0
-6.6254897 3.8530295 -1.769465 14 1
-26.159473 15.219067 1.5860937 34 9
-8.0742111 4.7011871 -1.8161201 9 2
-24.917946 14.520062 2.5231586 18 10
-10.029539 5.846705 -1.8387309 9 3
-25.25462 14.733964 3.5900276 18 11
-11.902173 6.9494953 -1.6922778 11 4
-26.545895 15.505951 4.8691797 10 12
-10.995615 6.4356189 -0.6677022 8 6
-5.6620984 3.3405566 -1.7615224 9 0
-6.5991092 3.8980386 -1.769465 14 1
-26.589014 15.71843 1.6187513 24 9
-8.0716066 4.7754374 -1.8229893 7 2
-24.643652 14.585821 2.505379 18 10
-9.9510851 5.8944368 -1.8318479 9 3
-28.108698 16.663183 4.0121827 8 11
-11.895572 7.0546517 -1.6981276 14 4
-26.144819 15.517485 4.8153663 11 12
-13.932837 8.2957506 -0.28304312 29 7
-5.6452665 3.3839769 -1.763593 9 0
-6.5717349 3.9440143 -1.769465 12 1
-25.382845 15.245518 1.5517613 25 9
-8.027976 4.8256006 -1.8206996 7 2
-24.940765 14.997769 2.5461679 15 10
-9.8792267 5.9454269 -1.8262162 9 3
-24.801569 14.93766 3.554929 11 11
-11.873238 7.1539149 -1.7020274 12 4
-13.239008 7.9894314 -1.3528314 26 5
-10.51151 6.3509612 -0.64362764 17 6
-5.6215043 3.4233057 -1.763593 9 0
-6.5573516 3.9979129 -1.7730643 12 1
-27.13418 16.556273 1.6658536 14 9
-7.987391 4.8774347 -1.8191731 7 2
-25.059887 15.308626 2.5691769 6 10
-9.7734337 5.9751005 -1.8143271 9 3
-25.224991 15.433677 3.6309755 19 11
-11.545332 7.066678 -1.6620542 10 4
-12.674682 7.767056 -1.3005379 24 5
-10.504367 6.4471731 -0.64593047 17 6
-5.5876122 3.4563694 -1.7604873 7 0
-6.5325952 4.0456448 -1.7739639 12 1
-7.9373202 4.9213448 -1.815357 7 2
-27.043198 16.780563 2.7844517 2 10
-9.6956148 6.0185657 -1.8074441 11 3
-27.122561 16.849483 3.9205372 9 11
-10.679773 6.6398163 -1.5440848 6 4
-10.49753 6.5417638 -0.64823323 17 6
-14.53978 9.0748816 -0.29916915 31 7
-5.573771 3.5004871 -1.763593 9 0
-6.5181046 4.0983157 -1.7775632 13 1
-26.680193 16.788404 1.652037 30 9
-7.9094133 4.980824 -1.8168833 7 2
-26.183245 16.494843 2.7074058 3 10
-9.5831785 6.0418601 -1.7943035 9 3
-25.535276 16.111561 3.7072659 15 11
-11.572703 7.3046556 -1.6803347 18 4
-11.891367 7.5174055 -1.2308134 21 5
-10.427977 6.599937 -0.6467678 17 6
-14.335785 9.0837355 -0.29623714 31 7
-5.565485 3.5497026 -1.7687694 9 0
-14.211194 9.0709686 0.2942825 27 8
-6.4860487 4.141623 -1.7766634 12 1
-7.8529477 5.0221682 -1.8119223 6 2
-26.020454 16.647177 2.7025251 6 10
-9.5141497 6.0915718 -1.7892977 12 3
-33.917965 21.733164 4.9461899 1 11
-11.325893 7.2599301 -1.6518172 18 4
-11.737997 7.5356607 -1.2203547 21 5
-10.465653 6.7265706 -0.65200138 17 6
-14.329196 9.2203836 -0.29742393 31 7
-5.5340829 3.5842686 -1.7666988 9 0
-14.040124 9.1003532 0.29204857 26 8
-6.4733276 4.1974058 -1.7811624 11 1
-32.994087 21.410238 2.0613041 1 9
-7.802876 5.0672464 -1.8084878 7 2
-33.074547 21.487066 3.4506702 0 10
-9.3885832 6.1040072 -1.7736541 11 3
-33.339455 21.692276 4.8837924 0 11
-11.163465 7.2662683 -1.6354867 27 4
-11.953513 7.789422 -1.2482445 22 5
-10.41844 6.799468 -0.65200138 17 6
-5.5153804 3.6270635 -1.7687694 9 0
-13.99456 9.2067003 0.29239765 26 8
-6.4633985 4.2553549 -1.7865613 14 1
-32.840919 21.62993 2.0608854 1 9
-7.7764006 5.1256437 -1.810396 6 2
-32.586117 21.494734 3.4152849 0 10
-9.363306 6.1786523 -1.7767829 12 3
-33.890064 22.380341 4.9866505 1 11
-9.8952284 6.5395775 -1.4563388 18 4
-11.85564 7.8441 -1.2437124 22 5
-11.452567 7.5860367 -0.71993345 17 6
-5.4873509 3.6623769 -1.7677342 9 0
-13.906668 9.2886248 0.29190898 26 8
-6.444005 4.3057475 -1.7892607 14 1
-34.80098 23.27084 2.1940281 0 9
-7.7844815 5.2092872 -1.8206996 7 2
-32.59634 21.821339 3.4318445 0 10
-9.2542992 6.1998897 -1.7642682 12 3
-9.9070253 6.6472101 -1.4648696 9 4
-9.8605633 6.6235247 -1.0392451 44 5
-9.8480377 6.6225963 -0.62196058 17 6
-13.718307 9.2391844 -0.28869772 30 7
-5.454607 3.6972125 -1.7656636 9 0
-6.4259305 4.3605018 -1.7928599 14 1
-32.208015 21.872105 2.0403697 1 9
-7.7609148 5.2723336 -1.8237525 9 2
-32.294357 21.955458 3.4165049 0 10
-9.1884642 6.2515073 -1.7602009 13 3
-33.058994 22.500616 4.9101162 1 11
-10.87595 7.4079456 -1.6157439 23 4
-11.000922 7.5015078 -1.1649235 28 5
-10.849378 7.4092698 -0.68853194 17 6
-5.4573102 3.7549138 -1.774981 9 0
-6.4177995 4.4207335 -1.7991585 12 1
-32.291328 22.259659 2.0554426 0 9
-7.7132931 5.3210435 -1.8214628 10 2
-31.812334 21.95405 3.3816428 0 10
-9.1689777 6.3323407 -1.7648939 10 3
-32.172077 22.235485 4.8018961 0 11
-10.639459 7.3561249 -1.5882014 7 4
-32.706413 22.630098 6.2993035 1 12
-9.8899879 6.8456001 -1.0523185 15 5
-10.593847 7.3437381 -0.67555261 17 6
-13.58797 9.429822 -0.28869772 30 7
-5.4309635 3.7929199 -1.774981 9 0
-6.4123354 4.4832954 -1.806357 12 1
-31.507317 22.037083 2.0150392 2 9
-7.6254277 5.3373952 -1.809251 10 2
-33.675282 23.588446 3.5970919 0 10
-9.0383062 6.3333888 -1.747999 10 3
-31.821695 22.314911 4.7721601 0 11
-9.8501406 6.9125247 -1.4775441 9 4
-32.512814 22.824959 6.2917948 0 12
-9.8403273 6.913331 -1.0521441 37 5
-9.8444128 6.923902 -0.63075304 17 6
-13.420447 9.4530554 -0.28653362 29 7
-5.4270878 3.8454359 -1.782228 9 0
-6.3784909 4.5245838 -1.8054571 12 1
-7.5495663 5.363215 -1.8000921 10 2
-31.123341 22.118196 3.3405054 1 10
-8.9938688 6.3963361 -1.747999 9 3
-31.574564 22.472067 4.7585106 1 11
-10.181261 7.2488256 -1.5345789 16 4
-33.083065 23.571791 6.4338374 1 12
-9.85145 7.0217834 -1.0584193 45 5
-9.8364744 7.0214696 -0.6333698 52 6
-5.3875618 3.8742077 -1.7780869 9 0
-6.3435845 4.5667262 -1.8045573 11 1
-31.320412 22.555763 2.0227849 1 9
-7.4921808 5.3995552 -1.7951311 12 2
-31.504662 22.72187 3.3983765 0 10
-8.8700237 6.3996177 -1.7323555 10 3
-31.095764 22.451735 4.7092757 1 11
-9.9357166 7.17905 -1.5050865 19 4
-32.611263 23.571941 6.3731408 1 12
-9.9587803 7.2036543 -1.0753275 16 5
-9.8046312 7.0999737 -0.63441652 8 6
-5.3829165 3.9267292 -1.7853339 9 0
-6.3029103 4.6029043 -1.8018579 11 1
-32.874695 24.025398 2.1339464 0 9
-7.400423 5.412324 -1.7821561 12 2
-31.037313 22.707569 3.3645601 0 10
-8.7422514 6.400703 -1.7160863 12 3
-31.386629 22.996778 4.7775226 0 11
-9.6944914 7.1056914 -1.4758378 18 4
-32.296188 23.689205 6.3437314 1 12
-9.658927 7.0874009 -1.0481349 15 5
-13.760722 10.111954 -0.89494491 17 6
-5.3802161 3.9826021 -1.7936161 9 0
-6.261229 4.6398315 -1.7991585 11 1
-30.807491 22.837965 2.0098054 3 9
-7.2798448 5.4005752 -1.7619303 15 2
-30.618881 22.731297 3.3363218 1 10
-8.6382179 6.4153061 -1.7041972 10 3
-30.818304 22.904387 4.7146378 1 11
-9.4630642 7.038146 -1.4480517 18 4
-33.341835 24.807001 6.5821371 1 12
-9.4973459 7.0713692 -1.0359331 14 5
-13.694777 10.207769 -0.89515424 35 6
-5.3498931 4.0168118 -1.7925807 9 0
-6.2263865 4.6800017 -1.7982588 12 1
-30.877142 23.22538 2.0248783 2 9
-7.2796082 5.4796052 -1.7710892 13 2
-30.982309 23.329893 3.3931475 1 10
-8.5711327 6.4588122 -1.6998171 10 3
-30.714716 23.162001 4.7234125 1 11
-9.1899052 6.9326372 -1.4134407 5 4
-33.199375 25.062963 6.5883946 1 12
-15.453517 11.6874 -1.0154223 9 6
-5.3340149 4.0634274 -1.7967219 9 0
-6.1935611 4.7233577 -1.7982588 11 1
-30.36813 23.176218 2.0020599 3 9
-7.2130928 5.508842 -1.76422 18 2
-30.758524 23.499653 3.3865235 0 10
-8.525835 6.5184903 -1.6998171 11 3
-30.83289 23.590586 4.766798 1 11
-8.8291655 6.7577319 -1.3651805 19 4
-33.108273 25.358999 6.6052899 1 12
-8.8521385 6.7851233 -0.97579563 34 5
-8.7989082 6.7516384 -0.58124322 48 6
-5.3146868 4.107657 -1.7998277 9 0
-6.1511884 4.759325 -1.7955593 10 1
-35.255909 27.298038 2.3368006 0 9
-7.1496277 5.539825 -1.7581142 18 2
-30.259876 23.455048 3.3495696 1 10
-8.4410992 6.547586 -1.6919955 13 3
-30.971666 24.041399 4.8140831 0 11
-8.7943144 6.8289485 -1.3671304 31 4
-8.8218565 6.8602095 -0.97771311 21 5
-22.168091 17.257389 -1.4723153 23 6
-5.3041244 4.1589632 -1.8060393 9 0
-6.1070833 4.7937284 -1.79241 8 1
-30.817471 24.207439 2.0537677 2 9
-7.0567565 5.5471387 -1.7447575 12 2
-30.569937 24.038893 3.402386 1 10
-8.3191166 6.5464978 -1.6766648 12 3
-30.862331 24.303705 4.8233452 0 11
-11.310007 8.9096889 -1.7678368 6 4
-13.701062 10.808801 -1.5267943 32 5
-22.17717 17.514467 -1.481003 34 6
-5.2877889 4.2045894 -1.8101805 7 0
-6.0605893 4.824264 -1.7883608 9 1
-30.339546 24.167757 2.0328336 3 9
-6.9113727 5.5093808 -1.7180443 10 2
-30.830873 24.585531 3.4499731 0 10
-8.1878986 6.5339742 -1.6591442 18 3
-33.364204 26.643829 5.2425756 0 11
-12.278934 9.8091631 -1.9296793 7 4
-13.627174 10.901808 -1.5267943 32 5
-22.288158 17.8498 -1.4964945 11 6
-5.2974019 4.2729378 -1.8236392 9 0
-6.0282784 4.8676815 -1.7888107 10 1
-30.064442 24.293625 2.0257156 1 9
-6.9078541 5.5858874 -1.7268214 13 2
-30.79324 24.909195 3.465138 0 10
-7.9931531 6.4704161 -1.6287959 12 3
-30.718664 24.884352 4.8540564 0 11
-12.324285 9.9871292 -1.947716 15 4
-22.31492 18.128376 -1.5067523 11 6
-5.2823935 4.3220491 -1.8288155 9 0
-5.9685197 4.8886561 -1.7811624 9 1
-30.357519 24.88275 2.0571175 1 9
-6.8018994 5.5791941 -1.7100304 9 2
-30.45071 24.9858 3.4461379 0 10
-7.9111466 6.495975 -1.621287 17 3
-30.715965 25.239351 4.8813548 1 11
-12.281862 10.095619 -1.9521034 8 4
-22.323462 18.395491 -1.5159634 11 6
-22.159023 18.279476 -0.50140762 27 7
-5.2431717 4.3514199 -1.8257096 9 0
-5.9282494 4.9252238 -1.7793628 9 1
-32.80621 27.274939 2.2358968 0 9
-6.8593726 5.7069054 -1.7344538 15 2
-30.171406 25.111101 3.4342849 0 10
-7.7320313 6.4397984 -1.5937545 9 3
-31.417351 26.185236 5.0217485 1 11
-12.087585 10.078145 -1.9323605 5 4
-22.033581 18.416403 -1.5049728 23 6
-5.2185779 4.3928928 -1.8277801 9 0
-5.8937211 4.9664893 -1.7793628 8 1
-30.034624 25.327358 2.0590014 0 9
-6.7663469 5.7078905 -1.7207156 10 2
-30.544962 25.785091 3.4972115 2 10
-7.634069 6.4490047 -1.5828041 9 3
-31.165607 26.336981 5.0100489 1 11
-7.5696974 6.4014206 -1.2172312 4 4
-5.1944337 4.4333296 -1.8298507 9 0
-5.839036 4.9887695 -1.7730643 8 1
-31.812418 27.189575 2.1931908 1 9
-6.7318139 5.7576432 -1.7218604 10 2
-30.503454 26.10771 3.5127249 1 10
-7.5041013 6.4249773 -1.5646578 12 3
-12.074371 10.348984 -1.9525908 3 4
-22.603413 19.421419 -1.5618098 12 6
-5.1795268 4.4803209 -1.8350271 9 0
-5.7999282 5.0222836 -1.7712647 8 1
-31.862082 27.609518 2.2095196 0 9
-6.6509356 5.7673187 -1.7111752 10 2
-31.628218 27.445564 3.6636789 1 10
-7.333396 6.365839 -1.5380639 14 3
-11.872982 10.321028 -1.9316292 6 4
-22.843716 19.90678 -1.5879778 11 6
-5.1473346 4.5172691 -1.8350271 9 0
-5.7609143 5.0610847 -1.7703648 9 1
-31.804695 27.96077 2.2193587 0 9
-6.6168661 5.8212481 -1.7130833 10 2
-30.494871 26.847029 3.5545597 0 10
-7.1749897 6.3189292 -1.5142858 13 3
-37.703823 33.228691 6.170733 0 11
-11.760116 10.371583 -1.925292 7 4
-22.990969 20.326382 -1.6082841 11 6
-5.1206498 4.5591259 -1.8370978 9 0
-5.7303696 5.1073656 -1.7721643 8 1
-36.808739 32.829979 2.5848732 0 9
-6.548676 5.8449168 -1.7062141 10 2
-37.175945 33.192455 4.3602276 0 10
-7.0456247 6.2950912 -1.4964522 20 3
-37.926796 33.910454 6.2467794 1 11
-11.722934 10.485193 -1.9311417 7 4
-22.949621 20.577059 -1.6154017 11 6
-5.0600185 4.5688715 -1.8267449 7 0
-5.6945724 5.1472478 -1.7721643 9 1
-36.377018 32.892223 2.570219 1 9
-6.4767122 5.8603778 -1.6978186 10 2
-36.733593 33.26128 4.3354754 0 10
-6.8840227 6.2354865 -1.4711099 16 3
-36.836143 33.389263 6.1044359 0 11
-6.8444009 6.2082982 -1.1346037 13 4
-6.7246933 6.1061363 -0.79468602 16 5
-23.332222 21.208355 -1.6524557 10 6
-5.037353 4.611033 -1.8298507 9 0
-5.6421647 5.1700907 -1.7667656 9 1
-6.4081578 5.880229 -1.6905679 4 2
-36.130592 33.165634 4.2908516 0 10
-6.6541147 6.1123433 -1.4310627 27 3
-6.6237144 6.0908155 -1.1048675 22 4
-6.6477938 6.1193848 -0.79050261 49 5
-23.298132 21.476322 -1.6606201 10 6
-4.9993753 4.640831 -1.8277801 9 0
-5.6130705 5.2159872 -1.7690151 10 1
-36.508125 33.937302 2.6122971 0 9
-6.3392348 5.8969684 -1.6829355 6 2
-35.618176 33.156418 4.2573838 0 10
-6.6210289 6.1655722 -1.4329399 27 3
-36.227058 33.758636 6.0800624 0 11
-6.6187773 6.1721082 -1.1112047 31 4
-6.7010331 6.2553787 -0.80200714 11 5
-23.452015 21.915323 -1.6821826 9 6
-4.9676714 4.6747518 -1.8277801 9 0
-5.4994216 5.1805787 -1.7442704 15 1
-35.729668 33.681713 2.5733593 0 9
-6.2422161 5.8885407 -1.6680523 7 2
-36.562492 34.502975 4.3982272 0 10
-6.5605888 6.1953697 -1.4291855 16 3
-36.117466 34.130699 6.101511 0 11
-6.5293732 6.1745205 -1.1034052 22 4
-23.594196 22.358767 -1.7035357 9 6
-4.9033504 4.6808329 -1.8163921 7 0
-5.4664359 5.2238388 -1.7456201 25 1
-6.1754193 5.9075465 -1.6611832 9 2
-35.068287 33.570583 4.2472734 1 10
-6.4561777 6.1847634 -1.4160448 16 3
-35.525726 34.044147 6.0415511 0 11
-6.4287987 6.1649938 -1.0936555 20 4
-23.661091 22.745724 -1.7200737 8 6
-5.9121242 5.68539 1.8936379 2 14
-4.8733287 4.7176385 -1.8174274 9 0
-5.3934484 5.226614 -1.7339227 20 1
-6.1132631 5.9324441 -1.6558405 7 2
-5.8712726 5.6996012 0.71589726 9 10
-6.3590012 6.1773815 -1.404156 15 3
-5.8472257 5.6841936 1.0012786 15 11
-6.3400607 6.1654406 -1.085856 21 4
-5.792994 5.6373768 1.2802597 17 12
-5.7784166 5.6290846 1.5680684 18 13
-23.681925 23.086016 -1.7332623 8 6
-5.7523031 5.6095185 1.8549464 12 14
-5.6999502 5.5662336 2.1347394 29 15
-4.8264885 4.7380123 -1.812251 7 0
-5.8226604 5.7179184 0.14244655 22 8
-5.2887206 5.1972113 -1.7118775 23 1
-5.7883625 5.6901937 0.4253867 15 9
-6.0111594 5.9133391 -1.6390493 7 2
-5.7560883 5.6663713 0.70665878 12 10
-5.8959665 5.8060985 -1.310608 12 3
-5.7221498 5.6388688 0.98641062 17 11
-5.8205361 5.7398267 -1.003716 4 4
-5.6954241 5.618413 1.2671193 17 12
-5.8204823 5.7457881 -0.71554857 10 5
-5.6803184 5.6113391 1.5520406 15 13
-5.6658907 5.6029506 1.8396497 16 14
-5.8006625 5.7402339 -0.14244655 18 7
-5.6495752 5.59267 2.1300809 22 15
-4.7913876 4.7680302 -1.8112158 9 0
-5.7202554 5.6963425 0.14091073 5 8
-5.2366552 5.2165866 -1.7064787 24 1
-5.6947465 5.6768813 0.42140913 13 9
-5.7765322 5.7624316 -1.5860044 3 2
-5.689178 5.6772747 0.70317256 12 10
-5.7728214 5.7647634 -1.2921488 3 3
-5.6657944 5.66184 0.9834857 16 11
-5.7195597 5.7175627 -0.99299151 9 4
-5.6337175 5.635684 1.2621135 14 12
-5.7361703 5.7401752 -0.70997071 14 5
-5.6600261 5.667933 1.5570016 7 13
-5.6111059 5.6248317 1.8342509 6 14
-5.7558093 5.7739182 -0.14230692 7 7
-5.6035752 5.6251335 2.1274927 19 15
-4.7552652 4.7986188 -1.8101805 9 0
-5.6996441 5.7536154 0.1413645 37 8
-5.1768036 5.2294736 -1.6988304 21 1
-5.6503539 5.7098346 0.4209905 13 9
-5.6943793 5.7583427 -1.5741742 4 2
-5.6494045 5.7168546 0.70317256 12 10
-5.6876359 5.7575493 -1.2818241 3 3
-5.6271243 5.7002745 0.9834857 20 11
-5.6432576 5.7206101 -0.98665434 4 4
-5.6063223 5.685153 1.2646164 17 12
-5.6847687 5.7687283 -0.70857614 9 5
-5.6079202 5.6947193 1.5535669 18 13
-5.5826335 5.6749816 1.8378501 6 14
-5.6536779 5.7512145 -0.14077111 7 7
-5.5922389 5.690702 2.1378453 10 15
-4.7089872 4.8170614 -1.8050041 9 0
-5.6425681 5.7761002 0.14094563 26 8
-5.1587873 5.2827144 -1.7046791 25 1
-5.6326723 5.7720127 0.42266521 9 9
-5.5964708 5.738924 -1.5581464 10 2
-5.6159239 5.7608814 0.70386976 12 10
-5.6155977 5.7645736 -1.2746283 4 3
-5.6176562 5.7707119 0.98884791 19 11
-5.6097255 5.7645807 -0.98762923 4 4
-5.602304 5.760973 1.272751 14 12
-5.626483 5.7919044 1.569595 3 13
-5.6105871 5.7795734 -0.42214185 13 6
-5.6283226 5.8039193 -0.14112017 7 7
-4.6671996 4.8414726 -1.8018982 9 0
-5.6326294 5.8470345 0.14171354 22 8
-5.0812287 5.2764897 -1.691182 23 1
-5.6628709 5.8845897 0.42800349 4 9
-5.6079817 5.8316278 -1.5726478 4 2
-34.726486 36.123989 4.383934 0 10
-5.61764 5.847796 -1.284327 6 3
-5.6009583 5.836545 -0.99323523 7 4
-5.617455 5.8619237 -0.71031928 9 5
-5.6153059 5.8719764 -0.14181826 7 7
-4.6199756 4.8599362 -1.7967219 7 0
-5.009378 5.2750945 -1.6794846 23 1
-34.94936 36.828945 2.6608651 0 9
-5.5955038 5.9005513 -1.5806618 6 2
-35.172512 37.102982 4.4728327 0 10
-5.5943403 5.9055142 -1.2883943 5 3
-51.548332 54.453686 9.2067423 24 11
-5.6010079 5.9187593 -1.0005474 3 4
-22.883778 24.241253 -1.747079 8 6
-4.5859346 4.8920712 -1.7967219 9 0
-5.023047 5.3639889 -1.6965809 23 1
-5.7268825 6.1220188 -1.6295089 4 2
-36.607925 39.161148 4.6900249 0 10
-8.0113716 8.5731287 -1.8584416 8 3
-51.222565 54.852623 9.2150297 24 11
-5.7058196 6.1144619 -1.0268712 22 4
-5.7398829 6.157424 -0.73646605 10 5
-22.865244 24.554314 -1.7583838 7 6
-4.5551534 4.9260092 -1.7977571 9 0
-4.8079081 5.2048082 -1.6358441 32 1
-5.5815053 6.050736 -1.6001244 9 2
-7.9392791 8.6157732 -1.8556259 9 3
-51.20948 55.611931 9.2823009 25 11
-5.6398687 6.1268673 -1.0224838 31 4
-5.6452436 6.1391535 -0.7296679 30 5
-22.685162 24.704521 -1.7577556 7 6
-4.5154443 4.9519811 -1.7956866 9 0
-4.869875 5.3462963 -1.6695868 15 1
-5.5600085 6.1103692 -1.6058486 3 2
-41.002491 45.092754 5.3321881 2 10
-7.8432465 8.628686 -1.8468655 7 3
-50.394653 55.480175 9.2028418 24 11
-5.5462584 6.1102366 -1.0132217 21 4
-5.5406833 6.1105208 -0.72164959 30 5
-11.948092 13.190784 -0.93273151 9 6
-4.4730144 4.9747639 -1.7925807 9 0
-4.9222846 5.4801984 -1.7006299 19 1
-40.926006 45.596767 3.2110207 3 9
-6.1021004 6.8032908 -1.7764318 4 2
-40.723927 45.419445 5.337069 2 10
-7.7813005 8.6845903 -1.8468655 7 3
-48.611301 54.292423 8.9478922 21 11
-5.4796362 6.1221843 -1.0088346 23 4
-5.4875221 6.1396141 -0.72042936 50 5
-11.731021 13.138878 -0.92310166 27 6
-4.4279208 4.994307 -1.7884396 9 0
-4.8244705 5.4473233 -1.6799345 20 1
-40.903198 46.216385 3.234467 4 9
-5.9439034 6.7207217 -1.7439942 4 2
-41.063057 46.44598 5.4238758 5 10
-7.7597194 8.7831116 -1.8562515 10 3
-48.2626 54.666195 8.9537411 21 11
-5.3921018 6.1096845 -1.0005474 19 4
-5.4102745 6.1389108 -0.71589726 50 5
-11.566422 13.138006 -0.91734481 18 6
-4.3954906 5.0280061 -1.789475 9 0
-4.7606888 5.4515138 -1.6709365 21 1
-6.0349045 6.9203773 -1.7848274 7 2
-7.8759718 9.041131 -1.8991146 5 3
-47.999714 55.139538 8.9761658 21 11
-5.3128285 6.1052513 -0.99372268 23 4
-5.3359208 6.140439 -0.71171379 48 5
-11.415502 13.150562 -0.91263455 27 6
-4.3552361 5.0527167 -1.7874043 9 0
-4.7530313 5.5200586 -1.6817341 18 1
-5.3195782 6.1867628 -1.5860044 3 2
-48.45475 56.373627 6.5035615 35 10
-7.9182048 9.218771 -1.9247699 8 3
-48.443634 56.44035 9.1326456 23 11
-5.2442245 6.1120605 -0.98884791 15 4
-5.2371807 6.1124802 -0.70421833 53 5
-21.713053 25.368891 -1.7500098 7 6
-4.3173532 5.0800548 -1.7863692 9 0
-4.6563625 5.4847698 -1.6610385 21 1
-6.0456047 7.1312547 -1.8172649 6 2
-47.956959 56.588936 6.4896169 34 10
-7.589396 8.9617834 -1.860006 4 3
-47.804779 56.489265 9.0863352 23 11
-5.1732206 6.1151814 -0.9834857 6 4
-5.155808 6.1032338 -0.69898903 53 5
-11.125156 13.183498 -0.90405136 27 6
-4.289227 5.1189561 -1.789475 9 0
-4.6579838 5.5649633 -1.6754354 21 1
-6.1026921 7.3013277 -1.8497025 9 2
-47.742126 57.139465 6.5143685 35 10
-7.9393778 9.5088711 -1.9620013 9 3
-47.465199 56.888695 9.0970602 23 11
-10.248092 12.287052 -1.964534 6 4
-5.1003232 6.1237698 -0.6972459 53 5
-10.892335 13.091958 -0.89253747 8 6
-4.239851 5.1323924 -1.7837809 10 0
-4.666152 5.6544619 -1.6925317 15 1
-46.566708 56.469807 3.835912 32 9
-6.0278487 7.3149676 -1.8424517 4 2
-47.47636 57.634361 6.5328455 35 10
-7.8740554 9.5655918 -1.9623141 8 3
-47.268661 57.463974 9.1360579 23 11
-10.164583 12.361365 -1.9650215 5 4
-5.0144587 6.106874 -0.69131935 52 5
-10.763937 13.122899 -0.88950199 17 6
-4.1856203 5.1393967 -1.7760164 14 0
-4.6093483 5.6657343 -1.686233 17 1
-4.959074 6.1043115 -1.5287617 6 2
-47.344109 58.298496 6.5704966 37 10
-7.8058381 9.6187963 -1.9620013 9 3
-9.9717808 12.300951 -1.9443036 7 4
-4.9366026 6.0983729 -0.68643862 50 5
-10.601733 13.110755 -0.88364035 17 6
-4.1060982 5.1142616 -1.7573814 16 0
-4.5855312 5.7175384 -1.6920818 13 1
-46.310806 57.784637 3.8809211 34 9
-4.9003825 6.1188626 -1.5238007 17 2
-46.911087 58.596474 6.5670109 36 10
-7.7273889 9.659173 -1.9591854 8 3
-46.647655 58.350933 9.1726189 24 11
-9.8546791 12.331498 -1.9382101 9 4
-4.8713598 6.1022487 -0.68312669 46 5
-10.458901 13.120417 -0.87934875 26 6
-4.0403214 5.1049323 -1.7444404 15 0
-4.526166 5.7249532 -1.6848834 13 1
-45.975842 58.173733 3.8859448 34 9
-4.8111649 6.091989 -1.5089177 13 2
-46.79213 59.291679 6.6081486 38 10
-7.660244 9.7099943 -1.9588726 7 3
-46.967106 59.577515 9.3149624 26 11
-9.7081623 12.323585 -1.926267 13 4
-4.7929111 6.0907001 -0.67807168 50 5
-10.296527 13.098662 -0.87317312 17 6
-4.0114222 5.1399302 -1.7470287 12 0
-4.5062633 5.7802196 -1.6920818 15 1
-46.607006 59.826229 3.9744976 39 9
-4.7299256 6.0758553 -1.4967059 11 2
-46.252884 59.435822 6.5889745 37 10
-7.566803 9.7304897 -1.9523023 4 3
-46.610958 59.982304 9.3271494 26 11
-9.6484089 12.420733 -1.9311417 6 4
-61.549351 79.29174 15.898124 33 12
-4.7234082 6.0893784 -0.67423683 49 5
-10.171807 13.127596 -0.87034708 17 6
-3.9719071 5.1632166 -1.7454758 15 0
-4.4669876 5.8130832 -1.6925317 16 1
-4.681417 6.1009402 -1.4947978 21 2
-46.302456 60.364338 6.6559095 39 10
-7.4890738 9.7705364 -1.9497994 5 3
-9.5264635 12.442082 -1.9240733 9 4
-60.999088 79.725769 15.899375 66 12
-4.6481075 6.0794702 -0.66953039 58 5
-60.901566 79.684731 19.494957 67 13
-10.015662 13.114161 -0.86479938 17 6
-3.945102 5.203135 -1.7496167 16 0
-4.4039407 5.8146114 -1.6839837 15 1
-4.6197624 6.1084204 -1.4886919 16 2
-45.887119 60.695652 6.6569557 39 10
-7.386148 9.7768726 -1.9407262 6 3
-9.4632854 12.539976 -1.9289482 9 4
-4.5826316 6.0791483 -0.66604418 45 5
-60.813911 80.732071 19.646839 67 13
-9.8169622 13.041745 -0.85548359 26 6
-3.9109941 5.2336454 -1.7506521 14 0
-4.3434229 5.8186674 -1.6763352 21 1
-4.547564 6.0988035 -1.4787698 17 2
-45.87653 61.570515 6.7176161 41 10
-7.3123479 9.8174171 -1.9388491 6 3
-9.2996902 12.503795 -1.9133489 4 4
-4.5222569 6.0870028 -0.6634295 48 5
-9.8255625 13.239781 -0.86406672 8 6
-3.8569479 5.2352581 -1.7423699 15 0
-4.3499179 5.9108787 -1.6943314 15 1
-4.4793024 6.0955958 -1.4703742 14 2
-45.652172 62.147915 6.7465515 41 10
-7.2623339 9.8937073 -1.9438549 4 3
-4.3889832 5.9880095 -0.91158277 6 4
-4.4019694 6.0123267 -0.65192497 51 5
-9.6444654 13.187145 -0.85621631 17 6
-3.8216534 5.2658529 -1.7434052 14 0
-4.3017898 5.9339657 -1.6920818 14 1
-4.3422141 5.9963317 -1.4390815 26 2
-45.731884 63.19936 6.8249922 44 10
-4.3254619 5.9819779 -1.1691914 33 3
-4.3027697 5.9637375 -0.64338368 55 5
-9.4599581 13.131042 -0.84815663 26 6
-3.77581 5.2798314 -1.739264 15 0
-4.2523317 5.9527516 -1.6889325 15 1
-4.2763925 5.9952836 -1.4314492 28 2
-45.409882 63.685776 6.8431206 44 10
-4.2755675 6.0007701 -1.1670012 25 3
-4.2853808 6.0212116 -0.90743923 21 4
-4.2853723 6.0301056 -0.64721853 55 5
-9.2755661 13.066474 -0.83978289 26 6
-11.244071 15.857086 -0.33930969 38 7
-3.7455344 5.3155384 -1.7423699 14 0
-4.1815071 5.9408598 -1.677235 17 1
-4.2660456 6.0699654 -1.4421345 28 2
-7.0154729 9.9931202 -1.933843 3 3
-8.8956518 12.685441 -1.9023806 5 4
-4.2420273 6.0582442 -0.64704424 51 5
-9.2161713 13.176738 -0.84271365 8 6
-3.7017236 5.3320355 -1.739264 14 0
-4.1465936 5.979516 -1.6799345 21 1
-4.2168589 6.0899153 -1.4398447 22 2
-6.936542 10.028861 -1.9313401 3 3
-8.7775316 12.704778 -1.8960434 6 4
-4.1848488 6.0640216 -0.64460385 51 5
-9.066164 13.156878 -0.83737534 17 6
-3.6589558 5.3497763 -1.7366759 13 0
-4.1014495 6.0034914 -1.6785848 25 1
-4.1332564 6.0568547 -1.4253433 17 2
-6.8158298 9.9991245 -1.9166353 8 3
-4.079042 5.9931211 -0.89013374 5 4
-4.1166506 6.0551906 -0.64059472 53 5
-10.588783 15.592619 -0.98778892 18 6
-10.741177 15.840825 -0.33407396 37 7
-3.6073399 5.3521309 -1.7294289 13 0
-4.0539598 6.0215712 -1.6758853 25 1
-4.0842991 6.0757866 -1.4230535 21 2
-6.7381482 10.034986 -1.9144453 7 3
-8.2675991 12.326705 -1.8224343 7 4
-4.0509419 6.0466561 -0.63675982 53 5
-8.5518627 12.784266 -0.80607843 8 6
-3.5773664 5.3884501 -1.7330524 15 0
-4.0301318 6.0773358 -1.6835337 16 1
-4.0255013 6.0772591 -1.4169476 21 2
-6.5868459 9.9554129 -1.8906672 9 3
-8.1725883 12.370873 -1.8204844 6 4
-3.9866827 6.0415301 -0.6332736 53 5
-8.717452 13.225729 -0.83015299 17 6
-3.5638711 5.4482431 -1.7444404 14 0
-4.020649 6.1535687 -1.6970307 14 1
-3.9636703 6.0756154 -1.4100785 21 2
-6.538753 10.034255 -1.8969245 9 3
-6.968472 10.705945 -1.5684586 7 4
-3.9302626 6.0451417 -0.63083327 52 5
-10.219172 15.742157 -0.98360205 27 6
-3.5173814 5.4599967 -1.7402993 14 0
-3.9543951 6.1454334 -1.687133 8 1
-3.9031157 6.0727267 -1.4032094 21 2
-6.4532304 10.051931 -1.8919187 9 3
-7.2138672 11.254029 -1.6413364 9 4
-3.8643289 6.0355177 -0.62699836 52 5
-10.096717 15.787796 -0.98213667 9 6
-3.4667568 5.4648457 -1.7340877 14 0
-3.8738427 6.1136322 -1.6709365 8 1
-10.01429 15.816572 0.98108989 2 9
-3.8427665 6.0739555 -1.3971035 26 2
-6.3726935 10.084494 -1.8894157 9 3
-6.7907691 10.758548 -1.5621214 13 4
-3.8114758 6.0454936 -0.62525529 52 5
-6.7446766 10.714512 -0.66351533 8 6
-3.4182889 5.4725289 -1.7289113 14 0
-3.9610419 6.3488479 -1.7276241 4 1
-3.7805665 6.066648 -1.3894712 21 2
-6.2778058 10.085711 -1.8815941 8 3
-6.6840553 10.755117 -1.5548092 14 4
-3.7597175 6.0567217 -0.62368649 48 5
-6.6547499 10.733015 -0.66184056 26 6
-3.3657751 5.4709883 -1.7211467 13 0
-3.7361312 6.0801244 -1.6475415 5 1
-59.907551 97.568985 6.0003181 49 9
-3.7093742 6.0460382 -1.3787858 10 2
-3.7084498 6.0516372 -1.1241382 24 3
-4.5100732 7.3684239 -1.0607508 2 4
-3.699683 6.0539198 -0.62072319 50 5
-3.3415091 5.5174866 -1.7283937 13 0
-3.7833607 6.2544584 -1.6875829 0 1
-4.8830047 8.0850725 -1.8359643 4 2
-3.6548872 6.058774 -1.1206967 38 3
-6.5945559 10.944868 -1.568946 10 4
-3.6265137 6.0283837 -0.61549383 38 5
-6.4692693 10.766677 -0.65828174 8 6
-3.30093 5.5373616 -1.7273583 13 0
-4.6674089 7.8358688 0.15920086 7 8
-3.5890629 6.0278831 -1.6196476 4 1
-4.7582226 8.0042086 -1.8100141 9 2
-3.5933383 6.0518699 -1.1147522 27 3
-6.5108972 10.978688 -1.5672399 9 4
-3.5731761 6.0346951 -0.61357641 46 5
-9.2406778 15.625125 -0.95136315 18 6
-3.2494829 5.5386105 -1.7206291 11 0
-3.5271881 6.019166 -1.6106496 4 1
-4.7360668 8.0885954 0.49122533 2 9
-4.7359343 8.0948477 -1.8229893 4 2
-3.5320647 6.0444036 -1.1088076 25 3
-6.1919384 10.608979 -1.5082551 9 4
-3.514909 6.03195 -0.61078745 42 5
-7.6022725 13.062008 -0.79205245 8 6
-9.1161909 15.682058 -0.31662154 34 7
-3.2088053 5.5578151 -1.7195939 11 0
-3.4549024 5.9913101 -1.5967026 7 1
-4.6724501 8.1158037 -1.820318 4 2
-9.7311392 16.909309 1.706858 1 10
-3.4691021 6.0329537 -1.1022373 28 3
-6.1365075 10.684655 -1.5128862 19 4
-3.452951 6.0194435 -0.60712689 48 5
-6.1113515 10.671019 -0.64446503 26 6
-3.1642036 5.5700016 -1.716488 12 0
-3.4033771 5.9983335 -1.5922036 9 1
-4.595808 8.1098404 -1.8119223 3 2
-4.7750115 8.4329367 0.84785104 2 10
-3.4143369 6.0323577 -1.0978571 33 3
-6.0725079 10.746247 -1.5155673 29 4
-3.4069257 6.0364614 -0.60642964 48 5
-5.9856129 10.618417 -0.63881272 8 6
-3.1262164 5.5914106 -1.716488 11 0
-3.3510673 6.0009427 -1.5868047 9 1
-4.4578147 7.9959745 -1.7794847 9 2
-36.081532 64.745872 6.484736 34 10
-3.3596442 6.0336127 -1.0937898 39 3
-6.0928068 10.955613 -1.53921 6 4
-3.349226 6.0322289 -0.60364062 48 5
-5.9423313 10.715839 -0.64216226 8 6
-3.0908284 5.6198702 -1.7185585 11 0
-3.3278553 6.058352 -1.5958028 7 1
-3.3436599 6.0972066 -1.351691 3 2
-35.578842 64.905334 6.4756713 34 10
-3.3032091 6.0309315 -1.0890969 33 3
-5.8713708 10.733164 -1.5021616 13 4
-3.2898421 6.0239887 -0.60050309 48 5
-5.8023429 10.637834 -0.63504457 26 6
-3.0441661 5.6277175 -1.7144175 10 0
-3.9199746 7.2558908 -1.9039857 5 1
-4.2711849 7.919198 -1.7489554 9 2
-34.873348 64.685638 6.4293051 33 10
-3.2460358 6.0260191 -1.0840909 28 3
-5.7154083 10.623552 -1.4812001 10 4
-3.2355595 6.0216718 -0.59806269 47 5
-5.7260513 10.674559 -0.63483518 26 6
-3.0075245 5.6539493 -1.7159703 9 0
-3.2475142 6.1128311 -1.5980524 5 1
-4.231905 7.9758363 -1.7550613 19 2
-33.894573 63.934711 6.3309932 30 10
-3.1901433 6.0200472 -1.0790851 34 3
-5.621614 10.626344 -1.4760816 9 4
-3.1766906 6.0124025 -0.59492511 47 5
-5.6271605 10.663829 -0.63190436 26 6
-2.9680738 5.6725783 -1.7154527 11 0
-3.1769488 6.0795259 -1.5836555 2 1
-4.1634068 7.9808164 -1.7497185 9 2
-3.1407359 6.0281572 -1.0765822 34 3
-4.3332138 8.3275719 -1.1526403 7 4
-3.1338544 6.0303507 -0.59457648 36 5
-2.924865 5.6862893 -1.7133821 11 0
-3.7185719 7.2386656 -1.8787912 5 1
-4.0552158 7.9041648 -1.7268214 9 2
-32.820789 64.027176 6.2947364 29 10
-3.0933251 6.0370898 -1.0743921 37 3
-5.3859749 10.529647 -1.4521952 9 4
-3.0826142 6.0343394 -0.59283334 36 5
-5.4160585 10.615865 -0.6245774 35 6
-7.9599643 15.629045 -0.30615014 32 7
-2.8913236 5.7164102 -1.716488 11 0
-3.6753635 7.2759852 -1.8819405 7 1
-3.9893277 7.9112463 -1.722242 10 2
-32.168983 63.822102 6.2529016 28 10
-3.0351098 6.0267811 -1.0687604 40 3
-32.537655 64.665802 8.8884201 20 11
-4.141623 8.2382812 -1.1321664 10 4
-3.0377295 6.0503712 -0.59231043 21 5
-5.3668804 10.703408 -0.62750816 8 6
-2.8365905 5.7092724 -1.7082058 11 0
-3.6076128 7.2706771 -1.8738421 6 1
-3.9523058 7.9758468 -1.7302561 12 2
-31.393244 63.407852 6.1901493 26 10
-2.9752643 6.0147038 -1.0628159 39 3
-4.0769734 8.2527561 -1.1302164 11 4
-2.9698517 6.0196147 -0.58725542 10 5
-5.3289776 10.820375 -0.63211375 8 6
-2.7814114 5.6976862 -1.6988882 11 0
-2.9282503 6.0064588 -1.5427144 0 1
-3.9140344 8.0427589 -1.7386516 10 2
-30.810331 63.338818 6.1622596 25 10
-2.9159319 5.9997954 -1.0565585 37 3
-3.9707193 8.1810093 -1.116567 7 4
-5.1489892 10.622794 -1.0327955 14 5
-5.1350012 10.612805 -0.61787838 17 6
-2.7632849 5.7622547 -1.7123468 11 0
-3.4838648 7.2746406 -1.8621449 3 1
-3.7736456 7.8903317 -1.7001083 18 2
-29.726608 62.211273 6.0322232 22 10
-2.8665113 6.0016799 -1.0534298 37 3
-30.488926 63.892609 8.6924534 18 11
-3.927177 8.2372007 -1.1204668 13 4
-5.0695639 10.647689 -1.0317496 14 5
-5.0506363 10.62226 -0.616413 44 6
-2.7552898 5.8473382 -1.7320172 11 0
-3.4417348 7.3140559 -1.866194 2 1
-3.7618716 8.0088882 -1.7199525 10 2
-29.139885 62.065903 5.9987555 21 10
-2.8195114 6.0108137 -1.0515525 32 3
-30.018511 64.053596 8.6856289 18 11
-4.9387732 10.543143 -1.4295275 13 4
-42.620041 91.066826 15.92503 33 12
-4.9581404 10.598931 -1.0237314 14 5
-4.9357944 10.570395 -0.61138868 18 6
-2.698987 5.8331184 -1.722182 13 0
-2.7816236 6.0199828 -1.5310168 9 1
-3.727011 8.0770922 -1.7291112 7 2
-28.705873 62.267826 5.9987555 21 10
-2.7719181 6.0155139 -1.0490496 32 3
-4.7716136 10.364695 1.40101 16 11
-4.8816376 10.613435 -1.4344022 13 4
-4.853251 10.5663 -1.0172819 36 5
-5.9478889 12.967397 -0.74767154 8 6
-2.6280477 5.782764 -1.7019941 11 0
-3.6243558 8.0009794 -1.7073588 6 2
-28.05126 61.953575 5.9499483 19 10
-2.7200847 6.0131211 -1.0452952 37 3
-5.8487725 12.947564 -1.7444379 2 4
-4.7736382 10.587209 -1.0160617 29 5
-5.8342614 12.957611 -0.74474072 26 6
-2.5860384 5.797442 -1.7009588 11 0
-2.6809123 6.0186 -1.521119 42 1
-3.4679141 7.8000507 -1.6592751 6 2
-27.085669 60.949879 5.8352513 16 10
-2.6668169 6.0066886 -1.040915 34 3
-4.8662872 10.971058 1.4736443 7 11
-4.8265576 10.886613 -1.4621885 3 4
-4.659297 10.529178 -1.007346 14 5
-5.7347779 12.97793 -0.74358934 17 6
-2.5594451 5.8472099 -1.7102764 18 0
-2.625561 6.0068145 -1.5134706 35 1
-3.5609636 8.1623707 -1.7310193 3 2
-26.689758 61.206882 5.8418746 16 10
-2.6121941 5.9961839 -1.0359092 37 3
-4.9535589 11.381539 1.5240982 2 11
-4.6601639 10.712528 -1.4344022 6 4
-4.5983715 10.59069 -1.0101351 14 5
-5.5693531 12.8454 -0.73375016 17 6
-2.523138 5.8755851 -1.7133821 14 0
-2.5766525 6.0088778 -1.5094216 42 1
-25.64015 59.851814 3.4124093 12 9
-3.4799464 8.1310806 -1.719189 4 2
-26.242998 61.347763 5.8376918 16 10
-2.5594015 5.9888439 -1.0315289 35 3
-27.358362 64.078796 8.554985 16 11
-4.5603304 10.686377 -1.4266026 11 4
-28.406572 66.630501 11.47228 21 12
-4.5149546 10.600538 -1.0080433 21 5
-4.4954114 10.570002 -0.60196823 18 6
-2.4808352 5.8872828 -1.7118292 12 0
-2.5281336 6.0083156 -1.5049226 45 1
-25.396233 60.415279 3.4345996 13 9
-3.413877 8.1292381 -1.7138464 4 2
-4.3807321 10.436647 0.99026352 2 10
-2.5109382 5.9879098 -1.0284003 37 3
-27.179306 64.878708 8.6368809 17 11
-3.3489375 7.9980516 -1.0646507 9 4
-4.4138074 10.556722 -1.0010709 21 5
-6.4431376 15.440651 -0.87683672 8 6
-2.4359851 5.8955312 -1.709241 11 0
-2.4816637 6.0150108 -1.5022231 45 1
-3.3360293 8.0978298 -1.7023981 7 2
-2.4641097 5.9902477 -1.0258973 40 3
-4.3831582 10.676617 -1.4170969 18 4
-4.3672099 10.653644 -1.007346 14 5
-4.3662391 10.667185 -0.60406166 9 6
-2.3558931 5.8135033 -1.680771 14 0
-2.4333565 6.0136981 -1.4977242 45 1
-3.1507704 7.8023462 -1.6356149 4 2
-4.4109211 10.928387 1.0310525 6 10
-2.413368 5.9853187 -1.0221429 33 3
-26.9245 66.841866 8.8479586 20 11
-3.3295374 8.2699633 -1.0946305 19 4
-4.2485242 10.589897 -0.59799069 18 6
-2.2924325 5.7723541 -1.6642065 22 0
-2.3826935 6.0088015 -1.4923253 48 1
-3.1446238 7.9464617 -1.6611832 16 2
-23.783792 60.132294 5.6574535 11 10
-2.3686204 5.9946733 -1.0208914 35 3
-26.044682 65.983116 8.7100029 18 11
-3.2644365 8.2745419 -1.0921932 19 4
-26.434027 67.072304 11.418466 21 12
-3.2283039 8.1997175 -0.7709797 10 5
-6.1137748 15.552541 -0.87579 8 6
-2.3067164 5.9286475 -1.7045823 13 0
-2.3279843 5.9925928 -1.4842271 42 1
-23.556932 60.701958 3.4124093 12 9
-3.0933285 7.9792047 -1.6634729 16 2
-2.3195813 5.992641 -1.0177628 36 3
-25.816788 66.766922 8.7894611 19 11
-3.1421857 8.1304827 -1.0702567 14 4
-25.977934 67.288383 11.424097 21 12
-3.1939225 8.2815418 -0.77655768 16 5
-6.8799324 17.866879 -1.0033851 18 6
-2.2762768 5.9734902 -1.7128645 12 0
-2.2805476 5.9941278 -1.4806278 45 1
-3.0250044 7.9675684 -1.6566037 13 2
-23.265633 61.311661 5.737288 14 10
-2.2720866 5.9939113 -1.0152597 38 3
-4.0135517 10.604757 -1.3922355 7 4
-25.869398 68.425232 11.586164 23 12
-4.0398803 10.696874 -1.0003736 14 5
-3.0519547 8.0938444 -0.45333412 25 6
-2.2480242 6.0254359 -1.7232174 9 0
-2.2359242 6.0025988 -1.4788282 48 1
-23.019136 61.863548 3.4593022 14 9
-2.985723 8.0326586 -1.6657627 18 2
-22.934168 61.73407 5.7616916 14 10
-2.2246881 5.9948115 -1.0127568 35 3
-3.0035305 8.1065502 -1.0614821 19 4
-25.279993 68.304054 11.53548 22 12
-3.0483291 8.2407026 -0.76871365 26 5
-5.6712241 15.364262 -0.85830981 17 6
-2.2158463 6.068202 -1.7309818 11 0
-2.1846192 5.9924297 -1.4725296 45 1
-3.9787862 10.919767 0.60908592 6 9
-2.9108329 7.9974499 -1.654314 16 2
-22.693274 62.416958 5.8104992 16 10
-2.1710126 5.9745407 -1.0068123 29 3
-4.6709986 12.882411 -1.6825283 5 4
-2.9683442 8.1999598 -0.76296139 15 5
-3.853791 10.66342 -0.59422249 9 6
-5.6106982 15.558745 -0.28869772 30 7
-2.0587399 5.7593412 -1.6388422 10 0
-2.1359196 5.9851365 -1.4671308 45 1
-4.7152767 13.22741 0.73594826 2 9
-2.8746905 8.07306 -1.6657627 21 2
-25.542536 71.771324 6.6649737 39 10
-2.1272645 5.9839678 -1.0058737 33 3
-3.7280428 10.504359 -1.3685929 12 4
-23.374804 65.935265 11.079942 17 12
-2.9123557 8.2242393 -0.76330996 21 5
-4.5814366 12.959137 -0.72035217 17 6
-2.0707638 5.9231095 -1.6812886 12 0
-2.0850959 5.974143 -1.4608321 48 1
-2.0544565 5.89959 -1.2143085 17 2
-2.0491118 5.894186 -0.98835307 31 3
-22.310596 64.247704 8.3507318 13 11
-23.69039 68.336525 11.455384 21 12
-2.0392852 5.8891058 -0.54524636 46 5
-3.6771224 10.636907 -0.58982629 19 6
-2.0112431 5.884409 -1.6662771 22 0
-2.0131311 5.9000258 -1.4392369 66 1
-2.0024638 5.8821945 -1.207821 34 2
-2.000288 5.8859029 -0.98459864 40 3
-21.654747 63.792866 8.27176 12 11
-1.9955494 5.8820662 -0.76265842 39 4
-23.075758 68.096153 11.387805 20 12
-1.9863724 5.8651071 -0.54176009 48 5
-3.5362799 10.465533 -0.57894039 9 6
-1.9731731 5.9074683 -1.6688653 31 0
-1.9675776 5.9009957 -1.4360875 42 1
-1.9710587 5.9217668 -1.2131636 25 2
-20.06509 60.35302 5.5643711 9 10
-1.9720123 5.9349995 -0.99054313 28 3
-1.969427 5.9410763 -0.76850814 21 4
-22.217875 67.062782 11.189445 18 12
-1.961026 5.9261198 -0.54611784 40 5
-3.4962847 10.584187 -0.58417404 9 6
-5.1768231 15.708436 -0.28869772 30 7
-1.9449073 5.9574924 -1.6792181 14 0
-3.586302 10.998299 0.20192434 13 8
-1.9527251 5.9920712 -1.4549835 49 1
-2.6380441 8.1142426 -1.6585119 6 2
-19.56023 60.20018 5.5378761 8 10
-1.9427254 5.9862008 -0.99680054 28 3
-2.6893842 8.301712 -1.0714754 20 4
-21.718742 67.122292 11.173802 18 12
-2.6391211 8.16113 -0.75041097 10 5
-2.6239164 8.1335011 -0.44789118 26 6
-1.9408177 6.0887232 -1.7123468 7 0
-1.9037546 5.9832735 -1.4495846 63 1
-2.5976081 8.1787901 -1.6680523 4 2
-19.167191 60.422626 5.5458941 8 10
-1.8947701 5.9766898 -0.99304616 22 3
-2.5421731 8.0382738 -1.0351583 18 4
-21.458998 67.893906 11.277675 19 12
-2.577883 8.1660557 -0.74919075 31 5
-2.5624895 8.132122 -0.44684443 26 6
-1.8757904 6.0261655 -1.6911237 9 0
-1.8629836 5.9960938 -1.4495846 77 1
-2.6084468 8.416131 -1.7127017 3 2
-18.272074 58.991085 5.4029589 4 10
-1.8506634 5.982223 -0.99179459 21 3
-2.5037985 8.1084995 -1.0419829 19 4
-21.026402 68.177971 11.3002 20 12
-2.5527544 8.2824221 -0.758255 26 5
-3.2569396 10.593422 -0.58082449 9 6
-2.0503216 6.7526436 -1.890932 9 0
-1.8120342 5.9791141 -1.4423862 80 1
-2.4885726 8.2269821 -1.6707237 4 2
-18.353045 60.749805 5.5521693 8 10
-1.8156102 6.0135922 -0.99492329 14 3
-19.56362 64.879684 8.320508 13 11
-2.4528539 8.1447897 -1.0444204 16 4
-20.643818 68.591904 11.345254 20 12
-3.2192421 10.709915 -0.97841036 14 5
-2.4570096 8.1896372 -0.44810051 13 6
-3.1525569 10.534731 -0.19194156 13 7
-1.8051412 6.0940595 -1.7030294 6 0
-1.7657689 5.9726214 -1.4378871 80 1
-17.420475 58.999485 3.2239997 3 9
-2.4049819 8.1556492 -1.6527877 13 2
-17.239584 58.49971 5.3356743 2 10
-1.7702398 6.0147505 -0.99304616 8 3
-19.011114 64.677589 8.2773666 12 11
-2.410229 8.205102 -1.0500263 21 4
-19.93646 67.957199 11.216978 19 12
-2.4110949 8.2293043 -0.75023663 26 5
-3.062362 10.472462 -0.5718227 20 6
-3.2006681 10.966743 -0.1994112 14 7
-1.7555909 6.0823827 -1.6963001 7 0
-1.7197164 5.9698219 -1.4342879 56 1
-2.3241282 8.0892162 -1.6359965 15 2
-16.787901 58.469265 5.3220782 2 10
-2.3124378 8.0644341 -1.3287545 9 3
-18.377707 64.175133 8.1964455 11 11
-2.290621 8.0041637 -1.0222402 24 4
-2.3705366 8.3053284 -0.75564027 15 5
-2.3008392 8.0771599 -0.44014546 26 6
-1.7036755 6.0610151 -1.6869825 13 0
-1.6695757 5.9516611 -1.4270895 63 1
-2.2808259 8.1525106 -1.6455369 10 2
-16.178659 57.867401 5.2568855 0 10
-2.2677715 8.1222372 -1.3356376 9 3
-17.97612 64.470146 8.2178946 11 11
-2.9524114 10.595754 -1.3505563 15 4
-2.929162 10.540788 -0.95714432 13 5
-2.2668111 8.1738605 -0.44454166 26 6
-1.6429685 6.0056796 -1.6683476 9 0
-1.6249052 5.9518924 -1.4243901 63 1
-2.2506733 8.2667379 -1.6653811 4 2
-15.713601 57.755932 5.2366657 0 10
-2.2001362 8.0978394 -1.3290673 14 3
-17.762655 65.467682 8.3290386 13 11
-2.2290294 8.2212105 -1.0458828 18 4
-2.2293863 8.2452965 -0.74727333 10 5
-3.4781761 12.890678 -0.69973183 17 6
-1.7202193 6.4650583 -1.7925807 9 0
-1.5813133 5.9555573 -1.4225905 47 1
-15.306642 57.729263 3.1300046 0 9
-2.1280832 8.037426 -1.6161523 9 2
-15.141832 57.228611 5.179143 0 10
-2.1390076 8.0958138 -1.3262516 10 3
-15.935829 60.400013 7.66997 4 11
-2.1422315 8.1252384 -1.0317459 16 4
-2.1677163 8.245245 -0.74587888 10 5
-2.7424076 10.453425 -0.56637979 20 6
-1.7572712 6.7948642 -1.8805792 14 0
-1.5367755 5.9551306 -1.419891 52 1
-1.8160486 7.0576973 -1.416566 3 2
-4.1171427 16.012001 1.4464366 1 10
-1.8505629 7.2074642 -1.1785774 1 3
-15.461511 60.305965 7.6441331 4 11
-2.0460413 7.9861584 -1.0122468 15 4
-2.0854442 8.1636572 -0.73716325 15 5
-2.7177076 10.661983 -0.57663763 9 6
-1.6994375 6.7657466 -1.8691912 14 0
-1.4923207 5.9543724 -1.4171916 59 1
-14.499118 57.937351 3.1300046 0 9
-1.9823383 7.9330273 -1.5894389 19 2
-2.009515 8.0597229 -1.3156141 18 3
-14.5759 58.547783 7.4081941 1 11
-1.7726674 7.1256714 -0.90158945 6 4
-2.0360746 8.2089577 -0.73995227 10 5
-1.7670922 7.1404986 -0.38550669 12 6
-1.6311188 6.6911077 -1.8453798 14 0
-1.4488757 5.9570708 -1.415392 56 1
-14.075432 57.959526 3.1258175 0 9
-1.9282949 7.9523969 -1.5905839 12 2
-14.113588 58.249622 5.243638 0 10
-2.0298398 8.3903532 -1.3672374 9 3
-13.982254 57.883991 7.3116736 0 11
-2.5640559 10.622869 -1.3417815 13 4
-2.5306118 10.516493 -0.94633704 13 5
-1.4116358 5.9669924 -1.6429834 2 0
-1.4029189 5.944036 -1.4099932 66 1
-13.618311 57.789597 3.1115823 0 9
-1.8925593 8.0436916 -1.6062301 13 2
-13.631984 57.983585 5.211216 0 10
-2.4787171 10.559777 -1.7179635 7 3
-13.521766 57.695648 7.2760878 1 11
-1.8860793 8.0539865 -1.0156592 19 4
-2.487962 10.657647 -0.95749295 13 5
-1.9094872 8.1990309 -0.44119215 13 6
-1.3427548 5.8580709 -1.6103721 2 0
-1.3631281 5.9612842 -1.4117929 52 1
-13.217199 57.894951 3.1122103 0 9
-1.8302456 8.0299101 -1.6008875 21 2
-13.236583 58.120079 5.2150507 0 10
-1.8522077 8.1459465 -1.3231229 12 3
-13.341915 58.772045 7.3999071 1 11
-1.8377101 8.1018047 -1.0200466 13 4
-1.8515341 8.1892281 -0.73454857 25 5
-1.8482417 8.1946278 -0.44025013 26 6
-1.3206557 5.9521718 -1.6336659 2 0
-1.6611286 7.499054 0.13406938 4 8
-1.3164238 5.9478226 -1.406394 63 1
-12.882477 58.301758 3.1291673 0 9
-1.7910624 8.1191778 -1.6161523 10 2
-12.880225 58.436779 5.235271 0 10
-1.7986929 8.1741114 -1.3256258 12 3
-2.3348045 10.636988 -1.3371505 7 4
-1.7896297 8.1805449 -0.73263115 20 5
-1.7850262 8.1800137 -0.43878472 26 6
-1.2616426 5.8800259 -1.6114074 2 0
-1.2732368 5.9492459 -1.4045944 52 1
-1.6395694 7.674037 0.41125599 2 9
-1.7220504 8.0738831 -1.6047038 10 2
-12.423803 58.299225 5.2150507 0 10
-1.7378838 8.1690807 -1.3228099 13 3
-12.295686 57.896271 7.2673135 0 11
-1.7466655 8.2315321 -1.0332084 10 4
-13.520161 63.826488 10.333436 9 12
-1.7131017 8.101223 -0.72443849 25 5
-1.7233412 8.1707783 -0.43763331 26 6
-1.2111514 5.8432908 -1.5989841 5 0
-1.2277271 5.9389057 -1.4000953 66 1
-12.191547 59.078392 3.161406 0 9
-1.6806942 8.1587772 -1.6192051 4 2
-1.6589458 8.0745916 -1.3056022 10 3
-11.691757 57.008396 7.1454439 0 11
-1.6943363 8.2688065 -1.0363771 9 4
-12.976463 63.441307 10.256158 18 12
-2.1375952 10.469187 -0.93483251 13 5
-1.6535074 8.1199818 -0.43428379 26 6
-1.1619929 5.8099284 -1.5875961 3 0
-1.1854733 5.9435096 -1.3991956 56 1
-1.6202542 8.1529799 -1.6157707 10 2
-1.6048344 8.0976038 -1.3074795 9 3
-11.277326 57.00684 7.1352072 1 11
-1.5969199 8.0798502 -1.0112718 11 4
-12.480893 63.264835 10.213294 17 12
-1.594053 8.0950298 -0.72182387 35 5
-1.5990881 8.1430874 -0.43491185 26 6
-1.1272538 5.8482504 -1.5958784 7 0
-1.1417439 5.9401588 -1.3964962 52 1
-11.059205 57.646202 3.0762031 0 9
-1.5470464 8.0792522 -1.5989794 10 2
-11.060907 57.818653 5.150207 0 10
-1.5586408 8.1629381 -1.3162397 19 3
-1.5426321 8.0944319 1.0117593 3 11
-1.5144867 7.9542971 -0.99421012 19 4
-11.311655 59.523476 9.5963163 4 12
-1.5382426 8.1098757 -0.72217244 35 5
-1.5232663 8.0539675 -0.42957357 26 6
-1.2957169 6.9842448 -1.9033554 3 0
-1.0988311 5.9403195 -1.3946966 49 1
-1.5094599 8.1921864 -1.6192051 10 2
-10.66273 57.925823 5.1529961 0 10
-1.4969747 8.1483641 -1.3121724 14 3
-10.561906 57.603912 7.1907792 0 11
-1.459276 7.9666295 -0.99445397 21 4
-10.928509 59.779766 9.6251011 5 12
-1.4858788 8.1439371 -0.7242642 15 5
-1.4745121 8.10567 -0.43177167 26 6
-2.2814281 12.578835 -0.22314647 17 7
-1.0536305 5.9090629 -1.6083016 2 0
-1.0566508 5.9440084 -1.3937967 42 1
-10.073205 56.780258 3.0221925 0 9
-1.4556533 8.2218561 -1.6230214 10 2
-10.242805 57.912525 5.1453261 0 10
-1.4551597 8.2442093 -1.3259387 17 3
-10.079632 57.222683 7.1342316 0 11
-1.4222002 8.0821962 -1.0076158 10 4
-1.4951146 8.5139694 1.3691146 4 12
-1.4355742 8.1832981 -0.72687888 25 5
-1.8296772 10.472782 -0.55716866 20 6
-2.1921833 12.586577 -0.22300686 17 7
-1.0195171 5.9581671 -1.6196897 1 0
-1.0138144 5.9435573 -1.3919971 30 1
-9.6865063 56.847504 3.0221925 0 9
-1.379251 8.1115742 -1.5993611 7 2
-9.7909212 57.70369 5.120574 0 10
-1.3897661 8.1993895 -1.3171782 10 3
-9.7587261 57.69709 7.1849294 0 11
-1.4080322 8.3424749 -1.0388143 9 4
-10.334441 61.296074 9.8453608 4 12
-1.791937 10.651058 -0.94494259 20 5
-2.1501265 12.821119 -0.68130952 8 6
-0.97956598 5.968781 -1.6207249 1 0
-0.96956229 5.9272418 -1.3865983 26 1
-1.310596 8.0473719 -1.5848596 18 2
-10.361541 63.6922 5.6456003 11 10
-1.3233111 8.1523466 -1.3081051 9 3
-9.3784771 57.840561 7.1946793 0 11
-1.7021697 10.521157 -1.3086332 7 4
-10.522679 65.185081 10.457958 22 12
-1.7327119 10.745623 -0.95226365 13 5
-2.0510626 12.776659 -0.67816937 26 6
-0.92811668 5.9066072 -1.6020899 1 0
-0.93039733 5.9414058 -1.3883979 19 1
-8.7420816 55.953476 2.9679723 0 9
-1.2573045 8.0658054 -1.5867676 12 2
-8.9689474 57.603256 5.1003542 0 10
-1.6152912 10.398116 -1.6666529 9 3
-9.0338869 58.220833 7.2341652 0 11
-0.91320044 5.8989058 -0.73292232 1 4
-11.425907 73.97776 11.855856 25 12
-1.635839 10.603577 -0.93866736 19 5
-1.9561715 12.738996 -0.67544788 26 6
-0.89305675 5.9471755 -1.6114074 2 0
-0.89109021 5.9553094 -1.3901975 10 1
-8.3427601 55.88921 2.9614828 0 9
-1.1913847 8.0003872 -1.5722662 10 2
-8.5297203 57.347668 5.0724645 0 10
-1.5630319 10.533926 -1.6866766 9 3
-8.713829 58.867664 7.3067989 0 11
-1.5488247 10.48864 -1.3018084 10 4
-11.129074 75.456963 12.080497 28 12
-1.1864791 8.0640488 -0.71310824 9 5
-1.3975782 9.5218544 1.8706915 2 13
-1.8708569 12.761897 -0.67597127 17 6
-0.85921937 6.0146117 -1.6279719 1 0
-0.84900141 5.9653926 -1.3910973 7 1
-7.9987311 56.342968 2.9824171 0 9
-1.1341243 7.9987898 -1.5703582 13 2
-8.1766348 57.813618 5.1083722 0 10
-1.1217114 7.9511733 -1.2718123 7 3
-8.2843637 58.797329 7.2907119 0 11
-1.8170394 12.928892 -1.6030694 7 4
-1.4757504 10.54054 -0.93117195 33 5
-1.3799454 9.8813686 1.9393828 2 13
-1.1316743 8.1243038 -0.42988759 26 6
-0.80473596 5.9285769 -1.6031252 4 0
-0.80237335 5.9344816 -1.3825492 6 1
-7.6745858 56.912067 3.0096319 0 9
-1.0522584 7.823802 -1.5344861 10 2
-1.4034685 10.476655 -1.6741619 6 3
-7.9102015 59.205341 7.3340979 0 11
-1.4095844 10.564337 -1.3086332 7 4
-1.4149888 10.64736 -0.93971318 13 5
-1.3905808 10.519928 -0.55612195 31 6
-0.76628762 5.9570432 -1.609337 2 0
-0.75424051 5.8877492 -1.3704019 2 1
-7.2419071 56.610344 2.9910002 0 9
-1.0213425 8.0060549 -1.5688316 9 2
-7.4988718 58.94595 5.1986656 0 10
-1.0366254 8.1598864 -1.3027864 4 3
-7.6152964 60.112514 7.4398804 1 11
-1.3397779 10.605431 -1.3125329 10 4
-1.331172 10.581861 -0.93308938 26 5
-1.3149695 10.497442 -0.55444717 20 6
-0.87464386 7.1856127 -1.93959 3 0
-0.94390726 7.7886405 -1.8113058 1 1
