# .PCD v0.7 - Point Cloud Data file format
VERSION 0.7
FIELDS x y z intensity ring
SIZE 4 4 4 4 2
TYPE F F F F U
COUNT 1 1 1 1 1
WIDTH 1311
HEIGHT 1
VIEWPOINT 0 0 0 1 0 0 0
POINTS 1311
DATA ascii
6.5769749 -0.60781199 -1.7698047 2 0
7.6819534 -0.71398556 -1.7811624 3 1
9.2693472 -0.86641872 -1.8096325 3 2
11.672407 -1.0972012 -1.8568773 3 3
15.800117 -1.4963331 -1.948691 3 4
6.5573063 -0.65103877 -1.7656636 2 0
115.35319 -11.493445 2.0234671 20 8
7.6439509 -0.76296777 -1.7735142 4 1
9.2572126 -0.93052018 -1.8084878 4 2
11.680185 -1.1802514 -1.8593802 4 3
15.815241 -1.6064534 -1.9518596 2 4
6.5641274 -0.69802678 -1.7687694 2 0
115.36771 -12.288523 2.0251422 105 8
7.6461887 -0.81714189 -1.7753137 5 1
9.2409048 -0.99246186 -1.8065797 3 2
11.703303 -1.2631195 -1.8643861 3 3
15.7918 -1.7155384 -1.9503973 2 4
6.607214 -0.74812478 -1.7817104 2 0
7.6656208 -0.87203187 -1.7811624 6 1
9.2376518 -1.0573974 -1.8073429 3 2
11.709902 -1.346598 -1.8668892 3 3
15.819196 -1.8275454 -1.9552718 2 4
6.5673056 -0.79007971 -1.772393 2 0
7.6535425 -0.92482501 -1.7798127 5 1
9.2419338 -1.1216704 -1.8096325 3 2
11.700464 -1.4262729 -1.8668892 2 3
15.808022 -1.9381804 -1.9555157 2 4
6.567379 -0.83664101 -1.7739457 3 0
7.6507654 -0.97872853 -1.7807125 5 1
9.2726154 -1.1927845 -1.8172649 3 2
11.678204 -1.5084441 -1.8650119 3 3
15.825603 -2.0525784 -1.9594156 2 4
6.5690365 -0.88349915 -1.7760164 3 0
7.6398835 -1.031595 -1.7798127 5 1
9.2565002 -1.2548182 -1.8157386 3 2
11.695067 -1.5916288 -1.8693922 2 3
15.862023 -2.1700065 -1.9657527 2 4
6.5533066 -0.92683971 -1.7734282 2 0
7.6365442 -1.0841217 -1.7807125 4 1
9.2514009 -1.3199642 -1.8165017 3 2
11.703225 -1.6760367 -1.8725207 3 3
15.874394 -2.2818789 -1.9691651 2 4
6.5829835 -0.97796118 -1.7832633 3 0
7.6133699 -1.1351089 -1.7771133 4 1
9.2458429 -1.3851 -1.8172649 3 2
11.702959 -1.7594613 -1.874398 1 3
15.854153 -2.3920546 -1.9686776 2 4
6.5549979 -1.0206255 -1.7775693 2 0
7.6245136 -1.1912404 -1.7816124 4 1
9.2204323 -1.4471788 -1.814212 3 2
11.674782 -1.8386614 -1.8718951 2 3
15.872359 -2.5082555 -1.9730648 1 4
6.5515261 -1.0669838 -1.7786045 2 0
7.6063952 -1.2428687 -1.7793628 3 1
9.2529907 -1.5168936 -1.8226075 3 2
11.700979 -1.9244975 -1.8781524 2 3
15.842711 -2.6170626 -1.9716024 2 4
6.5250664 -1.1083184 -1.7734282 2 0
7.6169696 -1.297888 -1.7838619 3 1
9.2576561 -1.5841032 -1.8256606 3 2
11.660003 -2.0014596 -1.8737723 1 3
15.838224 -2.7271967 -1.9733087 2 4
6.5304852 -1.1562022 -1.7770516 1 0
7.6058049 -1.3506917 -1.783412 2 1
9.2541027 -1.6500732 -1.8271869 3 2
11.684635 -2.0897677 -1.8800297 2 3
15.877417 -2.8482163 -1.9806207 2 4
6.5146556 -1.2003649 -1.774981 2 0
7.6230178 -1.4087147 -1.7897105 2 1
9.2307768 -1.7124898 -1.8248973 3 2
11.669761 -2.1712902 -1.8800297 2 3
15.859097 -2.9593554 -1.9808645 3 4
6.5118089 -1.246906 -1.776534 2 0
7.6053424 -1.4604287 -1.7879109 3 1
9.2764292 -1.7880378 -1.8363459 3 2
11.677593 -2.2572057 -1.8837841 2 3
15.857537 -3.0737772 -1.9833018 3 4
6.521893 -1.2961019 -1.7817104 2 0
7.5834942 -1.5112027 -1.7852116 2 1
9.2175169 -1.8435146 -1.8271869 3 2
11.638308 -2.3340142 -1.8800297 2 3
15.845423 -3.1863649 -1.9845206 5 4
6.4880877 -1.3365341 -1.774981 2 0
7.5918441 -1.5680501 -1.7897105 2 1
9.2124453 -1.9078057 -1.8287135 3 2
11.626019 -2.4139819 -1.8806553 2 3
15.83834 -3.3001475 -1.9864705 5 4
6.5015135 -1.3854977 -1.7811928 2 0
7.596241 -1.6229467 -1.7933098 2 1
9.1912231 -1.9704273 -1.8271869 3 2
11.659096 -2.5058796 -1.8887899 3 3
15.817449 -3.4082963 -1.9867141 3 4
6.4690437 -1.4258627 -1.774981 2 0
7.5809197 -1.6750977 -1.79241 2 1
9.1925764 -2.0379453 -1.8302399 3 2
11.629747 -2.5846424 -1.8869127 3 3
15.859148 -3.5333166 -1.9950013 3 4
6.4476295 -1.4684162 -1.7718753 2 0
7.5918393 -1.733186 -1.7978089 1 1
9.208745 -2.1090841 -1.8363459 3 2
11.642226 -2.672842 -1.8919187 3 3
15.849571 -3.6475089 -1.9969513 3 4
48.764545 -11.285079 -2.623183 0 6
6.4748325 -1.5222355 -1.782228 2 0
7.5795546 -1.7861444 -1.7978089 1 1
9.1288366 -2.1579654 -1.8233709 3 2
11.611749 -2.7513216 -1.8900415 4 3
15.814063 -3.7557764 -1.9957327 2 4
6.467803 -1.5683115 -1.7832633 1 0
7.5517507 -1.8353339 -1.7942096 1 1
9.1936579 -2.2411723 -1.8393987 3 2
11.607611 -2.8360698 -1.8925444 4 3
15.829876 -3.8764739 -2.0010948 2 4
45.918159 -11.304078 -2.4783173 0 6
6.434206 -1.6078064 -1.7770516 2 0
7.5500965 -1.8908504 -1.796909 2 1
9.1515322 -2.297008 -1.8340561 3 2
11.584206 -2.9140503 -1.8919187 4 3
15.802426 -3.9868925 -2.0010948 2 4
44.5546 -11.290597 -2.4088149 0 6
6.4268551 -1.6525273 -1.7780869 1 0
7.5634704 -1.9490061 -1.8032078 2 1
9.1428766 -2.3628063 -1.8355827 3 2
11.601826 -3.0047572 -1.8981761 4 3
15.780688 -4.0958591 -2.001826 2 4
43.562515 -11.363424 -2.3594098 0 6
6.4861298 -1.7161318 -1.7977571 1 0
7.5346098 -1.9977654 -1.7996083 1 1
9.1071854 -2.4215324 -1.8317665 3 2
11.571021 -3.0831361 -1.8966117 13 3
15.815001 -4.2228279 -2.0098693 2 4
42.922707 -11.517164 -2.3290551 0 6
6.4739909 -1.7613713 -1.7977571 1 0
7.5317597 -2.0533934 -1.8023077 1 1
9.0824823 -2.4829822 -1.8302399 3 2
11.553025 -3.1648848 -1.8972374 5 3
15.796621 -4.336287 -2.011332 2 4
41.809258 -11.531892 -2.2729506 0 6
6.4615369 -1.8065251 -1.7977571 1 0
7.4890938 -2.0980392 -1.7955593 1 1
9.1069555 -2.5564196 -1.8386356 3 2
11.576854 -3.2562871 -1.9047463 4 3
15.785068 -4.4518495 -2.0137691 2 4
40.838127 -11.563724 -2.2243831 0 6
6.4490905 -1.8504653 -1.7977571 1 0
7.4840045 -2.151659 -1.7978089 2 1
9.0851135 -2.6188481 -1.8378724 3 2
11.586102 -3.3463466 -1.9100651 4 3
15.729609 -4.5520172 -2.0106006 3 4
25.460045 -7.3823729 -2.3192141 25 5
41.220524 -11.983471 -2.2497137 0 6
6.4211898 -1.8910767 -1.7936161 1 0
7.4800153 -2.2071638 -1.8005083 2 1
9.1122627 -2.6939859 -1.8470311 3 2
11.570631 -3.427377 -1.9113165 4 3
15.735506 -4.6730213 -2.0154753 3 4
40.223099 -11.991027 -2.1996806 0 6
6.41153 -1.9369758 -1.7946514 1 0
7.4532328 -2.2559426 -1.7978089 4 1
9.0608149 -2.7494314 -1.8405437 4 2
11.545809 -3.5100861 -1.9113165 3 3
15.691107 -4.7792912 -2.0140131 3 4
6.4089227 -1.9851186 -1.7977571 1 0
7.4335794 -2.3067653 -1.796909 3 1
9.0437641 -2.811625 -1.8409253 4 2
11.529194 -3.5909438 -1.912568 3 3
15.702835 -4.9029174 -2.0198627 3 4
39.731571 -12.451118 -2.1820955 0 6
6.4063106 -2.0322015 -1.8008629 1 0
7.413991 -2.3561296 -1.7960092 4 1
9.0519743 -2.8836319 -1.8466495 4 2
11.545244 -3.6845572 -1.9194511 3 3
15.669099 -5.0096884 -2.0198627 3 4
32.972694 -10.586373 -1.8149065 6 6
6.3809438 -2.0732942 -1.7977571 1 0
7.4195986 -2.4150693 -1.8014081 5 1
9.0129585 -2.9406664 -1.8428333 4 2
11.496709 -3.7577035 -1.9156966 2 3
15.637517 -5.1201925 -2.0203502 3 4
32.150433 -10.570523 -1.7736658 7 6
6.3553157 -2.1141319 -1.7946514 1 0
7.3933129 -2.4637282 -1.7991585 6 1
8.9903469 -3.0028944 -1.8424517 3 2
11.507661 -3.8504093 -1.921954 3 3
15.631505 -5.2393308 -2.02425 3 4
32.197002 -10.835489 -1.7803648 14 6
6.322113 -2.1522229 -1.789475 2 0
7.3943777 -2.5215728 -1.8036577 6 1
9.0087147 -3.077347 -1.8504658 4 2
11.462496 -3.9222546 -1.9188254 2 3
15.60957 -5.3534832 -2.0262001 3 4
31.70702 -10.911413 -1.757337 7 6
6.2963705 -2.1913958 -1.7863692 2 0
7.3660021 -2.5679963 -1.8009582 6 1
8.9944239 -3.1427548 -1.8519921 4 2
11.464665 -4.0126224 -1.9238312 2 3
15.623346 -5.4773407 -2.0327806 2 4
31.569784 -11.111281 -1.7539873 7 6
6.288198 -2.23789 -1.7884396 2 0
7.3625793 -2.6245925 -1.8045573 6 1
8.97966 -3.208113 -1.8535187 4 2
11.428934 -4.0899005 -1.9225799 2 3
15.644526 -5.6077127 -2.0405805 2 4
31.269684 -11.251613 -1.741636 8 6
6.3032842 -2.2929618 -1.7972395 2 0
7.3550625 -2.6799316 -1.8072568 7 1
8.9552002 -3.2700503 -1.8531371 3 2
11.400103 -4.169589 -1.9225799 2 3
15.642274 -5.7304511 -2.0454552 2 4
31.017914 -11.406223 -1.7320063 8 6
6.2871227 -2.336911 -1.7972395 2 0
7.336174 -2.731214 -1.8072568 6 1
8.9284735 -3.3311162 -1.8523737 3 2
11.404022 -4.2615209 -1.9282113 3 3
15.650223 -5.8576059 -2.0517924 2 4
30.384106 -11.414582 -1.7010235 18 6
6.2706552 -2.3807459 -1.7972395 2 0
7.3242145 -2.7851341 -1.8090565 6 1
8.9196777 -3.3989601 -1.8554269 3 2
11.373994 -4.3410311 -1.9282113 3 3
15.723912 -6.0106678 -2.0669043 2 4
30.087366 -11.543432 -1.6888814 9 6
6.2574849 -2.4258621 -1.7982749 2 0
7.3191247 -2.841841 -1.8126557 7 1
8.8670588 -3.4482105 -1.8493209 3 2
11.351545 -4.4212184 -1.9294629 3 3
15.729648 -6.1390595 -2.0732415 2 4
30.290789 -11.858634 -1.7047915 9 6
6.2264557 -2.4627142 -1.7941337 2 0
7.2923641 -2.8887234 -1.810856 7 1
8.9121103 -3.5375533 -1.8638223 3 2
11.31306 -4.4974394 -1.9282113 3 3
15.737291 -6.2658105 -2.0798223 3 4
29.190895 -11.663706 -1.6474314 10 6
6.2180681 -2.5097382 -1.7967219 3 0
7.2720199 -2.939563 -1.810856 7 1
8.894474 -3.602633 -1.8653487 3 2
11.296031 -4.5822506 -1.9307145 3 3
15.722591 -6.3874788 -2.0837224 3 4
29.452759 -12.007458 -1.6669004 19 6
6.2003951 -2.5530868 -1.7967219 3 0
7.2729397 -2.9991744 -1.8162549 7 1
8.8473349 -3.6556437 -1.8607695 3 2
11.245513 -4.6534457 -1.9275857 4 3
15.765638 -6.5335655 -2.0954216 3 4
29.205927 -12.145294 -1.6576892 10 6
6.1788583 -2.5948153 -1.7956866 3 0
7.2554169 -3.0513864 -1.8171545 7 1
8.8433075 -3.7264681 -1.8653487 3 2
11.238231 -4.7425923 -1.9319658 3 3
15.770841 -6.6651082 -2.1022463 3 4
29.274881 -12.414392 -1.6664816 9 6
6.171248 -2.6424508 -1.7987925 3 0
7.2446837 -3.1065722 -1.819854 7 1
8.827899 -3.7927649 -1.8676385 3 2
11.233881 -4.833425 -1.9369718 3 3
15.826018 -6.8190346 -2.1158957 15 4
29.176502 -12.613708 -1.6658536 9 6
6.1455679 -2.6823783 -1.7967219 3 0
7.2299619 -3.1601954 -1.8216537 7 1
8.7659092 -3.8370214 -1.8600061 3 2
11.200721 -4.9097795 -1.9369718 4 3
15.756217 -6.9197755 -2.1129708 8 4
28.903528 -12.729901 -1.6551771 10 6
6.1165757 -2.7194383 -1.7936161 4 0
7.2082839 -3.2093349 -1.8216537 6 1
8.7819395 -3.9173195 -1.8691651 3 2
11.162564 -4.9862437 -1.9363459 4 3
15.830157 -7.0811715 -2.1293013 5 4
29.404335 -13.196332 -1.6890908 9 6
6.1079998 -2.7668562 -1.7967219 4 0
7.1999002 -3.2660198 -1.8252529 6 1
8.7472267 -3.9752836 -1.8676385 3 2
11.167038 -5.0820522 -1.9432292 3 3
15.863428 -7.2293806 -2.1405134 5 4
29.703836 -13.58067 -1.7117 8 6
6.095552 -2.8126681 -1.7987925 4 0
7.1733861 -3.3145697 -1.8243531 7 1
8.7584572 -4.0543981 -1.8760341 3 2
11.127701 -5.158226 -1.9426033 3 3
15.93141 -7.3951139 -2.1566 5 4
29.908861 -13.92767 -1.7290756 16 6
6.0687733 -2.8518674 -1.7967219 4 0
7.174757 -3.3761842 -1.8306518 6 1
8.7342091 -4.1155939 -1.8767973 3 2
11.11377 -5.2439656 -1.9463578 3 3
16.134241 -7.6266203 -2.191211 5 4
29.59318 -14.026565 -1.7163056 17 6
6.0527062 -2.8947771 -1.7977571 4 0
7.125247 -3.4123173 -1.8239032 5 1
8.7052641 -4.1764698 -1.8767973 3 2
11.116064 -5.3402452 -1.953241 3 3
16.130253 -7.7594991 -2.1977918 9 4
29.829107 -14.394272 -1.7357744 8 6
6.0392976 -2.9403446 -1.7998277 4 0
7.094244 -3.4585614 -1.8221035 4 1
8.6907492 -4.242517 -1.8798503 3 2
11.083005 -5.4175205 -1.9538667 2 3
16.063208 -7.8658085 -2.1960857 11 4
29.569082 -14.517754 -1.726354 8 6
6.0393944 -2.992728 -1.8060393 4 0
7.0804 -3.513201 -1.824803 4 1
8.6601677 -4.3045979 -1.8798503 3 2
11.107619 -5.5283756 -1.96513 2 3
15.938615 -7.9432263 -2.1865799 11 4
6.0114541 -3.0313385 -1.8039688 4 0
7.0643988 -3.566937 -1.8270525 3 1
8.6376753 -4.3669887 -1.8813769 3 2
11.09793 -5.6181283 -1.9701359 3 3
15.843822 -8.0345526 -2.1812177 11 4
6.0113096 -3.0827651 -1.8101805 5 0
7.0416899 -3.6158302 -1.8275024 4 1
8.6139612 -4.4307761 -1.8829032 3 2
11.093561 -5.7135592 -1.9763933 2 3
15.958138 -8.2295561 -2.2046165 15 4
6.0101948 -3.1353786 -1.8163921 4 0
7.0180016 -3.6658039 -1.8279523 3 1
8.5880375 -4.493535 -1.8840481 4 2
11.091898 -5.8110347 -1.9832764 3 3
15.195374 -7.9709854 -2.1068773 2 4
5.9847469 -3.1754498 -1.8153569 3 0
7.0042858 -3.7211092 -1.8311015 3 1
8.5737886 -4.562604 -1.8878642 4 2
11.058034 -5.8920441 -1.9845279 3 3
16.601801 -8.85709 -2.3103991 9 4
5.9726334 -3.2226579 -1.8184627 3 0
6.9798517 -3.7708435 -1.8315514 3 1
8.5141001 -4.6073985 -1.8817585 4 2
11.040945 -5.9822741 -1.9889081 3 3
16.869343 -9.1516829 -2.3564658 11 4
5.9601512 -3.269851 -1.8215685 3 0
6.9567723 -3.8213563 -1.8324513 3 1
8.5040894 -4.679029 -1.8867195 3 2
11.050818 -6.0878024 -1.998294 3 3
17.095322 -9.4293404 -2.3971701 12 4
5.9203067 -3.3019707 -1.8163921 3 0
6.9418354 -3.8764811 -1.8356007 4 1
8.4737558 -4.7377634 -1.8871011 4 2
11.009124 -6.1628814 -1.998294 4 3
17.231661 -9.6620493 -2.4256876 11 4
5.8943329 -3.3402872 -1.8153569 3 0
6.9118977 -3.9217188 -1.8347007 4 1
8.4336472 -4.7929254 -1.8855747 4 2
10.996735 -6.2571731 -2.0039258 4 3
16.411743 -9.3497076 -2.3191738 1 4
5.8892841 -3.3919613 -1.8210509 2 0
6.8995447 -3.9786386 -1.83875 3 1
8.4033813 -4.8536501 -1.8863379 4 2
11.009215 -6.366425 -2.0142503 4 3
17.220495 -9.9703293 -2.4432368 7 4
5.8504548 -3.4242113 -1.8163921 2 0
6.8564687 -4.0178418 -1.8347007 3 1
8.3540525 -4.9032536 -1.8829032 3 2
10.981533 -6.4531364 -2.017379 4 3
17.49608 -10.293644 -2.4924722 6 4
5.8430109 -3.4748456 -1.8215685 3 0
6.8466702 -4.0765772 -1.8396497 3 1
8.3499699 -4.9795566 -1.8897724 3 2
10.980311 -6.5559735 -2.0255136 17 3
19.793877 -11.832319 -2.8315127 6 4
5.8136497 -3.5125556 -1.8200157 2 0
6.8163767 -4.1232681 -1.8391999 4 1
8.3116446 -5.0356936 -1.8890091 3 2
10.917385 -6.6222258 -2.0223849 30 3
19.483431 -11.832143 -2.7988517 14 4
5.7807536 -3.5480042 -1.8174274 3 0
6.7890849 -4.1717739 -1.8396497 3 1
8.3256683 -5.121985 -1.900076 4 2
10.956154 -6.7481809 -2.0380285 5 3
19.391905 -11.962662 -2.7976329 16 4
5.7810631 -3.6025956 -1.825192 2 0
6.7621851 -4.2189207 -1.8400996 5 1
8.2880421 -5.1789436 -1.8996944 3 2
10.93892 -6.8433623 -2.0436602 4 3
19.363865 -12.128098 -2.8054326 10 4
5.7492418 -3.6387341 -1.8231214 2 0
6.7539663 -4.2795863 -1.8459483 6 1
8.261631 -5.2429895 -1.9019842 3 2
10.934228 -6.9471059 -2.0517945 5 3
19.340694 -12.302408 -2.814451 14 4
5.7383242 -3.6881833 -1.8277801 3 0
6.7140923 -4.3203058 -1.843249 6 1
8.2644329 -5.3260632 -1.9111431 3 2
10.945217 -7.0618248 -2.0630579 5 3
19.130945 -12.357426 -2.7964141 12 4
5.7124367 -3.7281539 -1.8277801 3 0
6.6902924 -4.3713374 -1.8450485 7 1
8.2401905 -5.3922291 -1.914196 3 2
10.938612 -7.1662102 -2.0711925 4 3
19.03425 -12.484151 -2.7949519 14 4
5.6669455 -3.7551379 -1.8215685 3 0
6.6661077 -4.422246 -1.8468481 7 1
8.2252388 -5.4648352 -1.9195386 3 2
11.021541 -7.3310156 -2.096535 6 3
18.936718 -12.610128 -2.7934892 14 4
5.6790614 -3.8204887 -1.8339919 3 0
6.6415381 -4.4730306 -1.8486477 7 1
8.1836319 -5.5199294 -1.9187754 3 2
11.006109 -7.4321022 -2.1034181 9 3
18.677187 -12.626397 -2.7681406 12 4
5.6378932 -3.8502374 -1.8293331 2 0
6.6069312 -4.5170884 -1.847748 6 1
8.1416559 -5.574708 -1.918012 3 2
10.94418 -7.5020556 -2.1015408 9 3
18.46419 -12.671114 -2.7496161 12 4
5.6092887 -3.8884022 -1.8288155 3 0
6.6008506 -4.5808797 -1.8549464 7 1
8.1293192 -5.6479211 -1.924118 3 2
10.892861 -7.5763764 -2.1015408 10 3
18.363876 -12.791768 -2.74791 10 4
5.5858517 -3.9287159 -1.8298507 3 0
6.5535841 -4.6144853 -1.8504474 7 1
8.1506605 -5.7475281 -1.9386196 3 2
10.820338 -7.6385665 -2.0977864 12 3
18.274761 -12.915323 -2.7476666 12 4
5.563005 -3.9709837 -1.8314036 2 0
6.540235 -4.6737208 -1.8558462 7 1
8.1049643 -5.7983055 -1.937093 3 2
10.784153 -7.7235432 -2.100915 10 3
18.203506 -13.056474 -2.7505913 14 4
5.5436702 -4.0144229 -1.8339919 3 0
6.505115 -4.7158422 -1.8549464 7 1
8.0897055 -5.8732014 -1.9431988 3 2
10.849814 -7.8857441 -2.1243804 13 3
18.046797 -13.131025 -2.7403543 13 4
5.5061698 -4.0461631 -1.830886 3 0
6.4720335 -4.7611413 -1.8549464 6 1
8.0548286 -5.9341931 -1.9447254 3 2
10.939166 -8.067997 -2.1528513 11 3
17.96427 -13.263769 -2.7418168 13 4
5.4932752 -4.0960526 -1.8360624 3 0
6.4323912 -4.8015451 -1.8531467 6 1
8.0588064 -6.0243707 -1.9557924 4 2
10.986958 -8.2222843 -2.1735008 10 3
17.817215 -13.348391 -2.7335296 13 4
5.4522209 -4.1249781 -1.8319213 3 0
6.4126949 -4.8569245 -1.857196 5 1
8.0176134 -6.0790854 -1.9557924 4 2
11.078638 -8.4091444 -2.2029104 11 3
13.244891 -10.068001 -2.0427742 3 4
5.4332118 -4.1690502 -1.8350271 3 0
6.381032 -4.901648 -1.8576458 6 1
8.0060997 -6.1588511 -1.9634248 4 2
11.079135 -8.5320826 -2.2147994 12 3
13.080153 -10.083987 -2.0279062 6 4
5.3917794 -4.1973858 -1.830886 3 0
6.3328223 -4.9352956 -1.8535968 4 1
7.9706454 -6.2206321 -1.9653327 4 2
11.221661 -8.7673216 -2.2554724 11 3
12.89529 -10.085782 -2.0101132 11 4
12.987066 -10.183161 -0.86490411 8 6
5.3653774 -4.2373195 -1.8319213 4 0
6.3287878 -5.0035572 -1.8625948 5 1
7.9516521 -6.2956252 -1.9714386 4 2
11.352144 -8.9975977 -2.2942681 10 3
12.168329 -9.6548777 -1.9072554 21 4
5.3356647 -4.2746739 -1.8319213 4 0
6.2937021 -5.0476189 -1.8625948 4 1
7.9151602 -6.3571315 -1.9733468 9 2
11.573856 -9.3056192 -2.3521488 13 3
12.092898 -9.7333689 -1.9060366 9 4
5.3116889 -4.3166924 -1.8339919 4 0
6.2749386 -5.1049609 -1.8675436 3 1
7.8797188 -6.4196739 -1.9756364 42 2
11.534634 -9.4074173 -2.3574677 12 3
12.010812 -9.8062563 -1.903843 19 4
5.2784419 -4.351212 -1.8329566 4 0
6.2511711 -5.1585674 -1.871143 3 1
7.8449206 -6.4806628 -1.9779261 7 2
11.286138 -9.3333883 -2.3196106 14 3
11.987926 -9.9278517 -1.9111552 19 4
12.440908 -10.313977 -1.4138404 28 5
12.797875 -10.621227 -0.87160313 8 6
5.260561 -4.3969517 -1.8370978 3 0
6.2114301 -5.1972461 -1.8697932 3 1
7.8551645 -6.5819259 -1.992046 4 2
11.199516 -9.3941793 -2.3152304 17 3
11.311983 -9.4986115 -1.8136598 19 4
12.653126 -10.651147 -0.86678815 26 6
5.2150006 -4.4210777 -1.8319213 4 0
6.2121401 -5.272007 -1.8810407 3 1
7.8329587 -6.6569467 -1.9981518 4 2
11.109587 -9.4516563 -2.3102245 18 3
11.263532 -9.5927973 -1.8165846 13 4
12.671641 -10.807314 -1.4570696 29 5
12.589092 -10.748301 -0.86752087 17 6
5.1840086 -4.4573765 -1.8319213 4 0
6.1796145 -5.3190603 -1.8823904 4 1
7.8204966 -6.7409492 -2.0069292 4 2
11.025384 -9.5134993 -2.3064699 19 3
11.705549 -10.111092 -1.899212 21 4
5.1673241 -4.5061564 -1.8370978 5 0
6.1511378 -5.3697619 -1.8850898 3 1
7.7865481 -6.8070116 -2.0103636 4 2
10.726801 -9.3872976 -2.2576625 19 3
11.745171 -10.289362 -1.9172486 21 4
12.294853 -10.786093 -1.430923 29 5
12.721427 -11.172112 -0.88730389 17 6
5.1531048 -4.5574784 -1.8433093 4 0
6.1120415 -5.4112821 -1.8846399 3 1
7.7535276 -6.874229 -2.0141799 4 2
10.702372 -9.4986696 -2.2664227 17 3
10.806402 -9.60112 -1.7749053 27 4
11.53037 -10.255149 -1.3500425 26 5
12.959311 -11.542268 -0.90949428 18 6
5.1125331 -4.5856032 -1.8402034 4 0
6.0929651 -5.4707451 -1.8904886 4 1
7.7430601 -6.9596567 -2.0237205 4 2
10.734386 -9.6585026 -2.2870722 19 3
10.805473 -9.736124 -1.7858734 18 4
11.36381 -10.24999 -1.3388865 26 5
11.752352 -10.611613 -0.82983899 17 6
5.069768 -4.6098995 -1.8360624 4 0
6.0613513 -5.5173383 -1.8922883 5 1
7.7537723 -7.0677681 -2.0393667 4 2
10.304817 -9.402997 -2.2094805 18 3
10.724297 -9.7960615 -1.7834362 14 4
11.086157 -10.140808 -1.3144829 25 5
11.605804 -10.62731 -0.82471007 26 6
5.060184 -4.6661344 -1.8443446 4 0
6.0226851 -5.5595202 -1.8922883 4 1
7.7662325 -7.1790318 -2.0557761 7 2
10.270818 -9.5042248 -2.2163637 18 3
10.662928 -9.8774357 -1.7846549 21 4
11.020936 -10.223376 -1.3151802 25 5
11.001524 -10.216091 -0.7868188 8 6
5.0246634 -4.6987076 -1.8433093 5 0
6.0064878 -5.6227384 -1.8994867 5 1
7.730248 -7.2465014 -2.0595925 7 2
9.9852657 -9.3702316 -2.1688077 19 3
10.668946 -10.022312 -1.7973293 21 4
10.868027 -10.223619 -1.3054187 24 5
10.854325 -10.221448 -0.78137589 8 6
5.0085592 -4.7496238 -1.849521 3 0
5.9670882 -5.6645346 -1.8994867 4 1
7.6695099 -7.2908235 -2.056921 12 2
9.8938503 -9.4152021 -2.1631761 19 3
10.528289 -10.029459 -1.785386 18 4
10.48788 -10.004939 -1.2681161 23 5
10.837591 -10.349391 -0.78535342 26 6
4.9613543 -4.7710834 -1.8443446 3 0
5.9526682 -5.730382 -1.9075849 5 1
7.6042886 -7.3305626 -2.0531049 12 2
9.6885767 -9.3496161 -2.132515 25 3
9.9597416 -9.6213713 -1.7003212 21 4
10.685931 -10.333711 -1.3005379 24 5
11.184028 -10.830509 -0.81591767 26 6
4.9306912 -4.808301 -1.8453798 4 0
5.9153066 -5.7745214 -1.9084847 5 1
7.5654488 -7.3931313 -2.0561578 10 2
9.3874826 -9.1832781 -2.079953 16 3
9.8894939 -9.6878891 -1.6998338 27 4
10.471275 -10.26856 -1.2831068 23 5
10.622603 -10.427876 -0.78011984 17 6
4.881362 -4.8254538 -1.8391682 4 0
5.9063377 -5.8448086 -1.9183826 5 1
7.5485139 -7.4803147 -2.0656981 10 2
9.1997318 -9.1261673 -2.0524204 17 3
9.7092276 -9.6416798 -1.6800909 22 4
9.7313728 -9.6737967 -1.2004832 20 5
10.558038 -10.510235 -0.78074789 26 6
4.8721137 -4.8840327 -1.8484857 3 0
5.8750181 -5.8955617 -1.921532 6 1
7.54036 -7.5746546 -2.0775285 10 2
9.151329 -9.2025824 -2.0555491 17 3
9.5605516 -9.6275311 -1.6659541 20 4
9.6495686 -9.7273531 -1.19874 30 5
10.559356 -10.655627 -0.78619081 26 6
4.854156 -4.9344535 -1.8546973 4 0
5.8282528 -5.9308734 -1.9197323 6 1
7.5712194 -7.7152948 -2.1011887 10 2
8.9953575 -9.1761408 -2.0352125 20 3
9.6708851 -9.8755827 -1.6971526 16 4
9.586998 -9.8001795 -1.1994374 20 5
10.315357 -10.559471 -0.7736302 26 6
10.903396 -11.173125 -0.27250186 27 7
4.8168979 -4.9654479 -1.853662 3 0
5.7921309 -5.977015 -1.921532 6 1
7.5458388 -7.7948647 -2.1088212 10 2
8.9011078 -9.2044973 -2.0280166 17 3
9.1825018 -9.5087585 -1.6230561 20 4
9.4215164 -9.7664938 -1.1872355 20 5
10.100493 -10.481311 -0.76284897 35 6
4.804359 -5.020452 -1.8619443 3 0
5.7566991 -6.0219359 -1.9233315 6 1
7.6891594 -8.0546846 -2.1645374 10 2
8.6784925 -9.100585 -1.9917238 17 3
9.1504259 -9.6055365 -1.6289058 10 4
9.3685551 -9.8448305 -1.1889786 20 5
9.9569082 -10.477732 -0.75751072 26 6
10.941054 -11.525435 -0.27738854 28 7
4.7691922 -5.0538707 -1.8619443 3 0
5.733232 -6.0818305 -1.92963 7 1
7.5964694 -8.0668163 -2.153852 10 2
8.6407099 -9.1853447 -1.9973555 16 3
8.9730549 -9.5519896 -1.6091629 21 4
9.3868532 -10.002978 -1.2001345 20 5
9.9454594 -10.609376 -0.76211625 26 6
10.417548 -11.12854 -0.2660794 26 7
4.7359982 -5.0876303 -1.862462 2 0
5.7155886 -6.1464019 -1.9377284 7 1
7.6895905 -8.2807798 -2.1965933 10 2
8.5212946 -9.1860676 -1.9845279 19 3
8.9725924 -9.6827374 -1.6208624 20 4
8.9991322 -9.7215815 -1.1589971 19 5
9.7247305 -10.520153 -0.7508117 26 6
9.7039442 -10.508701 -0.24967413 22 7
4.6964455 -5.1163001 -1.8609091 3 0
5.6751738 -6.1890268 -1.9386281 7 1
7.7404628 -8.4501925 -2.2275043 10 2
8.3798914 -9.1578741 -1.9660686 16 3
8.8565702 -9.6923857 -1.6120878 21 4
9.1244669 -9.9960699 -1.1840979 20 5
9.4900646 -10.407529 -0.73814642 35 6
4.6731811 -5.161037 -1.8655677 2 0
5.645988 -6.2419653 -1.9431273 9 1
7.712863 -8.538991 -2.2366631 10 2
8.5592442 -9.4860077 -2.0236366 14 3
8.8883486 -9.8645849 -1.6303681 14 4
9.046463 -10.050641 -1.1830521 20 5
9.3517418 -10.400753 -0.73301744 26 6
10.018524 -11.157989 -0.2617512 25 7
4.6605716 -5.2217293 -1.8754028 3 0
7.7105169 -8.657135 -2.2534544 9 2
8.4176292 -9.4643545 -2.0061157 19 3
8.8443165 -9.9545918 -1.6349993 21 4
8.8385324 -9.9585781 -1.1649235 19 5
9.1922922 -10.371745 -0.72631848 26 6
9.7733612 -11.039009 -0.25735319 24 7
4.6214514 -5.2512383 -1.8743677 3 0
5.5571823 -6.321157 -1.9431273 45 1
7.6690941 -8.7356949 -2.2595603 10 2
8.374795 -9.5496235 -2.0117474 18 3
8.7654486 -10.005642 -1.633293 18 4
8.8370228 -10.098004 -1.1739877 19 5
9.2405739 -10.574026 -0.73594826 26 6
4.5821462 -5.2804556 -1.8733324 3 0
5.5397229 -6.3907218 -1.9525751 10 1
7.6685729 -8.8559656 -2.2771149 10 2
8.3354454 -9.6362877 -2.0180049 18 3
8.738205 -10.116166 -1.6413364 20 4
8.7637072 -10.156436 -1.1736392 19 5
8.824131 -10.237293 -0.7083149 26 6
4.5486097 -5.3144584 -1.8743677 3 0
5.508759 -6.4430933 -1.9570743 7 1
7.6397042 -8.9481058 -2.2870369 8 2
8.278224 -9.7062664 -2.0205078 17 3
8.5519934 -10.037905 -1.6191562 18 4
8.6357832 -10.150599 -1.1659695 19 5
8.9050684 -10.47823 -0.72066617 26 6
4.5188723 -5.3549418 -1.8774734 3 0
5.4648995 -6.4828839 -1.9575242 7 1
7.6023355 -9.0312614 -2.2946692 10 2
8.2585707 -9.8212748 -2.0323968 19 3
8.0986719 -9.6413641 -1.5460347 18 4
8.4494705 -10.073257 -1.1502815 18 5
8.7162523 -10.402364 -0.71124572 26 6
9.4966688 -11.345811 -0.2582607 24 7
4.5036187 -5.4130907 -1.886791 3 0
5.4369454 -6.5418606 -1.9638227 7 1
7.5591612 -9.1082869 -2.3007751 9 2
7.8342738 -9.4498444 -1.9441677 21 3
8.0742149 -9.749651 -1.5543218 19 4
8.3764019 -10.128928 -1.1499329 18 5
8.5607367 -10.362874 -0.70444208 17 6
9.4223213 -11.418002 -0.25840032 24 7
4.4510164 -5.4264755 -1.8805792 3 0
5.4010239 -6.5917158 -1.9674219 7 1
7.519011 -9.1897078 -2.3080258 10 2
7.7806129 -9.5196018 -1.9472965 18 3
8.0599356 -9.8719006 -1.5648024 20 4
8.3407364 -10.230398 -1.1548136 19 5
8.7013321 -10.684108 -0.72213155 26 6
9.052125 -11.126728 -0.25037223 23 7
4.4203129 -5.4664297 -1.8836851 3 0
5.3720164 -6.6504841 -1.9737206 7 1
7.426321 -9.2068291 -2.2992485 10 2
7.7362728 -9.6013756 -1.9529281 17 3
8.0742159 -10.031538 -1.581133 15 4
8.2391567 -10.251106 -1.1506301 18 5
8.2764187 -10.308517 -0.69282347 26 6
4.3940845 -5.5122623 -1.8888614 3 0
5.3375969 -6.7030706 -1.9782196 7 1
7.3985224 -9.3045502 -2.3106971 15 2
7.642025 -9.6211214 -1.9460449 18 3
8.0422344 -10.135868 -1.5886889 21 4
8.1525412 -10.289637 -1.1485384 18 5
8.170785 -10.323763 -0.68999732 17 6
9.5779943 -12.114797 -0.26956987 26 7
4.3519139 -5.5382471 -1.8873086 2 0
5.2882633 -6.7371044 -1.9773197 8 1
7.3454952 -9.3714266 -2.3145132 9 2
7.6379972 -9.7551165 -1.9623141 16 3
7.7694893 -9.9337664 -1.5484719 19 4
8.1093016 -10.379432 -1.1523732 18 5
8.1034269 -10.38685 -0.69041598 17 6
4.3332543 -5.5944581 -1.8961084 4 0
5.2625661 -6.8016019 -1.985418 7 1
7.2983456 -9.442955 -2.3198559 21 2
7.4362159 -9.6317568 -1.9272728 17 3
7.6284404 -9.895009 -1.5340914 21 4
7.8907633 -10.246365 -1.1314558 18 5
8.0678539 -10.487678 -0.69345152 26 6
4.2903838 -5.6176825 -1.8940378 4 0
5.2279677 -6.8527589 -1.989917 7 1
7.1513433 -9.3874788 -2.2939057 24 2
7.4812384 -9.8312035 -1.9566824 17 3
7.4895163 -9.8563528 -1.5199546 20 4
7.6744871 -10.110764 -1.1105385 17 5
8.0475349 -10.61377 -0.69805706 26 6
4.2431054 -5.6389775 -1.890932 3 0
5.2139235 -6.9367266 -2.0034139 7 1
7.0266938 -9.3586779 -2.2748251 24 2
7.263762 -9.6885023 -1.9178867 18 3
7.4312344 -9.922699 -1.5221483 19 4
7.6192303 -10.184834 -1.1128045 17 5
7.928349 -10.613482 -0.69428885 26 6
4.2243485 -5.696394 -1.9002496 3 0
5.2117686 -7.0355926 -2.02141 7 1
7.050612 -9.5318327 -2.3045912 19 2
7.0996885 -9.6086998 -1.8922316 18 3
7.2356453 -9.8034391 -1.4960682 20 4
7.5928698 -10.298717 -1.1194284 17 5
7.7593336 -10.539901 -0.68591511 26 6
4.1799178 -5.7195072 -1.8981789 3 0
5.1878023 -7.1064339 -2.0313082 9 1
6.8421311 -9.3829031 -2.2572706 22 2
7.0248165 -9.6440306 -1.8897287 17 3
7.1226578 -9.7927103 -1.4868062 21 4
7.3591747 -10.129035 -1.0953734 16 5
7.6264091 -10.508418 -0.6804722 17 6
4.158958 -5.7729053 -1.9064611 3 0
5.1438632 -7.1479073 -2.0331075 9 1
6.8268676 -9.5005922 -2.2740617 19 2
6.9365835 -9.6639509 -1.884097 19 3
7.0627766 -9.850646 -1.4882686 20 4
7.3782263 -10.301998 -1.108621 17 5
7.9536824 -11.121884 -0.71658397 17 6
4.1006622 -5.7765951 -1.8981789 3 0
5.094964 -7.1852341 -2.0335574 10 1
6.8051629 -9.6077194 -2.2885633 17 2
6.7565508 -9.5496855 -1.85281 18 3
7.1633544 -10.139665 -1.5243418 23 4
7.3865385 -10.467207 -1.1208228 17 5
7.3081899 -10.367702 -0.66477138 17 6
4.0833974 -5.8360305 -1.9085318 3 0
5.0392404 -7.2101641 -2.0308583 11 1
6.5929852 -9.4473085 -2.2393346 12 2
6.6513095 -9.5415249 -1.8421725 21 3
7.2042012 -10.346209 -1.5479845 18 4
7.290092 -10.481258 -1.1169881 17 5
8.0684547 -11.617634 -0.74128658 17 6
4.0359769 -5.8548522 -1.9054259 4 0
4.9843607 -7.2387481 -2.0290585 12 1
6.6965237 -9.7362204 -2.2969587 19 2
6.8054509 -9.905695 -1.9034947 21 3
6.7702088 -9.8691549 -1.4695007 15 4
7.0883536 -10.344531 -1.0971165 16 5
7.5537429 -11.036096 -0.70088315 17 6
4.009058 -5.9013643 -1.9116375 3 0
4.9426327 -7.2837958 -2.0322077 15 1
6.6327953 -9.7892351 -2.2984853 16 2
6.5678377 -9.7043028 -1.8559387 18 3
6.6917582 -9.8985634 -1.4670632 18 4
7.0449457 -10.436701 -1.1016486 17 5
7.3972373 -10.970985 -0.69345152 17 6
3.9849515 -5.9548969 -1.9199197 3 0
4.9035749 -7.3359461 -2.0371568 16 1
6.6013479 -9.8908215 -2.3114603 13 2
6.6840143 -10.026047 -1.9085008 17 3
6.6863055 -10.040871 -1.4812001 14 4
6.9277868 -10.419265 -1.0946761 16 5
7.3834496 -11.117193 -0.69941777 17 6
3.9390285 -5.9761205 -1.9178492 3 0
4.8490257 -7.3651166 -2.0358069 15 1
6.480371 -9.8579216 -2.2931426 15 2
6.3991776 -9.7455225 -1.8465527 19 3
6.587739 -10.044147 -1.4748629 18 4
6.8960109 -10.526177 -1.1009513 17 5
7.5330715 -11.516125 -0.72118956 17 6
3.9014194 -6.0099549 -1.9199197 4 0
4.8123326 -7.42168 -2.0421057 14 1
6.4131203 -9.901803 -2.2931426 19 2
6.4099479 -9.9082718 -1.8690792 15 3
6.7037935 -10.378366 -1.5170298 10 4
6.9433365 -10.76157 -1.1204742 17 5
7.1602249 -11.110493 -0.6927188 35 6
3.8729115 -6.0559015 -1.9261314 3 0
4.7491155 -7.4345584 -2.0367069 15 1
6.4536333 -10.118478 -2.3328309 19 2
6.3469877 -9.9627762 -1.8709565 12 3
6.8312173 -10.735265 -1.5623652 10 4
6.7270017 -10.5878 -1.0974652 25 5
7.0493093 -11.107932 -0.68947399 26 6
3.8181856 -6.0631752 -1.9199197 4 0
4.7603898 -7.5681548 -2.0641508 17 1
6.3462906 -10.105096 -2.3194742 12 2
6.3276668 -10.087165 -1.8859742 9 3
6.5653315 -10.47822 -1.5182483 22 4
6.69519 -10.702068 -1.1044376 17 5
7.2044339 -11.529505 -0.71250176 17 6
3.7879806 -6.1093855 -1.9261314 5 0
4.7474527 -7.6658168 -2.0816972 14 1
6.1506553 -9.9471073 -2.2732985 13 2
6.3390932 -10.263867 -1.9106908 18 3
6.3857141 -10.351472 -1.4933871 16 4
6.7308855 -10.923802 -1.122566 17 5
7.1509786 -11.623748 -0.71522325 17 6
3.7371843 -6.1224899 -1.9219903 5 0
4.7222247 -7.7453613 -2.0942943 13 1
6.233932 -10.236912 -2.329778 13 2
6.0278468 -9.9101686 -1.8371665 17 3
6.3297791 -10.422947 -1.4972868 16 4
6.5531955 -10.803583 -1.1054834 34 5
7.1482778 -11.798561 -0.722969 26 6
3.7033856 -6.1610327 -1.9261314 13 0
4.7205524 -7.8625336 -2.1172395 16 1
6.1804824 -10.310491 -2.336647 15 2
6.2385793 -10.419781 -1.9235184 14 3
6.2240458 -10.407866 -1.4889997 18 4
6.5021272 -10.890125 -1.1096668 17 5
6.5685663 -11.0145 -0.67209846 17 6
4.6714964 -7.905364 -2.1199389 21 1
6.0006104 -10.170771 -2.2954323 16 2
6.3020768 -10.694534 -1.9660686 19 3
6.1874824 -10.512651 -1.4977744 16 4
6.4481483 -10.973044 -1.1135018 17 5
6.5339713 -11.132433 -0.67649466 8 6
3.626724 -6.2288337 -1.9313078 34 0
4.6965251 -8.0759201 -2.1568308 15 1
6.0024071 -10.338053 -2.3236721 15 2
6.0369949 -10.410175 -1.9059978 17 3
6.385561 -11.024538 -1.564315 21 4
6.4451437 -11.140852 -1.1260523 18 5
6.3162446 -10.935646 -0.66184056 8 6
3.5831504 -6.2540016 -1.9313078 23 0
4.7019753 -8.2167597 -2.1856244 15 1
5.8909826 -10.307082 -2.3076441 19 2
5.9601202 -10.440733 -1.9041206 16 3
6.1934371 -10.867064 -1.5357976 18 4
6.2292194 -10.943163 -1.1016486 17 5
7.0412416 -12.384759 -0.74662483 26 6
3.5423956 -6.2816119 -1.9323431 5 0
4.6765399 -8.3029089 -2.2000213 11 1
5.8631482 -10.426676 -2.3251987 16 2
5.8348498 -10.389082 -1.8872255 17 3
6.0445447 -10.775659 -1.5170298 20 4
6.4993234 -11.600627 -1.1633549 19 5
3.5190737 -6.3433533 -1.9437311 5 0
4.617517 -8.3336496 -2.1995716 14 1
5.7540159 -10.397633 -2.3099339 15 2
5.7429771 -10.390522 -1.8803425 17 3
5.8233943 -10.553411 -1.4799815 20 4
6.3277807 -11.481693 -1.1469696 18 5
3.4776657 -6.3705516 -1.9447664 4 0
4.5588188 -8.3614645 -2.1986716 13 1
5.7441735 -10.553082 -2.3355021 12 2
5.6986036 -10.482427 -1.8897287 17 3
5.7618427 -10.611995 -1.4826626 19 4
6.4679284 -11.92733 -1.1870612 20 5
3.4349341 -6.3980784 -1.9458016 4 0
4.5224347 -8.4343061 -2.2094693 14 1
5.6230855 -10.500209 -2.3152766 21 2
5.6252561 -10.517489 -1.8891028 17 3
5.7072535 -10.688733 -1.487781 23 4
5.9438686 -11.14592 -1.1051347 17 5
6.4163551 -12.047112 -0.71532792 17 6
3.3913043 -6.4213109 -1.9458016 4 0
4.4694667 -8.4735126 -2.2117188 16 1
5.5661097 -10.570477 -2.3221457 21 2
5.5645666 -10.580981 -1.893483 17 3
5.642673 -10.743152 -1.4899747 15 4
6.2137961 -11.850609 -1.170676 19 5
3.3481736 -6.4482589 -1.9468369 4 0
4.4254518 -8.5339174 -2.219367 14 1
5.5391121 -10.699739 -2.3419898 16 2
5.5504394 -10.735383 -1.9141324 18 3
5.5638919 -10.775228 -1.4889997 19 4
6.085268 -11.805152 -1.1619604 19 5
3.3153701 -6.4955659 -1.9540838 4 0
4.365767 -8.5646038 -2.219367 15 1
5.4197607 -10.650661 -2.3229089 15 2
5.4520893 -10.728084 -1.9059978 18 3
5.7311082 -11.291746 -1.5548092 15 4
5.8784366 -11.602082 -1.1379054 27 5
3.2734077 -6.5254602 -1.9561545 5 0
4.30936 -8.6018438 -2.2211666 14 1
5.3839121 -10.765499 -2.3397002 22 2
5.3752947 -10.76235 -1.905372 19 3
5.6973276 -11.422076 -1.5672399 20 4
5.788415 -11.625004 -1.1361622 18 5
3.2328961 -6.5585504 -1.9592602 4 0
4.2681384 -8.6701822 -2.2310646 14 1
5.3138194 -10.813394 -2.3419898 19 2
5.3348408 -10.870546 -1.9178867 17 3
5.5545464 -11.333232 -1.5496907 23 4
5.7438927 -11.740297 -1.1434834 18 5
3.1870308 -6.5809603 -1.9592602 4 0
4.2109003 -8.7067852 -2.2328641 14 1
5.301362 -10.98106 -2.3702295 19 2
5.3840704 -11.167315 -1.9635657 15 3
5.6966095 -11.831396 -1.6123315 18 4
3.1488039 -6.616456 -1.9634014 4 0
4.1766324 -8.7880487 -2.246361 16 1
5.2399569 -11.045271 -2.3763354 15 2
5.4111147 -11.421494 -2.0017357 20 3
5.5361419 -11.701224 -1.5894201 18 4
3.1008997 -6.6347775 -1.9623661 5 0
4.1283669 -8.8452473 -2.2535596 15 1
5.1629939 -11.077124 -2.3755722 16 2
5.2915683 -11.368519 -1.9860923 19 3
5.4702091 -11.773795 -1.5940511 13 4
3.0556669 -6.6557302 -1.9623661 4 0
4.072937 -8.8837709 -2.2562592 16 1
5.1035094 -11.152171 -2.3839676 18 2
5.2490206 -11.486032 -2.0001712 34 3
5.3001094 -11.613909 -1.5674837 5 4
3.0265896 -6.7156482 -1.9737542 5 0
4.0412087 -8.9795179 -2.2733555 14 1
5.0062213 -11.144548 -2.374809 21 2
5.211555 -11.617921 -2.0167532 16 3
5.8681192 -13.099936 -1.7624747 7 4
2.9796319 -6.7366147 -1.9737542 4 0
3.9705477 -8.9896851 -2.2688563 16 1
4.9694777 -11.27264 -2.3946528 18 2
5.1366873 -11.668486 -2.0192564 17 3
10.873217 -24.734682 -3.3175275 8 4
2.944834 -6.7856064 -1.9820364 3 0
3.9386861 -9.0887079 -2.2868524 16 1
4.8567657 -11.223324 -2.3770986 9 2
5.0540099 -11.695925 -2.0180049 17 3
5.3190842 -12.332994 -1.6491361 5 4
2.9016063 -6.812603 -1.9841069 3 0
3.875206 -9.111721 -2.2859526 15 1
4.4967666 -10.593719 -2.2370448 12 2
5.1228228 -12.103839 -1.613794 15 4
2.8688662 -6.8683462 -1.9944596 4 0
3.8250022 -9.170927 -2.2940509 16 1
4.4207807 -10.615021 -2.2351367 13 2
4.4887524 -10.794153 -1.8515586 14 3
10.42491 -25.11834 -3.3392203 11 4
2.844022 -6.9413428 -2.0099888 5 0
3.7573247 -9.1841249 -2.2909014 18 1
4.2448964 -10.396616 -2.1828551 12 2
4.4237261 -10.850836 -1.8559387 14 3
10.23134 -25.146376 -3.3333704 11 4
2.8050733 -6.988409 -2.0177534 6 0
3.7168834 -9.274086 -2.3066483 16 1
4.2706833 -10.672064 -2.2343736 18 2
4.3782029 -10.962931 -1.869705 13 3
10.014362 -25.113935 -3.3197212 11 4
2.7526813 -6.9988322 -2.0151651 7 0
3.6719921 -9.3505974 -2.3192453 12 1
4.0896201 -10.435477 -2.1786571 18 2
4.2799668 -10.938043 -1.8603188 13 3
9.8424053 -25.192478 -3.32094 8 4
2.7065308 -7.0250897 -2.0172358 7 0
3.6667919 -9.532424 -2.3579369 15 1
4.0142698 -10.452077 -2.1763675 18 2
4.1424689 -10.802769 -1.8324735 24 3
4.3226943 -11.296345 -1.4851 13 4
2.6586506 -7.0433493 -2.0172358 7 0
3.6753576 -9.7522802 -2.4060764 18 1
3.970228 -10.557027 -2.1923954 22 2
4.1606908 -11.081082 -1.8747108 14 3
9.7644873 -26.046991 -3.4155104 9 4
2.6147709 -7.0762358 -2.0213768 7 0
3.6436069 -9.8764296 -2.4303713 17 1
3.8631973 -10.494209 -2.173696 12 2
4.0968595 -11.146941 -1.8809682 19 3
9.563261 -26.062346 -3.4086859 9 4
2.5705631 -7.108851 -2.0255179 9 0
3.5785379 -9.9126244 -2.4330707 17 1
3.782522 -10.500605 -2.1694984 19 2
3.9547648 -10.996824 -1.8509328 12 3
9.4260244 -26.253651 -3.4250164 12 4
2.5195827 -7.1229811 -2.0244827 9 0
3.5248237 -9.9814653 -2.4438682 17 1
3.5425458 -10.048407 -2.0710409 15 2
3.8811314 -11.027215 -1.8515586 8 3
9.3135452 -26.521097 -3.4513402 12 4
2.4729352 -7.1454434 -2.0260355 10 0
3.454891 -9.9997005 -2.4425187 15 1
3.4364798 -9.9689531 -2.0496705 19 2
3.9152567 -11.377181 -1.9056848 9 3
9.1444187 -26.61767 -3.4557273 12 4
2.4236102 -7.1643634 -2.0265532 9 0
3.3756442 -9.9958811 -2.43577 17 1
3.3454869 -9.9294453 -2.0366955 22 2
3.6726329 -10.91931 -1.8246518 13 3
8.98491 -26.759897 -3.4659643 12 4
2.3759594 -7.1884451 -2.0286238 9 0
3.2544875 -9.8637533 -2.3979783 17 1
3.2994108 -10.023422 -2.0511968 21 2
3.304636 -10.057023 -1.6766648 1 3
3.353338 -10.223283 -1.3210638 16 4
2.3292773 -7.2158885 -2.0317297 9 0
3.2082574 -9.9567165 -2.4150743 23 1
3.2455354 -10.090503 -2.0603557 13 2
3.2336888 -10.07176 -1.6754133 11 3
3.2782512 -10.235102 -1.3196013 23 4
2.2789454 -7.227891 -2.0306942 9 0
3.1427507 -9.9857588 -2.4168742 17 1
3.1667783 -10.086692 -2.0550129 19 2
3.1845622 -10.16195 -1.6866766 24 3
3.2031746 -10.240129 -1.3174077 16 4
2.2278616 -7.2417789 -2.0301766 10 0
3.0752487 -10.014909 -2.4186738 19 1
3.0445352 -9.9396076 -2.0206673 19 2
3.1083429 -10.166934 -1.6838609 20 3
3.1142254 -10.205282 -1.3100955 16 4
2.1761408 -7.2534542 -2.0291414 10 0
2.9951944 -10.002529 -2.4105756 16 1
2.9582148 -9.9041872 -2.0092189 21 2
3.0440617 -10.211102 -1.6876152 25 3
3.1034794 -10.430358 -1.3361756 12 4
2.149307 -7.3500543 -2.0519176 10 0
2.9427638 -10.083057 -2.4249723 20 1
2.930701 -10.067858 -2.0382218 19 2
2.9043639 -9.9968843 -1.6488196 15 3
2.9487681 -10.169599 -1.3001022 20 4
2.1005878 -7.3741698 -2.0545056 9 0
2.8957465 -10.185834 -2.4447682 18 1
2.812144 -9.9180822 -2.0038762 19 2
2.8215935 -9.9712992 -1.6413106 17 3
2.82375 -9.9988995 -1.2757283 20 4
2.8483315 -10.106174 -0.91862154 13 5
2.0485389 -7.3867931 -2.053988 11 0
2.8146892 -10.170116 -2.4362199 15 1
2.7592044 -9.9899797 -2.0145614 21 2
2.7032654 -9.8074541 -1.6112752 17 3
2.7417743 -9.9743443 -1.2701224 19 4
2.8262002 -10.302583 -0.93465823 13 5
2.0299377 -7.5180655 -2.0865991 9 0
2.8569388 -10.602998 -2.5351985 16 1
2.638449 -9.8193998 -1.9763998 19 2
2.6285913 -9.8031912 -1.6075207 18 3
2.7533505 -10.290009 -1.3079019 9 4
2.7151692 -10.175757 -0.9214105 26 5
1.9778926 -7.5339222 -2.0871167 12 0
2.7156827 -10.366307 -2.4740117 15 1
2.575788 -9.8603745 -1.9809792 19 2
2.5919774 -9.9436407 -1.6275443 21 3
2.6939387 -10.35701 -1.3139954 19 4
2.6335588 -10.153966 -0.91774994 32 5
1.9414834 -7.6111913 -2.1047165 11 0
2.5115407 -9.8675585 -2.3507385 11 1
2.5175121 -9.91998 -1.9893748 22 2
2.5186162 -9.9461737 -1.6250414 19 3
2.6376162 -10.439076 -1.3220388 25 4
2.5483098 -10.107903 -0.91199768 26 5
1.8901587 -7.632061 -2.1067872 11 0
2.4374509 -9.8640404 -2.3457897 23 1
2.3907139 -9.6967087 -1.9412909 22 2
2.4310384 -9.8825235 -1.6119009 16 3
2.6757901 -10.910306 -1.3793174 19 4
2.4937825 -10.191247 -0.91792428 19 5
1.846746 -7.680438 -2.1166222 13 0
2.3575232 -9.8273439 -2.3331923 22 1
2.3238754 -9.7169809 -1.942054 19 2
2.3353963 -9.7878103 -1.5937545 19 3
2.4630942 -10.346995 -1.305952 9 4
2.4497159 -10.322783 -0.92820865 33 5
1.7628249 -7.5633245 -2.0809052 11 0
2.2694395 -9.760046 -2.3133967 22 1
2.2568681 -9.7367926 -1.9428172 21 2
2.2411969 -9.6922493 -1.5756081 18 3
2.4068635 -10.433574 -1.3147266 18 4
2.3941112 -10.411477 -0.93465823 13 5
1.7674048 -7.8298469 -2.1507864 9 0
2.2029586 -9.7832565 -2.3151963 20 1
2.2275321 -9.924715 -1.977163 15 2
2.1786566 -9.730792 -1.5793626 17 3
2.2279539 -9.9754686 -1.2550106 18 4
2.5949795 -11.657041 -1.0448231 15 5
1.7205309 -7.8778548 -2.1606214 10 0
2.1835525 -10.02308 -2.3682847 6 1
2.2352548 -10.294957 -2.0477622 12 2
2.1140146 -9.7612085 -1.5818655 16 3
2.3359823 -10.813482 -1.3583559 12 4
2.3743134 -11.028216 -0.98695159 14 5
1.6718754 -7.9199171 -2.1689036 11 0
2.2016277 -10.492846 -2.0840161 9 2
2.0660498 -9.8724041 -1.597509 16 3
2.2827425 -10.936403 -1.3717614 21 4
2.2366574 -10.743734 -0.96010768 13 5
1.6153876 -7.9257169 -2.1673508 9 0
2.2444756 -11.041806 -2.6013339 16 1
2.1621397 -10.665366 -2.1153085 7 2
2.1882699 -10.823359 -1.7489375 14 3
2.1687012 -10.765256 -1.3483624 20 4
2.2628486 -11.263053 -1.00508 21 5
1.5696055 -7.97823 -2.1787388 9 0
2.175266 -11.087425 -2.6085324 15 1
2.0823584 -10.653225 -2.109966 4 2
2.0438726 -10.485496 -1.6919955 18 3
2.0461338 -10.526449 -1.3166765 23 4
2.1914389 -11.305578 -1.0075203 21 5
1.5077554 -7.9567275 -2.169939 10 0
1.9118373 -10.118105 -2.3772829 4 1
2.2675164 -12.035033 -2.3805332 12 2
2.0716586 -11.027229 -1.7770958 6 3
1.9861076 -10.612672 -1.3256948 23 4
2.1080732 -11.297099 -1.0054286 14 5
1.4247806 -7.8090653 -2.1269751 7 0
2.0162616 -11.08377 -2.600884 16 1
1.9559288 -10.7949 -2.1324816 3 2
1.9598607 -10.848975 -1.7461218 12 3
1.9166381 -10.641574 -1.3276447 21 4
2.0099993 -11.193525 -0.9949699 21 5
1.3042014 -7.4420576 -2.0244827 7 0
1.9431931 -11.122531 -2.6067328 27 1
2.5716314 -14.765209 -2.9132719 6 2
1.9157046 -11.033335 -1.7736541 4 3
1.8680068 -10.803356 -1.3461689 19 4
1.959558 -11.368286 -1.0092635 14 5
1.2099259 -7.1916714 -1.9540838 4 0
1.8642175 -11.116282 -2.6022339 16 1
1.9617933 -11.748398 -2.3152766 10 2
1.792577 -10.769744 -1.7292268 4 3
1.8096963 -10.907862 -1.3576245 11 4
1.8158176 -10.98036 -0.97370398 27 5
1.1624539 -7.2171087 -1.9587426 6 0
1.7643265 -10.99049 -2.5698409 23 1
1.8802279 -11.751784 -2.3133683 10 2
1.7683771 -11.089911 -1.7786602 7 3
1.7020701 -10.722215 -1.333007 31 4
1.7609121 -11.130523 -0.98590571 14 5
1.1183041 -7.2573123 -1.9675424 4 0
1.7039698 -11.096625 -2.591886 15 1
2.2685859 -14.842602 -2.9186144 4 2
1.7135166 -11.250403 -1.8024381 3 3
1.6147492 -10.639348 -1.3213075 19 4
1.6403105 -10.858859 -0.96080488 13 5
1.0676113 -7.2649426 -1.9675424 5 0
1.6453748 -11.237439 -2.6220293 18 1
2.1640623 -14.852249 -2.9174697 9 2
1.6638806 -11.46149 -1.8343508 3 3
1.5375928 -10.630714 -1.3188702 20 4
1.6002239 -11.118527 -0.98276818 21 5
1.1292284 -8.075779 -2.1849504 9 0
1.5609679 -11.20619 -2.6121316 17 1
1.3981618 -10.088943 -1.9798342 6 2
2.5182338 -18.241463 -2.9165645 5 3
1.4476537 -10.527128 -1.3047333 20 4
1.5155416 -11.078104 -0.97823608 14 5
1.0794305 -8.1332569 -2.1984091 9 0
1.4449019 -10.930889 -2.5455463 17 1
1.9595529 -14.904375 -2.9220493 4 2
1.322108 -10.096875 -1.6128395 21 3
1.380286 -10.58422 -1.310583 18 4
1.4576423 -11.238578 -0.99148369 14 5
1.0235865 -8.148262 -2.2004797 9 0
1.3673466 -10.931041 -2.5432966 16 1
1.2530438 -10.074362 -1.9733468 19 2
1.2358061 -9.9784327 -1.5925031 17 3
1.3015015 -10.554194 -1.3057083 19 4
1.3781784 -11.24057 -0.99078649 14 5
0.85661447 -7.2266936 -1.9499428 3 0
1.296253 -10.984832 -2.5536444 17 1
1.1886274 -10.13356 -1.9832687 13 2
1.169322 -10.014286 -1.5968832 18 3
1.1828681 -10.176547 -1.2579355 18 4
1.2777199 -11.059912 -0.97405255 13 5
0.81983864 -7.3553743 -1.9830716 3 0
1.2524074 -11.289954 -2.6224794 15 1
1.1096792 -10.067457 -1.9687674 19 2
1.0804259 -9.8494091 -1.5693507 19 3
1.1083468 -10.152984 -1.2540357 15 4
1.1841488 -10.918023 -0.96080488 13 5
0.77248031 -7.3993473 -1.9934243 9 0
1.0374583 -9.9881239 -2.3183455 12 1
1.0248625 -9.9343519 -1.9412909 18 2
1.0221251 -9.9588947 -1.5856199 21 3
1.0200975 -9.9906378 -1.2330741 20 4
1.1058892 -10.906202 -0.9590618 13 5
0.71256959 -7.3199582 -1.9706483 9 0
0.97540236 -10.074649 -2.3367915 7 1
0.96637917 -10.05461 -1.9634248 18 2
0.95295 -9.9697208 -1.5862457 19 3
0.95483327 -10.044945 -1.2389238 18 4
1.1246274 -11.897316 -1.0455203 15 5
0.65693188 -7.2747297 -1.9571897 4 0
0.88814336 -9.8929424 -2.2931509 9 1
0.90419865 -10.131352 -1.977163 18 2
0.87808448 -9.8972702 -1.5737309 19 3
0.88642484 -10.071141 -1.2413613 18 4
0.94985628 -10.856899 -0.95348382 20 5
0.60772121 -7.2828836 -1.958225 1 0
0.8529914 -10.287174 -2.3831315 8 1
0.83602268 -10.168724 -1.9832687 13 2
0.84177601 -10.304797 -1.6375562 19 3
0.81496149 -10.041327 -1.236974 16 4
0.85415518 -10.593024 -0.92977744 26 5
0.94383383 -11.808084 -0.6208092 8 6
0.63061017 -8.2519932 -2.2175617 10 0
0.81005681 -10.673735 -2.4713123 19 1
0.76885253 -10.201588 -1.9886116 18 2
0.77249962 -10.322107 -1.6394334 16 3
0.73779762 -9.9517479 -1.2252746 20 4
0.77813345 -10.570911 -0.92733705 13 5
0.86081612 -11.778378 -0.61892503 26 6
0.57791317 -8.306201 -2.2310205 11 0
0.7195313 -10.420435 -2.4114752 5 1
0.67217743 -9.8345566 -1.9161041 13 2
0.68224132 -10.059214 -1.5968832 18 3
0.67657089 -10.05359 -1.2372177 13 4
0.69054949 -10.369335 -0.90920866 12 5
0.76566428 -11.588796 -0.60866719 27 6
0.51918709 -8.2984657 -2.2279146 11 0
0.64954072 -10.469939 -2.421823 16 1
0.59965777 -9.7763033 -1.9038923 19 2
0.60624385 -9.9690886 -1.5818655 16 3
0.62607884 -10.385014 -1.2774346 19 4
0.61624497 -10.342082 -0.90641969 19 5
0.68274021 -11.559964 -0.60688782 18 6
0.463705 -8.3462505 -2.23982 9 0
0.58028591 -10.544267 -2.4380195 16 1
0.52819628 -9.7214403 -1.8924437 7 2
0.52007425 -9.6653643 -1.5330579 19 3
0.54712081 -10.268213 -1.2625666 21 4
0.54583549 -10.346038 -0.90641969 12 5
0.61188382 -11.753932 -0.6168316 26 6
0.40514576 -8.3434954 -2.2382672 11 0
0.51423347 -10.705729 -2.4744618 18 1
0.46061584 -9.6953945 -1.8867195 10 2
0.45167619 -9.613431 -1.5242976 18 3
0.46238905 -9.9902 -1.2279556 20 4
0.49217266 -10.755618 -0.94197923 13 5
0.51634079 -11.414647 -0.59882808 28 6
0.34931064 -8.3692236 -2.2444789 12 0
0.4346092 -10.545425 -2.4366698 21 1
0.38997743 -9.6257925 -1.8725995 10 2
0.38155252 -9.5413446 -1.5124085 17 3
0.3970753 -10.106248 -1.2418487 18 4
0.38774443 -10.002252 -0.87574089 18 5
0.43770745 -11.445914 -0.60029346 28 6
0.28981438 -8.3830919 -2.2475846 12 0
0.32439131 -9.5277166 -2.2009211 10 1
0.31980732 -9.5399847 -1.8554269 12 2
0.31508219 -9.5991125 -1.5211689 16 3
0.32074305 -9.9302082 -1.2199122 19 4
0.31955132 -10.056492 -0.88027298 18 5
0.34642339 -11.147313 -0.58448797 19 6
0.22979185 -8.3308392 -2.2330909 12 0
0.25871077 -9.5609179 -2.2081196 21 1
0.24796402 -9.4066114 -1.8290951 13 2
0.24530494 -9.4944429 -1.504274 17 3
0.24890012 -9.832984 -1.2077253 19 4
0.24834971 -10.018641 -0.87678677 12 5
0.26796803 -11.123503 -0.58312726 29 6
0.17297865 -8.3979092 -2.2506905 10 0
0.1974334 -9.8352594 -2.271106 15 1
0.18707721 -9.5690365 -1.8603877 15 2
0.17999725 -9.4603434 -1.4986424 19 3
0.17962848 -9.8007402 -1.2035817 20 4
0.17705381 -9.9444323 -0.8701629 18 5
0.19269633 -11.151031 -0.58448797 19 6
0.11570524 -8.3911657 -2.24862 11 0
0.13580692 -10.23778 -2.3637857 11 1
0.11957742 -9.5151424 -1.8497025 13 2
0.11299568 -9.3823586 -1.4861275 16 3
0.11513187 -9.994278 -1.2272245 19 4
0.11475033 -10.435506 -0.91304356 13 5
0.11428747 -11.09818 -0.58166188 29 6
0.11337801 -11.599679 -0.20248282 14 7
0.057253532 -8.411088 -2.2537963 10 0
0.065201007 -10.376837 -2.3957288 11 1
0.05519259 -9.5824862 -1.8626775 16 2
0.049149927 -9.3868618 -1.4867533 15 3
0.046463847 -10.239001 -1.2572043 20 4
0.04082223 -10.169074 -0.88968575 18 5
0.039433304 -11.296429 -0.59202439 19 6
0.031645939 -11.332231 -0.19780558 13 7
-3.6825992e-07 -8.4248047 -2.2574198 9 0
-0.0052263946 -9.9814463 -2.3043985 10 1
-0.011839038 -9.6906166 -1.8836665 10 2
-0.016720666 -9.5805626 -1.5174146 18 3
-0.022938073 -10.11005 -1.2413613 18 4
-0.03045604 -10.264747 -0.89805281 12 5
-0.039320052 -11.264473 -0.59034967 19 6
-0.045650192 -11.372177 -0.19850367 21 7
-0.058532372 -8.3840322 -2.2465494 11 0
-0.074835584 -9.9714231 -2.3021491 22 1
-0.079218231 -9.6569242 -1.8771789 7 2
-0.084156826 -9.6434231 -1.5274264 12 3
-0.093023188 -10.056048 -1.2347803 21 4
-0.10231494 -10.284205 -0.89979583 12 5
-0.11513642 -10.994308 -0.5762189 19 6
-0.12407439 -11.2836 -0.19696786 20 7
-0.11722336 -8.395009 -2.2496552 10 0
-0.14563183 -10.052496 -2.3210452 13 1
-0.153549 -10.111558 -1.9657143 4 2
-0.14936866 -9.5082912 -1.5061512 18 3
-0.15971342 -9.8388071 -1.2082127 18 4
-0.16683935 -9.9565649 -0.87120879 18 5
-0.19087622 -10.935325 -0.57318348 20 6
-0.20162357 -11.21448 -0.1957811 13 7
-0.17607147 -8.4055748 -2.2527611 10 0
-0.22241729 -10.359064 -2.3921297 15 1
-0.22047207 -10.023916 -1.9489232 13 2
-0.2164865 -9.6136971 -1.523046 17 3
-0.22894907 -9.8612661 -1.2111377 19 4
-0.2355886 -9.9232883 -0.86841983 12 5
-0.26424047 -10.889847 -0.57088071 20 6
-0.275318 -11.028884 -0.19256985 13 7
-0.23360306 -8.4157686 -2.255867 10 0
-0.29457569 -10.415749 -2.4056265 13 1
-0.29545155 -10.194826 -1.9825056 7 2
-0.27975136 -9.4816322 -1.5023967 17 3
-0.29028788 -9.6670132 -1.187495 23 4
