# .PCD v0.7 - Point Cloud Data file format
VERSION 0.7
FIELDS x y z intensity ring
SIZE 4 4 4 4 2
TYPE F F F F U
COUNT 1 1 1 1 1
WIDTH 1308
HEIGHT 1
VIEWPOINT 0 0 0 1 0 0 0
POINTS 1308
DATA ascii
-3.6855075 7.2052121 0.70805323 1 10
-3.0215108 5.9096341 -1.0512397 14 3
-3.6718624 7.1878157 0.99104154 0 11
-3.3679357 6.5985513 -0.90963286 15 4
-3.6851568 7.2231727 1.284327 2 12
-3.5098588 6.8855119 -0.67615426 27 5
-3.6646583 7.1953979 1.569595 1 13
-3.6744661 7.2240052 1.871143 2 14
-3.6327474 7.1512489 2.1492336 2 15
-2.3797462 4.7151866 -1.4152226 13 0
-3.5015445 6.943922 0.13574483 48 8
-2.5331368 5.0256519 -1.2993174 22 1
-2.7196605 5.4050927 -1.1761467 17 2
-3.6381679 7.2336912 0.70840186 1 10
-2.9003537 5.7717295 -1.0230815 15 3
-3.5948715 7.1600537 0.98372942 0 11
-3.3318465 6.6390653 -0.91207021 12 4
-3.6169317 7.213408 1.2780697 2 12
-3.4664803 6.916368 -0.67685145 27 5
-3.5892231 7.167511 1.5581464 1 13
-3.6042891 7.2070189 1.8603452 2 14
-3.5654757 7.1418672 2.1388805 2 15
-2.3313191 4.7005329 -1.4059051 15 0
-3.4364369 6.9317617 0.13504672 47 8
-2.4997191 5.0467062 -1.300217 22 1
-2.6819355 5.4217196 -1.175765 23 2
-3.5416744 7.1660342 0.69933766 1 10
-2.8802478 5.8303003 -1.0299646 16 3
-3.5284791 7.148756 0.97885466 0 11
-3.2643442 6.6194353 -0.9062205 15 4
-3.546787 7.1953373 1.270561 2 12
-3.4022658 6.9082279 -0.67371386 27 5
-3.53563 7.185348 1.5566198 1 13
-3.5384164 7.2005243 1.852247 2 14
-3.5057154 7.1434259 2.1321514 3 15
-2.3009651 4.7197642 -1.4069405 13 0
-3.3765733 6.9322138 0.13459297 38 8
-2.4618995 5.0565948 -1.2984174 21 1
-2.6405869 5.433248 -1.1742386 23 2
-3.4806266 7.1648865 0.69689733 1 10
-2.8351617 5.8413811 -1.0284003 13 3
-3.4611657 7.1374903 0.97397989 0 11
-3.2192113 6.6415014 -0.9062205 15 4
-3.456862 7.1381407 1.256169 2 12
-3.3435407 6.9102898 -0.67162216 27 5
-3.4746721 7.184504 1.5512772 1 13
-3.4829774 7.2145214 1.8495475 2 14
-3.4322679 7.1190014 2.1176574 3 15
-2.2662899 4.7322283 -1.4059051 13 0
-3.3168778 6.9321661 0.1341392 33 8
-2.4231749 5.0666265 -1.2966179 22 1
-2.5856774 5.4161153 -1.1666063 19 2
-3.4133637 7.1530466 0.69341105 1 10
-2.7858112 5.8432012 -1.0252717 14 3
-3.412956 7.1650658 0.97446734 0 11
-3.1744733 6.6673989 -0.906708 12 4
-3.3814876 7.1085854 1.2467828 2 12
-3.2738354 6.8884759 -0.66726434 31 5
-3.4025271 7.1624799 1.5413551 1 13
-3.4024673 7.1752729 1.8333511 2 14
-3.37339 7.1235852 2.1119635 2 15
-2.2307308 4.7426906 -1.4043522 11 0
-3.2598968 6.9370556 0.13379015 32 8
-2.3844299 5.0763645 -1.2948182 21 1
-2.5561371 5.4518099 -1.1704224 25 2
-3.3565755 7.1622715 0.6920166 1 10
-2.7608681 5.8964968 -1.0312161 17 3
-3.3308916 7.1203895 0.96520531 0 11
-3.1244886 6.6822038 -0.90573299 12 4
-3.3000102 7.0640087 1.2348938 2 12
-3.214227 6.883522 -0.66464967 27 5
-3.3341837 7.1469164 1.5329596 1 13
-3.3080981 7.1136794 2.1021285 1 15
-2.189466 4.7406101 -1.3991758 12 0
-3.1958392 6.9227724 0.13309206 32 8
-2.3260796 5.0433388 -1.282221 19 1
-2.5132196 5.4566007 -1.1677511 17 2
-3.3014979 7.1746688 0.69097072 1 10
-2.7157152 5.9043851 -1.029339 14 3
-3.2674277 7.1104293 0.96081799 1 11
-3.0744491 6.6966376 -0.9047581 11 4
-3.2749188 7.1365776 1.2436541 2 12
-3.1536405 6.8786254 -0.66203499 30 5
-3.2596769 7.1164737 1.5215111 2 13
-3.2724097 7.1541615 1.8162549 2 14
-3.2387309 7.0903449 2.0886698 1 15
-2.1635315 4.7694783 -1.403317 8 0
-3.1333985 6.9139514 0.13249867 32 8
-2.3013458 5.0803571 -1.2876198 16 1
-2.4807258 5.4865355 -1.1704224 23 2
-3.2394562 7.1679254 0.68818176 1 10
-2.6581705 5.8871932 -1.0230815 15 3
-3.1973014 7.0878296 0.95472455 0 11
-2.9953413 6.6432142 -0.89476484 10 4
-3.2022994 7.1088371 1.2348938 2 12
-3.095294 6.8744979 -0.65959466 30 5
-3.1998889 7.1134291 1.5161684 2 13
-3.2028787 7.1300507 1.8045573 2 14
-3.1844132 7.1022043 2.0855639 1 15
-2.1160378 4.7526984 -1.3939995 13 0
-3.0626864 6.8821383 0.13148643 22 8
-2.2689888 5.1034222 -1.2894194 15 1
-3.2273054 7.2622862 0.41648957 2 9
-2.4496956 5.5176492 -1.1734754 21 2
-2.5419772 5.7335939 -0.99335897 8 3
-2.9512999 6.6694098 -0.89549601 11 4
-3.1314633 7.0798864 1.2261335 2 12
-3.0464203 6.8941169 -0.65942037 26 5
-3.1279488 7.0853057 1.505483 2 13
-6.3286786 14.342248 -0.82156992 17 6
-3.1184354 7.0737786 1.7847617 3 14
-3.1149805 7.0759764 2.0715878 1 15
-2.0882807 4.7776132 -1.3971052 13 0
-3.0177696 6.9106812 0.13162605 27 8
-2.2310803 5.1116042 -1.2876198 16 1
-2.3946495 5.496819 -1.1654614 17 2
-2.5475907 5.8562617 -1.0115054 14 3
-2.8856919 6.6461501 -0.88964629 12 4
-2.9863279 6.8877974 -0.65680563 30 5
-6.3744054 14.723325 -0.84082949 17 6
-2.0403428 4.7604718 -1.3877878 13 0
-2.9489737 6.8837905 0.13071853 17 8
-2.1929116 5.1238551 -1.28672 16 1
-2.3400142 5.4754915 -1.1574475 25 2
-2.4769437 5.8071132 -0.99992919 15 3
-7.5740919 17.765802 2.3713338 2 11
-2.8345559 6.6551766 -0.88818389 12 4
-2.9256928 6.8791428 -0.65401667 30 5
-6.1096849 14.393512 -0.81947649 17 6
-2.0010676 4.760354 -1.3836466 13 0
-2.8872504 6.8752174 0.13016005 17 8
-2.1450193 5.1102901 -1.2795216 21 1
-2.3045681 5.5011487 -1.1593555 17 2
-2.5064774 5.99192 -1.0287131 11 3
-2.7956758 6.6931205 -0.89062124 11 4
-2.8714607 6.8846893 -0.65262216 34 5
-2.9381025 7.0513992 1.4848757 2 13
-5.9722085 14.347307 -0.81445223 17 6
-2.9224479 7.0241842 1.7564179 12 14
-2.9033718 6.9920926 2.0286238 15 15
-1.9677876 4.7742071 -1.3836466 15 0
-2.8396237 6.8928618 0.13012515 17 8
-2.1048431 5.114327 -1.2768222 22 1
-2.2655771 5.5130768 -1.1585923 17 2
-2.8935003 7.0480676 0.66656709 9 10
-2.4648836 6.0070148 -1.0284003 13 3
-2.8792257 7.0237622 0.93205678 13 11
-2.7443671 6.7014527 -0.88915884 11 4
-2.8674607 7.0055103 1.1989139 11 12
-2.8157854 6.8861265 -0.65087909 29 5
-2.8798938 7.0499291 1.4802963 9 13
-5.7762651 14.147248 -0.80084491 8 6
-2.8873222 7.0786991 1.7649659 3 14
-2.880486 7.0725245 2.0462234 2 15
-1.9410369 4.8018193 -1.3877878 12 0
-2.8124025 6.9644351 0.13110249 36 8
-2.0670648 5.1213074 -1.2750225 21 1
-2.8494 7.0667081 0.3993234 7 9
-2.2167635 5.5032635 -1.1532496 17 2
-2.8528996 7.0860815 0.66831023 3 10
-2.4140413 6.0020838 -1.0246458 14 3
-2.8478796 7.0879006 0.93790656 2 11
-2.7001674 6.7236619 -0.88964629 11 4
-2.7454097 6.8501334 -0.64564973 29 5
-2.829407 7.0704346 -0.39911404 13 6
-2.8336 7.0916848 -0.13330148 16 7
-1.9060435 4.8116612 -1.3867525 12 0
-2.7320728 6.9039454 0.12960157 17 8
-2.0233765 5.1156797 -1.2700737 24 1
-2.1811728 5.5259109 -1.1547761 17 2
-2.3742528 6.0243044 -1.0255845 15 3
-2.6524382 6.7405005 -0.88940257 10 4
-2.6975167 6.8691344 -0.64564973 29 5
-5.4440236 13.884384 -0.78158528 17 6
-1.8682119 4.8140445 -1.3836466 12 0
-2.6585093 6.857594 0.12837991 12 8
-1.9826846 5.1169615 -1.2669244 21 1
-2.1227162 5.4897313 -1.1440908 14 2
-2.330003 6.0352044 -1.0246458 14 3
-2.5867524 6.7106948 -0.88306534 10 4
-2.6363883 6.8501472 -0.64216352 28 5
-5.2925444 13.780348 -0.7736302 26 6
-2.6895864 7.0212522 2.0146475 2 15
-1.8352444 4.8287754 -1.3841642 10 0
-2.5996976 6.8437519 0.12778652 12 8
-1.9531354 5.1470757 -1.2709734 23 1
-2.0811262 5.4930377 -1.1418011 17 2
-2.2881699 6.049077 -1.024333 15 3
-2.5356336 6.7174473 -0.88160288 10 4
-2.584285 6.8571997 -0.64111763 28 5
-2.6430514 7.020556 1.4581624 2 13
-5.3674316 14.264688 -0.79875147 8 6
-2.6815708 7.1341987 1.7595671 3 14
-2.6403742 7.0357795 2.0136123 1 15
-1.8057034 4.8502078 -1.3867525 8 0
-2.5476735 6.8504882 0.1275771 8 8
-1.90176 5.1164122 -1.2601758 23 1
-2.0481887 5.5221586 -1.1448541 15 2
-2.238338 6.0445271 -1.0208914 14 3
-2.4781482 6.702898 -0.87745935 8 4
-2.5957725 7.0285902 1.186712 5 12
-2.5177305 6.8246045 -0.63641125 24 5
-2.6060698 7.0678568 1.4642683 2 13
-5.3174162 14.436753 -0.80628783 17 6
-2.6316996 7.1527457 1.7595671 3 14
-2.5805297 7.0250287 2.0053301 1 15
-1.7678305 4.8518057 -1.3836466 8 0
-2.4970503 6.8605914 0.12743747 8 8
-1.8619972 5.118576 -1.2574763 24 1
-2.0049007 5.5234036 -1.1421827 14 2
-2.1960845 6.0600066 -1.0208914 14 3
-2.4353452 6.731236 -0.87892181 8 4
-2.55604 7.0725498 1.1910921 2 12
-2.4747601 6.8551331 -0.63763142 33 5
-2.5526652 7.0747976 1.4619786 2 13
-5.188056 14.394608 -0.80189157 8 6
-2.5327332 7.0465074 2.0063653 1 15
-1.7313229 4.8567491 -1.3815762 8 0
-2.4544632 6.8929257 0.12771671 4 8
-1.817726 5.1075826 -1.2516277 21 1
-1.9630036 5.5280166 -1.1402746 17 2
-2.1616447 6.0975318 -1.0246458 14 3
-2.5001311 7.0601525 0.91962618 1 11
-2.3823318 6.7312317 -0.87672812 10 4
-2.4921169 7.0492487 1.184209 2 12
-2.4082658 6.8196397 -0.63275069 28 5
-2.4992914 7.0813389 1.4596889 2 13
-5.0117326 14.215743 -0.78995901 17 6
-2.4847589 7.0676627 2.0074008 1 15
-1.6916481 4.8523011 -1.3769174 9 0
-2.3852375 6.8494625 0.12659976 4 8
-1.7775376 5.1072655 -1.2484783 23 1
-2.5033562 7.2008014 0.39953274 2 9
-1.9314498 5.561986 -1.1444724 19 2
-2.4784665 7.1412597 0.66133773 1 10
-2.1054385 6.0732794 -1.0180756 15 3
-2.442986 7.0549245 0.91670126 1 11
-2.3190534 6.7008009 -0.87063468 8 4
-2.450588 7.0888791 1.1879635 2 12
-2.357996 6.8287535 -0.63205343 33 5
-2.4497933 7.0986142 1.4596889 2 13
-5.0568662 14.66957 -0.81319618 17 6
-2.4253092 7.0556068 1.9991184 1 15
-1.6508787 4.8438783 -1.3712233 8 0
-2.3760271 6.9795284 0.12869404 4 8
-1.7412138 5.1177053 -1.2480285 19 1
-1.891308 5.5716171 -1.1437092 19 2
-2.4183123 7.1281991 0.65854877 1 10
-2.0541089 6.0616388 -1.0136955 17 3
-2.4102247 7.1206951 0.92303848 0 11
-2.2664883 6.6999044 -0.86844105 10 4
-2.3921857 7.0796146 1.1835834 2 12
-2.3089936 6.8412719 -0.63170481 28 5
-2.388881 7.0820594 1.4528197 2 13
-4.8644204 14.43764 -0.79843742 17 6
-2.3784533 7.0796914 2.001189 1 15
-1.6139696 4.8461204 -1.3686352 10 0
-2.312094 6.9504066 0.12785633 4 8
-1.6968359 5.103848 -1.2417299 21 1
-1.8548398 5.5921383 -1.1452357 21 2
-2.36222 7.1259961 0.65680563 1 10
-2.0067763 6.0608282 -1.0111924 19 3
-2.3267958 7.0355744 0.90987664 1 11
-2.2121863 6.6929455 -0.86551613 10 4
-2.3513753 7.1224031 1.1879635 2 12
-2.2543097 6.8364129 -0.62978739 24 5
-2.3356936 7.0873761 1.4505301 2 13
-4.7816114 14.526268 -0.8014729 17 6
-2.3415163 7.1217527 1.7307733 3 14
-2.3205359 7.0704265 1.993942 1 15
-1.5759147 4.8444104 -1.3650117 12 0
-2.2721658 6.9930048 0.128345 4 8
-1.6677834 5.1359572 -1.2466787 23 1
-1.8097037 5.5862746 -1.1414195 19 2
-2.3111863 7.1385236 0.65645707 1 10
-1.9765708 6.1122813 -1.0174499 15 3
-2.2800622 7.0592031 0.91085154 1 11
-2.1629646 6.7006707 -0.86454117 10 4
-2.1991687 6.8250499 -0.62734705 24 5
-2.2705231 7.0549188 1.4406079 2 13
-2.2929854 7.1375256 1.7307733 3 14
-2.2722976 7.0901337 1.9949772 1 15
-1.5379624 4.8424058 -1.3613882 11 0
-2.2535524 7.0997963 0.13002042 4 8
-1.6265868 5.1307569 -1.2426296 21 1
-1.7591981 5.5591559 -1.1334054 14 2
-2.2660973 7.1696825 0.65785152 1 10
-1.9313501 6.1142921 -1.0155727 15 3
-2.2343476 7.0821319 0.91182649 1 11
-2.097641 6.6569147 -0.85698533 12 4
-2.1550572 6.8516388 -0.62839293 24 5
-2.2247453 7.0818357 1.4428977 2 13
-2.221679 7.0980611 1.9929067 1 15
-1.5021046 4.8435373 -1.3588001 13 0
-2.2051148 7.1191759 0.13009024 4 8
-1.5991164 5.1659102 -1.2484783 23 1
-1.720345 5.5713019 -1.1334054 17 2
-2.1996171 7.1278272 0.65262216 1 10
-1.8816353 6.1049733 -1.0118183 15 3
-2.1743383 7.0634079 0.90743923 1 11
-2.0388553 6.6273994 -0.85137933 20 4
-2.1071999 6.86234 -0.62804425 20 5
-2.1764891 7.0968151 1.4428977 2 13
-2.1754563 7.1244841 1.9960126 1 15
-1.4721689 4.8668489 -1.3624235 11 0
-2.1623914 7.1531625 0.13043928 4 8
-1.5523109 5.1415029 -1.2399302 22 1
-1.6823825 5.5828829 -1.1334054 17 2
-2.1406147 7.112484 0.6498332 1 10
-1.8434501 6.1289902 -1.0136955 15 3
-2.1193554 7.0552301 0.90451437 1 11
-2.0096507 6.698513 -0.85869151 11 4
-2.1257303 7.0899215 1.17232 3 12
-2.0432374 6.823442 -0.62316358 20 5
-2.1190157 7.0855036 1.4375551 2 13
-4.2774644 14.311961 -0.78284132 8 6
-2.1197402 7.1150579 1.9892832 1 15
-1.4395537 4.8786101 -1.3629411 8 0
-2.118053 7.1872659 0.13078834 4 8
-1.5084692 5.1220403 -1.2327318 22 1
-1.6472417 5.6076775 -1.1360768 19 2
-2.101131 7.1574774 0.65262216 1 10
-1.7995082 6.1379185 -1.0130697 15 3
-2.073396 7.081285 0.90597677 1 11
-1.9589912 6.69489 -0.85649782 11 4
-2.0761814 7.104589 1.17232 3 12
-2.0017712 6.854404 -0.62473232 16 5
-2.0806317 7.1336884 1.4444242 2 13
-4.2053719 14.437353 -0.78807491 8 6
-2.0635524 7.1074204 1.9830716 1 15
-1.4049282 4.8866835 -1.3624235 10 0
-1.4759011 5.1436844 -1.2354312 19 1
-1.6063306 5.6093225 -1.1341687 14 2
-2.0281019 7.0915165 0.6453011 1 10
-1.7473732 6.1139379 -1.0071251 14 3
-2.021878 7.0837808 0.90451437 1 11
-1.8915259 6.635859 -0.84723574 13 4
-2.0277736 7.1185565 1.17232 3 12
-1.9429663 6.8298845 -0.6212461 12 5
-2.0243402 7.1253786 1.4398447 2 13
-2.0258713 7.1449952 1.714577 3 14
-2.0130217 7.1138668 1.981001 1 15
-1.3674638 4.8812513 -1.3582823 11 0
-2.0133708 7.1965275 0.13043928 4 8
-1.4387561 5.1461043 -1.2336316 21 1
-1.5629101 5.6052718 -1.1311158 17 2
-1.9894141 7.1397038 0.64843875 1 10
-1.6951123 6.091733 -1.0014936 14 3
-1.9606817 7.0556459 0.8991521 2 11
-1.8532183 6.6734462 -0.85040432 11 4
-1.9569114 7.0563984 1.1598053 3 12
-1.9048126 6.8778439 -0.62438375 8 5
-1.9674137 7.1087184 1.4337388 2 13
-4.0325232 14.590216 -0.7933085 8 6
-1.9759403 7.1589642 1.714577 3 14
-1.9612563 7.120297 1.9789305 1 15
-1.3333529 4.8906794 -1.3582823 10 0
-1.9368151 7.113935 0.12869404 4 8
-1.4048408 5.1635451 -1.2354312 19 1
-1.5134609 5.5781512 -1.1234834 14 2
-1.9343039 7.1341901 0.64669561 1 10
-1.6324114 6.0290561 -0.98929167 15 3
-1.9072347 7.0538311 0.89720219 1 11
-1.816425 6.7226315 -0.85503536 11 4
-1.9281882 7.1461744 1.17232 3 12
-1.8536363 6.8794327 -0.62333786 8 5
-1.9156991 7.1146965 1.4322125 2 13
-1.944106 7.2403393 1.7307733 3 14
-1.9014996 7.0964952 1.9685777 1 15
-1.2991771 4.8998685 -1.3582823 10 0
-1.9126945 7.223937 0.13043928 4 8
-1.3697553 5.1769948 -1.236331 17 1
-1.4849987 5.6284451 -1.1314974 12 2
-1.8885177 7.1629314 0.64809006 1 10
-1.5993338 6.0746903 -0.99492329 15 3
-1.8569337 7.0631347 0.89671469 1 11
-1.7548201 6.6794701 -0.84796697 11 4
-1.8461701 7.0371747 1.1522964 3 12
-1.8649846 7.1240993 1.4314492 2 13
-1.8757923 7.1858549 1.714577 3 14
-1.855806 7.1245522 1.9727188 1 15
-1.2649379 4.9088192 -1.3582823 9 0
-1.8711849 7.2719731 0.13106757 4 8
-1.3263001 5.1581206 -1.2295824 23 1
-1.4373797 5.6063457 -1.1250099 14 2
-1.8206637 7.1064591 0.64181489 1 10
-1.5593336 6.0952768 -0.99648768 14 3
-1.7977519 7.0374599 0.89183992 2 11
-1.7214026 6.7434907 -0.85454792 11 4
-1.7969964 7.0498915 1.1522964 3 12
-1.8132713 7.1293344 1.4299227 2 13
-1.8255832 7.1987748 1.714577 3 14
-1.7974954 7.1036234 1.9634014 1 15
-1.2315751 4.921279 -1.3593177 10 0
-1.8000103 7.2033772 0.12960157 4 8
-1.2916737 5.1729269 -1.2309321 21 1
-1.398205 5.6162438 -1.1250099 17 2
-1.773893 7.1305976 0.64286077 1 10
-1.5257905 6.1424394 -1.0024322 15 3
-1.7485774 7.0498385 0.89183992 2 11
-1.6675965 6.7283692 -0.85113555 13 4
-1.7543755 7.0891123 1.1566767 3 12
-1.7690991 7.1646924 1.434502 2 13
-1.7765368 7.2110353 1.714577 3 14
-1.7483196 7.1178756 1.9639189 2 15
-1.1930851 4.9128613 -1.354659 13 0
-1.7528266 7.2232356 0.12974119 4 8
-1.2550695 5.1799245 -1.2304822 24 1
-1.3654797 5.6485305 -1.1295893 14 2
-1.7212639 7.131187 0.64181489 1 10
-1.4825553 6.1469221 -1.0014936 14 3
-1.6940434 7.0345592 0.88842762 2 11
-1.619194 6.734056 -0.85040432 11 4
-1.7217742 7.166193 1.1673142 3 12
-1.7190404 7.1768675 1.434502 2 13
-1.6922128 7.0976648 1.9551191 1 15
-1.1543015 4.8983035 -1.3484472 12 0
-1.711516 7.2742276 0.13043928 4 8
-1.2188921 5.1845527 -1.2295824 23 1
-1.3242204 5.6502795 -1.1280628 14 2
-1.6645063 7.10782 0.6386773 1 10
-1.4333092 6.1301928 -0.99711335 14 3
-1.6385772 7.0191498 0.88501525 2 11
-1.5590714 6.6891317 -0.84333593 12 4
-1.6501993 7.0856905 1.1522964 3 12
-1.6617911 7.1580963 1.4283962 2 13
-1.6756846 7.235136 1.714577 3 14
-1.6326177 7.0660138 1.9432135 2 15
-1.1209391 4.9139724 -1.3505179 8 0
-1.644689 7.2158103 0.12918271 4 8
-1.1878148 5.2197447 -1.2358811 13 1
-1.6279223 7.1653152 0.385088 2 9
-1.2769212 5.6249247 -1.1211938 14 2
-1.6171279 7.1350927 0.64007175 1 10
-1.3802508 6.099833 -0.99054313 15 3
-1.5912855 7.0381627 0.8859902 1 11
-1.5162683 6.7172804 -0.84552956 11 4
-1.5838189 7.0279441 1.1410331 3 12
-1.6083328 7.1541991 1.4253433 2 13
-1.5836984 7.0850568 1.945284 2 15
-1.0861893 4.9197917 -1.3500001 10 0
-1.5955944 7.2391119 0.12939215 4 8
-1.1417053 5.1841378 -1.2255334 17 1
-1.620744 7.371573 0.3955552 2 9
-1.2379003 5.6396708 -1.1223387 14 2
-1.5612972 7.1189632 0.63763142 1 10
-1.3165102 6.0128365 -0.97489971 16 3
-1.5349462 7.0222197 0.8825779 1 11
-1.463406 6.700551 -0.84211725 11 4
-1.5616484 7.1623526 1.1610568 3 12
-1.55251 7.1383944 1.4200007 2 13
-3.1905925 14.69498 -0.78807491 8 6
-1.5745056 7.2578263 1.714577 3 14
-1.5317472 7.0846114 1.9421781 2 15
-1.0518162 4.9272547 -1.3500001 10 0
-1.521258 7.1324615 0.12729785 4 8
-1.1103554 5.2148542 -1.2309321 21 1
-1.4134383 6.6439953 0.35598922 19 9
-1.1986678 5.644125 -1.1215754 14 2
-1.5132123 7.137486 0.63832867 1 10
-1.288648 6.0834985 -0.98491156 15 3
-1.4903939 7.0480428 0.8845278 1 11
-1.4170048 6.7125454 -0.84236097 12 4
-1.5042487 7.156745 1.421527 2 13
-1.4009663 6.6711278 -0.35724527 11 6
-1.5038025 7.1732783 1.6920818 3 14
-1.3951418 6.6665425 -0.11888579 34 7
-1.4795345 7.075964 1.9370018 2 15
-1.0166913 4.9267321 -1.3479296 10 0
-1.3737892 6.6689343 0.11885089 67 8
-1.0740476 5.2184739 -1.2300324 21 1
-1.3630006 6.6341372 0.3549425 38 9
-1.1556826 5.6350474 -1.1181407 17 2
-1.4573983 7.1124873 0.63519108 1 10
-1.2334785 6.0304174 -0.97489971 13 3
-1.4348023 7.0271554 0.88062793 1 11
-1.3597713 6.6656303 -0.83529252 20 4
-1.3561335 6.6715589 -0.5956223 72 5
-1.4555027 7.1668177 1.421527 2 13
-1.347213 6.6455131 -0.35536119 35 6
-1.4621904 7.2256231 1.7019798 3 14
-1.3406172 6.6308041 -0.11808299 73 7
-1.4308631 7.0899081 1.9380372 2 15
-0.97925371 4.9185529 -1.3437886 11 0
-1.3244727 6.6646333 0.11860656 57 8
-1.0372099 5.2239332 -1.2295824 24 1
-1.3251913 6.6865926 0.35724527 19 9
-1.111745 5.6198668 -1.1135614 14 2
-1.4030691 7.0990338 0.63309932 1 10
-1.2074091 6.1202784 -0.98804021 15 3
-1.3826404 7.0214195 0.87867808 1 11
-1.3162719 6.6905422 -0.83724248 33 4
-1.3037724 6.6515365 -0.59300768 65 5
-1.4061881 7.1806579 1.4222903 2 13
-1.3015519 6.6586761 -0.35557052 23 6
-1.4221627 7.2892084 1.714577 3 14
-1.3038576 6.6890707 -0.1189556 26 7
-1.3798591 7.0921388 1.9359666 2 15
-0.9463501 4.9328575 -1.3458591 9 0
-0.99925256 5.2233906 -1.2277828 24 1
-1.3878617 7.2685313 0.38780949 2 9
-1.0684409 5.6062775 -1.1093636 14 2
-1.3557137 7.120399 0.6341452 1 10
-1.1653897 6.1324396 -0.98866594 15 3
-1.3358074 7.042603 0.88014042 1 11
-1.2717485 6.7112708 -0.83870488 11 4
-1.3483572 7.1291704 1.1491677 3 12
-1.3487432 7.1517153 1.414658 2 13
-1.3446138 7.1572323 1.6812842 3 14
-1.3324472 7.1129918 1.9390724 2 15
-0.91188681 4.9393449 -1.3458591 9 0
-1.3215133 7.1721568 0.12729785 4 8
-0.96381795 5.2359896 -1.2291325 18 1
-1.327701 7.2269688 0.385088 2 9
-1.0356491 5.6483588 -1.1162328 14 2
-1.2930475 7.0591378 0.62786996 1 10
-1.1197069 6.1248808 -0.98616302 15 3
-1.2837579 7.0361342 0.87819058 1 11
-1.2223724 6.7063155 -0.83699876 15 4
-1.299486 7.1648202 1.4154211 2 13
-1.31055 7.2546597 1.7019798 3 14
-1.2776167 7.0936022 1.9313078 1 15
-0.87771899 4.9474931 -1.3463767 12 0
-1.2755935 7.2048373 0.12771671 4 8
-0.92656153 5.2387528 -1.2282327 19 1
-1.2841581 7.2753992 0.38718143 2 9
-0.99755579 5.6631851 -1.1177591 14 2
-1.2471869 7.087616 0.6296131 1 10
-1.0789698 6.1442223 -0.98804021 12 3
-1.2339197 7.0410142 0.87770307 1 11
-1.1697043 6.6814446 -0.83285517 11 4
-1.2447184 7.1466398 1.4100785 2 13
-1.247137 7.1827717 1.6830838 3 14
-1.2244457 7.081409 1.9256139 2 15
-0.84218502 4.9477863 -1.3448237 11 0
-1.2251812 7.2054672 0.1275771 4 8
-0.88866168 5.2374086 -1.2264332 21 1
-1.2279308 7.2445879 0.385088 2 9
-0.95898181 5.6698446 -1.1177591 14 2
-1.197679 7.0961494 0.6296131 1 10
-1.0325246 6.1241531 -0.98365998 15 3
-1.183333 7.0335894 0.87575316 1 11
-1.1181006 6.6600828 -0.82919908 9 4
-1.1915191 7.1049819 1.1410331 3 12
-1.1999688 7.1861386 1.4161844 2 13
-1.2078398 7.2566609 1.6983805 3 14
-1.1762156 7.0895796 1.9256139 2 15
-0.80506611 4.9324307 -1.3391298 13 0
-1.1928482 7.3243723 0.12953176 4 8
-0.85737437 5.2702646 -1.2327318 17 1
-1.1773241 7.252984 0.385088 2 9
-0.91875035 5.6725245 -1.1169959 14 2
-1.1480731 7.096271 0.62891585 1 10
-0.98974758 6.1312122 -0.98365998 15 3
-1.1323031 7.0299206 0.87429076 1 11
-1.0796813 6.7106562 -0.83456135 12 4
-1.1418847 7.1131272 1.1410331 3 12
-1.1460638 7.1631227 1.4100785 2 13
-1.1498252 7.2108302 1.6857833 3 14
-1.1206381 7.0594583 1.915261 2 15
-0.77060932 4.9379315 -1.3391298 13 0
-1.1281847 7.2374811 0.12785633 4 8
-0.81786221 5.2587914 -1.2286826 14 1
-1.1279306 7.2608294 0.385088 2 9
-0.87650633 5.6553659 -1.1124165 12 2
-1.1021607 7.1277399 0.63100755 1 10
-0.94557571 6.1221895 -0.98115706 16 3
-1.0820104 7.021769 0.87234086 1 11
-1.0331074 6.7199922 -0.83480507 11 4
-1.093444 7.1207347 1.1410331 3 12
-1.0918751 7.1437788 1.4047359 2 13
-1.0888928 7.1493273 1.6695868 3 14
-1.0748756 7.0822029 1.9194021 2 15
-0.73384333 4.9279051 -1.3349887 13 0
-1.075778 7.2414136 0.12778652 4 8
-0.78141761 5.2663002 -1.2291325 15 1
-1.0759445 7.2687149 0.385088 2 9
-0.83716226 5.6692624 -1.113943 12 2
-1.0517913 7.131319 0.63065898 1 10
-0.898004 6.1033926 -0.97708976 15 3
-1.030583 7.0214758 0.8713659 1 11
-0.99077147 6.7584667 -0.83870488 11 4
-1.0431111 7.158998 1.4062624 2 13
-1.0483314 7.2302213 1.6866829 3 14
-1.0236166 7.0858893 1.9183668 2 15
-0.69996458 4.9367332 -1.3360239 13 0
-1.0229568 7.2329068 0.12750728 4 8
-0.7446329 5.2716274 -1.2291325 19 1
-1.0196 7.2364945 0.38299456 2 9
-0.79237425 5.6380291 -1.1066922 14 2
-0.99644095 7.0990272 0.62717271 1 10
-0.85729259 6.1232071 -0.97927988 16 3
-0.98263699 7.0363636 0.87234086 1 11
-0.9460355 6.7829127 -0.84089851 9 4
-0.99267036 7.1354809 1.1410331 3 12
-0.99095052 7.1505485 1.4032094 2 13
-0.98771888 7.1640058 1.6695868 3 14
-0.97360057 7.089035 1.9173316 2 15
-0.66754538 4.9568167 -1.3401651 12 0
-0.96551549 7.1883426 0.12659976 4 8
-0.70936632 5.2882862 -1.231832 14 1
-0.9743517 7.2830291 0.385088 2 9
-0.75662917 5.6706681 -1.1120348 14 2
-0.94580334 7.0979104 0.62647545 1 10
-0.81582487 6.138834 -0.98084426 9 3
-0.93036002 7.0194378 0.86941594 1 11
-0.8976168 6.7814803 -0.83992356 9 4
-0.9428311 7.1422372 1.1410331 3 12
-0.93844688 7.1378264 1.3993932 2 13
-0.93768048 7.1707268 1.6695868 3 14
-0.91984475 7.0630922 1.9085318 1 15
-0.62901485 4.9306941 -1.331883 13 0
-0.91783148 7.214745 0.1269488 4 8
-0.67095882 5.2815099 -1.2291325 15 1
-0.92348284 7.2896538 0.385088 2 9
-0.71726817 5.6777601 -1.1124165 14 2
-0.89523017 7.0964336 0.6257782 1 10
-0.76875633 6.1110606 -0.97552538 13 3
-0.88133246 7.0257616 0.86941594 1 11
-0.8443296 6.7403088 -0.83407384 8 4
-0.89198518 7.1714807 1.4047359 2 13
-0.88759655 7.1770983 1.6695868 3 14
-0.8683877 7.0520854 1.903873 2 15
-0.59780955 4.9618173 -1.3391298 19 0
-0.8645786 7.1971526 0.12652995 4 8
-0.63360381 5.2821956 -1.2282327 15 1
-0.67854494 5.6904263 -1.113943 10 2
-0.84283906 7.0787692 0.62368649 2 10
-0.72770739 6.1300101 -0.97771555 15 3
-0.83086199 7.0199156 0.86795354 1 11
-0.8047114 6.809123 -0.84187353 12 4
-0.84301716 7.154705 1.1410331 3 12
-0.84098226 7.1697335 1.4032094 2 13
-0.83872294 7.1829739 1.6695868 3 14
-0.81913036 7.0579762 1.903873 2 15
-0.56141353 4.9505138 -1.3349887 12 0
-0.81376916 7.1869745 0.12625071 4 8
-0.59540027 5.2748723 -1.2255334 15 1
-0.64198476 5.7144237 -1.1177591 10 2
-0.79473335 7.0963612 0.62473232 1 10
-0.68310827 6.1093006 -0.97364825 13 3
-0.77998435 6.9977875 0.86454117 1 11
-0.75430214 6.7889266 -0.83870488 11 4
-0.78558868 7.0817442 1.1285183 3 12
-0.79176795 7.1832356 1.4047359 2 13
-0.78430611 7.1499119 1.6605887 3 14
-0.77233046 7.0749111 1.9069788 2 15
-0.52709186 4.9484572 -1.3334358 14 0
-0.7631526 7.1885037 0.1261809 4 8
-0.55866241 5.2710505 -1.2237337 15 1
-0.76140094 7.2079501 0.37985441 2 9
-0.59878874 5.6875267 -1.1116532 10 2
-0.74640805 7.1016068 0.62473232 1 10
-0.64353055 6.1433897 -0.97834122 15 3
-0.73275721 7.0188575 0.86649108 1 11
-0.70354998 6.7504668 -0.83334261 11 4
-0.75204474 7.2403111 1.1529222 3 12
-0.73922223 7.153307 1.3978667 2 13
-0.73596627 7.1707206 1.6641879 3 14
-0.71978307 7.0493808 1.8986967 2 15
-0.49291229 4.9558616 -1.334471 13 0
-0.717291 7.2374344 0.1269488 4 8
-0.52299857 5.286458 -1.2264332 15 1
-0.56060308 5.7071991 -1.1147063 12 2
-0.6964258 7.1026783 0.62438375 2 10
-0.60312289 6.1732907 -0.98240852 13 3
-0.68104589 6.9961414 0.86307877 1 11
-0.65045404 6.693965 -0.82578677 9 4
-0.6942457 7.1706696 1.1410331 3 12
-0.68775934 7.1426597 1.3948139 2 13
-0.6844005 7.1601658 1.6605887 3 14
-0.6705482 7.054234 1.8986967 2 15
-0.45830423 4.9591818 -1.334471 13 0
-0.65758061 7.1427021 0.12520356 4 8
-0.4871518 5.3016238 -1.2291325 17 1
-0.66069067 7.2178783 0.37985441 2 9
-0.52056462 5.7090182 -1.1143246 8 2
-0.64176667 7.0518093 0.61950302 2 10
-0.55858076 6.161613 -0.97990561 13 3
-0.63076204 6.9849095 0.86112887 1 11
-0.61332452 6.8051052 -0.83894861 8 4
-0.63962603 7.166842 1.39863 2 13
-0.63151366 7.1180711 1.649791 3 14
-0.61992896 7.0433478 1.8945554 2 15
-0.42367142 4.9622602 -1.334471 13 0
-0.61336029 7.1988168 0.12611109 4 8
-0.44913903 5.2932448 -1.2264332 19 1
-0.61997044 7.3217149 0.385088 2 9
-0.47922072 5.6830854 -1.1086004 14 2
-0.59685475 7.107739 0.62403512 1 10
-0.5123412 6.1140914 -0.971771 13 3
-0.58683413 7.0325608 0.86649108 1 11
-0.57205081 6.8843956 -0.84821075 9 4
-0.59531546 7.1795602 1.1410331 3 12
-0.58989817 7.175045 1.3993932 2 13
-0.58434677 7.1533823 1.6569895 3 14
-0.57135022 7.0397024 1.8924849 2 15
-0.38988689 4.9650288 -1.334471 13 0
-0.55903596 7.1510897 0.12520356 4 8
-0.41340169 5.3000655 -1.2273329 14 1
-0.56327391 7.254179 0.38131982 2 9
-0.4389284 5.678462 -1.1070738 12 2
-0.54570246 7.0758801 0.62089753 2 10
-0.4714587 6.1411543 -0.97552538 11 3
-0.53469479 6.9969006 0.86161631 1 11
-0.53030783 6.9554276 -0.85649782 11 4
-0.54517478 7.1835413 1.1410331 3 12
-0.53809112 7.1397409 1.3917608 2 13
-0.53468269 7.1611743 1.6578892 3 14
-0.52247554 7.0473728 1.8935202 2 15
-0.3552126 4.9676304 -1.334471 13 0
-0.50909835 7.1548181 0.12520356 4 8
-0.37501043 5.2833838 -1.222834 14 1
-0.51261646 7.2579346 0.38131982 2 9
-0.3973504 5.6539698 -1.1017312 14 2
-0.49517554 7.0636172 0.61950302 1 10
-0.42514053 6.0950313 -0.9677037 9 3
-0.48528785 6.9925418 0.86064136 1 11
-0.4776209 6.89955 -0.84918565 16 4
-0.49501434 7.1871719 1.1410331 3 12
-0.48877215 7.1511579 1.3932874 2 13
-1.0404795 15.301619 -0.80377567 8 6
-0.4830935 7.1414013 1.6524904 3 14
-0.47300079 7.0469937 1.8924849 2 15
-0.31928 4.9507103 -1.3292947 14 0
-0.46118736 7.1901278 0.12576205 4 8
-0.33848953 5.2917075 -1.2241837 14 1
-0.46295193 7.2772822 0.38215721 2 9
-0.35761797 5.652688 -1.100968 12 2
-0.44585347 7.0669017 0.61950302 2 10
-0.38517344 6.1392527 -0.97427392 11 3
-0.43843654 7.0274587 0.86454117 1 11
-0.43500367 7.0117617 -0.86259133 10 4
-0.43782681 7.1583915 1.3940506 2 13
-0.43228513 7.1290383 1.6488912 3 14
-0.42286798 7.0346971 1.8883438 2 15
-0.28384539 4.9528685 -1.3292947 13 0
-0.40915447 7.1612287 0.12520356 4 8
-0.30094573 5.2998314 -1.2255334 17 1
-0.40838927 7.2365389 0.37985441 2 9
-0.31991044 5.686409 -1.1070738 10 2
-0.3941603 7.0500183 0.61775988 2 10
-0.34057462 6.1300173 -0.97239673 11 3
-0.38673377 6.9827795 0.85869151 1 11
-0.37916625 6.8897552 -0.84723574 16 4
-0.38741648 7.1534319 1.3925241 2 13
-0.38020846 7.0890718 1.6389934 3 14
-0.37190533 7.0259676 1.8852381 2 15
-0.2494574 4.9585881 -1.33033 13 0
-0.35590392 7.1240296 0.12450547 3 8
-0.26384419 5.2998557 -1.2250834 15 1
-0.35667542 7.2152758 0.37859833 2 9
-0.27959627 5.6963968 -1.1086004 10 2
-0.34590557 7.0724983 0.61950302 2 10
-0.27889663 5.7435546 -0.91076159 7 3
-0.33675289 6.9853683 0.85869151 1 11
-0.32953361 6.8605099 -0.84333593 13 4
-0.33842763 7.0973659 1.1253897 3 12
-0.33617195 7.1285071 1.3871815 2 13
-0.3314344 7.1071267 1.6425927 3 14
-0.33995894 7.345017 -0.128345 6 7
-0.32302308 7.0322528 1.8862734 2 15
-0.21533541 4.9717889 -1.3334358 13 0
-0.30912745 7.1662436 0.12520356 4 8
-0.22575484 5.2762585 -1.2192347 17 1
-0.3077243 7.2215276 0.37880769 2 9
-0.2399893 5.6785526 -1.1047841 12 2
-0.29635155 7.0707603 0.61915439 2 10
-0.25652006 6.1459723 -0.97427392 11 3
-0.29018217 7.0112991 0.86161631 1 11
-0.27267662 6.6444664 -0.81652468 13 4
-0.28734624 7.1542206 1.3917608 2 13
-0.28104073 7.0897951 1.6380936 3 14
-0.27439669 7.0149846 1.8810968 2 15
-0.18078394 4.9538341 -1.3282595 14 0
-0.25764549 7.1282597 0.12450547 3 8
-0.18990274 5.2796206 -1.2196846 15 1
-0.25445715 7.1436601 0.37462083 2 9
-0.19978604 5.6643929 -1.1017312 12 2
-0.2490574 7.0965071 0.6212461 1 10
-0.21346964 6.1436653 -0.97364825 11 3
-0.24149996 7.02109 0.86259133 1 11
-0.23470737 6.8584499 -0.84260476 11 4
-0.2396023 7.0737185 1.1210095 3 12
-0.23693758 7.1049948 1.3818389 2 13
-0.23420519 7.1733875 1.6569895 3 14
-0.22466852 6.9935589 1.8748853 2 15
-0.14659406 4.9684925 -1.331883 12 0
-0.20554349 7.0499306 0.12310927 3 8
-0.15287256 5.2749739 -1.2183349 17 1
-0.20663658 7.2171345 0.378389 2 9
-0.16078858 5.6852746 -1.1055473 10 2
-0.19962034 7.1020565 0.62159473 1 10
-0.17046101 6.1410561 -0.97302246 13 3
-0.19128443 6.9789491 0.85722905 1 11
-0.18746912 6.8837333 -0.84552956 11 4
-0.18867807 7.1575027 1.3917608 2 13
-0.18351993 7.1514711 1.6515907 3 14
-0.1757417 6.9910951 1.87385 2 15
-0.11142546 4.9481492 -1.3261888 14 0
-0.15676728 7.0711856 0.12345833 3 8
-0.11668534 5.3051362 -1.2250834 15 1
-0.15581767 7.1984334 0.37734228 2 9
-0.12059507 5.6627049 -1.100968 10 2
-0.14910479 7.059454 0.61775988 2 10
-0.12701279 6.1144471 -0.96864235 11 3
-0.14255752 6.980114 0.85722905 1 11
-0.13884771 6.857089 -0.84211725 11 4
-0.14136723 7.1040235 1.1253897 3 12
-0.13771585 7.1076107 1.3818389 2 13
-0.30124915 15.833402 -0.82994366 8 6
-0.13359159 7.0863085 1.6362939 3 14
-0.12735449 7.0153298 1.8800616 2 15
-0.077150583 4.9661913 -1.3308476 12 0
-0.10789105 7.0241017 0.12262061 3 8
-0.079648197 5.3058214 -1.2250834 14 1
-0.082331777 5.6830258 -1.1047841 10 2
-0.099932909 7.0682912 0.61845714 1 10
-0.084341981 6.0401134 -0.95675331 11 3
-0.095528409 7.0166512 0.86161631 1 11
-0.089919589 6.7784939 -0.83236772 11 4
-0.091715433 7.0060611 1.1097462 3 12
-0.087796696 7.0848413 1.3772594 2 13
-0.083789416 7.0597882 1.6299953 3 14
-0.07920178 6.9812622 1.8707441 2 15
-0.043359425 4.968533 -1.3313652 13 0
-0.05932001 7.0806732 0.12359794 3 8
-0.043576121 5.3120871 -1.2264332 16 1
-0.056141116 7.1479702 0.37462083 2 9
-0.0425811 5.6736455 -1.1028761 8 2
-0.051818158 7.0688076 0.61845714 1 10
-0.042737402 6.1215439 -0.96958095 9 3
-0.046382636 6.9933267 0.85869151 1 11
-0.044380166 6.8722463 -0.84382337 9 4
-0.04400837 7.2040644 1.1410331 3 12
-0.039704539 7.1088333 1.3818389 2 13
-0.035342209 7.2316885 1.6695868 3 14
-0.030456349 6.9797134 1.8702265 3 15
-0.0086647272 4.9648514 -1.33033 13 0
-0.0099342102 7.1129103 0.12415642 3 8
-0.0064492291 5.2791328 -1.2187848 15 1
-0.0062862574 7.2001171 0.37734228 2 9
-0.0029777458 5.6875477 -1.1055473 10 2
-0.0024706833 7.0689974 0.61845714 1 10
7.2835562e-08 6.1078653 -0.96739089 11 3
0.0024369638 6.9815693 0.85722905 1 11
0.0035920031 6.8604779 -0.84236097 12 4
0.0061762352 7.0777726 1.1210095 3 12
0.0099364063 7.1167908 1.3833653 2 13
0.014941296 7.1343222 1.6470916 3 14
0.018236579 6.9662333 1.866603 2 15
0.026065115 4.9783139 -1.3339534 12 0
0.038476009 6.8888435 0.12024708 3 8
0.030459827 5.2887936 -1.2210344 16 1
0.0436664 7.148057 0.37462083 2 9
0.03660211 5.6677971 -1.1017312 10 2
0.046989366 7.0847812 0.61985165 1 10
0.042765126 6.125494 -0.97020662 9 3
0.050970413 6.9535918 0.85381669 1 11
0.051516879 6.8642564 -0.84284848 12 4
0.059650227 7.1204739 1.3841285 2 13
0.064217314 7.0755844 1.6335946 3 14
0.067055054 6.9852538 1.8717794 2 15
0.060772453 4.9741464 -1.332918 12 0
0.086719044 6.9004045 0.12045651 3 8
0.066885278 5.2494802 -1.2120364 23 1
0.094247915 7.1995029 0.37734228 2 9
0.076536551 5.6948862 -1.1070738 10 2
0.096123844 7.0603743 0.61775988 1 10
0.085497595 6.1230712 -0.96989381 11 3
0.099688157 6.9649754 0.85527909 1 11
0.099232614 6.8498354 -0.8411423 11 4
0.10540782 7.1046481 1.1253897 3 12
0.10948306 7.1277366 1.385655 2 13
0.11536796 6.9575734 1.8645325 2 15
0.094371818 4.9600973 -1.3292947 13 0
0.13166904 6.7956896 0.11864146 3 8
0.10162552 5.198246 -1.2003388 21 1
0.14420153 7.2466187 0.37985441 2 9
0.11498348 5.6785312 -1.104021 12 2
0.14311907 7.0077648 0.61322778 1 10
0.12606938 6.0690236 -0.96144634 9 3
0.14713363 6.9661207 0.85552287 1 11
0.1468734 6.8966322 -0.84699202 11 4
0.15162453 7.0050206 1.1097462 3 12
0.15738499 7.0993466 1.3803123 2 13
0.16408454 7.175334 1.6569895 3 14
0.16281775 6.9604893 1.8655677 2 15
0.12965055 4.9844232 -1.3360239 12 0
0.17721169 6.722641 0.11738489 6 8
0.13977455 5.26754 -1.2165353 18 1
0.19210857 7.1456084 0.37462083 2 9
0.15275094 5.6089015 -1.0906643 8 2
0.19346163 7.0583777 0.61775988 1 10
0.16947459 6.1055136 -0.96739089 13 3
0.19531654 6.949049 0.85357296 1 11
0.19203977 6.7902708 -0.83407384 13 4
0.20335178 7.1025195 1.1253897 3 12
0.20717281 7.1059251 1.3818389 2 13
0.21219327 7.1077862 1.6416928 3 14
0.21181445 6.9726996 1.8691912 3 15
0.16419037 4.9756737 -1.3339534 12 0
0.22334047 6.697257 0.11696602 6 8
0.16923296 5.0482988 -1.1661462 17 1
0.24374418 7.1959925 0.37734228 2 9
0.19465774 5.6881447 -1.1063106 10 2
0.24231939 7.044908 0.616714 2 10
0.21168341 6.0923367 -0.96551365 11 3
0.24326831 6.9316449 0.85162306 1 11
0.2419591 6.8601837 -0.84284848 9 4
0.2559289 7.0807619 1.3772594 2 13
0.25908336 7.0321293 1.6245965 3 14
0.26070431 6.9768424 1.8707441 2 15
0.19861436 4.9666848 -1.331883 12 0
0.26952648 6.6815476 0.11672169 9 8
0.20873246 5.1521401 -1.190441 21 1
0.29397574 7.1941156 0.37734228 2 9
0.23323195 5.6591849 -1.100968 10 2
0.29133144 7.0390635 0.61636543 1 10
0.25503451 6.1104465 -0.96864235 11 3
0.29499331 7.0091114 0.86137259 1 11
0.28523621 6.7492442 -0.8294428 11 4
0.30367675 7.1266179 1.1297698 3 12
0.30636761 7.1023397 1.3818389 2 13
0.31243768 7.1274934 1.6470916 3 14
0.30872393 6.9594131 1.866603 2 15
0.23382753 4.9767561 -1.3349887 11 0
0.31730047 6.7034726 0.11714055 13 8
0.24469608 5.1505575 -1.190441 17 1
0.34648439 7.2397671 0.37985441 2 9
0.2743392 5.6907554 -1.1074555 8 2
0.34123653 7.0527782 0.61775988 1 10
0.29836035 6.1223288 -0.97083241 9 3
0.34099942 6.9474001 0.85406041 1 11
0.33889136 6.8799291 -0.84577334 9 4
0.3539778 7.0608115 1.3742064 2 13
0.35724607 7.0278263 1.6245965 3 14
0.35601413 6.9320068 1.8598738 3 15
0.26804543 4.9653563 -1.3324004 13 0
0.36267829 6.675137 0.11668679 16 8
0.27513242 5.0475392 -1.1670461 21 1
0.395484 7.2092524 0.378389 2 9
0.31492999 5.7043834 -1.1105084 8 2
0.38936082 7.0303311 0.61601681 1 10
0.33988583 6.0984011 -0.96739089 13 3
0.390827 6.9686346 0.85698533 1 11
0.39003611 6.9328899 -0.85259801 15 4
0.40315109 7.1216836 1.1297698 3 12
0.40371093 7.066009 1.375733 2 13
0.41192338 7.1224365 1.6470916 3 14
0.40563476 6.9505668 1.8655677 2 15
0.30234846 4.9575796 -1.3308476 12 0
0.40878096 6.6644583 0.11654717 16 8
0.31754053 5.1621995 -1.1940402 18 1
0.44457465 7.1863813 0.37734228 2 9
0.34609109 5.5629239 -1.0834136 10 2
0.43669873 6.9996018 0.61357641 1 10
0.38208133 6.0899653 -0.96645224 15 3
0.43846449 6.9498863 0.85503536 1 11
0.42564297 6.7279229 -0.82773668 12 4
0.44483036 6.9925265 1.1097462 3 12
0.45076573 7.0277519 1.3688638 2 13
0.45566112 6.9706988 1.8717794 2 15
0.33747575 4.9630575 -1.332918 12 0
0.45707354 6.6873775 0.11700094 22 8
0.35969993 5.249289 -1.2147356 17 1
0.49802786 7.2309232 0.37985441 2 9
0.39359376 5.6857204 -1.1078371 10 2
0.48610631 7.004333 0.61427367 1 10
0.42582211 6.1048841 -0.96926802 13 3
0.48641786 6.938735 0.85406041 1 11
0.48331472 6.8772635 -0.84650451 11 4
0.50205052 7.0557666 1.3749697 2 13
1.1435984 15.993162 -0.84030622 8 6
0.51831222 7.2131767 1.6695868 3 14
0.5004096 6.9133968 1.8572855 2 15
0.37240762 4.9644337 -1.3339534 12 0
0.50344533 6.6800356 0.11693113 22 8
0.39017537 5.1650357 -1.1958399 18 1
0.54093653 7.1276932 0.37462083 2 9
0.43148693 5.6593432 -1.1032577 10 2
0.53802681 7.0405006 0.61775988 1 10
0.46949035 6.1155505 -0.9714582 15 3
0.53332436 6.9153776 0.85162306 1 11
0.5253489 6.7965341 -0.83699876 15 4
0.5516029 7.056004 1.375733 2 13
0.55516708 7.0540628 1.6335946 3 14
0.5495795 6.9212894 1.8603914 2 15
0.40626463 4.9520855 -1.3313652 13 0
0.54873949 6.6744614 0.11689622 22 8
0.43648481 5.2864823 -1.2246336 15 1
0.59569913 7.1994839 0.37859833 2 9
0.46869838 5.6406231 -1.1002047 10 2
0.5881598 7.0484858 0.61880577 1 10
0.51209438 6.1240234 -0.97333533 15 3
0.58204144 6.9313688 0.85406041 1 11
0.57845926 6.8599544 -0.84528583 9 4
0.59594369 7.0526414 1.1210095 3 12
0.60642606 7.1469202 -0.62752134 8 5
0.60184962 7.0637183 1.3780226 2 13
0.60506606 7.0577817 1.6353942 3 14
0.59734267 6.9250879 1.862462 2 15
0.43962097 4.9453573 -1.33033 13 0
0.59603363 6.6784344 0.11703584 22 8
0.47107017 5.2678609 -1.2210344 19 1
0.50912333 5.6489453 -1.1024945 12 2
0.63791567 7.0641623 0.6205489 1 10
0.55216044 6.0907898 -0.96864235 13 3
0.63005745 6.9231825 0.85357296 1 11
0.61864763 6.7846904 -0.83651125 15 4
0.64307433 6.9851689 1.3635212 2 13
0.65684062 7.0805516 1.6416928 3 14
0.64638883 6.928443 1.8645325 2 15
0.47542444 4.9556289 -1.3339534 12 0
0.64187676 6.6661487 0.11689622 22 8
0.50783277 5.2644439 -1.2210344 15 1
0.54911762 5.6511159 -1.1036394 14 2
0.68412864 7.0278082 0.61775988 1 10
0.59332418 6.0730247 -0.96645224 15 3
0.68109035 6.9462743 0.85698533 1 11
0.6491158 6.6083302 -0.81530601 11 4
0.71242785 7.2012033 -0.63309932 8 5
0.69492567 7.0117679 1.3696271 2 13
0.70277238 7.0408897 1.6335946 3 14
0.6955142 6.9314499 1.866603 2 15
0.50842869 4.9368153 -1.3298123 12 0
0.68881071 6.6654835 0.11696602 22 8
0.54457569 5.2607703 -1.2210344 18 1
0.73850328 7.1099396 0.37462083 2 9
0.59119946 5.6725297 -1.1086004 12 2
0.7381404 7.0704198 0.62194335 1 10
0.62891328 6.003902 -0.95612758 16 3
0.73246956 6.9689894 0.86039764 1 11
0.68483955 6.5049286 -0.803119 11 4
0.74351352 7.0386138 1.1210095 3 12
0.74800199 7.0457911 1.3772594 2 13
0.75523031 7.0785732 1.6434923 3 14
0.74203461 6.9091377 1.8619443 3 15
0.5437271 4.9408264 -1.331883 12 0
0.735699 6.6745543 0.11721037 26 8
0.58214623 5.2645879 -1.222834 16 1
0.62936658 5.6644707 -1.1078371 14 2
0.77776879 6.9779687 0.61427367 1 10
0.67502892 6.046598 -0.9636364 11 3
0.77414155 6.9125504 0.85406041 1 11
0.75882798 6.7544651 -0.83456135 12 4
0.79628915 7.0325947 1.375733 2 13
0.79978383 7.0305309 1.6335946 3 14
0.78970134 6.9096856 1.8634971 2 15
0.57667017 4.9312553 -1.33033 13 0
0.78367591 6.6811714 0.11741979 26 8
0.61841989 5.2643743 -1.2237337 17 1
0.83646339 7.0990815 0.37462083 2 9
0.66843313 5.6560397 -1.1070738 12 2
0.82993531 7.0120845 0.61775988 1 10
0.72025287 6.0672388 -0.9677037 15 3
0.82285404 6.9109192 0.85454792 1 11
0.81418836 6.8279881 -0.84431088 12 4
0.838144 7.0080795 1.1178808 3 12
0.83852035 6.9802299 1.366574 2 13
0.85913289 7.109901 1.6533903 3 14
0.83652419 6.8924971 1.8603914 2 15
0.61108512 4.9271088 -1.33033 13 0
0.82684159 6.6477566 0.11693113 26 8
0.65564132 5.2637959 -1.2246336 15 1
0.89541107 7.1683793 0.37859833 2 9
0.70839149 5.6551318 -1.1078371 12 2
0.87886864 7.0061197 0.61775988 1 10
0.7620967 6.0581431 -0.96707797 15 3
0.87058437 6.9010673 0.85406041 1 11
0.86531675 6.8497105 -0.84772325 13 4
0.8877266 6.9781008 1.3673373 2 13
0.90281379 7.0573382 1.6425927 3 14
0.88265347 6.8711605 1.8562503 2 15
0.645468 4.9227223 -1.33033 13 0
0.87609887 6.6636305 0.11731508 29 8
0.69135612 5.2513623 -1.222834 14 1
0.942294 7.1381931 0.37734228 2 9
0.74837244 5.6539407 -1.1086004 10 2
0.9298501 7.015615 0.61915439 1 10
0.80775774 6.0781302 -0.97114527 11 3
0.92005271 6.9046593 0.85527909 1 11
0.89342827 6.6959276 -0.8294428 5 4
0.92910069 6.9447875 1.1097462 3 12
0.93694401 6.9756246 1.3681006 2 13
0.94163048 6.9736147 1.6245965 3 14
0.93397534 6.8897176 1.8629795 3 15
0.6798169 4.9180965 -1.33033 13 0
0.92369646 6.6652756 0.1174547 35 8
0.7279982 5.246408 -1.222834 14 1
0.79162288 5.6758003 -1.113943 10 2
0.97494781 6.9813266 0.616714 1 10
0.85181481 6.0840807 -0.97302246 13 3
0.96767873 6.8941374 0.85479164 1 11
0.95590043 6.8015766 -0.84333593 4 4
0.99316078 7.0310793 -0.6212461 8 5
0.99276495 7.0194554 1.3780226 2 13
1.0001653 7.0363274 1.640793 3 14
0.98450774 6.9002414 1.8676383 2 15
0.71830326 4.9419069 -1.3380945 8 0
0.96905613 6.6507487 0.11731508 39 8
0.76516986 5.2450542 -1.2237337 21 1
1.0418711 7.1243405 0.37734228 2 9
0.82780826 5.6468258 -1.1093636 10 2
1.0196155 6.9467516 0.61427367 1 10
0.89282835 6.0682154 -0.9714582 15 3
1.015206 6.883286 0.85430413 1 11
0.98711854 6.6847649 -0.82968652 9 4
1.0313601 6.9424438 1.3642844 2 13
1.0376884 6.959969 1.6245965 3 14
1.0326532 6.8932009 1.8676383 2 15
0.74666899 4.896667 -1.3272241 11 0
1.0143008 6.6439986 0.11731508 39 8
0.80530584 5.2627006 -1.2291325 19 1
1.093362 7.136826 0.378389 2 9
0.86860973 5.6565847 -1.1124165 10 2
1.0765712 6.9946027 0.61915439 2 10
0.92599005 6.009284 -0.96301067 22 3
1.0723379 6.9429188 0.86259133 1 11
1.0340667 6.6796727 -0.82993031 11 4
1.0936997 7.0243087 1.3818389 2 13
1.0952809 7.0103168 1.6380936 3 14
1.0771594 6.8707428 1.8634971 2 15
0.78120142 4.8991017 -1.3292947 11 0
1.0612911 6.6407051 0.11738489 42 8
0.83895427 5.2436271 -1.2259833 23 1
1.1431597 7.1290188 0.378389 2 9
0.90620995 5.6387525 -1.1101269 12 2
1.1228912 6.9792438 0.61845714 1 10
0.97609621 6.0533776 -0.97114527 16 3
1.111915 6.8803921 0.85576659 1 11
1.0839483 6.6999135 -0.83334261 11 4
1.1214395 6.9163342 1.1097462 3 12
1.1313964 6.9546928 1.3696271 2 13
1.1250968 6.8630562 1.8634971 2 15
0.81570208 4.8954339 -1.3298123 12 0
1.1082817 6.6370797 0.1174547 42 8
0.87714773 5.2472525 -1.2282327 19 1
0.94620389 5.6361609 -1.11089 12 2
1.1775321 7.0066018 0.62159473 2 10
1.0170207 6.0386243 -0.96989381 16 3
1.1619042 6.8842063 0.85722905 1 11
1.1340033 6.7117567 -0.83578002 11 4
1.1818943 6.9582381 1.3719168 2 13
1.1956722 7.0097089 1.6416928 3 14
1.1729825 6.8550344 1.8634971 2 15
0.85283375 4.9067507 -1.334471 11 0
1.1552796 6.6331196 0.1175245 42 8
0.91442603 5.2448411 -1.2291325 21 1
0.98823696 5.6448884 -1.113943 10 2
1.2195402 6.958961 0.61810851 2 10
1.0581285 6.0255399 -0.96895516 15 3
1.2099335 6.8759274 0.85722905 1 11
1.1835874 6.719316 -0.83772999 5 4
1.2359194 6.9807482 1.3780226 2 13
1.2357121 6.9513054 1.6299953 3 14
1.2214893 6.850482 1.8645325 2 15
0.88741273 4.9025784 -1.3349887 12 0
1.2022731 6.628828 0.11759432 45 8
0.95345873 5.2517505 -1.2322818 14 1
1.0248027 5.6224012 -1.11089 10 2
1.2738152 6.981638 0.62089753 2 10
1.0934166 5.9810863 -0.96301067 16 3
1.2557644 6.8555965 0.85576659 1 11
1.2050468 6.5722594 -0.8204245 9 4
1.2796435 6.9449191 1.3726799 2 13
1.2266773 6.644444 -0.35410511 11 6
1.2721008 6.8569837 1.8686736 2 15
0.9189778 4.8869309 -1.3324004 11 0
1.2347748 6.5536776 0.11640756 61 8
0.98845959 5.2413096 -1.2313821 14 1
1.2277976 6.4979453 0.34656873 33 9
1.0667039 5.6345844 -1.1147063 10 2
1.3175952 6.9532304 0.61915439 1 10
1.1326323 5.9657412 -0.96175921 16 3
1.3083318 6.8780928 0.85966641 1 11
1.2460451 6.5444036 -0.81798708 23 4
1.2495801 6.5443201 -0.5828976 63 5
1.3246698 6.9244785 1.3703903 2 13
1.2500703 6.5221696 -0.34803414 34 6
1.3353646 6.9606338 1.6362939 3 14
1.2527494 6.5176873 -0.11584908 70 7
1.3194792 6.8519588 1.8697089 2 15
0.95455372 4.8879805 -1.334471 11 0
1.2747524 6.5215702 0.11598869 100 8
1.0261502 5.2400184 -1.2327318 16 1
1.2743043 6.5011969 0.34719676 30 9
1.1004903 5.6040759 -1.1101269 12 2
1.3753397 6.9907799 0.62333786 1 10
1.1755008 5.9695234 -0.9636364 13 3
1.3535857 6.8612375 0.85869151 1 11
1.2963189 6.5589151 -0.820912 38 4
1.3597357 6.8734579 1.1097462 3 12
1.2944601 6.5315294 -0.58254898 63 5
1.3722149 6.9112105 1.3696271 2 13
1.299105 6.5370178 -0.34929019 35 6
1.3816433 6.9396744 1.6335946 3 14
1.2966564 6.5009384 -0.11570945 67 7
1.3630629 6.8276629 1.8655677 2 15
0.99048525 4.8946238 -1.3380945 12 0
1.3432943 6.6261811 0.11801317 67 8
1.0563689 5.2061744 -1.2264332 17 1
1.1411544 5.6039515 -1.1116532 14 2
1.4181145 6.95783 0.6212461 1 10
1.1499697 5.6321445 -0.91044867 7 3
1.3990631 6.839952 0.85722905 1 11
1.4315158 6.9553041 1.3803123 2 13
1.4339995 6.9489441 1.6380936 3 14
1.4138272 6.8331151 1.8697089 2 15
1.0254849 4.8874106 -1.3380945 13 0
1.3944527 6.6401262 0.11843203 64 8
1.0935965 5.198482 -1.2264332 17 1
1.1810598 5.59969 -1.1124165 14 2
1.4695147 6.9553008 0.62194335 1 10
1.181651 5.5831885 -0.90387845 9 3
1.4517173 6.8533216 0.86015391 1 11
1.4545214 6.8547568 -0.86039764 3 4
1.4726695 6.9105797 1.3734432 2 13
1.4702624 6.8815913 1.6245965 3 14
1.4630926 6.8247118 1.8702265 3 15
1.0563015 4.8650298 -1.3339534 15 0
1.4436325 6.6377935 0.11857165 64 8
1.1273751 5.1792955 -1.2237337 20 1
1.5500118 7.1089983 0.38131982 2 9
1.2219378 5.5949311 -1.1131797 12 2
1.5231415 6.9682293 0.62403512 1 10
1.2784826 5.8391671 -0.94674152 18 3
1.5058244 6.8660259 0.86307877 1 11
1.2074057 5.5007544 -0.69148672 3 4
1.5156054 6.893374 1.1178808 3 12
1.5276399 6.9308057 1.3795491 2 13
1.5342432 6.9434681 1.6416928 3 14
1.5102842 6.8124452 1.8697089 2 15
1.0940477 4.8745012 -1.3386122 13 0
1.4870281 6.6200094 0.11843203 74 8
1.1639338 5.1732001 -1.2241837 23 1
1.2595611 5.584569 -1.1127981 17 2
1.5717485 6.957427 0.62403512 1 10
1.3173276 5.8264756 -0.94611579 11 3
1.543753 6.8168964 0.85820401 1 11
1.5575527 6.8666902 -0.86454117 5 4
1.5725011 6.9046574 1.3764962 2 13
1.5826803 6.9325881 1.6416928 3 14
1.5609266 6.8208399 1.8748853 2 15
1.119356 4.833065 -1.3292947 14 0
1.5341121 6.6133628 0.11850184 67 8
1.2048488 5.1898355 -1.2300324 21 1
1.3060856 5.6081452 -1.1192856 14 2
1.6154553 6.9310441 0.62264061 1 10
1.3947926 5.9748778 -0.971771 13 3
1.596733 6.8291478 0.86112887 1 11
1.5676185 6.6993666 -0.84479833 8 4
1.6212591 6.9014392 1.3780226 2 13
1.6310371 6.9213705 1.6416928 3 14
1.6111747 6.8210559 1.8779911 2 15
1.1611521 4.8589535 -1.3386122 14 0
1.5830344 6.614161 0.11871127 67 8
1.2405972 5.1794014 -1.2295824 23 1
1.3438301 5.593164 -1.1181407 14 2
1.6721846 6.9544668 0.6257782 1 10
1.4286118 5.9323463 -0.96645224 15 3
1.6462322 6.8255534 0.86210382 1 11
1.6208746 6.7152743 -0.84821075 9 4
1.6804962 6.9357452 1.3871815 2 13
1.6728779 6.8833036 1.6353942 3 14
1.656009 6.7983809 1.8748853 2 15
1.1922708 4.8394747 -1.3355063 15 0
1.6330036 6.6184797 0.11899051 64 8
1.2818623 5.1914268 -1.2345314 18 1
1.7639284 7.1330514 0.385088 2 9
1.3861513 5.5969849 -1.1208121 12 2
1.7101505 6.9000778 0.62194335 1 10
1.4718959 5.9298964 -0.9677037 15 3
1.6928824 6.8100419 0.86161631 1 11
1.7108471 6.8771687 -0.87014717 2 4
1.7177531 6.8946691 1.1253897 3 12
1.7193636 6.8857493 1.3795491 2 13
1.710955 6.8166337 1.8831675 2 15
1.2307798 4.8497581 -1.3406827 17 0
1.6801546 6.6107941 0.11906032 64 8
1.315192 5.1710196 -1.231832 20 1
1.4290714 5.6023912 -1.123865 10 2
1.7661685 6.9188576 0.62473232 1 10
1.5352722 6.0055995 -0.98178285 16 3
1.7502308 6.8365183 0.86649108 1 11
1.7386179 6.7862148 -0.86015391 5 4
1.7889017 6.9572401 1.3963403 2 13
1.7882859 6.9347558 1.6533903 3 14
1.755119 6.7914305 1.879544 1 15
1.2626543 4.833571 -1.3386122 15 0
1.729302 6.6105103 0.11926974 66 8
1.3542216 5.1730232 -1.2345314 21 1
1.8633503 7.107728 0.385088 2 9
1.4621662 5.5694904 -1.1192856 14 2
1.8215158 6.9333367 0.62717271 1 10
1.5771617 5.9947352 -0.98178285 16 3
1.7948816 6.8126159 0.86502868 2 11
1.8016374 6.8334169 -0.86770982 3 4
1.8253801 6.8990302 1.3871815 2 13
1.8046675 6.8015547 1.6245965 3 14
1.793054 6.7435398 1.8697089 2 15
1.2983733 4.8321009 -1.3406827 13 0
1.7733318 6.5905528 0.11913013 60 8
1.3953723 5.1822591 -1.2390305 16 1
1.9129261 7.0945463 0.385088 2 9
1.5051073 5.5743108 -1.1223387 14 2
1.8709111 6.9242988 0.62752134 1 10
1.6127832 5.9606962 -0.97802842 13 3
