# .PCD v0.7 - Point Cloud Data file format
VERSION 0.7
FIELDS x y z intensity ring
SIZE 4 4 4 4 2
TYPE F F F F U
COUNT 1 1 1 1 1
WIDTH 1351
HEIGHT 1
VIEWPOINT 0 0 0 1 0 0 0
POINTS 1351
DATA ascii
2.7527502 3.854944 1.2692486 1 15
2.4417038 3.4004972 -1.1217217 25 0
2.7777255 3.8670373 0.083108358 1 8
2.423897 3.3719704 -0.95874137 42 1
2.7880235 3.8770883 0.25027055 1 9
2.4276755 3.3734951 -0.80788535 38 2
2.7734447 3.8511434 0.41520998 1 10
2.4282773 3.3706074 -0.65796345 26 3
2.4222529 3.3585367 -0.50843894 15 4
2.4276764 3.3611085 -0.36274219 28 5
2.7963376 3.870095 0.92809504 2 13
2.4693124 3.4149845 -0.22085775 48 6
2.4447999 3.3773596 -0.072776534 6 7
2.7789261 3.836117 1.2692486 1 15
2.530158 3.4748075 -1.1517448 25 0
2.8110476 3.8577385 0.083317786 1 8
2.8284726 3.8773851 0.25152662 1 9
2.8137 3.8514802 0.41730168 1 10
2.5129383 3.4385285 -0.67454553 23 3
2.807297 3.8314776 -0.41555858 4 5
2.8325748 3.8631444 0.93114793 2 13
2.5190878 3.4330885 -0.22316055 52 6
2.8262355 3.8446407 1.2785661 1 15
2.5572565 3.4597189 -1.1527801 23 0
2.8694999 3.8793242 0.084225312 1 8
2.7982011 3.7815502 -1.0860636 3 1
2.851392 3.8506255 0.25110796 1 9
2.8181922 3.8030152 -0.92008096 3 2
2.8411884 3.8312473 0.41730168 1 10
2.5421872 3.4268038 -0.67579699 22 3
6.7064476 9.0269547 -1.3807799 3 4
2.8833549 3.8796101 0.76559031 3 12
2.8441548 3.8240807 -0.41695309 4 5
2.8882787 3.880574 0.94030684 2 13
2.5507476 3.4245846 -0.22378856 42 6
2.8444304 3.811933 1.274425 1 15
2.6004982 3.4660554 -1.1610622 25 0
2.8755744 3.8299069 0.083597034 1 8
2.8556185 3.8019423 -1.0977612 4 1
2.9028738 3.8620536 0.2532014 1 9
2.8618562 3.8047171 -0.92542368 3 2
2.8678644 3.8113201 0.41730168 1 10
2.5785246 3.4243062 -0.67892563 20 3
6.8314419 9.0623436 -1.3934542 2 4
2.8916366 3.8289814 0.93267435 2 13
2.5914514 3.429003 -0.22525398 42 6
2.8919654 3.8197048 1.2837424 1 15
2.6316516 3.4570405 -1.1641681 34 0
2.9216304 3.8351896 0.0841555 1 8
2.8773649 3.7757154 -1.0959616 2 1
2.9321871 3.8448694 0.25341073 1 9
2.8931146 3.7908859 -0.92695016 3 2
2.9475999 3.8608854 0.4249714 1 10
2.6155612 3.4234862 -0.68236721 18 3
6.9741406 9.118494 -1.409541 2 4
2.9851596 3.8973756 -0.4295035 4 5
2.9469535 3.8461039 0.94183326 2 13
2.6177573 3.4139969 -0.22546332 42 6
2.9279761 3.8116779 1.2878836 1 15
2.6746159 3.4630466 -1.1724503 36 0
2.958117 3.8273571 0.084434748 1 8
2.920342 3.7771189 -1.1022601 2 1
2.9687359 3.8369427 0.25424811 1 9
2.9387386 3.7954345 -0.93305606 3 2
2.9598415 3.8213112 0.42287967 2 10
2.6418171 3.408267 -0.68299294 19 3
7.0875201 9.1338882 -1.4195342 2 4
2.9857817 3.8409367 0.94564945 2 13
2.6464345 3.401943 -0.22588199 42 6
2.9723258 3.8140018 1.2956481 1 15
2.7046847 3.4518933 -1.1750386 30 0
3.0161743 3.848053 0.085342273 1 8
2.9538565 3.7658391 -1.1049596 2 1
3.0095799 3.8355019 0.25550416 1 9
2.9645052 3.7753432 -0.93305606 3 2
2.9790609 3.7911551 0.42183378 1 10
2.6771626 3.4057357 -0.68612164 19 3
7.1425185 9.073266 -1.4178281 2 4
3.0345516 3.8534598 0.77685362 3 12
3.0065489 3.8151596 -0.4249714 4 5
3.027112 3.8384967 0.95022881 2 13
2.6843727 3.4026682 -0.22713807 44 6
2.9994183 3.7951961 1.2961658 1 15
2.7305219 3.4364278 -1.1760738 28 0
3.0404763 3.823772 0.085272454 1 8
2.9939787 3.763947 -1.1103585 2 1
3.0387709 3.8175228 0.25571349 1 9
2.9981277 3.7637703 -0.93534577 3 2
3.0470138 3.8237674 0.42776039 1 10
2.7107267 3.3993182 -0.68862462 19 3
2.9964862 3.7522907 -0.58960396 1 4
3.0654569 3.8345392 -0.4295035 4 5
3.0342133 3.7927415 0.94412297 2 13
2.720542 3.3994389 -0.22818479 38 6
3.0367138 3.7877297 1.3008245 1 15
2.769594 3.4348471 -1.1822854 32 0
3.0771391 3.8149054 0.085551701 1 8
2.6413953 3.2723482 -0.97088867 2 1
3.0886014 3.8236468 0.25759763 1 9
2.5455723 3.1502595 -0.787278 4 2
3.0968478 3.829752 0.43089798 1 10
2.5237374 3.1187847 -0.63543689 13 3
2.507802 3.0957758 -0.4891836 19 4
3.1683369 3.9083843 0.79687726 3 12
3.0952568 3.8141508 0.95480824 2 13
2.7636845 3.4031403 -0.22975488 42 6
3.091783 3.8003683 1.3127302 1 15
2.5782447 3.1522427 -1.0911812 16 0
3.0790277 3.7618394 0.084853604 1 8
2.5246713 3.0834467 -0.92004979 15 1
3.1455982 3.8390701 0.26010972 1 9
2.5369294 3.0940087 -0.7777375 17 2
3.1386697 3.8265259 0.43298975 1 10
2.626915 3.2003353 -0.6557734 33 3
7.2944221 8.8772154 -1.4107596 2 4
3.1955454 3.8861701 0.79687726 3 12
3.1649318 3.8462067 -0.43577868 4 5
3.1392772 3.8136694 0.9601509 2 13
2.7924533 3.3899307 -0.23017356 42 6
3.1256151 3.7876329 1.3158361 1 15
2.8111131 3.3884099 -1.1796973 25 0
3.1767464 3.8264117 0.086808272 1 8
3.100184 3.7328658 -1.1202562 3 1
3.1774297 3.8231599 0.26052842 1 9
3.1346881 3.7690518 -0.95290023 3 2
3.152565 3.7892046 0.43124664 2 10
2.8210876 3.3883781 -0.69832355 23 3
3.2618263 3.9149685 0.62567729 1 11
7.368928 8.8413229 -1.413197 2 4
3.1457474 3.7689505 -0.4295035 4 5
3.201055 3.8338583 0.97083622 2 13
2.8288591 3.3856783 -0.23122028 40 6
3.179261 3.7983105 1.3272241 1 15
2.8745031 3.416003 -1.1962616 38 0
3.2033839 3.8041391 0.086808272 1 8
3.1362128 3.7230551 -1.1238555 3 1
3.2169173 3.816153 0.26157513 1 9
4.8116407 5.7039003 -1.4505301 3 2
3.1943626 3.7853734 0.43333834 1 10
2.8548684 3.3806758 -0.70082647 23 3
7.4445658 8.8063421 -1.4158782 2 4
3.2378924 3.8234029 0.97388911 2 13
2.8717959 3.3887024 -0.23279037 35 6
3.193198 3.7612956 1.3220477 1 15
2.9032974 3.4017293 -1.1983322 36 0
3.2714205 3.8303425 0.087925225 1 8
3.1697233 3.709959 -1.126555 3 1
3.2538624 3.8057482 0.26241252 1 9
3.197216 3.7368524 -0.95595312 3 2
3.2258918 3.7690365 0.43403557 1 10
2.8963907 3.3816671 -0.70520669 23 3
3.3161719 3.8690426 0.62567729 1 11
7.4968195 8.7436056 -1.4141719 2 4
3.2747414 3.8126178 0.97694212 2 13
2.9005911 3.3746293 -0.23320904 39 6
3.2370243 3.7594078 1.3292947 1 15
2.9491391 3.4081841 -1.2076497 33 0
3.2895627 3.7989156 0.08771579 1 8
3.2331805 3.7324862 -1.140052 2 1
3.2953901 3.8016212 0.26366857 1 9
4.8306503 5.5687966 -1.4329756 3 2
3.2854233 3.7861164 0.43856767 1 10
2.9271126 3.3708222 -0.70708382 22 3
3.3424289 3.8463821 0.62567729 1 11
7.5652781 8.7028608 -1.4158782 2 4
3.2903011 3.7783961 0.97388911 2 13
2.9366157 3.3698649 -0.23425576 33 6
3.2841384 3.7620258 1.3380945 1 15
2.9856033 3.4020321 -1.2128261 38 0
3.3390923 3.8034861 0.088344082 1 8
3.2668765 3.7186077 -1.1427513 2 1
3.3343754 3.7941048 0.26471528 1 9
4.8347349 5.4974561 -1.4230535 3 2
3.3328359 3.7870183 0.44135666 1 10
2.9578216 3.3597164 -0.70896107 22 3
3.3685334 3.8235416 0.62567729 1 11
7.6744237 8.7049274 -1.4248965 2 4
3.3803079 3.8301637 -0.44693464 4 5
3.3243964 3.7641623 0.97617888 2 13
2.9647737 3.3557863 -0.23467445 37 6
3.313509 3.743926 1.3396474 1 15
3.016396 3.3902907 -1.215932 37 0
3.3655641 3.780082 0.088344082 1 8
3.3050735 3.7108371 -1.1472504 3 1
3.3528085 3.7617877 0.26408726 1 9
4.9540143 5.5544114 -1.4467138 3 2
3.3558836 3.7612715 0.44100806 1 10
2.998306 3.3581419 -0.71302837 20 3
3.3951445 3.7999318 0.62567729 1 11
7.7321715 8.6510115 -1.4246527 2 4
3.4516199 3.859072 0.82002956 4 12
3.3735142 3.7677746 0.98304802 2 13
3.0094538 3.3588068 -0.23634921 35 6
3.3460195 3.7278888 1.3422357 1 15
3.0606976 3.3920979 -1.2242141 37 0
3.3992558 3.7659924 0.088553511 1 8
3.3465741 3.7050261 -1.1526492 3 1
3.4265411 3.7922277 0.26785544 1 9
4.9811764 5.5089097 -1.443661 3 2
3.3874056 3.7436624 0.44170532 1 10
3.0396552 3.3581574 -0.7174086 20 3
3.4209294 3.7767351 0.62567729 1 11
7.8283782 8.636528 -1.4312336 2 4
3.3796158 3.7272007 0.79687726 3 12
3.447248 3.7964559 0.9967863 2 13
3.0389614 3.3456364 -0.23687255 32 6
3.3934178 3.7293186 1.3510355 1 15
3.0941458 3.3825912 -1.2283553 36 0
3.4551685 3.7746198 0.089321412 1 8
3.3861907 3.6979721 -1.1575981 3 1
3.4799192 3.7976646 0.2699489 1 9
5.0035892 5.4566383 -1.4390815 3 2
3.46399 3.7763097 0.44832912 1 10
3.063024 3.3368561 -0.7174086 21 3
7.9165287 8.615202 -1.4365959 2 4
3.4584663 3.7597401 -0.44693464 4 5
3.4996028 3.8017921 1.0044186 2 13
3.0771291 3.3404977 -0.23802395 41 6
3.4612944 3.7509694 1.3676 1 15
3.1465909 3.3920653 -1.2397434 23 0
3.4916618 3.7627423 0.08960066 1 8
3.4304914 3.6942322 -1.1638968 6 1
3.5056868 3.7738912 0.2699489 1 9
5.0005178 5.3793135 -1.4276329 3 2
3.4984095 3.7607889 0.449375 1 10
3.1045074 3.3361733 -0.7217887 20 3
3.521378 3.781508 0.63445187 1 11
7.9967813 8.5815086 -1.4402521 2 4
3.4697917 3.7169921 0.98839068 2 13
3.1270576 3.3486717 -0.2401174 42 6
3.4907053 3.7315545 1.3691529 1 15
3.2344534 3.4395292 -1.2651075 17 0
3.5370312 3.7586617 0.090089321 1 8
3.4515488 3.6665409 -1.162547 3 1
3.5675547 3.7871234 0.27267036 1 9
5.0379481 5.344275 -1.4276329 3 2
3.5184615 3.7310889 0.44867775 1 10
3.1494148 3.3374054 -0.72679466 20 3
8.112401 8.5846224 -1.4502453 2 4
3.5523434 3.7525594 1.0044186 2 13
3.1668406 3.3441598 -0.24137343 44 6
3.5219896 3.7127004 1.3712233 1 15
3.4163315 3.5812395 -1.3261888 17 0
3.6184075 3.7917445 0.091485515 1 8
3.492502 3.6572506 -1.167496 7 1
3.5807648 3.7470577 0.27162364 1 9
5.0751357 5.3089728 -1.4276329 3 2
3.5891411 3.7518885 0.45425573 1 10
3.1882422 3.3304796 -0.73023617 21 3
3.5930552 3.7520452 0.63786417 1 11
8.1886177 8.5449772 -1.4531702 2 4
3.6056447 3.7559953 1.012051 2 13
3.2045264 3.3358164 -0.24242018 41 6
3.5618622 3.7013221 1.3763998 1 15
3.3928952 3.5073161 -1.3075538 17 0
3.6371045 3.7571321 0.091276079 1 8
3.2942646 3.4017937 -1.0932621 4 1
3.6290772 3.7449148 0.27329838 1 9
3.5931745 3.7052808 -1.0032737 3 2
3.6152487 3.7267385 0.45425573 1 10
3.2389321 3.3364892 -0.73649353 20 3
3.619812 3.7262378 0.63786417 1 11
8.2923393 8.5331612 -1.4609698 2 4
3.6453514 3.7485991 0.82816416 4 12
3.6399951 3.7391722 1.0143408 2 13
3.250035 3.3362529 -0.24409491 42 6
3.5957096 3.6846631 1.3795056 1 15
3.4632938 3.5304344 -1.3251536 11 0
3.6569901 3.7265809 0.091136463 1 8
3.2919891 3.3522959 -1.0847139 8 1
3.6656797 3.7315259 0.27413577 1 9
5.1350002 5.2235966 -1.4238168 3 2
3.6411765 3.7014103 0.45425573 1 10
3.2781932 3.3312628 -0.74024802 21 3
3.6645918 3.7213137 0.64127654 4 11
8.3740034 8.4976835 -1.4648696 2 4
3.6763301 3.7293262 0.82941562 4 12
3.6798053 3.727639 1.0181569 2 13
3.278281 3.3197398 -0.24451362 38 6
3.6478806 3.6875684 1.3898584 1 15
3.4926951 3.5122564 -1.3272241 14 0
3.7280529 3.7463198 0.092253424 1 8
3.3078589 3.3229036 -1.0824645 14 1
3.7057352 3.7199955 0.27518249 1 9
5.1658015 5.1820564 -1.4222903 3 2
3.7141199 3.7245066 0.46018231 1 10
3.3013718 3.3082938 -0.74024802 18 3
3.7185361 3.7237325 0.6461513 1 11
8.5003958 8.509304 -1.4768128 2 4
3.6925001 3.6937902 0.82722551 8 12
3.7537832 3.7524741 -0.46436578 4 5
3.7162008 3.7136083 1.0212098 2 13
3.3169231 3.3122962 -0.245665 35 6
3.6899521 3.6783798 1.3960699 1 15
3.5514219 3.5217962 -1.3401651 12 0
3.7228675 3.689235 0.091485515 1 8
3.3392818 3.3079598 -1.085164 25 1
3.7855525 3.7474277 0.27916002 2 9
5.2074356 5.1513882 -1.4238168 3 2
3.7853653 3.7433169 0.46576029 1 10
3.3496783 3.3101578 -0.74587959 22 3
3.7896407 3.7423158 0.65395093 1 11
8.585022 8.4748535 -1.4812001 2 4
3.7674177 3.7164762 0.83817595 8 12
3.7728004 3.7178905 1.0296054 2 13
3.3470817 3.2960658 -0.24618836 40 6
3.748606 3.6850326 1.4084933 1 15
3.5455356 3.4672017 -1.3287771 12 0
3.7943003 3.7078767 0.092602469 1 8
3.3776276 3.2995458 -1.0901128 41 1
3.8001907 3.7097454 0.27832264 4 9
5.2432723 5.1149082 -1.4238168 3 2
3.7586286 3.6653309 0.45931077 6 10
3.3840239 3.2977211 -0.74838257 22 3
3.8384275 3.7379286 0.65785074 1 11
8.6582031 8.4285603 -1.4836376 2 4
3.7989335 3.6955955 0.83942741 4 12
3.8072391 3.701086 -0.46454012 4 5
3.8240075 3.7160888 1.0364745 2 13
3.3814738 3.2837501 -0.24702574 31 6
3.8019829 3.6856654 1.4188461 1 15
3.5682642 3.4410241 -1.3282595 14 0
3.8460124 3.706274 0.093230762 1 8
3.4216344 3.2961636 -1.0968614 30 1
3.8274362 3.6845098 0.2784273 14 9
5.2929997 5.0917921 -1.4276329 3 2
3.831517 3.6845751 0.46506307 1 10
3.4183569 3.2849674 -0.75088555 22 3
3.8644314 3.7110386 0.65785074 1 11
8.7597923 8.4091539 -1.4909496 2 4
3.8631315 3.705904 0.84787488 13 12
3.8441875 3.6838682 1.034948 2 13
3.4346087 3.2890716 -0.24922384 38 6
3.8401871 3.6710491 1.4235048 1 15
3.564203 3.3894014 -1.3179066 16 0
3.8543966 3.6628053 0.092811897 1 8
3.4615166 3.2883015 -1.1022601 33 1
3.8921733 3.6948283 0.28125346 4 9
5.3654504 5.0898461 -1.4375551 3 2
3.8889501 3.6878991 0.46889788 1 10
3.4612803 3.2800453 -0.75526565 23 3
3.9363692 3.7276473 0.66565043 1 11
8.8773956 8.4037428 -1.5009429 2 4
3.8386836 3.6313314 0.83692449 8 12
3.909766 3.6946969 1.0456334 2 13
3.4647465 3.2718718 -0.24974722 33 6
3.8825924 3.6600499 1.4297165 1 15
3.6187792 3.3935101 -1.3292947 15 0
3.9609399 3.7130687 0.094766572 1 8
3.4957652 3.2747157 -1.1058594 33 1
3.9784648 3.7255855 0.28564969 2 9
5.4343758 5.0854015 -1.4467138 3 2
3.9204233 3.6661029 0.46959516 1 10
3.4979577 3.2698987 -0.75839436 23 3
4.0138717 3.7495525 0.67442501 1 11
8.9460058 8.3510447 -1.5026492 2 4
3.9699337 3.6994362 1.0547922 2 13
3.5176284 3.276799 -0.25194532 40 6
3.9187315 3.6440632 1.4338576 1 15
3.6460488 3.3727345 -1.3308476 12 0
3.98089 3.6798978 0.094626948 1 8
3.5351491 3.266715 -1.1112581 25 1
4.0043759 3.6977215 0.28564969 2 9
5.4697461 5.0473385 -1.4467138 3 2
3.9745762 3.6663508 0.47308138 1 10
3.5497491 3.2721758 -0.76465172 23 3
3.9961512 3.6810889 0.66711289 1 11
8.9763536 8.2657566 -1.4982618 2 4
3.9776802 3.6563821 1.0502127 2 13
3.5477719 3.2589188 -0.25246868 35 6
3.9640107 3.6348953 1.4411045 1 15
3.679497 3.3563116 -1.334471 17 0
4.0449085 3.6870415 0.095534474 1 8
3.5751543 3.2577062 -1.116657 21 1
4.0537214 3.6911907 0.28732443 2 9
5.5048499 5.0090294 -1.4467138 3 2
3.9986014 3.6371727 0.47290704 5 10
3.5988181 3.2712305 -0.7702834 23 3
4.0658326 3.6931438 0.67442501 1 11
9.0749903 8.2402534 -1.5050865 2 4
4.0467467 3.6680808 1.0616612 2 13
3.5807989 3.2434573 -0.2532014 30 6
4.0494752 3.6615491 1.4628453 1 15
3.6913483 3.3202069 -1.33033 14 0
4.085422 3.67208 0.095883526 1 8
3.6268015 3.2587163 -1.1256551 32 1
4.1001973 3.6814816 0.28878984 2 9
5.4783115 4.9154086 -1.4306859 3 2
4.0936065 3.6716938 0.48109969 1 10
3.6480455 3.2697585 -0.77591503 22 3
4.0560284 3.6328831 0.66857523 2 11
9.1071548 8.1541872 -1.5009429 2 4
4.0722561 3.6397395 1.0616612 2 13
3.6316578 3.2436583 -0.25519016 36 6
4.086473 3.6434758 1.4669864 1 15
3.7520156 3.3276834 -1.3437886 14 0
4.1282783 3.6601055 0.096302375 1 8
3.6698837 3.2514091 -1.1319537 32 1
4.1550651 3.679971 0.29088327 2 9
5.5322251 4.8962212 -1.4360286 3 2
4.1042137 3.6298287 0.47935659 1 10
3.6761374 3.2500849 -0.77716655 22 3
4.1520691 3.6682796 0.68027472 1 11
9.1713009 8.0969772 -1.5021616 2 4
4.1247735 3.6403177 0.87134004 4 12
4.1388078 3.6475673 1.0723467 2 13
3.6791291 3.2413077 -0.25696957 33 6
4.1372905 3.63854 1.4763039 1 15
3.7716718 3.2995234 -1.3427533 15 0
4.1958847 3.6680474 0.097279713 2 8
3.7183433 3.2494357 -1.140052 35 1
4.210742 3.6771483 0.29297671 2 9
4.1521449 3.6234262 -1.0712018 4 2
4.1333318 3.6057348 0.4798795 6 10
3.7106483 3.2347274 -0.77966946 22 3
4.2344575 3.6887503 0.68953681 1 11
9.2381754 8.0447969 -1.5041116 2 4
4.1888309 3.645148 0.87947464 9 12
4.196137 3.6476469 1.0807421 2 13
3.7227776 3.233881 -0.25843498 33 6
4.1596742 3.6070342 1.4752686 1 15
3.8326483 3.3059182 -1.3562119 14 0
4.2062416 3.6256111 0.096930668 1 8
3.7527485 3.2335737 -1.1436511 37 1
4.2302551 3.6424515 0.29255801 2 9
4.2041273 3.6173992 -1.0780709 4 2
4.1931434 3.6066754 0.48388866 1 10
3.7631028 3.234494 -0.78592682 15 3
4.2058954 3.6125348 0.68076223 1 11
9.3633976 8.0395861 -1.5153236 1 4
4.268147 3.6621227 0.89073795 4 12
4.2513132 3.6438162 1.0883746 2 13
3.7513297 3.213011 -0.25885364 28 6
4.2288027 3.6155708 1.4907978 1 15
3.8894804 3.3078685 -1.3681176 12 0
4.2741151 3.6324172 0.097907998 2 8
3.7960222 3.224962 -1.1499498 32 1
4.2951679 3.6464376 0.2952795 2 9
5.6455283 4.7894487 -1.4390815 3 2
4.2729239 3.6237051 0.49016386 1 10
3.8006625 3.2209151 -0.78905553 9 3
4.2340412 3.5856516 0.68124968 6 11
9.5041409 8.0458479 -1.5289729 1 4
4.3066368 3.6393938 1.096007 2 13
3.8041894 3.2125137 -0.26094711 34 6
4.2820053 3.6096172 1.5006329 1 15
3.8887939 3.2607741 -1.3598353 12 0
4.3177638 3.6179016 0.098326862 2 8
3.839359 3.2159009 -1.1562485 27 1
4.3511529 3.6419997 0.29737294 2 9
4.2542243 3.5583477 -1.0780709 4 2
4.270607 3.5707798 0.48702627 1 10
3.8912692 3.2513008 -0.80313462 3 3
4.3077312 3.5967178 0.6890493 1 11
9.5143566 7.9411449 -1.5216608 2 4
4.3530564 3.6268325 1.1013496 2 13
3.8572226 3.2114358 -0.26304054 30 6
4.3249297 3.5944529 1.5068446 1 15
3.8712618 3.2003119 -1.3458591 16 0
4.3860826 3.6233296 0.099304192 2 8
3.8857584 3.2088726 -1.1634469 35 1
4.3949571 3.6267908 0.29862899 2 9
5.7633462 4.7526278 -1.4520565 3 2
4.4030461 3.6295924 0.49922809 1 10
7.2437906 5.9670773 -1.4864405 1 3
4.363389 3.5917888 0.69392407 1 11
9.6063519 7.9048004 -1.5275104 2 4
4.3782721 3.5963521 1.1013496 2 13
3.9104249 3.2097728 -0.26513401 31 6
4.4246035 3.6305315 1.3213625 5 14
4.3932514 3.5996804 1.521856 2 15
3.8935099 3.1732073 -1.3458591 14 0
4.43855 3.6161256 0.099932484 2 8
3.9382906 3.2062736 -1.1724449 37 1
4.4598184 3.6295698 0.30135047 2 9
4.4338727 3.6058822 -1.11089 4 2
4.3880773 3.5660946 0.49469596 1 10
7.1769147 5.8304429 -1.4645396 2 3
4.41856 3.5870275 0.69879889 1 11
9.6674719 7.842546 -1.5284854 1 4
4.424633 3.5829954 1.1066922 2 13
3.9399426 3.1893661 -0.26565734 25 6
4.4627318 3.6061163 1.5373851 2 15
3.9451346 3.1708362 -1.3562119 14 0
4.5011039 3.6151056 0.10077019 2 8
3.9843371 3.1989124 -1.1796434 35 1
4.5255508 3.6308441 0.30407193 2 9
4.4528108 3.5699277 -1.1093636 4 2
4.4744358 3.5859857 0.50166845 1 10
7.1557698 5.730804 -1.4520249 2 3
4.4961901 3.5982649 0.70708597 1 11
9.7392311 7.79144 -1.5314103 1 4
4.5470338 3.6350508 0.92202479 5 12
4.4550538 3.5576975 1.1082187 2 13
4.001142 3.192925 -0.26827416 19 6
4.5876093 3.6583109 1.3546553 5 14
4.4877968 3.5748746 1.5373851 2 15
3.9671738 3.1432185 -1.3562119 17 0
4.5732679 3.6208301 0.10181734 2 8
4.0279641 3.1879518 -1.1859419 38 1
4.5100608 3.5669465 0.30135047 2 9
5.8977733 4.6611247 -1.4612154 3 2
4.514997 3.5670099 0.50341159 1 10
7.2018065 5.6856036 -1.4532764 3 3
4.5554867 3.5938392 0.71244824 1 11
9.6749258 7.6298356 -1.5128862 1 4
4.5630827 3.5920863 1.1288261 2 13
4.0406013 3.178499 -0.26942554 26 6
4.6130371 3.6261942 1.3546553 5 14
4.5460715 3.569705 1.5487732 2 15
4.0255613 3.1439843 -1.3686352 16 0
4.576365 3.5715904 0.10132867 2 8
4.0777779 3.1813302 -1.1940402 33 1
4.6514134 3.6262443 0.30909619 2 9
5.917778 4.6101875 -1.4581624 3 2
4.5743723 3.5623341 0.50724638 1 10
7.3629189 5.7298179 -1.4776801 2 3
4.589869 3.5692577 0.7139107 1 11
4.540338 3.5294724 -0.70611101 1 4
4.5973444 3.5712094 0.92202479 5 12
4.5973573 3.5673618 1.1311158 2 13
4.1021519 3.1808095 -0.27204233 27 6
4.598381 3.5591643 1.5580908 2 15
4.0535374 3.1205161 -1.3707057 16 0
4.663959 3.5891414 0.10272487 2 8
4.1184278 3.1670375 -1.199439 37 1
4.6379838 3.5652876 0.30658406 2 9
4.6318626 3.5580075 -1.1353136 4 2
4.5959682 3.5278881 0.50689781 3 10
7.376678 5.6603231 -1.4726743 2 3
4.6581664 3.571754 0.72073537 1 11
4.5270505 3.4687123 -0.70026129 1 4
4.6685929 3.5758686 0.93141097 5 12
4.6502199 3.5566478 1.1379849 3 13
4.1348147 3.1613047 -0.27277502 27 6
4.6625957 3.5622456 1.3546553 5 14
4.6578221 3.554738 1.5699965 3 15
4.0777602 3.09519 -1.3717409 15 0
4.6793442 3.5492404 0.10251543 2 8
4.1709452 3.1624806 -1.2084371 37 1
4.7423596 3.593127 0.31181765 2 9
4.6284137 3.5042551 -1.1284446 4 2
4.678658 3.541008 0.51334733 3 10
7.378202 5.5800891 -1.4651654 2 3
4.7083259 3.5582986 0.72463518 1 11
4.4935374 3.3947382 -0.69148672 3 4
4.6899948 3.5367353 1.1418011 2 13
4.1775203 3.1479869 -0.27413577 21 6
4.7863517 3.6054688 1.383449 5 14
4.6964197 3.5325854 1.5746551 2 15
4.0807066 3.0527596 -1.3655293 16 0
4.7578416 3.5580268 0.1037022 2 8
4.2163372 3.1507828 -1.2151856 58 1
4.7379041 3.5392504 0.30993357 4 9
4.6867709 3.4985056 -1.13684 4 2
4.7815194 3.5666301 0.52188861 1 10
7.4350142 5.543911 -1.4689198 2 3
4.7610917 3.5475147 0.7290225 1 11
4.2830701 3.1890168 -0.65565711 6 4
4.8283768 3.5937192 0.95331174 5 12
4.7776022 3.5507479 1.1570657 2 13
4.2325172 3.1444936 -0.27633387 29 6
4.7529435 3.5247011 1.5855255 3 15
4.0827351 3.0111525 -1.3593177 18 0
4.8469558 3.5721796 0.1050984 2 8
4.2706337 3.1462836 -1.2246336 47 1
4.8300505 3.5558193 0.3143298 2 9
4.7553625 3.4982729 -1.1475254 4 2
4.8442068 3.5623317 0.52607203 1 10
7.4512539 5.4754896 -1.4645396 2 3
4.795341 3.5212414 0.7304849 1 11
4.2972269 3.1531661 -0.65443844 10 4
4.8533463 3.5599256 0.95331174 5 12
4.8449755 3.5511851 -0.52554911 5 5
4.8086104 3.5219481 1.1585923 2 13
4.2817621 3.1349261 -0.27811331 22 6
4.7899122 3.5005524 1.5896666 3 15
4.1588788 3.0216029 -1.377435 18 0
4.8653021 3.533556 0.10495877 2 8
4.3340449 3.1454027 -1.236331 43 1
4.897409 3.5516512 0.31705123 2 9
4.8527851 3.5179975 -1.1650798 4 2
7.3910365 5.350215 -1.4451418 2 3
4.8391047 3.501642 0.73340976 1 11
4.3513093 3.1463501 -0.6593132 10 4
4.8872046 3.5273592 1.1715673 2 13
4.3526826 3.1392555 -0.28125346 22 6
4.917717 3.5454669 1.3996454 5 14
4.8885269 3.5192349 1.6139956 2 15
4.1830139 2.9947441 -1.3784703 20 0
4.9229908 3.5219207 0.10565687 2 8
4.3812604 3.1332064 -1.2435294 45 1
4.9220834 3.5173769 0.31705123 2 9
4.8586626 3.4694908 -1.1605004 4 2
4.936245 3.5235908 0.53060412 1 10
7.4217734 5.293901 -1.4438903 2 3
4.9125328 3.5014904 0.74072188 1 11
4.4071178 3.1400874 -0.66443169 12 4
4.9836464 3.548244 0.96895516 5 12
4.9181108 3.4977055 1.1730938 2 13
4.4037986 3.1296153 -0.28313756 23 6
5.0599108 3.5945644 1.4329382 5 14
4.9161267 3.4872587 1.6150309 2 15
4.2274971 2.9821742 -1.3862349 17 0
4.9533877 3.4929361 0.10579649 2 8
4.4348874 3.1249926 -1.2525275 42 1
5.0275559 3.5412965 0.32228485 2 9
6.0059791 4.2273402 -1.4276329 3 2
4.9867992 3.5073826 0.53339314 1 10
7.473794 5.2546206 -1.4470189 2 3
5.0077229 3.5181818 0.75144643 1 11
4.4549279 3.1274927 -0.6683315 12 4
5.0885305 3.5709753 0.98459864 5 12
4.9998474 3.5061364 -0.53426468 6 5
4.9713502 3.4835651 1.1799629 3 13
4.4544435 3.1201949 -0.28502163 24 6
5.062531 3.5435076 1.4266397 5 14
4.9872475 3.4869237 1.63056 2 15
4.2635612 2.9643552 -1.3914113 15 0
5.1090322 3.549547 0.10858887 2 8
4.5264821 3.1436436 -1.2723231 35 1
5.1112266 3.5471053 0.32605305 2 9
6.0063043 4.1651731 -1.4207639 3 2
5.0662303 3.51195 0.53931969 1 10
7.5557618 5.2338142 -1.4557793 2 3
5.0288978 3.4808753 0.75095892 1 11
4.5038638 3.116298 -0.6724751 13 4
5.0645914 3.5016615 0.97521257 5 12
5.0242028 3.4711452 -0.53426468 6 5
5.0434103 3.4831152 1.1914115 2 13
4.4958439 3.102634 -0.28627771 24 6
5.1513171 3.55233 1.4446357 4 14
5.052834 3.480514 1.6440187 2 15
4.3080592 2.9508932 -1.3991758 12 0
5.1336865 3.5137954 0.10858887 2 8
4.6898499 3.2088025 -1.3119146 21 1
5.076509 3.4707577 0.32228485 2 9
5.0107226 3.4232111 -1.1795813 4 2
5.0807509 3.4697559 0.53827387 1 10
7.6280155 5.2054296 -1.4626625 2 3
5.1055589 3.4814703 0.7587586 1 11
4.5353518 3.0914879 -0.6739375 16 4
5.1378937 3.4995797 0.98459864 5 12
5.1163001 3.4809515 1.20286 2 13
4.5586858 3.0992463 -0.2888945 33 6
5.1759915 3.5162802 1.4446357 4 14
5.0881996 3.4527471 1.6476421 3 15
4.3429666 2.9304726 -1.4038346 16 0
5.1680408 3.4845772 0.1087983 2 8
4.7169838 3.1792529 -1.3132643 30 1
5.2662735 3.546802 0.33275205 2 9
5.0833621 3.4210303 -1.1910298 4 2
5.174284 3.4809074 0.54559493 1 10
7.6707287 5.1564579 -1.4639139 2 3
5.1462164 3.4568131 0.76119596 1 11
4.609561 3.095161 -0.68173718 13 4
5.1523561 3.4570239 0.98272139 5 12
5.1828775 3.4735689 1.212782 2 13
4.6233592 3.0962381 -0.29161596 60 6
5.2004132 3.4800596 1.4446357 4 14
5.1764235 3.4600828 1.6683476 3 15
4.3633194 2.9000814 -1.4038346 15 0
5.2255588 3.4705365 0.1094964 2 8
4.8056283 3.1904364 -1.3317102 25 1
5.2909083 3.5099478 0.33275205 2 9
4.6505718 3.0828195 -1.0845585 12 2
5.2615714 3.4865203 0.55221879 1 10
4.6611457 3.0863173 -0.88541919 22 3
5.2331343 3.4624252 0.7704581 1 11
4.6443009 3.0716674 -0.68368703 25 4
5.2917252 3.4972091 1.0046222 4 12
4.6335998 3.0599389 -0.48580611 44 5
5.236495 3.4567668 1.2196511 2 13
4.6465302 3.0649855 -0.29172066 25 6
5.3287144 3.5123088 1.4734293 4 14
4.6838608 3.0860918 -0.097907998 3 7
5.2375631 3.4482961 1.6802533 2 15
4.4448795 2.9097569 -1.4235048 13 0
5.3065572 3.4711924 0.11068317 2 8
4.6614237 3.0480247 -1.2858201 30 1
5.3152819 3.4729269 0.33275205 2 9
4.645678 3.0331049 -1.0784526 34 2
5.3158145 3.4693055 0.55535638 1 10
4.6445227 3.0288832 -0.87822318 35 3
5.2605071 3.4279718 0.77094555 1 11
4.6307025 3.0164161 -0.67856854 27 4
5.2795901 3.4364707 0.99773914 4 12
4.6359491 3.0163779 -0.48388866 37 5
5.3131709 3.4543691 1.2318629 2 13
4.6175675 2.9998319 -0.28858051 25 6
4.6918707 3.044611 -0.097628765 5 7
5.2825809 3.4253104 1.6869825 3 15
4.4861927 2.8922629 -1.4302342 12 0
5.4073815 3.4848206 0.11228879 2 8
4.6563735 2.9985287 -1.2786218 35 1
4.6662164 3.0014122 -1.0784526 28 2
5.3533144 3.4407275 0.55675089 1 10
4.6600466 2.9939954 -0.87728459 33 3
5.3471951 3.4328401 0.78020763 1 11
4.6650162 2.9925866 -0.68051845 31 4
5.3993039 3.4623027 1.0158856 4 12
4.6602511 2.9860871 -0.48423728 37 5
5.4032917 3.4595389 1.2471277 2 13
4.6614323 2.9834023 -0.29004589 25 6
5.4357367 3.4763007 1.4896258 4 14
4.7197518 3.0160887 -0.097768381 3 7
5.36764 3.4287927 1.7066529 3 15
4.5253448 2.8740878 -1.4364457 11 0
5.4214482 3.4405563 0.11207936 2 8
4.706296 2.9855545 -1.28672 32 1
4.726861 2.9939749 -1.0876113 28 2
5.4102774 3.4255254 0.56023711 1 10
4.7142215 2.9825118 -0.88354194 14 3
5.3911657 3.4081545 0.78313243 2 11
4.8212032 3.0466619 -0.70026129 21 4
4.7837691 3.0183349 -0.49487031 5 5
5.4433203 3.4331532 1.2509438 2 13
4.8494253 3.0562124 -0.30040842 18 6
5.5423236 3.4901893 1.512121 4 14
5.4372334 3.4200361 1.7211467 3 15
4.5616775 2.8526697 -1.4416221 12 0
5.4894276 3.4301751 0.11298689 2 8
4.9022198 3.0620611 -1.3344096 27 1
4.9009056 3.0564823 -1.1227202 10 2
5.4949269 3.4256163 0.56651235 1 10
5.4307485 3.3829746 -1.0133826 3 3
5.4822388 3.4123943 0.79288203 1 11
4.89292 3.0443904 -0.70757347 25 4
5.5309982 3.4387276 1.0315289 4 12
5.4871697 3.4074965 1.2555233 2 13
4.9147677 3.0496621 -0.30312988 19 6
5.4987521 3.4053881 1.7330524 4 15
4.6061592 2.8359444 -1.4493867 10 0
78.481499 48.282135 1.6083789 22 8
4.9865584 3.0665512 -1.351506 25 1
4.9522376 3.0406861 -1.1295893 12 2
5.5696507 3.4184372 0.5717417 1 10
5.4811749 3.3615043 -1.0183885 3 3
5.5634761 3.4093027 0.80116916 1 11
4.9682212 3.0433409 -0.7153731 24 4
5.4706292 3.3484676 1.0158856 4 12
5.5443254 3.3895864 1.2631556 2 13
4.9598002 3.0298526 -0.30459529 19 6
5.5520844 3.385016 1.7423699 4 15
4.6192369 2.7997131 -1.4473162 11 0
4.974504 3.0114796 -1.342508 29 1
5.0254321 3.037519 -1.1414195 17 2
5.6308947 3.4021397 0.57557648 1 10
5.5653901 3.3599079 -1.0296518 3 3
5.6279359 3.3949881 0.80701888 1 11
5.0301466 3.0331814 -0.72122282 21 4
5.635139 3.3912902 1.2784203 2 13
5.0338902 3.0270622 -0.30784014 20 6
5.697722 3.4235373 1.5346161 4 14
5.6103644 3.3670511 1.7532402 3 15
4.6005111 2.7446339 -1.4354105 12 0
5.7112122 3.4045682 0.1160585 3 8
4.9719687 2.9627142 -1.3362092 28 1
5.7987032 3.4526098 0.35368642 2 9
5.0751987 3.0194252 -1.147907 14 2
5.7606812 3.4258866 0.58638382 1 10
5.6396565 3.3512456 -1.0390378 3 3
5.6924644 3.3799412 0.8128686 1 11
5.0853405 3.0182536 -0.72609758 24 4
5.7717052 3.4229052 1.0628159 4 12
5.7025938 3.3778841 1.2883424 2 13
5.0875587 3.0111713 -0.30982888 20 6
5.6902881 3.3612072 1.77084 3 15
4.6595421 2.7359252 -1.4478338 12 0
5.7865868 3.3949685 0.11710566 3 8
5.1102004 2.9969399 -1.3677025 29 1
5.8226676 3.4120402 0.35368642 2 9
5.1418962 3.0107062 -1.1582106 14 2
5.7672639 3.3755188 0.58464068 1 10
5.7004275 3.3337336 -1.045921 3 3
5.7536283 3.3621516 0.81823081 1 11
5.1542821 3.010715 -0.73292232 25 4
5.7374554 3.3486726 1.0521784 4 12
5.791491 3.3774974 -0.58655816 7 5
5.8006654 3.3814948 1.3051336 2 13
5.1429734 2.9956856 -0.31192234 21 6
5.7536988 3.3447008 1.7832633 3 15
4.6814017 2.7060788 -1.448869 13 0
5.8649712 3.3875089 0.1182226 3 8
5.1169801 2.9542911 -1.3641032 28 1
5.2132978 3.0050497 -1.1696591 17 2
5.8453479 3.3680172 0.59021866 1 10
5.7983141 3.338218 -1.0596871 3 3
5.8107939 3.3427067 0.82310557 3 11
5.2228413 3.0032659 -0.73974699 25 4
5.8848505 3.3771079 1.3188719 2 13
5.2100248 2.9874358 -0.31474847 21 6
5.8383708 3.3409605 1.8024158 2 15
4.6766701 2.6599591 -1.4416221 15 0
5.9336801 3.3721702 0.11913013 3 8
5.1645908 2.933897 -1.3713017 25 1
5.2683043 2.9879518 -1.1772915 14 2
5.9241824 3.3585706 0.59579664 1 10
5.8558517 3.317132 -1.0659446 3 3
5.9100018 3.345082 0.83383012 1 11
5.2851462 2.9901905 -0.74559671 22 4
5.9275289 3.3509057 1.0784594 4 12
5.9458928 3.3571804 1.3272674 2 13
5.3072944 2.994168 -0.31935403 21 6
5.9602823 3.3598163 1.5796063 4 14
5.8901706 3.3162315 1.8112158 1 15
4.7558174 2.6612058 -1.4602571 12 0
5.964057 3.3345695 0.11926974 3 8
5.2291765 2.9224882 -1.3829991 23 1
5.3404689 2.9797971 -1.1887401 17 2
5.9788074 3.3345962 0.59893423 1 10
5.9340839 3.3069406 -1.0759563 3 3
5.9783044 3.3288498 0.84016734 1 11
5.370069 2.9889433 -0.75461507 27 4
5.9507785 3.309442 1.0784594 4 12
5.9829149 3.3232145 1.3303204 2 13
5.3595033 2.974489 -0.32123813 21 6
4.8115125 2.6484358 -1.4716451 12 0
6.1098461 3.3603053 0.12171309 3 8
5.2665272 2.8953013 -1.3874981 23 1
5.4282637 2.9792805 -1.2036232 21 2
6.0787983 3.3349435 0.60660398 1 10
6.0193849 3.2996154 -1.0872197 3 3
6.0431819 3.3099213 0.84601706 1 11
5.4343352 2.9752126 -0.76070851 25 4
6.0603905 3.3152153 1.0941027 3 12
6.0679951 3.315249 1.3440586 2 13
5.4327283 2.9657123 -0.32437828 22 6
6.17769 3.3695867 1.6245965 3 14
4.8587661 2.6304135 -1.480445 13 0
6.1331563 3.3175685 0.12171309 3 8
5.3208971 2.8769982 -1.3964962 22 1
5.5007577 2.9692912 -1.2150718 25 2
6.137001 3.3113463 0.6100902 1 10
6.0735707 3.2743883 -1.0928513 3 3
6.1220689 3.2977736 0.85381669 1 11
5.4969201 2.9597905 -0.76655823 25 4
6.1703653 3.3196225 1.1097462 3 12
6.1809201 3.3211291 1.3639028 2 13
5.4849749 2.9447176 -0.32626238 11 6
6.2004833 3.3274584 1.6245965 3 14
4.9025903 2.6100466 -1.4882096 12 0
6.2438598 3.3227181 0.12345833 3 8
5.3649416 2.8525894 -1.4027947 33 1
5.555522 2.9501929 -1.2227042 20 2
6.2022071 3.2908363 0.61427367 1 10
6.1480737 3.2607346 -1.1022373 3 3
6.2005033 3.2857692 0.86161631 1 11
5.5823622 2.9557087 -0.77557659 27 4
6.2347212 3.299722 1.1172551 3 12
6.2108989 3.2815659 1.3654292 2 13
5.564939 2.9390268 -0.32982123 11 6
6.2235618 3.2840898 1.6245965 3 14
4.8945708 2.5631742 -1.480445 14 0
6.2846241 3.2883146 0.12380737 3 8
5.4187698 2.8340709 -1.4117929 27 1
6.33533 3.3106217 0.37462083 2 9
5.6229711 2.9358697 -1.2330078 16 2
6.2880521 3.2817259 0.6205489 1 10
6.2547617 3.2615743 -1.1172551 3 3
6.3007507 3.2827625 0.87234086 2 11
5.6762986 2.9561532 -0.78581363 27 4
6.215548 3.2342343 1.1097462 3 12
6.309741 3.2790506 1.3822205 2 13
5.6349525 2.9258752 -0.33275205 11 6
6.3708839 3.3051748 1.6569895 3 14
4.9501333 2.5483947 -1.4918331 13 0
6.3785572 3.2809465 0.12520356 4 8
5.4210925 2.787261 -1.4072938 32 1
6.3582883 3.2663121 0.37462083 2 9
5.7131944 2.9324045 -1.2482725 16 2
6.328537 3.2468419 0.62229198 1 10
6.3494511 3.2547767 -1.1300827 2 3
6.365921 3.2604098 0.87819058 1 11
5.7445054 2.9408801 -0.79239452 19 4
6.3786697 3.2627251 1.1347758 3 12
6.4094076 3.274215 1.3990116 2 13
5.7690945 2.9445751 -0.33945104 11 6
6.4424105 3.2854092 1.6695868 3 14
4.9936609 2.5268552 -1.4995975 12 0
6.4655509 3.2688198 0.12646013 4 8
5.5204268 2.7897758 -1.4279894 21 1
5.7983813 2.9251654 -1.2623924 18 2
6.4826946 3.2689683 0.63519108 1 10
6.4037728 3.226368 -1.1357143 2 3
6.4665446 3.2551606 0.88891506 1 11
5.8039088 2.9203336 -0.79775679 20 4
6.4224715 3.2287614 1.1385301 3 12
6.4777279 3.2522924 1.4089336 2 13
5.7859392 2.9024394 -0.33924171 11 6
6.5000348 3.257813 1.6785848 3 14
5.0336657 2.5031159 -1.5063269 15 0
6.602828 3.2805469 0.12869404 4 8
5.5153317 2.7390354 -1.4216906 20 1
6.5821843 3.2659945 0.385088 2 9
5.8714323 2.9107716 -1.2738409 18 2
6.5303512 3.2360158 0.63763142 1 10
6.525279 3.2306621 -1.153235 1 3
6.5282555 3.2293026 0.89427733 2 11
5.9149079 2.924613 -0.81018746 24 4
6.547576 3.2345941 1.1566767 3 12
6.5706987 3.2417386 1.4241984 2 13
5.9063811 2.9114258 -0.34510332 11 6
6.662478 3.2812338 1.714577 3 14
5.0440755 2.4645209 -1.5042564 15 0
6.6255679 3.2343733 0.12869404 4 8
5.555336 2.7107193 -1.4270895 17 1
5.9480896 2.8972237 -1.2860527 22 2
6.6280212 3.2269771 0.64495248 1 10
6.5938578 3.2074976 -1.1613696 1 3
6.629199 3.2218277 0.90500182 1 11
5.9726772 2.9014664 -0.81530601 22 4
6.6090937 3.2077801 1.1635597 3 12
6.663837 3.2300403 1.4394631 2 13
5.9697056 2.8910103 -0.34761545 11 6
6.7097802 3.2465272 1.7208756 3 14
5.1238565 2.4593406 -1.5228913 14 0
6.8282967 3.2745032 0.13218452 4 8
5.6303582 2.6988244 -1.4414864 22 1
6.0301547 2.8852854 -1.2994094 15 2
6.7150946 3.2115729 0.65122765 1 10
6.6909485 3.1971557 -1.1745101 1 3
6.7016892 3.1994152 0.91182649 2 11
6.0734081 2.8981695 -0.82627422 31 4
6.7418795 3.2142689 1.1829575 2 12
6.7722945 3.2258687 -0.65628272 8 5
6.7323117 3.2053823 1.4493852 2 13
6.0691004 2.8870165 -0.35222104 11 6
6.7569232 3.2113159 1.7271742 3 14
5.1706057 2.4375157 -1.5316912 11 0
6.8509912 3.226753 0.13218452 4 8
5.6561136 2.6627741 -1.4432859 22 1
6.425065 3.0192981 -1.3799307 12 2
6.8058796 3.1968026 0.65785152 1 10
6.7667537 3.1755421 -1.1838962 1 3
6.8065405 3.1913149 0.92303848 1 11
6.1564054 2.8851824 -0.83480507 22 4
6.792779 3.1805255 1.1879635 2 12
6.8221064 3.1899037 1.4638867 3 13
6.1397748 2.8682454 -0.35515183 11 6
6.8492541 3.1982284 1.7451702 3 14
5.2330794 2.4224563 -1.5451498 11 0
6.8727942 3.180048 0.13218452 4 8
5.6957936 2.6330321 -1.4486848 21 1
6.4953775 2.9985347 -1.3906161 12 2
6.8714528 3.1692374 0.66203499 1 10
6.8384418 3.152565 -1.1926565 2 3
6.8749843 3.166502 0.92937571 1 11
6.2449226 2.873668 -0.8440671 19 4
6.8573422 3.1540253 1.1954722 2 12
6.8870311 3.1618578 1.4730455 2 13
6.2426577 2.8647048 -0.35996673 12 6
6.8926725 3.1600795 1.7505691 3 14
5.2529631 2.3883812 -1.5461851 12 0
5.7011614 2.5885639 -1.4455354 26 1
6.5358224 2.9620295 -1.3948139 12 2
6.950942 3.148699 0.66761297 1 10
6.932271 3.1373255 -1.2051712 2 3
6.9620385 3.1478741 0.93815029 1 11
6.3240347 2.8580689 -0.85211051 26 4
6.9800129 3.1516008 1.2129929 2 12
6.969243 3.1423464 1.4860206 3 13
6.3499141 2.8604281 -0.36499101 12 6
7.0051966 3.1526704 1.7735142 4 14
5.2695093 2.3516507 -1.5461851 12 0
5.8490338 2.6066062 -1.4783784 14 1
7.0775738 3.1511374 0.4060224 2 9
6.5724854 2.9235129 -1.3982484 12 2
7.0783477 3.1470425 0.67772305 1 10
7.0045509 3.1113088 -1.2139316 2 3
7.0673113 3.1362288 0.94936228 1 11
6.418231 2.8468523 -0.86210382 18 4
7.0813103 3.1380045 1.2267592 2 12
7.0915513 3.1381016 1.5073912 2 13
6.420877 2.83864 -0.3679218 12 6
7.0840778 3.1288862 1.7879109 4 14
5.3441968 2.3403764 -1.5632671 11 0
5.9027996 2.581322 -1.4873765 21 1
7.2165322 3.1528275 0.41272137 2 9
6.6359186 2.8964057 -1.4074073 10 2
7.1366668 3.1134868 0.68120927 1 10
7.0768056 3.0844312 -1.2226919 2 3
7.1654758 3.1200984 0.95959932 2 11
6.5216775 2.8384159 -0.87331581 3 4
7.1682611 3.1168475 1.2380226 2 12
7.1637092 3.1104097 1.5180764 2 13
6.4808469 2.8112333 -0.3702246 12 6
5.3905792 2.3159764 -1.572067 13 0
5.9421659 2.5492723 -1.4927752 17 1
7.3044543 3.1306949 0.41648957 2 9
6.5440836 2.8020923 -1.3837469 8 2
7.2644672 3.1090553 0.69131935 1 10
7.1780853 3.0691175 -1.2364582 2 3
7.2601027 3.1011925 0.96934885 1 11
7.4030471 3.1607201 -0.98836046 3 4
7.2443542 3.0899818 1.2474086 2 12
7.2538857 3.0895591 1.532578 1 13
6.5995564 2.8081477 -0.37587687 12 6
5.3977141 2.2745357 -1.5694788 15 0
5.9957423 2.5228419 -1.5017732 19 1
6.7336364 2.827796 -1.4196191 10 2
7.3668284 3.0921934 0.69898903 1 10
7.2612739 3.0449064 -1.2470957 2 3
7.336503 3.0734422 0.97666097 1 11
7.5109901 3.1449983 -0.99981618 2 4
7.4042492 3.0972669 1.2711866 2 12
7.3912191 3.0872703 1.5570016 1 13
6.711163 2.8004601 -0.38111049 12 6
5.4723816 2.2611423 -1.5865607 13 0
6.0348263 2.489841 -1.5071721 15 1
6.7599893 2.7848871 -1.4211454 12 2
7.469305 3.0740521 0.70665878 1 10
6.923768 2.848119 -1.1857734 1 3
7.4600759 3.0656874 0.99031037 1 11
11.828018 4.8558497 -1.569921 13 4
7.46171 3.0617933 1.277444 2 12
7.4561949 3.0534506 1.5661603 1 13
6.7818236 2.7759011 -0.38404128 12 6
5.4965982 2.227468 -1.589149 14 0
6.0949893 2.4662485 -1.5179697 15 1
7.667872 3.0995786 0.43344644 2 9
6.8229556 2.7552722 -1.4303043 12 2
7.5713487 3.0559502 0.71432841 1 10
6.9269934 2.7930677 -1.1829575 10 3
7.5917759 3.0580335 1.0049347 2 11
11.916039 4.7974677 -1.5772332 13 4
7.5342197 3.0302656 1.2862043 4 12
7.5861163 3.046525 1.5890573 6 13
6.9085493 2.7716196 -0.39011225 12 6
5.5263786 2.1947446 -1.5932901 14 0
7.6673651 3.0419221 0.14398235 5 8
6.1410427 2.4351306 -1.5251682 15 1
7.6243329 3.0202303 0.42978293 15 9
6.8602815 2.7147925 -1.4341204 14 2
7.6110253 3.0103493 0.71607161 12 10
7.0271606 2.7765768 -1.1967238 16 3
7.6295576 3.0115175 1.0071282 15 11
7.6300831 3.010186 -1.0071282 4 4
7.6176763 3.002219 1.2968419 4 12
7.6138906 2.9976611 -0.71589726 10 5
7.6948919 3.027997 1.6073751 1 13
7.0243869 2.7613211 -0.3955552 26 6
7.6859107 3.0167158 -0.14412197 18 7
5.5685711 2.1666198 -1.6010547 12 0
7.7406034 3.008604 0.14495969 5 8
6.194222 2.4063151 -1.5341661 14 1
7.777431 3.0182319 0.43721461 2 9
6.8973718 2.673929 -1.4379367 12 2
7.7693348 3.0104065 0.72897059 2 10
7.0537424 2.7303021 -1.1979753 17 3
7.8096247 3.0197532 1.0280899 2 11
7.778502 3.0030382 1.3206199 2 12
7.0658007 2.725049 -0.66255796 43 5
7.8294182 3.0179863 1.6310353 1 13
7.0714521 2.7229764 -0.39712527 26 6
5.6196656 2.1414492 -1.6114074 9 0
6.1999421 2.3588548 -1.5314667 21 1
7.9850111 3.0348146 0.44768184 2 9
6.9911232 2.6542852 -1.453583 11 2
7.913106 3.0027456 0.74047518 1 10
7.0597005 2.6760936 -1.1957852 21 3
7.9103432 2.9953861 1.0385706 2 11
7.0716939 2.6764059 -0.92840075 16 4
7.9286194 2.997561 1.3425208 2 12
7.0734692 2.6714306 -0.66151208 35 5
7.9200954 2.9895957 1.6455369 2 13
7.0323567 2.6516972 -0.39388046 13 6
5.6887779 2.1224229 -1.6269366 9 0
6.2546091 2.3297954 -1.5409148 23 1
8.0434399 2.9929292 0.44977528 2 9
7.020524 2.6095171 -1.4558728 9 2
8.034729 2.9848995 0.74988794 1 10
7.2930388 2.7064652 -1.232078 19 3
8.0390196 2.9801042 1.0527074 1 11
8.0308666 2.9723005 1.3562869 2 12
8.0531082 2.9757395 1.6688155 2 13
7.3280039 2.7048962 -0.40937188 26 6
5.7252326 2.0906076 -1.6331483 9 0
6.3055077 2.2987583 -1.5494629 19 1
8.2142735 2.9913769 0.45814902 2 9
7.0385709 2.5604413 -1.4558728 9 2
8.1452513 2.9614117 0.758255 1 10
7.4788609 2.7161736 -1.2602363 16 3
8.1715937 2.9645281 1.0673318 1 11
8.1833086 2.9671617 -1.0687943 2 4
8.1294298 2.9444158 1.3694276 4 12
8.1419983 2.9441471 1.6829355 3 13
7.4481449 2.6903143 -0.41502416 27 6
5.7833495 2.0661857 -1.6455716 9 0
8.2585306 2.9472299 0.15305761 7 8
6.3397574 2.2612281 -1.5539619 21 1
8.2876358 2.9527259 0.46107981 2 9
7.1006665 2.527035 -1.4650315 9 2
8.2783575 2.9445364 0.76871365 1 10
7.586988 2.6956358 -1.2752539 13 3
8.2893696 2.9419363 1.0800062 1 11
8.3179474 2.9504399 -1.0836623 2 4
8.3024654 2.9416904 1.3950827 2 12
8.2956152 2.934376 1.710412 2 13
7.5835023 2.6795049 -0.42151386 27 6
5.8195186 2.033407 -1.6517832 7 0
6.414269 2.237452 -1.5683587 17 1
8.4433308 2.9435849 0.46861619 2 9
7.2178206 2.5135119 -1.4856389 11 2
8.4116211 2.9259412 0.77917236 2 10
7.7133789 2.6815565 -1.2934003 18 3
8.4292202 2.9271169 1.0956055 1 11
8.4677486 2.9371891 -1.1004803 2 4
8.3708239 2.9019279 1.4032173 2 12
8.4531975 2.9238803 1.7386516 7 13
7.7034984 2.6630614 -0.42716613 27 6
5.8259125 1.9912481 -1.6497126 9 0
6.4625487 2.2050669 -1.576457 18 1
8.5771036 2.9232259 0.47489652 2 9
7.2574935 2.4706569 -1.4902184 11 2
8.5596027 2.9122605 0.79102546 2 10
7.8291669 2.6606972 -1.3096695 17 3
8.5359173 2.8975544 1.1068175 1 11
8.5871782 2.9132841 -1.1133984 2 4
8.5555162 2.8992128 1.4307499 2 12
8.539854 2.8889217 1.7523898 1 13
7.8411083 2.6494951 -0.43376043 26 6
5.9019718 1.9713361 -1.6673124 9 0
6.4851799 2.1623616 -1.5782566 21 1
8.6730976 2.8885231 0.47908339 2 9
7.1721072 2.3858426 -1.4692293 13 2
8.6742582 2.8838606 0.79974109 1 10
7.9637842 2.6445682 -1.3290673 17 3
8.691596 2.8828878 1.1243666 1 11
8.6807938 2.8776236 -1.1229043 2 4
8.7180672 2.8866024 1.4545279 4 12
7.9561396 2.626622 -0.43909872 26 6
5.9413013 1.9384763 -1.6745592 9 0
6.566824 2.1387594 -1.5944531 18 1
8.8449955 2.8773313 0.48745713 2 9
7.2539396 2.3569474 -1.482586 9 2
8.8457766 2.8724647 0.81368601 2 10
8.117342 2.632786 -1.351594 19 3
8.8474808 2.8661871 1.1419159 1 11
8.8177633 2.8548596 -1.138016 2 4
8.835743 2.8572741 1.4707971 3 12
8.1206522 2.6182055 -0.44715846 26 6
5.987823 1.9075061 -1.6838769 9 0
6.6038799 2.099952 -1.599852 16 1
8.9976196 2.8593976 0.49478418 2 9
7.4419689 2.3621643 -1.5176948 11 2
8.952981 2.8383324 0.82170433 2 10
8.3610477 2.6490724 -1.3891382 11 3
8.9879103 2.8442278 1.157515 2 11
8.9605112 2.8321171 -1.153859 2 4
8.9604712 2.8303845 1.4883177 1 12
8.2487774 2.5976646 -0.45322946 25 6
6.035717 1.877604 -1.6937119 6 0
6.6329103 2.0595717 -1.6034511 15 1
9.1127424 2.8260975 0.50001782 2 9
7.5089135 2.3258357 -1.5279986 10 2
9.0786762 2.810323 0.83146584 1 10
8.4321823 2.6069703 -1.3978986 10 3
9.1441126 2.8235805 1.1750643 2 11
9.0782156 2.8014972 -1.1665335 2 4
9.1197062 2.8108149 1.51147 3 12
8.4489784 2.6008632 -0.77342004 10 5
8.3717146 2.5722814 -0.45898637 25 6
6.0616179 1.8393505 -1.6973354 7 0
6.6900225 2.0262105 -1.6137989 13 1
9.2737179 2.8052018 0.5077635 2 9
7.5926256 2.293793 -1.5417367 12 2
9.2811804 2.8021562 0.84819967 2 10
8.5088062 2.5657177 -1.4075974 12 3
9.3042574 2.802038 1.193101 2 11
9.1678848 2.7592187 -1.1755519 3 4
9.2450447 2.7789268 1.5289906 3 12
8.5432587 2.5647292 -0.78039253 22 5
8.5425272 2.5596302 -0.46736014 25 6
6.0965409 1.803564 -1.703547 5 0
6.7881093 2.0042889 -1.6340445 16 1
9.4386692 2.7833192 0.51571852 2 9
7.6875515 2.264029 -1.5577648 12 2
9.4381342 2.7777915 0.86075008 1 10
8.5530415 2.5140555 -1.4119775 11 3
9.4378757 2.7705624 1.2077253 2 11
9.4459782 2.7711504 -1.2087002 3 4
9.449996 2.7687471 1.5596517 3 12
8.6890755 2.5425081 -0.79207134 33 5
8.6943913 2.5391226 -0.47468719 12 6
6.1164083 1.7630985 -1.7056175 7 0
6.792572 1.954156 -1.6317949 15 1
9.6114378 2.7614839 0.52409232 2 9
7.695621 2.2081387 -1.5562382 10 2
9.6028509 2.7535751 0.87399781 2 10
8.6767321 2.4847369 -1.4294983 9 3
9.6173077 2.7504559 1.2281992 2 11
9.5624361 2.7329581 -1.221131 2 4
9.6134605 2.7439065 1.5834299 1 12
8.8407373 2.520021 -0.80427319 33 5
8.94627 2.5450389 -0.48745713 12 6
6.145308 1.7250539 -1.7102764 6 0
6.8736029 1.9256123 -1.6479914 11 1
9.7651205 2.7319839 0.53141934 2 9
7.7732472 2.1717927 -1.5688316 10 2
9.7523317 2.7229011 0.88585097 1 10
8.7623672 2.4432013 -1.4407616 12 3
9.773963 2.7215869 1.2457485 1 11
9.7094154 2.7017877 -1.2374614 2 4
9.7008991 2.6957698 1.5946931 3 12
9.0343018 2.508832 -0.82030988 28 5
6.1795645 1.688219 -1.716488 6 0
6.9019198 1.8816793 -1.6515907 14 1
9.9761915 2.7179565 0.54188651 2 9
7.8389983 2.1327474 -1.5791353 10 2
9.9403 2.7007201 0.90119034 1 10
8.820735 2.3948882 -1.4476447 12 3
9.9685268 2.7027855 1.2681725 2 11
9.8506718 2.6671405 -1.2530607 2 4
9.9306793 2.6869433 1.6294216 3 12
9.174696 2.4789603 -0.83146584 29 5
6.2338519 1.6575372 -1.7283937 5 0
6.903266 1.8316604 -1.6488912 15 1
10.187988 2.6993926 0.55235374 2 9
7.9220228 2.0960472 -1.5928736 10 2
10.154926 2.684943 0.91897017 1 10
8.9594746 2.3655224 -1.4676683 9 3
10.144551 2.6746297 1.2881591 2 11
10.026005 2.6414981 -1.2730472 3 4
10.147873 2.6698236 1.66196 5 12
9.37677 2.463449 -0.84819967 30 5
6.2639761 1.6188101 -1.7335701 4 0
6.9253201 1.7858548 -1.6511407 17 1
10.322636 2.6580842 0.55863404 2 9
7.9535742 2.0450935 -1.5963081 9 2
10.285346 2.6427407 0.92908025 1 10
9.0408249 2.3196115 -1.4783059 11 3
10.286048 2.635268 1.3037584 1 11
9.5057402 2.4335914 -1.2048005 19 4
10.273439 2.6263065 1.6794806 6 12
9.5018473 2.425523 -0.85796112 30 5
9.4953747 2.4185762 -0.51352042 45 6
6.2976098 1.5806804 -1.7397816 4 0
6.9603043 1.7431413 -1.6565396 21 1
10.515322 2.6295667 0.5680545 2 9
8.0571823 2.0118716 -1.6142441 6 2
10.496857 2.6191099 0.94651133 1 10
9.1373043 2.2764955 -1.4914464 9 3
10.473716 2.6055655 1.3252074 2 11
9.4974546 2.3609438 -1.2016319 23 4
10.421895 2.5868802 1.7007557 3 12
9.516613 2.3586538 -0.85778677 42 5
9.4965162 2.3483958 -0.51268309 22 6
6.2972298 1.5339361 -1.7366759 4 0
7.1048565 1.726725 -1.6880326 16 1
10.630471 2.5796416 0.57328814 2 9
8.1225491 1.9680512 -1.6245478 9 2
10.673674 2.5842087 0.96080488 2 10
9.2720194 2.2414229 -1.5108442 10 3
10.700055 2.5826898 1.351531 2 11
12.304135 2.9675908 -1.554078 12 4
9.9047871 2.3815899 -0.89125466 25 5
6.3378668 1.4970412 -1.744958 4 0
7.1546736 1.6860213 -1.6970307 17 1
10.881521 2.560256 0.58584875 2 9
8.1532917 1.915342 -1.6279825 12 2
10.873784 2.552428 0.9771902 2 10
9.3451385 2.1901643 -1.5202303 11 3
10.899516 2.5504413 1.3744426 2 11
10.124844 2.3673077 -1.2767034 10 4
10.114799 2.359374 -0.90868574 19 5
6.3481631 1.4527581 -1.744958 4 0
7.2156668 1.6473082 -1.7087282 18 1
11.105103 2.5332124 0.59694397 2 9
8.2120829 1.8702631 -1.6371413 10 2
11.058419 2.5144429 0.992181 2 10
9.4445877 2.1457593 -1.5339966 12 3
11.098599 2.5174685 1.397354 2 11
10.309562 2.3347096 -1.2979087 16 4
10.294271 2.3255813 -0.92332792 13 5
6.3503609 1.4078413 -1.7428875 4 0
7.2761841 1.609095 -1.7204256 14 1
11.325349 2.5004034 0.60782987 2 9
8.2460289 1.8175346 -1.6413391 10 2
11.300986 2.4888201 1.0124011 1 10
9.5635185 2.1026771 -1.5508915 9 3
11.302043 2.4807816 1.420753 2 11
10.511362 2.3053 -1.3213075 19 4
10.528255 2.3013084 -0.94285083 19 5
6.3751464 1.3667127 -1.7470287 5 0
7.3062973 1.5623333 -1.7249247 17 1
11.530041 2.4613099 0.61787838 2 9
8.2892389 1.7664691 -1.6474451 7 2
11.512957 2.4513614 1.0298322 1 10
9.6707106 2.0555737 -1.5659091 10 3
11.528807 2.4463189 1.4470767 2 11
10.733043 2.2755067 -1.3471439 19 4
10.739001 2.2689321 -0.96028197 20 5
6.3769646 1.3206084 -1.744958 5 0
7.3723702 1.5227225 -1.7379718 14 1
11.809062 2.4347935 0.63190436 2 9
8.3667488 1.7220126 -1.6604201 9 2
11.713237 2.4086435 1.0462176 2 10
9.7022429 1.9915845 -1.5687251 14 3
11.74007 2.4056263 1.4714506 2 11
10.96648 2.2451122 -1.3744426 18 4
10.957606 2.2353265 -0.97841036 21 5
6.3860288 1.2760566 -1.744958 4 0
7.3751769 1.4696931 -1.7361722 11 1
12.045168 2.3959317 0.64362764 2 9
8.463295 1.6803867 -1.677211 9 2
11.960375 2.3725562 1.0667863 2 10
9.8186092 1.9441414 -1.5853071 11 3
11.970798 2.3659394 1.4982618 2 11
11.203898 2.2123415 -1.4022288 16 4
11.227083 2.2087719 -1.0010709 14 5
6.383615 1.2281369 -1.7418523 4 0
7.4046431 1.4205517 -1.7406713 10 1
12.309168 2.3570049 0.6568163 2 9
8.5753765 1.6389463 -1.6970552 4 2
12.207976 2.331003 1.087355 2 10
9.9389954 1.8941661 -1.6025149 13 3
12.201934 2.3210278 1.5250732 2 11
11.461267 2.1780615 -1.4324524 18 4
6.4148278 1.1877615 -1.7480639 5 0
7.4067149 1.3674077 -1.7388717 12 1
12.482057 2.302151 0.6651901 2 9
8.6558447 1.5933285 -1.7107936 4 2
12.478701 2.2925193 1.1100155 1 10
10.066291 1.8475085 -1.6209741 9 3
12.475196 2.2851241 1.5572467 2 11
11.722237 2.1429794 -1.4631635 19 4
6.441783 1.1474572 -1.7532402 4 0
7.4120131 1.3162785 -1.7379718 12 1
12.706285 2.2518985 0.67628533 2 9
8.7208881 1.5424343 -1.7214788 9 2
12.729454 2.2491312 1.1309329 2 10
10.152868 1.7902224 -1.6328632 12 3
12.741089 2.2420163 1.5884452 2 11
11.889052 2.0899405 -1.4821751 16 4
11.983282 2.097882 -1.064346 38 5
12.431124 2.1740546 2.4530406 1 13
11.90152 2.0771465 -0.63316047 43 6
6.4267859 1.0985514 -1.7470287 4 0
7.4479165 1.2690835 -1.7442704 11 1
13.009171 2.2120116 0.69156742 2 9
8.7159595 1.4788904 -1.7184259 16 2
12.945212 2.1941633 1.1487126 2 10
10.246922 1.7331392 -1.6460036 10 3
12.983491 2.1913347 1.6167189 2 11
12.054078 2.0323062 -1.5009429 21 4
11.9996 2.0145016 -1.0645202 15 5
12.018165 2.0111492 -0.63860339 8 6
6.4533629 1.0567822 -1.752205 5 0
7.4604411 1.2176877 -1.7451702 14 1
13.355473 2.1750782 0.70915228 2 9
