# .PCD v0.7 - Point Cloud Data file format
VERSION 0.7
FIELDS x y z intensity ring
SIZE 4 4 4 4 2
TYPE F F F F U
COUNT 1 1 1 1 1
WIDTH 1299
HEIGHT 1
VIEWPOINT 0 0 0 1 0 0 0
POINTS 1299
DATA ascii
-15.822493 -44.28791 2.4647098 1 9
-3.6859586 -10.305818 -2.1275203 7 2
-16.303133 -45.557945 4.2333288 1 10
-4.580893 -12.786904 -2.1512871 6 3
-6.5397625 -18.224747 -2.3774273 4 4
-2.2707031 -6.2353201 -1.7780869 2 0
-2.7178922 -7.4511566 -1.8311015 4 1
-16.221718 -44.424015 2.4785264 0 9
-3.7551191 -10.272458 -2.125994 7 2
-16.559189 -45.274612 4.2176404 1 10
-4.6618996 -12.732353 -2.1475327 6 3
-6.6572652 -18.152557 -2.3740151 4 4
-11.15003 -30.28858 -1.6914982 18 6
-2.3195674 -6.2338004 -1.782228 2 0
-2.7752874 -7.4466095 -1.8347007 4 1
-16.469297 -44.166599 2.4703622 1 9
-3.8180902 -10.228267 -2.1221778 7 2
-17.852652 -47.774509 4.4620252 1 10
-4.7505326 -12.705875 -2.1484711 5 3
-6.7726879 -18.075897 -2.3701153 4 4
-15.797823 -42.02943 -2.3531294 0 6
-2.3564577 -6.2034192 -1.7780869 2 0
-2.8272967 -7.4311895 -1.8356007 3 1
-12.30302 -32.302986 1.8115571 4 9
-3.8908002 -10.205032 -2.122941 7 2
-18.185949 -47.674221 4.4641171 1 10
-4.8327761 -12.655794 -2.1456554 6 3
-6.8785486 -17.984879 -2.3642654 4 4
-15.617028 -40.68375 -2.2838366 1 6
-2.4178715 -6.2336469 -1.7915455 2 0
-2.8748724 -7.4003716 -1.8329012 3 1
-17.654087 -45.420879 2.5538902 0 9
-3.9587498 -10.174652 -2.1221778 7 2
-18.561716 -47.657497 4.474576 1 10
-4.9145074 -12.611561 -2.1437781 6 3
-6.9894953 -17.899439 -2.3593907 4 4
-15.921268 -40.647175 -2.2878141 0 6
-2.4620428 -6.218411 -1.7920631 2 0
-2.9235933 -7.3728738 -1.8311015 2 1
-4.0401564 -10.167958 -2.1267571 7 2
-19.125826 -48.109951 4.5294838 1 10
-5.0009747 -12.566895 -2.1422138 5 3
-7.1128168 -17.846516 -2.3589032 4 4
-12.991183 -32.480289 -1.8333287 6 6
-2.5017772 -6.1921153 -1.789475 2 0
-2.9910753 -7.3920259 -1.8409994 2 1
-4.1026368 -10.123846 -2.1233225 6 2
-19.496426 -48.062038 4.5376763 1 10
-5.0893688 -12.539885 -2.1434653 5 3
-7.2222795 -17.759647 -2.3540282 4 4
-13.064122 -32.028637 -1.8128129 6 6
-2.5453384 -6.178515 -1.7905102 3 0
-3.0130785 -7.303041 -1.8239032 3 1
-20.156698 -48.807091 2.767421 0 9
-4.1777143 -10.105844 -2.1256123 6 2
-19.989889 -48.331425 4.575851 1 10
-5.1813235 -12.515 -2.1453426 4 3
-7.3353939 -17.691742 -2.3515911 4 4
-13.025017 -31.305994 -1.7770153 7 6
-2.5854175 -6.153471 -1.7884396 3 0
-3.067013 -7.2890124 -1.8257027 5 1
-20.588425 -48.882378 2.7797723 0 9
-4.2458768 -10.071005 -2.1244676 7 2
-5.2654948 -12.471243 -2.1440909 4 3
-7.4602728 -17.643755 -2.3520784 4 4
-12.945267 -30.511948 -1.7370306 8 6
-2.631356 -6.1423745 -1.7905102 3 0
-3.117825 -7.2674232 -1.8257027 4 1
-4.3145289 -10.03751 -2.1237042 7 2
-5.3430586 -12.412408 -2.1403368 4 3
-7.5738354 -17.569368 -2.3491538 4 4
-13.097706 -30.281511 -1.7290756 8 6
-2.6602571 -6.0919876 -1.7811928 3 0
-3.170826 -7.2508368 -1.8270525 6 1
-4.3859024 -10.015103 -2.1252308 9 2
-5.4401174 -12.404696 -2.1453426 5 3
-7.6883225 -17.49789 -2.3467162 4 4
-13.210097 -29.979645 -1.7169335 8 6
-2.7095139 -6.0913901 -1.7863692 3 0
-3.2201076 -7.2290854 -1.8270525 6 1
-4.454113 -9.9806547 -2.1244676 7 2
-5.5233588 -12.359201 -2.1440909 5 3
-7.7924452 -17.403933 -2.3413541 4 4
-13.046025 -29.055847 -1.6692032 19 6
-2.7514379 -6.068326 -1.7853339 3 0
-3.2669213 -7.1952109 -1.8243531 7 1
-4.5098686 -9.9189339 -2.11798 6 2
-5.613297 -12.322955 -2.1447167 4 3
-7.9121099 -17.345493 -2.3408666 4 4
-13.355001 -29.183317 -1.6819731 19 6
-2.7888756 -6.0384459 -1.782228 3 0
-3.3203459 -7.1793032 -1.8261526 7 1
-4.5733032 -9.8703766 -2.1145453 7 2
-5.7008524 -12.287051 -2.1453426 4 3
-8.0246458 -17.271833 -2.3384292 4 4
-13.420034 -28.792486 -1.664807 9 6
-2.8342514 -6.0258222 -1.7842987 3 0
-3.3654037 -7.14537 -1.8234532 7 1
-4.6437325 -9.8461208 -2.1160717 9 2
-5.7843556 -12.247962 -2.1453426 4 3
-8.141633 -17.20821 -2.3374541 4 4
-13.679057 -28.834003 -1.6725527 9 6
-2.8768706 -6.0098758 -1.7853339 3 0
-3.4072225 -7.1082397 -1.819854 7 1
-4.7089572 -9.8063841 -2.1145453 7 2
-5.8628736 -12.193039 -2.1428397 5 3
-8.2482433 -17.13093 -2.3345292 4 4
-12.18096 -25.21999 -1.4678143 11 6
-2.9094486 -5.970542 -1.7796398 2 0
-3.453346 -7.0772738 -1.8180546 8 1
-14.681925 -30.06245 1.7533594 11 9
-4.7790279 -9.7767982 -2.1153085 9 2
-5.9478507 -12.151813 -2.1428397 4 3
-8.3711348 -17.080061 -2.3355043 4 4
-12.411366 -25.245464 -1.4743041 23 6
-2.9467678 -5.941431 -1.7770516 2 0
-3.5061378 -7.0599742 -1.819854 7 1
-4.8392963 -9.727376 -2.1118741 6 2
-6.0483956 -12.141818 -2.1484711 5 3
-8.4883957 -17.017653 -2.335017 4 4
-12.263795 -24.511608 -1.4364128 11 6
-2.9881735 -5.9207149 -1.7770516 2 0
-3.5535805 -7.031847 -1.8189542 7 1
-4.9098282 -9.7029686 -2.1137822 7 2
-6.1228676 -12.084509 -2.1456554 6 3
-8.5746508 -16.894253 -2.3262422 4 4
-11.976548 -23.535763 -1.3839722 11 6
-3.0239949 -5.8916445 -1.7744634 2 0
-3.6031444 -7.010962 -1.819854 7 1
-4.9702563 -9.6544914 -2.1107292 7 2
-6.2061763 -12.039715 -2.1453426 5 3
-8.6785212 -16.814325 -2.3233173 4 4
-12.180968 -23.529617 -1.3885777 11 6
-3.0766764 -5.892652 -1.7811928 3 0
-3.646585 -6.9752746 -1.8171545 8 1
-5.0375366 -9.6195574 -2.1107292 7 2
-6.2928295 -12.001341 -2.146281 6 3
-8.7864656 -16.735756 -2.3208799 4 4
-12.341218 -23.436937 -1.388159 22 6
-3.1123018 -5.8607922 -1.7780869 3 0
-3.6915333 -6.9427638 -1.8153551 7 1
-5.099957 -9.575491 -2.1088212 6 2
-6.3746023 -11.953631 -2.1456554 6 3
-8.8974791 -16.663502 -2.3194177 4 4
-12.357268 -23.113977 -2.2930675 25 5
-12.575253 -23.48226 -1.3960094 22 6
-3.1466186 -5.8292708 -1.774981 4 0
-3.7405589 -6.9209042 -1.8162549 8 1
-5.1453886 -9.5042982 -2.1008072 7 2
-6.455821 -11.909964 -2.1456554 6 3
-8.9955473 -16.574636 -2.3155177 4 4
-12.783493 -23.485586 -1.4013476 11 6
-3.186223 -5.8077188 -1.774981 4 0
-3.7819502 -6.8850355 -1.8135554 8 1
-5.1740003 -9.4036913 -2.0863059 4 2
-6.5243487 -11.843251 -2.141588 5 3
-9.1052856 -16.501001 -2.3140552 4 4
-12.54375 -22.704227 -2.2693613 26 5
-13.001063 -23.502888 -1.4076281 22 6
-3.2182875 -5.7678995 -1.7698047 7 0
-3.8273203 -6.8509917 -1.8117559 8 1
-4.9970489 -8.9338436 -1.9897563 3 2
-6.6089272 -11.796262 -2.141588 5 3
-9.1833582 -16.371243 -2.3047931 4 4
-12.639507 -22.504923 -2.2582054 26 5
-13.180665 -23.430141 -1.4088842 22 6
-3.2594297 -5.7469711 -1.7703223 6 0
-3.875056 -6.8241048 -1.8117559 8 1
-5.0346432 -8.8517809 -1.9794526 7 2
-6.6852541 -11.739536 -2.1397109 5 3
-9.2954569 -16.303286 -2.3043058 4 4
-12.796309 -22.416138 -2.2582054 26 5
-13.355808 -23.358362 -1.4101402 11 6
-3.3062251 -5.7357922 -1.7739457 7 0
-3.9206543 -6.7935095 -1.810856 7 1
-5.0623655 -8.7612095 -1.9668592 10 2
-6.7758889 -11.712567 -2.1431525 6 3
-9.3871536 -16.200207 -2.2989435 4 4
-12.852509 -22.153919 -2.2407742 26 5
-13.534557 -23.301451 -1.4122336 11 6
-3.3422611 -5.7081542 -1.772393 6 0
-3.9648333 -6.7633038 -1.8099562 8 1
-5.1234045 -8.7256556 -1.9668592 12 2
-6.8554912 -11.661572 -2.1425269 6 3
-9.5032501 -16.1462 -2.300406 4 4
-12.901858 -21.89427 -2.2233431 27 5
-13.510108 -22.889914 -1.3929739 22 6
-3.3761034 -5.6747203 -1.7692871 6 0
-4.0079637 -6.7287621 -1.8081565 8 1
-5.181675 -8.6888933 -1.9664776 15 2
-6.9306569 -11.607856 -2.1412752 6 3
-9.5933218 -16.041983 -2.2950437 4 4
-13.080997 -21.84811 -2.227875 27 5
-13.663548 -22.793995 -1.3927646 11 6
-3.4146521 -5.6516085 -1.7692871 6 0
-13.697385 -22.652744 0.46206993 53 8
-4.0496383 -6.6946554 -1.806357 8 1
-5.2381387 -8.6457901 -1.9649512 16 2
-13.86305 -22.872597 2.3399572 2 10
-7.0166488 -11.567632 -2.1428397 5 3
-9.7002335 -15.972919 -2.2945561 4 4
-13.206289 -21.712 -2.2233431 27 5
-13.777673 -22.624701 -1.3882637 22 6
-3.4540243 -5.6276317 -1.7692871 6 0
-13.842631 -22.536123 0.46165106 52 8
-4.092196 -6.6595788 -1.8045573 9 1
-14.824157 -24.105747 1.4830965 7 9
-5.305573 -8.6207132 -1.9676224 12 2
-7.0920539 -11.509955 -2.1412752 6 3
-14.021257 -22.737843 3.2799919 3 11
-9.7844105 -15.860882 -2.288219 4 4
-13.960505 -22.568731 -1.3907758 22 6
-3.4860733 -5.5919061 -1.7656636 5 0
-14.05255 -22.523762 0.46339631 53 8
-4.142715 -6.6374617 -1.806357 7 1
-5.3562598 -8.5684824 -1.964188 16 2
-7.1743317 -11.463512 -2.141901 6 3
-9.8759308 -15.761909 -2.2838318 4 4
-13.402246 -21.35673 -2.2059119 27 5
-14.154911 -22.529907 -1.3944393 22 6
-3.5312276 -5.5772252 -1.7687694 7 0
-14.316485 -22.594023 0.46688676 53 8
-4.1806049 -6.5952106 -1.8027576 7 1
-5.3717537 -8.4612665 -1.9481598 18 2
-7.2499456 -11.406481 -2.1406496 6 3
-9.983592 -15.689229 -2.283344 4 4
-14.200128 -22.255432 -1.3835535 22 6
-3.5585852 -5.5345626 -1.7630754 6 0
-14.502006 -22.537247 0.4677943 54 8
-4.2244368 -6.5625863 -1.8018579 7 1
-5.4051628 -8.3839579 -1.9390012 24 2
-7.3443985 -11.378823 -2.1450298 6 3
-10.034702 -15.529114 -2.2701821 4 4
-13.695429 -21.169916 -2.2059119 27 5
-14.34646 -22.142349 -1.3827162 22 6
-3.6035647 -5.5215373 -1.7666988 5 0
-4.2668757 -6.5304179 -1.8009582 7 1
-5.4556556 -8.3371143 -1.9367114 25 2
-7.4151869 -11.318654 -2.1431525 6 3
-10.111868 -15.417294 -2.263845 4 4
-14.417832 -21.924032 -1.3751796 11 6
-3.6335976 -5.4856067 -1.7630754 6 0
-4.3026123 -6.4882298 -1.7973589 7 1
-5.5187926 -8.3095999 -1.9390012 22 2
-7.4986181 -11.277789 -2.1450298 6 3
-10.168642 -15.270319 -2.2526331 4 4
-14.096531 -21.144854 -2.2233431 27 5
-14.708651 -22.038025 -1.3885777 22 6
-3.6781504 -5.4674792 -1.7656636 7 0
-4.3467536 -6.4540424 -1.7964592 7 1
-5.5525241 -8.2350569 -1.9306054 10 2
-7.5769176 -11.220567 -2.1444039 6 3
-10.230531 -15.133176 -2.2428837 4 4
-15.181985 -22.398428 -1.4180952 22 6
-3.7162297 -5.4416685 -1.7656636 7 0
-4.3983045 -6.4331913 -1.7991585 7 1
-5.630167 -8.2226524 -1.937093 6 2
-7.6595345 -11.173915 -2.1456554 6 3
-10.313461 -15.02865 -2.2380087 4 4
-15.082127 -21.920031 -1.3944393 11 6
-3.7453241 -5.4028902 -1.7615224 7 0
-4.4431076 -6.4023299 -1.7991585 7 1
-5.6725645 -8.1647902 -1.9325136 3 2
-7.7444391 -11.134493 -2.1481583 6 3
-13.863844 -19.917772 2.9797056 5 11
-10.3909 -14.91719 -2.2321589 4 4
-15.656283 -22.426075 -1.4333773 11 6
-3.7786796 -5.3725309 -1.7599696 6 0
-4.4820962 -6.3655643 -1.7973589 9 1
-5.7203732 -8.112155 -1.9294606 3 2
-7.8014755 -11.051109 -2.1425269 6 3
-10.47845 -14.826662 -2.2292342 4 4
-15.860963 -22.384672 -1.4377736 22 6
-3.8239517 -5.3570266 -1.763593 5 0
-4.519629 -6.324605 -1.7946595 7 1
-5.7654414 -8.0560551 -1.9256444 3 2
-7.883038 -11.002798 -2.1437781 6 3
-10.555088 -14.716049 -2.223628 5 4
-16.089144 -22.37393 -1.4442631 34 6
-3.8544576 -5.3208127 -1.7604873 4 0
-4.5659614 -6.2960534 -1.7955593 7 1
-5.8123136 -8.0029011 -1.9225914 3 2
-7.9805698 -10.976255 -2.1494098 6 3
-10.609674 -14.5762 -2.213635 4 4
-16.316765 -22.35948 -1.4506482 23 6
-3.89151 -5.2937741 -1.7604873 5 0
-4.6098046 -6.2640238 -1.7955593 7 1
-5.8363771 -7.9220567 -1.9126694 3 2
-8.0550976 -10.921679 -2.1494098 7 3
-10.693485 -14.477822 -2.2099788 5 4
-14.187468 -19.187269 -2.0877285 30 5
-16.644451 -22.485481 -1.4661397 23 6
-3.9159045 -5.2516766 -1.7553109 5 0
-4.6569972 -6.2387481 -1.7973589 7 1
-5.879786 -7.8653941 -1.9088533 3 2
-8.1287823 -10.862014 -2.1487842 7 3
-10.763219 -14.36657 -2.204129 5 4
-14.339261 -19.118944 -2.0908663 30 5
-16.880188 -22.474134 -1.473048 23 6
-3.9664595 -5.2426977 -1.7615224 3 0
-4.6957321 -6.1998701 -1.7955593 7 1
-5.9438615 -7.8392701 -1.9122878 4 2
-8.1977501 -10.800139 -2.1475327 7 3
-10.856047 -14.281596 -2.2026668 5 4
-17.135653 -22.493757 -1.4819452 11 6
-3.9949968 -5.2063813 -1.7584167 4 0
-4.7354503 -6.1646729 -1.7946595 8 1
-5.9900656 -7.7866907 -1.9096165 3 2
-8.2862072 -10.759861 -2.1509743 8 3
-10.95058 -14.20423 -2.2021794 5 4
-17.316698 -22.405186 -1.4840385 11 6
-4.0241256 -5.169219 -1.7553109 3 0
-4.773581 -6.1253147 -1.7928599 7 1
-6.0201216 -7.7137289 -1.9019842 3 2
-8.3672037 -10.709534 -2.1525385 7 3
-11.022573 -14.093034 -2.1968169 5 4
-14.444117 -18.441145 -2.0493801 31 5
-14.344908 -18.294743 -1.2183812 20 6
-4.0649066 -5.1470623 -1.7573814 9 0
-4.8210616 -6.0979543 -1.7946595 6 1
-6.0397038 -7.6284146 -1.8912989 3 2
-8.4466724 -10.657052 -2.15379 7 3
-11.142896 -14.043732 -2.2012043 5 4
-14.386587 -18.105869 -2.0232334 32 5
-14.415087 -18.12225 -1.2135663 10 6
-4.0850368 -5.0989599 -1.7506521 11 0
-4.8635139 -6.0641494 -1.7946595 7 1
-6.1198621 -7.6197376 -1.8996944 3 2
-8.523345 -10.600901 -2.1544156 7 3
-11.2693 -14.001163 -2.2068105 9 4
-14.323837 -17.770758 -1.9969124 32 5
-14.62403 -18.12376 -1.2204746 20 6
-4.1059127 -5.0523272 -1.7444404 11 0
-4.9057302 -6.0300488 -1.7946595 7 1
-6.1853065 -7.5920491 -1.9035107 3 2
-8.603385 -10.548795 -2.1559801 8 3
-11.399411 -13.962129 -2.2131476 9 4
-14.321439 -17.516081 -1.9794812 33 5
-14.73755 -18.005766 -1.2194279 20 6
-4.1410861 -5.0235386 -1.7444404 10 0
-4.9452291 -5.9926462 -1.7937597 7 1
-6.1906328 -7.4911757 -1.8890091 3 2
-8.6768169 -10.488477 -2.1559801 8 3
-11.497871 -13.883735 -2.2133911 5 4
-14.361972 -17.317524 -1.9683253 33 5
-14.843754 -17.879393 -1.2178578 10 6
-4.1946425 -5.0167375 -1.752205 9 0
-4.9781885 -5.9475169 -1.7906104 5 1
-6.2907062 -7.5049477 -1.9035107 3 2
-8.7511015 -10.429156 -2.1562929 7 3
-11.563875 -13.766645 -2.2075415 5 4
-14.308093 -17.009478 -1.9446188 34 5
-4.2395597 -4.9991179 -1.7563461 5 0
-5.0145435 -5.9066753 -1.7888107 5 1
-6.2666478 -7.3711038 -1.8806137 3 2
-8.8160133 -10.358784 -2.1544156 7 3
-11.667424 -13.69465 -2.2090039 5 4
-13.795071 -16.180523 3.3677218 6 12
-14.348905 -16.818232 -1.9341602 34 5
-4.2608948 -4.9554963 -1.7511697 4 0
-5.0520906 -5.869452 -1.7879109 4 1
-6.3371849 -7.3520703 -1.8867195 3 2
-8.8992252 -10.313492 -2.1575444 7 3
-11.747395 -13.59989 -2.2065666 5 4
-14.410912 -16.659897 -1.9271878 34 5
-4.3030038 -4.9343657 -1.7542756 4 0
-5.1083212 -5.8516564 -1.7933098 2 1
-6.3702674 -7.2869558 -1.8813769 3 2
-8.9606028 -10.239219 -2.1550415 7 3
-11.826356 -13.499629 -2.2036417 5 4
-14.329775 -16.334229 -1.9010409 35 5
-4.345026 -4.9128871 -1.7573814 4 0
-5.1490507 -5.8158503 -1.7933098 2 1
-6.4314041 -7.2540579 -1.8844297 3 2
-9.0397348 -10.185278 -2.1569188 7 3
-11.92295 -13.419703 -2.204129 5 4
-14.300429 -16.073029 -1.8822154 35 5
-17.185217 -19.295038 -1.3541406 11 6
-4.3688993 -4.8709283 -1.7532402 5 0
-5.1843181 -5.773962 -1.7915101 2 1
-22.122839 -24.621698 1.7347277 12 9
-6.416255 -7.1359873 -1.8653487 3 2
-9.1185465 -10.130731 -2.1587958 7 3
-11.99243 -13.309594 -2.1997418 5 4
-14.265473 -15.810086 -1.8630412 36 5
-17.434631 -19.302061 -1.3631425 11 6
-4.4131975 -4.8517418 -1.7573814 5 0
-5.2349982 -5.749155 -1.7951094 2 1
-6.4382286 -7.0631294 -1.8577164 3 2
-9.1890507 -10.066824 -2.1587958 7 3
-12.077017 -13.216758 -2.1982794 5 4
-17.622265 -19.244806 -1.3675387 11 6
-4.4434996 -4.8187504 -1.7563461 5 0
-5.2634344 -5.7019339 -1.7915101 5 1
-6.5474458 -7.0854716 -1.8752708 3 2
-9.2757359 -10.027411 -2.1634889 8 3
-12.161712 -13.133455 -2.1977918 5 4
-14.259908 -15.377755 -1.8348027 36 5
-17.831657 -19.209314 -1.3736097 11 6
-4.4661288 -4.7792931 -1.7527226 6 0
-5.2944789 -5.6597843 -1.7892607 3 1
-6.6277361 -7.0751266 -1.8844297 3 2
-9.3545847 -9.9755678 -2.1659918 8 3
-12.242233 -13.036654 -2.195842 5 4
-14.216868 -15.123551 -1.815977 37 5
-18.014618 -19.136707 -1.3773779 11 6
-4.5042014 -4.7514181 -1.7542756 5 0
-5.3174052 -5.6033769 -1.783412 4 1
-6.5862312 -6.9307451 -1.8584797 3 2
-9.4175577 -9.8997869 -2.1641147 8 3
-12.346162 -12.960216 -2.1977918 6 4
-14.239476 -14.932035 -1.8051698 37 5
-18.23937 -19.099756 -1.3840768 11 6
-4.5487976 -4.730206 -1.7584167 5 0
-5.362772 -5.5707989 -1.7852116 5 1
-6.5866055 -6.8325529 -1.8447415 3 2
-9.4812994 -9.825036 -2.1625502 7 3
-12.427551 -12.860117 -2.195842 5 4
-14.207434 -14.686558 -1.7877386 37 5
-18.461189 -19.063782 -1.3907758 11 6
-4.5744362 -4.6892376 -1.7553109 4 0
-5.410666 -5.5406475 -1.7879109 5 1
-6.6917849 -6.8453693 -1.8607695 3 2
-9.5596542 -9.7654076 -2.1644275 7 3
-12.519805 -12.775882 -2.1963296 6 4
-21.599621 -22.026018 4.8860745 7 12
-14.206368 -14.481768 -1.7748394 38 5
-18.619524 -18.953989 -1.3924506 11 6
-4.5934758 -4.6434526 -1.7501343 4 0
-5.4505877 -5.5041223 -1.7883608 3 1
-21.741501 -21.93973 1.6187513 24 9
-6.6383009 -6.6941481 -1.8325297 3 2
-21.722404 -21.897507 2.6985161 15 10
-9.6164627 -9.6872158 -2.1619246 6 3
-21.743412 -21.8881 3.788187 21 11
-12.628282 -12.707879 -2.1997418 5 4
-21.780718 -21.902708 4.8923321 24 12
-14.273401 -14.348334 -1.7706561 38 5
-18.827509 -18.899946 -1.3981029 11 6
-4.6490393 -4.6344581 -1.7589344 6 0
-5.4957838 -5.4728127 -1.7906104 2 1
-6.7560878 -6.7208071 -1.8523737 3 2
-9.6485481 -9.5881176 -2.1544156 6 3
-12.722328 -12.625 -2.2007167 6 4
-14.401524 -14.276392 -1.7741423 38 5
-19.049387 -18.864105 -1.4050112 11 6
-4.6543069 -4.5769696 -1.7490991 4 0
-5.5023251 -5.4052329 -1.7807125 4 1
-6.7804217 -6.6514783 -1.8462679 3 2
-9.6997347 -9.5053148 -2.1509743 5 3
-12.805132 -12.535333 -2.2002294 6 4
-14.472342 -14.14765 -1.7706561 38 5
-19.266352 -18.814388 -1.4112916 11 6
-4.6972399 -4.5551248 -1.7532402 4 0
-5.5483251 -5.3748231 -1.783412 3 1
-6.8210464 -6.5985212 -1.8447415 3 2
-9.7672749 -9.4387407 -2.1512871 7 3
-12.906611 -12.459419 -2.2026668 6 4
-14.52486 -14.002017 -1.7650781 38 5
-19.469168 -18.748692 -1.4165251 11 6
-4.7233424 -4.5168791 -1.7511697 4 0
-5.5828943 -5.3332653 -1.7825122 2 1
-6.815805 -6.5019579 -1.8310033 3 2
-9.8329296 -9.3703241 -2.1512871 6 3
-12.990405 -12.366274 -2.2021794 6 4
-14.666035 -13.94676 -1.7706561 38 5
-19.669096 -18.678331 -1.4215493 11 6
-4.7378945 -4.4678903 -1.744958 4 0
-5.6058054 -5.2807984 -1.7780131 2 1
-6.8456068 -6.4419584 -1.8271869 3 2
-9.9051228 -9.3112926 -2.1531644 7 3
-13.064843 -12.264414 -2.2002294 6 4
-14.835708 -13.912179 -1.7793715 38 5
-19.921135 -18.661446 -1.4305512 11 6
-4.7823415 -4.4486947 -1.7501343 5 0
-5.6473312 -5.2478247 -1.7798127 3 1
-6.8846569 -6.3886685 -1.8256606 3 2
-9.9785757 -9.2499743 -2.1550415 7 3
-13.159672 -12.185993 -2.2021794 6 4
-15.000265 -13.875814 -1.7877386 37 5
-20.14776 -18.611361 -1.4374595 11 6
-4.8047409 -4.4073644 -1.7470287 5 0
-5.6536584 -5.1806235 -1.7703648 3 1
-6.9453616 -6.3575649 -1.8302399 3 2
-10.015067 -9.1578436 -2.1494098 6 3
-13.250288 -12.099178 -2.2031541 6 4
-15.170368 -13.837894 -1.7964542 37 5
-20.333029 -18.527596 -1.4416465 11 6
-4.860414 -4.3978882 -1.7563461 3 0
-5.6815624 -5.1354866 -1.7681153 4 1
-6.9954047 -6.3141856 -1.8317665 3 2
-10.046479 -9.0586033 -2.1425269 7 3
-13.320534 -11.998079 -2.2012043 5 4
-15.340672 -13.798267 -1.8051698 37 5
-4.8794661 -4.3535609 -1.752205 4 0
-5.7085471 -5.0879183 -1.7654159 4 1
-7.0598488 -6.2834673 -1.8371091 3 2
-10.043045 -8.9291782 -2.1284475 5 3
-13.409912 -11.910064 -2.2021794 5 4
-15.585686 -13.823034 -1.8226008 37 5
-4.9010382 -4.3117337 -1.7490991 4 0
-5.7527108 -5.0556598 -1.7681153 4 1
-7.0740299 -6.2081289 -1.8294767 3 2
-9.8333092 -8.6205473 -2.0711925 3 3
-13.492731 -11.816157 -2.2021794 6 4
-15.873784 -13.881772 -1.8449128 36 5
-4.9047523 -4.2546268 -1.7397816 4 0
-5.8070107 -5.0319648 -1.7739639 7 1
-7.1082892 -6.1508846 -1.8271869 3 2
-9.7826643 -8.4560919 -2.0480404 3 3
-13.568886 -11.716478 -2.2012043 6 4
-16.078947 -13.864294 -1.8574631 36 5
-4.9578252 -4.2403731 -1.7480639 3 0
-5.8212552 -4.9735813 -1.7676654 7 1
-7.1420979 -6.0934634 -1.8248973 3 2
-9.7813215 -8.33634 -2.0355256 3 3
-13.650349 -11.621468 -2.2012043 5 4
-16.251245 -13.816231 -1.8661788 36 5
-4.9932146 -4.210639 -1.7501343 3 0
-5.8439136 -4.9227748 -1.7640662 8 1
-7.2024908 -6.0586205 -1.8294767 3 2
-9.7576132 -8.1992283 -2.0186305 4 3
-13.712901 -11.510575 -2.1982794 6 4
-5.0224886 -4.1756773 -1.7501343 3 0
-5.8766384 -4.8806129 -1.7636162 10 1
-7.2446141 -6.0081882 -1.8294767 3 2
-9.7781115 -8.1006603 -2.0111217 3 3
-13.780696 -11.404433 -2.1963296 5 4
-16.578402 -13.705101 -1.8818668 35 5
-5.0425539 -4.1331644 -1.7470287 4 0
-5.9196148 -4.8468747 -1.7663157 10 1
-7.2397513 -5.9214497 -1.8180283 3 2
-9.7779522 -7.9889235 -1.9998584 4 3
-13.866126 -11.31297 -2.1973045 5 4
-16.766338 -13.664554 -1.8923255 35 5
-5.0645604 -4.0938869 -1.744958 4 0
-5.9570179 -4.8101411 -1.7676654 9 1
-7.2625742 -5.8559747 -1.8134488 3 2
-9.7811813 -7.8783355 -1.9892209 4 3
-13.958277 -11.230769 -2.1997418 6 4
-13.719969 -11.003565 4.0603666 3 14
-5.1020823 -4.0656548 -1.7480639 3 0
-5.9965515 -4.7732925 -1.769465 7 1
-7.3401651 -5.8344483 -1.8226075 3 2
-9.7833452 -7.7680941 -1.9785833 3 3
-14.017679 -11.118245 -2.1968169 6 4
-17.269424 -13.677766 -1.927362 34 5
-5.1303415 -4.0299363 -1.7480639 3 0
-6.035862 -4.736124 -1.7712647 7 1
-7.3559909 -5.76369 -1.8165017 3 2
-9.7906694 -7.6630807 -1.9691973 4 3
-14.104337 -11.027451 -2.1982794 6 4
-5.1522408 -3.9892907 -1.7459934 3 0
-6.062613 -4.6891017 -1.769465 7 1
-7.3836193 -5.7025948 -1.8134488 3 2
-9.8126488 -7.5704093 -1.9629399 3 3
-14.184125 -10.931139 -2.1987669 6 4
-5.1922503 -3.9626014 -1.7501343 3 0
-6.0859022 -4.639575 -1.7667656 7 1
-7.4388719 -5.6627994 -1.8172649 3 2
-9.8055096 -7.456284 -1.9510508 3 3
-14.269578 -10.839054 -2.2002294 5 4
-5.201263 -3.9123201 -1.7439228 3 0
-6.1243768 -4.601655 -1.7685652 7 1
-7.5180707 -5.6426744 -1.8271869 3 2
-9.8022995 -7.3490787 -1.9404132 3 3
-14.357615 -10.748687 -2.2021794 6 4
-5.237082 -3.8837311 -1.7470287 3 0
-6.1430292 -4.5505829 -1.7649659 7 1
-7.5193982 -5.5620332 -1.8180283 3 2
-9.8470106 -7.275774 -1.9391619 3 3
-14.429109 -10.645833 -2.2016916 6 4
-18.375521 -13.542652 -1.9970866 32 5
-5.2709785 -3.8507156 -1.7490991 3 0
-6.1659894 -4.4996171 -1.7622666 7 1
-7.554873 -5.5070868 -1.8172649 3 2
-9.8381329 -7.1609497 -1.9272728 3 3
-14.488626 -10.534335 -2.1994979 8 4
-5.2820549 -3.8025353 -1.7439228 3 0
-6.2004175 -4.4587345 -1.7631663 7 1
-7.6036549 -5.4597573 -1.8195547 3 2
-9.8686237 -7.0782752 -1.9235184 3 3
-14.566659 -10.436399 -2.2002294 6 4
-18.724836 -13.40072 -2.0145178 32 5
-29.215635 -20.87781 -1.8818964 9 6
-5.294291 -3.7555084 -1.739264 2 0
-6.2250328 -4.4108334 -1.7613667 6 1
-7.6726909 -5.4305596 -1.8271869 3 2
-9.8359241 -6.9539223 -1.9078751 2 3
-14.632676 -10.32987 -2.1992545 6 4
-29.611794 -20.857882 -1.8982253 9 6
-5.3118153 -3.71385 -1.7366759 2 0
-6.2485218 -4.3638959 -1.7595671 6 1
-7.6556649 -5.3386788 -1.814212 3 2
-9.8809919 -6.8828249 -1.9072492 2 3
-14.692874 -10.223226 -2.1977918 6 4
-19.296263 -13.406265 -2.0556552 31 5
-30.009375 -20.826015 -1.9143449 8 6
-5.3471584 -3.6832509 -1.7397816 2 0
-6.2788353 -4.3201666 -1.7595671 6 1
-7.7218761 -5.3051152 -1.8210812 3 2
-9.922286 -6.8092055 -1.9059978 3 3
-14.739326 -10.103569 -2.1941359 8 4
-30.421135 -20.798607 -1.9313016 3 6
-5.3663483 -3.6414921 -1.7377111 2 0
-6.3056164 -4.2740397 -1.7586673 6 1
-7.739213 -5.2378716 -1.8165017 3 2
-9.9433975 -6.7220674 -1.9009918 4 3
-14.812792 -10.002645 -2.1946235 8 4
-30.797518 -20.741928 -1.9459558 3 6
-5.410912 -3.6168232 -1.7439228 2 0
-6.3369222 -4.2309966 -1.7591172 5 1
-7.7527232 -5.1684685 -1.8111591 3 2
-9.9621325 -6.633873 -1.8956732 4 3
-14.892179 -9.9055843 -2.1960857 8 4
-31.194553 -20.694231 -1.9618658 6 6
-5.4134412 -3.5640874 -1.7366759 2 0
-6.354907 -4.1791592 -1.7559679 3 1
-7.7590756 -5.0948234 -1.8042899 3 2
-9.9784698 -6.5446644 -1.8900415 5 3
-14.972594 -9.8089914 -2.1977918 6 4
-18.409826 -12.051643 3.4850476 2 12
-31.622499 -20.661669 -1.97966 5 6
-5.4495373 -3.5335648 -1.7402993 2 0
-6.3757501 -4.129395 -1.7537185 3 1
-7.7944546 -5.0405307 -1.8042899 3 2
-10.013962 -6.4684086 -1.8881643 5 3
-15.045713 -9.7074518 -2.198523 8 4
-32.078377 -20.641432 -1.9991291 4 6
-13.685016 -8.7889977 4.3579955 6 15
-5.4512782 -3.4808779 -1.7330524 2 0
-6.3945656 -4.078496 -1.751019 3 1
-7.8195181 -4.9796648 -1.8020002 3 2
-10.022207 -6.3750186 -1.8812811 5 3
-15.160028 -9.6319876 -2.2053478 8 4
-32.511883 -20.600842 -2.0171328 3 6
-5.5196028 -3.4705012 -1.7470287 3 0
-6.4261827 -4.0358286 -1.7519189 3 1
-7.8432531 -4.9200659 -1.7997105 3 2
-10.058671 -6.3024559 -1.8800297 5 3
-15.231954 -9.5290747 -2.206079 6 4
-32.935993 -20.556728 -2.0347176 1 6
-5.4905415 -3.4003017 -1.7304642 2 0
-6.4336171 -3.9796913 -1.74652 3 1
-7.8740711 -4.8631248 -1.7989473 3 2
-10.095701 -6.227932 -1.8787781 5 3
-15.328572 -9.4449577 -2.21071 8 4
-33.388409 -20.516598 -2.0537677 1 6
-5.5273404 -3.3699341 -1.7346053 2 0
-6.4645734 -3.9367051 -1.7474198 2 1
-7.8726015 -4.7866182 -1.7909334 4 2
-10.11023 -6.1398697 -1.8734595 3 3
-15.424685 -9.3562498 -2.2150974 8 4
-33.768368 -20.426693 -2.0683172 0 6
-5.5242305 -3.315357 -1.7263231 2 0
-6.4918985 -3.8914795 -1.7474198 2 1
-7.8974028 -4.7264986 -1.7890252 4 2
-10.142674 -6.063056 -1.8715822 3 3
-15.513492 -9.2625799 -2.2185097 8 4
-34.315144 -20.431597 -2.0930197 0 6
-5.5538936 -3.2806411 -1.7283937 2 0
-6.5189071 -3.8460639 -1.7474198 3 1
-7.9217501 -4.6662674 -1.7871171 9 2
-10.157515 -5.9760718 -1.8665762 4 3
-15.601738 -9.1681337 -2.2219219 8 4
-34.818817 -20.403587 -2.115001 0 6
-5.5900235 -3.2495532 -1.7325348 2 0
-6.559082 -3.8082862 -1.751019 2 1
-7.9830074 -4.6275897 -1.7936047 6 2
-10.212663 -5.9129343 -1.8690792 3 3
-15.668797 -9.0609808 -2.2224095 8 4
-35.28569 -20.347582 -2.1346791 0 6
-5.5924506 -3.1989393 -1.7263231 2 0
-6.5719714 -3.7546704 -1.7474198 2 1
-7.9751019 -4.5507641 -1.7848274 4 2
-10.245809 -5.8393688 -1.8678278 3 3
-15.729951 -8.950386 -2.2221658 6 4
-32.821426 -18.630014 -1.9778807 2 6
-5.6241951 -3.1664851 -1.7294289 2 0
-6.5837874 -3.7022078 -1.7438205 2 1
-8.0186615 -4.5017042 -1.7874987 6 2
-10.24842 -5.7464433 -1.8609446 3 3
-15.778387 -8.836319 -2.2204597 8 4
-32.764099 -18.296238 -1.9666808 6 6
-5.6157446 -3.1102972 -1.7201115 2 0
-6.6162944 -3.6599271 -1.7456201 2 1
-8.0078754 -4.424233 -1.77834 4 2
-10.283838 -5.6746421 -1.8603188 2 3
-15.839689 -8.7259531 -2.2204597 8 4
-32.742596 -17.992958 -1.957993 9 6
-5.6486607 -3.0784698 -1.7237349 2 0
-6.63763 -3.6129434 -1.7447205 2 1
-8.0644417 -4.3822823 -1.7840642 4 2
-10.298896 -5.58952 -1.8559387 2 3
-15.909188 -8.6236095 -2.2219219 8 4
-32.69698 -17.67182 -1.9478399 6 6
-5.6683116 -3.0380485 -1.7232174 3 0
-6.6489458 -3.55916 -1.7411212 2 1
-8.0871582 -4.3235846 -1.7825377 4 2
-10.301854 -5.5006795 -1.8496813 2 3
-15.979516 -8.5179348 -2.2233846 8 4
-32.694828 -17.384148 -1.9406174 10 6
-5.68715 -2.9984939 -1.7226996 2 0
-6.6764669 -3.5156355 -1.742021 2 1
-8.0806522 -4.247839 -1.7745237 3 2
-10.357496 -5.4378052 -1.85281 2 3
-15.302251 -8.0236406 -2.1215017 1 4
-32.679104 -17.08423 -1.9325577 7 6
-5.7113748 -2.9604967 -1.7237349 2 0
-6.7112312 -3.4743164 -1.7447205 2 1
-8.0814772 -4.1783085 -1.768418 3 2
-10.390759 -5.3653674 -1.8521842 2 3
-15.253789 -7.862957 -2.1071212 2 4
-32.657867 -16.791075 -1.9244981 11 6
-5.7365575 -2.9241838 -1.7252878 3 0
-6.7381973 -3.4303219 -1.7456201 2 1
-8.1139498 -4.1235662 -1.7691811 3 2
-10.399778 -5.2783909 -1.8471783 3 3
-15.142289 -7.6754766 -2.0844533 3 4
-33.070198 -16.712208 -1.9418734 7 6
-5.7395597 -2.8754108 -1.7201115 3 0
-6.7236409 -3.3640139 -1.7357224 2 1
-8.1460514 -4.0685759 -1.7699443 3 2
-10.408092 -5.1915536 -1.8421725 3 3
-15.032034 -7.4881482 -2.0620294 3 4
-5.7386947 -2.8250337 -1.7138997 4 0
-6.7329702 -3.3101153 -1.7321231 2 1
-8.1636839 -4.0064173 -1.7676547 3 2
-10.436987 -5.1152873 -1.840921 3 3
-14.991231 -7.3376427 -2.049355 3 4
-5.7617564 -2.786582 -1.7149351 3 0
-6.7629352 -3.2664182 -1.7339227 2 1
-8.1631594 -3.9356844 -1.7615488 3 2
-10.447527 -5.0303011 -1.8365408 4 3
-14.916862 -7.1725898 -2.0322933 2 4
-34.562008 -16.566751 -2.0086541 2 6
-5.8194585 -2.7645278 -1.7263231 3 0
-6.8137436 -3.2324905 -1.7411212 1 1
-8.1833382 -3.8752379 -1.7600222 3 2
-10.46096 -4.9471068 -1.8327864 4 3
-14.898362 -7.0360622 -2.0230312 1 4
-35.128578 -16.537746 -2.0348222 1 6
-5.8141065 -2.7123985 -1.7190762 3 0
-6.7937503 -3.1650918 -1.7303236 1 1
-8.2059669 -3.8177893 -1.759259 3 2
-10.494392 -4.8757868 -1.8327864 4 3
-14.828262 -6.8767633 -2.0069444 1 4
-35.668144 -16.496109 -2.0595248 0 6
-5.8324342 -2.6727614 -1.7190762 3 0
-6.7867846 -3.1058002 -1.7231251 3 1
-8.2609921 -3.7734613 -1.765365 3 2
-10.510202 -4.7942076 -1.8296577 4 3
-14.773562 -6.729589 -1.9932952 1 4
-36.211628 -16.441565 -2.0842273 0 6
-5.8509521 -2.6319768 -1.7190762 3 0
-6.8154125 -3.061538 -1.7249247 3 1
-8.2728014 -3.7092729 -1.7623119 3 2
-10.527189 -4.7134533 -1.8268418 4 3
-14.729576 -6.5857692 -1.9811082 2 4
-32.36314 -14.422543 -1.8568799 5 6
-5.8727183 -2.5926273 -1.7201115 3 0
-6.8330531 -3.0123122 -1.7240249 2 1
-8.2841215 -3.6450999 -1.759259 3 2
-10.547179 -4.6342797 -1.8246518 4 3
-14.697026 -6.4484844 -1.9706273 2 4
-32.320301 -14.133833 -1.8487154 5 6
-5.9048567 -2.5577075 -1.7242525 3 0
-6.8610711 -2.9676297 -1.7258245 3 1
-8.3123446 -3.5901861 -1.7600222 3 2
-10.558527 -4.5537744 -1.8212101 4 3
-14.697927 -6.32689 -1.9647778 5 4
-32.213867 -13.82686 -1.8372015 5 6
-5.8990169 -2.5076301 -1.7175232 2 0
-6.8739371 -2.9178133 -1.7240249 2 1
-8.348052 -3.5366626 -1.7623119 3 2
-10.504555 -4.4437819 -1.8065054 9 3
-14.704079 -6.2112479 -1.959903 5 4
-32.254395 -13.578375 -1.8340615 6 6
-5.9217286 -2.4686177 -1.7190762 3 0
-6.8995361 -2.8720014 -1.7253746 3 1
-8.3538027 -3.472224 -1.7584958 3 2
-10.563751 -4.3842921 -1.8115114 9 3
-14.714071 -6.094769 -1.9555157 5 4
-32.283302 -13.332597 -1.8305026 36 6
-5.9419713 -2.4297147 -1.7201115 3 0
-6.8864503 -2.8117115 -1.7172763 3 1
-8.3596592 -3.4064081 -1.7546796 3 2
-10.573975 -4.302247 -1.8080698 5 3
-14.685329 -5.9660802 -1.9462537 4 4
-32.479271 -13.148864 -1.8363642 6 6
-5.9265113 -2.3752367 -1.710794 2 0
-6.8950572 -2.7592208 -1.714577 3 1
-8.3941755 -3.3523345 -1.7569693 3 2
-10.600081 -4.2268615 -1.8074441 4 3
-14.693425 -5.8501978 -1.9418663 4 4
-32.893303 -13.049952 -1.8545771 5 6
-5.9555368 -2.338747 -1.7144175 2 0
-6.9341087 -2.7188439 -1.7195259 3 1
-8.4356575 -3.3008046 -1.7607856 3 2
-10.656932 -4.1635356 -1.812137 3 3
-14.708019 -5.7373729 -1.938454 4 4
-33.475063 -13.011023 -1.8822105 4 6
-5.9861426 -2.3026624 -1.7185585 2 0
-6.9511008 -2.6696713 -1.7190759 3 1
-8.4401627 -3.2348058 -1.7569693 3 2
-10.667289 -4.0819774 -1.8090084 3 3
-14.692082 -5.6133003 -1.9311417 4 4
-33.938408 -12.919106 -1.903145 4 6
-5.9858022 -2.2546849 -1.7138997 2 0
-6.9458575 -2.6121593 -1.7132272 4 1
-8.4845972 -3.1840835 -1.7615488 3 2
-10.691827 -4.0060229 -1.8083826 3 3
-14.684429 -5.4932089 -1.9250482 3 4
-34.465698 -12.845078 -1.9276381 3 6
-5.9905214 -2.2088327 -1.710794 2 0
-6.9529514 -2.5595667 -1.7105279 2 1
-8.4955635 -3.1207082 -1.759259 3 2
-10.686152 -3.9190369 -1.8027509 4 3
-14.696326 -5.3809996 -1.921636 3 4
-5.9876237 -2.1604006 -1.7056175 2 0
-7.0183201 -2.5281348 -1.7222252 2 1
-8.5688725 -3.0799174 -1.7699443 3 2
-10.703955 -3.8410046 -1.8011867 4 3
-14.714847 -5.2715778 -1.9191986 3 4
-6.0171342 -2.1236899 -1.7097588 2 0
-7.0100665 -2.4700093 -1.7159266 3 1
-8.5748224 -3.0163078 -1.7668914 3 2
-10.724258 -3.7660921 -1.800248 4 3
-14.738176 -5.1641216 -1.9174925 2 4
-16.45422 -5.7299652 4.6685781 5 15
-6.0643187 -2.0940347 -1.7190762 2 0
-7.0156627 -2.418427 -1.7132272 4 1
-8.5399761 -2.9372175 -1.7554429 3 2
-10.757764 -3.6936972 -1.8014996 4 3
-14.741061 -5.0527434 -1.9133489 1 4
-6.0458426 -2.0405266 -1.7097588 1 0
-7.0194483 -2.3650341 -1.7100779 3 1
-8.5974913 -2.8900361 -1.7630752 3 2
-10.75707 -3.6097057 -1.7971194 4 3
-14.71198 -4.9282699 -1.9050617 2 4
-6.0837922 -2.0061338 -1.716488 2 0
-7.0450435 -2.3190181 -1.7123275 4 1
-8.5652304 -2.8127925 -1.7523898 3 2
-10.800777 -3.5406752 -1.800248 3 3
-14.730933 -4.8205051 -1.9031119 2 4
-6.0700655 -1.954731 -1.7087234 3 0
-7.0536404 -2.2673943 -1.7105279 5 1
-8.51688 -2.7328341 -1.7386516 3 2
-10.847203 -3.4743052 -1.8040025 3 3
-14.756663 -4.7151299 -1.9021369 3 4
-6.1090302 -1.9214828 -1.7159703 3 0
-7.0651917 -2.2181616 -1.709628 4 1
-8.584465 -2.6885624 -1.7485738 3 2
-10.810862 -3.379632 -1.7939906 2 3
-14.758098 -4.6051145 -1.8982371 3 4
-6.1001339 -1.8719859 -1.7097588 3 0
-7.1010022 -2.1750593 -1.714577 6 1
-8.6011467 -2.6279945 -1.7481922 4 2
-10.822855 -3.3006208 -1.7921134 2 3
-14.763298 -4.4938817 -1.8948246 3 4
-37.754162 -11.441809 -2.0674798 0 6
-6.1241589 -1.8326765 -1.7128645 3 0
-7.1234822 -2.1276646 -1.7163765 7 1
-8.617403 -2.5673206 -1.7478106 3 2
-10.830487 -3.2204757 -1.7896105 2 3
-14.771477 -4.3839235 -1.8918999 3 4
-38.216198 -11.291149 -2.0884142 0 6
-6.1238208 -1.786092 -1.709241 2 0
-7.1381617 -2.0778832 -1.7163765 6 1
-8.6068344 -2.498888 -1.7420862 4 2
-10.845116 -3.1425896 -1.7883589 2 3
-14.767397 -4.2707696 -1.8875126 3 4
-38.140553 -10.979862 -2.0800405 0 6
-6.1119838 -1.7364316 -1.7025118 2 0
-7.1468706 -2.0264025 -1.7150269 5 1
-8.6032896 -2.4328659 -1.7378885 3 2
-10.885801 -3.0721679 -1.7914877 1 3
-14.772012 -4.1605768 -1.884344 4 4
-38.108582 -10.683143 -2.0741789 0 6
-6.1090617 -1.6896012 -1.6983706 2 0
-7.1458144 -1.9723123 -1.7114276 4 1
-8.5859928 -2.3633635 -1.7310193 3 2
-10.918413 -2.9992325 -1.793365 1 3
-14.718376 -4.0347762 -1.8738631 7 4
-38.066624 -10.385293 -2.0678985 0 6
-6.1374974 -1.6514282 -1.7030294 2 0
-7.15941 -1.9223769 -1.7114276 4 1
-8.6591749 -2.3186004 -1.7424678 3 2
-10.912368 -2.9157982 -1.7889848 1 3
-14.799891 -3.9462485 -1.880688 7 4
-6.1414013 -1.6065845 -1.7009588 2 0
-7.1651139 -1.8703792 -1.709628 4 1
-8.6519604 -2.2536674 -1.7378885 3 2
-10.924314 -2.8394647 -1.7877333 1 3
-14.809787 -3.8383434 -1.8784941 2 4
-6.1559386 -1.5656979 -1.7019941 2 0
-7.1739011 -1.8206073 -1.7087282 5 1
-8.6712885 -2.1941731 -1.7386516 3 2
-10.913228 -2.7553921 -1.7827275 1 3
-14.802847 -3.729207 -1.8743507 3 4
-40.378044 -10.119796 -2.1815722 0 6
-6.1704707 -1.5236094 -1.7030294 2 0
-7.1675153 -1.7658165 -1.7042291 4 1
-8.6517057 -2.1266632 -1.7317824 3 2
-10.966263 -2.6895132 -1.7883589 2 3
-14.836232 -3.6276586 -1.8753256 3 4
-6.1750622 -1.4802235 -1.7014765 3 0
-7.1907401 -1.719709 -1.7069286 5 1
-8.6548824 -2.0634811 -1.7294928 3 2
-10.957868 -2.606492 -1.7839788 2 3
-14.858649 -3.5261326 -1.8750819 2 4
-6.1551385 -1.4300807 -1.6931943 3 0
-7.2101641 -1.6712264 -1.7087282 5 1
-8.672554 -2.0054061 -1.7302561 3 2
-10.998453 -2.5371718 -1.7877333 2 3
-14.882906 -3.4223101 -1.8750819 2 4
-42.883049 -9.8136492 -2.3055038 0 6
-6.185461 -1.3928205 -1.6988882 2 0
-7.1833453 -1.6135693 -1.6997302 4 1
-8.7016697 -1.948245 -1.733309 3 2
-10.992764 -2.4551594 -1.7839788 2 3
-14.903917 -3.320498 -1.8748381 2 4
-45.177402 -10.007322 -2.4250391 0 6
-6.1818209 -1.3467253 -1.6952648 3 0
-7.2058611 -1.5658637 -1.7024295 4 1
-8.6881962 -1.8816285 -1.7279664 3 2
-10.990327 -2.3741846 -1.7808502 2 3
-14.953903 -3.2222221 -1.8782505 1 4
-6.191072 -1.3035352 -1.6952648 3 0
-7.2128029 -1.5147182 -1.7015297 5 1
-8.7049627 -1.821734 -1.7287296 3 2
-11.02597 -2.3014386 -1.7839788 2 3
-14.960486 -3.1145124 -1.8763006 2 4
-6.1962357 -1.2595121 -1.6942296 3 0
-7.2384815 -1.4674239 -1.705129 5 1
-8.7097712 -1.7593623 -1.727203 3 2
-11.034023 -2.2228463 -1.7827275 2 3
-14.954618 -3.0045185 -1.8728882 1 4
-6.1972947 -1.2147372 -1.6921589 9 0
-7.2428112 -1.4157324 -1.7037793 6 1
-8.7449665 -1.7030174 -1.7317824 3 2
-11.014368 -2.1389816 -1.7770958 2 3
-14.940149 -2.893249 -1.8685009 2 4
-6.1961317 -1.1696519 -1.6895708 11 0
-7.2237916 -1.3597281 -1.6970307 5 1
-8.7643614 -1.643374 -1.733309 3 2
-11.083401 -2.0721996 -1.785856 2 3
-14.967791 -2.7903318 -1.869476 2 4
-6.2060471 -1.1267114 -1.6900884 9 0
-7.2407789 -1.3106518 -1.6988304 5 1
-8.7408419 -1.5758768 -1.7264398 3 2
-11.070377 -1.9898825 -1.7814759 2 3
-14.969319 -2.6826172 -1.8672822 2 4
-6.2289872 -1.0860121 -1.6942296 3 0
-7.2555122 -1.2610707 -1.7001802 3 1
-8.7861872 -1.5223767 -1.733309 3 2
-11.068094 -1.9117929 -1.778973 1 3
-14.995508 -2.5793962 -1.8682572 2 4
-6.2133713 -1.0397613 -1.6880178 3 0
-7.2389398 -1.2074866 -1.6943314 3 1
-8.7578669 -1.4545691 -1.7256767 3 2
-11.069478 -1.8325433 -1.7770958 1 3
-15.002925 -2.4756489 -1.8670385 2 4
-6.2281079 -0.99758196 -1.6900884 4 0
-7.2317977 -1.154464 -1.6907321 3 1
-8.7716846 -1.3940064 -1.7264398 3 2
-11.062491 -1.7521262 -1.773967 1 3
-15.019843 -2.3708484 -1.8670385 2 4
-6.2272825 -0.95290846 -1.6880178 3 0
-7.2184901 -1.1007169 -1.6857833 15 1
-8.7812023 -1.3327365 -1.7264398 3 2
-11.097891 -1.6784 -1.7777214 1 3
-15.045842 -2.267415 -1.8682572 2 4
-6.2452531 -0.91108388 -1.6911237 3 0
-7.2240705 -1.0500153 -1.6853334 25 1
-8.8211594 -1.2774359 -1.7325459 3 2
-11.140341 -1.6073335 -1.7827275 2 3
-15.025937 -2.1572387 -1.8638699 2 4
-6.2283483 -0.86536384 -1.6849121 4 0
-7.2542138 -1.0040259 -1.6907321 5 1
-8.7987432 -1.2115364 -1.7264398 3 2
-11.147377 -1.5289832 -1.7821016 1 3
-15.028471 -2.0533013 -1.8624074 2 4
-6.2418985 -0.82287055 -1.6869825 4 0
-7.241725 -0.95082074 -1.686233 4 1
-8.8264551 -1.1526225 -1.7302561 3 2
-11.102931 -1.4439893 -1.7733413 1 3
-15.046377 -1.9488428 -1.8628949 2 4
-6.2359896 -0.77783924 -1.6838769 4 0
-7.2733264 -0.90336323 -1.6920818 6 1
-8.8070078 -1.0876075 -1.7249134 3 2
-11.112741 -1.3664438 -1.7733413 1 3
-15.043852 -1.8418255 -1.860945 2 4
-6.2489429 -0.73518777 -1.6859473 4 0
-7.2659078 -0.85097706 -1.6889325 4 1
-8.8104858 -1.0256424 -1.7241502 3 2
-11.153406 -1.2924671 -1.7783473 1 3
-15.064232 -1.7376647 -1.86192 2 4
-6.2308807 -0.68899614 -1.6797357 4 0
-7.2929788 -0.80257553 -1.6938814 6 1
-8.7510767 -0.95685333 -1.7111752 10 2
-11.162158 -1.2145702 -1.7783473 2 3
-15.054287 -1.6301035 -1.8592389 2 4
-6.2585983 -0.64786804 -1.6859473 4 0
-7.2867727 -0.75044531 -1.691182 7 1
-8.7985582 -0.89993101 -1.719189 13 2
-11.154641 -1.1350141 -1.7758442 2 3
-15.0811 -1.5265642 -1.8611888 2 4
-6.2475848 -0.60267496 -1.6818062 5 0
-7.2957139 -0.69992793 -1.6920818 7 1
-8.7870359 -0.83681047 -1.7157546 3 2
-11.166228 -1.0574876 -1.7764701 2 3
-15.107201 -1.4227302 -1.8631387 2 4
-6.2516403 -0.55904394 -1.6818062 4 0
-7.308187 -0.64966738 -1.6938814 6 1
-8.8239546 -0.77820462 -1.7218604 3 2
-11.193015 -0.98123187 -1.7795987 2 3
-15.116765 -1.3172309 -1.8631387 2 4
-6.2592411 -0.51570439 -1.6828415 4 0
-7.2892375 -0.59672463 -1.6884826 7 1
-8.8096046 -0.71499467 -1.7180443 3 2
-11.144462 -0.89862055 -1.7708384 3 3
-15.157252 -1.2142001 -1.8670385 2 4
-6.2626891 -0.47199258 -1.6828415 5 0
-7.2893395 -0.54552889 -1.6875829 6 1
-8.8378763 -0.65521646 -1.7226238 3 2
-11.170164 -0.82224578 -1.773967 3 3
-15.167339 -1.1084976 -1.8672822 2 4
-6.28125 -0.42931464 -1.6869825 4 0
-7.3085241 -0.4956831 -1.691182 7 1
-8.8226461 -0.59218568 -1.7188075 3 2
-11.100734 -0.73925543 -1.762078 12 3
-15.170747 -1.0023209 -1.8667948 2 4
-6.31109 -0.38711011 -1.6942296 4 0
-7.3118062 -0.44464967 -1.691182 6 1
-8.8597879 -0.53412646 -1.7252951 4 2
-11.115368 -0.664267 -1.7636423 13 3
-15.165484 -0.89568603 -1.8653324 2 4
-6.3212938 -0.34456339 -1.6963001 4 0
-7.3263392 -0.39549792 -1.6938814 7 1
-8.7986059 -0.46881542 -1.7127017 3 2
-11.109872 -0.5861333 -1.762078 3 3
-15.200966 -0.79399014 -1.8689884 3 4
-6.3968196 -0.30502415 -1.7159703 4 0
-7.3210754 -0.34525263 -1.6920818 7 1
-8.8643484 -0.41182977 -1.7249134 3 2
-11.129391 -0.51122224 -1.764581 4 3
-15.186189 -0.6896013 -1.866551 2 4
-6.452795 -0.26368532 -1.7304642 7 0
-7.334939 -0.29588285 -1.6947813 6 1
-8.8669462 -0.35148451 -1.7249134 3 2
-11.118794 -0.43491703 -1.762391 4 3
-15.216317 -0.58721483 -1.8697196 2 4
-6.462163 -0.22001775 -1.7325348 9 0
-7.3659978 -0.24692966 -1.7015297 5 1
-8.87502 -0.2913141 -1.7260582 4 2
-11.153087 -0.36024392 -1.7673968 4 3
-15.219962 -0.48362684 -1.8697196 2 4
-6.4597101 -0.17366765 -1.7314996 9 0
-7.490304 -0.19745044 -1.7298737 7 1
-8.8592148 -0.22734521 -1.7226238 3 2
-11.15933 -0.28052437 -1.7680227 5 3
-15.185393 -0.37112466 -1.8650886 3 4
-6.4453354 -0.1271338 -1.7273583 9 0
-7.5032148 -0.14407048 -1.7325729 8 1
-8.9469528 -0.16710591 -1.7394148 3 2
-11.16895 -0.20080486 -1.769274 4 3
-15.163795 -0.26468581 -1.8621637 13 4
-6.4422026 -0.082084559 -1.7263231 9 0
-7.4903984 -0.091516219 -1.7294236 10 1
-9.1461964 -0.10536285 -1.7779584 4 2
-11.16613 -0.12278523 -1.7686483 5 3
-15.212914 -0.15931503 -1.8680135 3 4
-6.438755 -0.03708525 -1.7252878 9 0
-7.500598 -0.039273951 -1.7316732 9 1
-9.2625313 -0.043649949 -1.8004738 6 2
-11.18251 -0.046842996 -1.7711512 4 3
-15.221596 -0.053132702 -1.8689884 3 4
-6.4465857 0.0067510074 -1.7273583 9 0
-7.4928966 0.01176977 -1.7298737 9 1
-9.2449408 0.020973479 -1.7970392 7 2
-11.26553 0.031455778 -1.7842916 5 3
-15.243441 0.050551265 -1.8716695 4 4
-6.4463811 0.051754955 -1.7273583 9 0
-7.5062728 0.064194635 -1.7330229 12 1
-9.2053204 0.083545096 -1.7894068 9 2
-11.43888 0.10980858 -1.8118242 5 3
-15.234776 0.1568839 -1.8706945 4 4
-6.4381533 0.095518343 -1.7252878 9 0
-7.5193014 0.11549634 -1.7361722 13 1
-9.1416969 0.14680177 -1.777195 9 2
-11.499063 0.19067964 -1.8215232 9 3
-15.261143 0.26105565 -1.8741069 4 4
-6.4450545 0.14063136 -1.7273583 9 0
-7.5338979 0.16833638 -1.7397714 10 1
-9.0580511 0.20713679 -1.7611672 9 2
-11.495523 0.26889804 -1.8212101 8 3
-15.304592 0.36868808 -1.8797129 3 4
-6.4439483 0.1844983 -1.7273583 9 0
-7.5403695 0.21984138 -1.7415711 13 1
-9.0563841 0.27036884 -1.7611672 7 2
-11.465724 0.34830567 -1.81683 8 3
-15.398951 0.47585917 -1.891656 4 4
-6.4386425 0.22934197 -1.7263231 9 0
-7.5308604 0.27219436 -1.7397714 10 1
-9.0307331 0.33272034 -1.7565877 7 2
-11.403792 0.42613015 -1.8074441 8 3
-15.61941 0.59184617 -1.9191986 7 4
-6.417583 0.27346563 -1.7211467 9 0
-7.5248833 0.32459688 -1.7388717 13 1
-9.0046539 0.39472476 -1.7520082 7 2
-11.361072 0.50397968 -1.8011867 8 3
-15.541521 0.69757861 -1.9101802 9 4
-6.4270945 0.31883496 -1.7242525 9 0
-7.5263262 0.37731588 -1.7397714 12 1
-8.9781494 0.45638341 -1.7474288 9 2
-11.369114 0.5838933 -1.8030639 8 3
-15.381643 0.79804301 -1.8911686 9 4
-6.4247122 0.36369523 -1.7242525 9 0
-7.5429645 0.43096015 -1.7442704 12 1
-8.9865046 0.5197317 -1.7497185 7 2
-11.360816 0.66301751 -1.8024381 8 3
-15.169604 0.89326817 -1.8658198 9 4
-6.4335837 0.40927672 -1.7273583 9 0
-7.535882 0.48336181 -1.7433707 11 1
-8.9944124 0.58321679 -1.7520082 7 2
-11.363794 0.74282742 -1.8036896 8 3
-15.06396 0.99262053 -1.8536329 9 4
-6.4267163 0.45390794 -1.7263231 9 0
-7.524549 0.5354054 -1.7415711 10 1
-8.9822893 0.64543474 -1.7504818 7 2
-11.318928 0.81929415 -1.7974323 8 3
-15.019045 1.0950235 -1.8490019 7 4
-6.4272428 0.49906287 -1.7273583 9 0
-7.4934282 0.58579725 -1.7352724 12 1
-8.9814787 0.70843381 -1.751245 7 2
-11.291271 0.89657253 -1.7939906 9 3
-14.991246 1.1982642 -1.8465644 7 4
-6.4120522 0.54294336 -1.7242525 9 0
-7.4930396 0.63842785 -1.7361722 12 1
-8.9841385 0.77178907 -1.7527716 7 2
-11.253248 0.97265971 -1.7889848 9 3
-14.998338 1.3042731 -1.8485144 7 4
-6.4196477 0.58875173 -1.7273583 9 0
-7.476757 0.68964785 -1.7334728 13 1
-8.9668026 0.83340341 -1.7504818 7 2
-11.224548 1.0491735 -1.7855432 8 3
-14.969103 1.407088 -1.846077 7 4
-6.400002 0.63203615 -1.7232174 9 0
-7.4562464 0.74029016 -1.7298737 12 1
-8.9568577 0.89559031 -1.7497185 9 2
-11.234639 1.1292853 -1.7883589 9 3
-14.943114 1.5099577 -1.8441271 7 4
-6.380064 0.67507493 -1.7190762 9 0
-7.4508967 0.79232478 -1.7298737 14 1
-8.950387 0.95810127 -1.7497185 7 2
-11.193093 1.2041013 -1.7830403 8 3
-14.951944 1.6163806 -1.8465644 7 4
-6.3713565 0.71916646 -1.7180409 9 0
-7.4335656 0.84300494 -1.7271742 14 1
-8.9434805 1.0205612 -1.7497185 7 2
-11.18049 1.281762 -1.7824146 8 3
-14.908743 1.7170879 -1.8426646 7 4
-6.3469996 0.76132858 -1.7128645 9 0
-7.4236293 0.89441425 -1.7262744 14 1
-8.936326 1.0814141 -1.7497185 9 2
-11.144052 1.3544986 -1.7780343 8 3
-14.88457 1.8196834 -1.8412023 7 4
-6.3685012 0.80791593 -1.7201115 9 0
-7.4135036 0.94443047 -1.7253746 13 1
-8.9402428 1.1452719 -1.7520082 7 2
-11.132365 1.4320139 -1.7777214 9 3
-14.800964 1.9118026 -1.8324275 7 4
-6.3550467 0.85133076 -1.7180409 9 0
-7.4028668 0.99564391 -1.7244748 14 1
-8.8933287 1.2008456 -1.7443758 7 2
-11.108657 1.505899 -1.7755314 8 3
-14.789225 2.0153508 -1.8326714 9 4
-6.3642511 0.89783543 -1.722182 9 0
-7.3764405 1.044569 -1.7199757 13 1
-8.8728456 1.2627921 -1.7420862 9 2
-69.553017 9.9112377 6.1465712 25 10
-11.097597 1.5853494 -1.7755314 8 3
-69.682419 9.9793148 8.643218 17 11
-14.67065 2.1036167 -1.8197533 7 4
-6.3540068 0.94167644 -1.7211467 9 0
-7.3766789 1.097186 -1.7217753 14 1
-8.8909969 1.328768 -1.7474288 7 2
-11.096027 1.6642517 -1.7770958 9 3
-14.643827 2.2042131 -1.8182908 7 4
-36.448013 5.5317597 -1.9320343 3 6
-6.3472772 0.98601437 -1.7211467 9 0
-7.3688388 1.1486598 -1.7217753 15 1
-8.9241772 1.3974868 -1.7558244 7 2
-11.068526 1.7392229 -1.7745929 9 3
-14.573177 2.2977359 -1.811466 7 4
-34.554356 5.491416 -1.8336428 6 6
-6.3364258 1.0296816 -1.7201115 9 0
-33.102768 5.3911247 0.58542353 41 8
-7.3491006 1.1981927 -1.7190759 14 1
-8.9452009 1.4648335 -1.7619303 7 2
-11.056115 1.8164533 -1.7745929 9 3
-14.541112 2.396837 -1.8095162 7 4
-6.3443203 1.0764769 -1.7242525 9 0
-32.965752 5.6053333 0.58367825 42 8
-7.3405566 1.2494682 -1.7190759 14 1
-8.9154053 1.5239371 -1.7581142 7 2
-11.027588 1.890922 -1.7720897 9 3
-14.539676 2.5009835 -1.811466 7 4
-6.3442597 1.1220897 -1.7263231 9 0
-7.3431673 1.3027287 -1.7217753 15 1
-8.900959 1.5838991 -1.7573509 10 2
-11.012518 1.9655937 -1.7717769 8 3
-14.535539 2.6048796 -1.8131722 9 4
-30.702204 5.535265 -1.6349754 10 6
-6.3592744 1.1694391 -1.7325348 9 0
-7.3302975 1.3519751 -1.7208756 14 1
-8.858799 1.64028 -1.751245 9 2
-11.021833 2.0467529 -1.7755314 8 3
-14.531134 2.7063041 -1.8148785 7 4
-30.55681 5.7295885 -1.6293231 10 6
-6.3186979 1.2076416 -1.7237349 11 0
-7.3283358 1.4045829 -1.7226752 10 1
-8.8201399 1.6968955 -1.7459024 9 2
-11.001456 2.12253 -1.7745929 9 3
-14.488499 2.8031597 -1.8119535 7 4
-30.053406 5.8526683 -1.6046206 11 6
-6.3423266 1.2581152 -1.7325348 9 0
-7.2992387 1.4519082 -1.7181761 11 1
-8.7888269 1.7545847 -1.7420862 7 2
-10.970875 2.1961782 -1.7720897 9 3
-14.46079 2.902674 -1.8109785 7 4
-29.518467 5.9626899 -1.5782433 11 6
-6.3485274 1.3054752 -1.7366759 9 0
-7.2889242 1.5028311 -1.7181761 14 1
-8.7651434 1.811983 -1.7397964 9 2
-10.990488 2.2780204 -1.7777214 9 3
-14.43823 3.0031579 -1.8107349 9 4
-19.422354 4.0504675 -1.7357937 38 5
-28.280746 5.9133086 -1.514184 11 6
-6.3357153 1.3478526 -1.7356406 9 0
-7.2823377 1.5532218 -1.7190759 13 1
-8.6985264 1.861627 -1.7291112 7 2
-10.943415 2.3480623 -1.7727156 9 3
-14.359233 3.0888388 -1.8034227 9 4
-27.6024 5.9728894 -1.4800609 11 6
-6.3035102 1.3870693 -1.7294289 7 0
-7.2332563 1.59563 -1.7100779 14 1
-8.6853189 1.9223067 -1.7291112 9 2
-10.938327 2.4269693 -1.7745929 9 3
-14.312128 3.1834066 -1.800254 14 4
-18.535526 4.1363873 -1.6615371 36 5
-26.909035 6.0198112 -1.4451005 11 6
-27.643097 6.1992269 -0.49449649 27 7
-6.3125105 1.4353256 -1.7346053 9 0
-7.1991415 1.6408905 -1.7046791 14 1
-28.169586 6.4309993 1.5142888 8 9
-8.6946526 1.9881463 -1.7336906 7 2
-10.921117 2.5032742 -1.7745929 9 3
-14.080609 3.2352383 -1.7739303 14 4
-26.239742 6.0627456 -1.4113961 11 6
-6.3023367 1.4793587 -1.7346053 9 0
-7.187511 1.6911082 -1.7046791 14 1
-8.6958475 2.0524058 -1.7367436 9 2
-10.859161 2.5689971 -1.7673968 8 3
-13.879979 3.2913196 -1.7515063 19 4
-24.803787 5.9136653 -1.3363464 10 6
-6.2693238 1.5178678 -1.7283937 9 0
-7.1868911 1.7440042 -1.7073785 13 1
-8.6813068 2.1130621 -1.7367436 9 2
-10.720059 2.6152506 -1.7476861 11 3
-13.578991 3.320245 -1.716408 19 4
-6.2510772 1.5597267 -1.7263231 9 0
-7.1783223 1.7950795 -1.7082783 12 1
-24.351494 6.0986042 1.3156214 5 9
-8.6796732 2.1769629 -1.7394148 6 2
-10.678551 2.6842482 -1.7439317 9 3
-13.339886 3.3606498 -1.6891092 19 4
-6.2026143 1.5937127 -1.7159703 9 0
-7.1844864 1.8500111 -1.7127774 13 1
-23.345196 6.0200906 1.2634947 5 9
-8.6167421 2.2252309 -1.7298744 9 2
-10.640427 2.7537811 -1.7408029 11 3
-13.200809 3.4237928 -1.674485 14 4
-6.1950727 1.6379654 -1.7170056 9 0
-7.2015367 1.9081073 -1.7199757 14 1
-22.194515 5.8889141 1.2034131 4 9
-8.5402803 2.2692003 -1.7176627 7 2
-10.662939 2.8391805 -1.7476861 11 3
-12.825592 3.4222174 -1.6298808 9 4
-20.211327 5.4193854 -1.0966477 48 6
-20.337421 5.4646158 -0.36758259 38 7
-6.1909432 1.6832011 -1.7190762 9 0
-7.1805196 1.9562864 -1.7181761 10 1
-21.332029 5.8197784 1.1588228 4 9
-8.5015039 2.3225586 -1.7130833 7 2
-10.532351 2.8833003 -1.7295396 12 3
-17.228235 4.7228074 2.1934047 1 11
-12.803303 3.5121953 -1.6301244 14 4
