# .PCD v0.7 - Point Cloud Data file format
VERSION 0.7
FIELDS x y z intensity ring
SIZE 4 4 4 4 2
TYPE F F F F U
COUNT 1 1 1 1 1
WIDTH 1331
HEIGHT 1
VIEWPOINT 0 0 0 1 0 0 0
POINTS 1331
DATA ascii
0.76661754 5.9761124 -0.10516821 10 7
0.83036798 6.4552202 1.7439228 11 15
0.7296049 5.5644002 -1.5037388 8 0
1.1497983 8.7453957 0.15396513 7 8
0.79462707 6.0357819 -1.4054942 15 1
0.79644096 6.0333076 0.31893536 7 9
0.84214437 6.3623862 -1.2475092 18 2
0.70393211 5.311089 0.46872357 2 10
0.84314919 6.3444405 -1.0136955 31 3
0.83986986 6.2945261 -0.77972013 42 4
0.7559585 5.6505942 0.90293986 10 12
0.8468346 6.3131261 -0.55727381 42 5
0.86115211 6.4113479 1.2574313 4 13
0.77917796 5.7857575 -0.30595604 30 6
0.84540743 6.2609968 1.4585826 14 14
0.80620331 5.9628291 -0.10502858 25 7
0.77107638 5.5783081 -1.5089152 8 0
0.97365558 7.0257745 0.12380737 27 8
0.83620691 6.0262275 -1.4045944 16 1
0.78597826 5.6497626 0.29894301 11 9
0.88708413 6.3602409 -1.2482725 22 2
0.76772314 5.4974494 0.48563176 22 10
0.88961238 6.3540497 -1.0161984 8 3
0.78280711 5.5770369 0.69148672 8 11
0.87992567 6.2609887 -0.77630776 30 4
0.81137085 5.7586312 0.92108625 10 12
0.78959322 5.5829067 1.096007 15 13
0.88404155 6.2349973 -0.33003056 22 6
0.92255455 6.4903226 1.5134706 6 14
1.3031385 9.1563244 -0.16143475 9 7
0.81389183 5.5995536 -1.516162 8 0
1.2781391 8.7720222 0.15473303 21 8
0.88191456 6.0453105 -1.4104432 13 1
0.84303397 5.7646875 0.30532798 9 9
0.93260133 6.3616629 -1.249799 18 2
0.83183736 5.6673985 0.50114554 6 10
0.91410661 6.2128353 -0.99461043 21 3
0.83359855 5.6519532 0.70147997 12 11
0.92651111 6.2743316 -0.77874517 30 4
0.83535582 5.6433973 0.90356559 10 12
1.2220535 8.2260675 1.6165339 8 13
0.92990208 6.2444777 -0.33086795 22 6
0.93710941 6.285367 1.4671308 11 14
0.90528876 6.0430136 1.6372893 37 15
0.84946698 5.5708179 -1.5099503 8 0
1.2850025 8.417182 0.1486247 25 8
0.92468679 6.0428591 -1.4113429 14 1
0.88467044 5.77461 0.30616537 7 9
0.97528636 6.3512874 -1.2490358 24 2
0.84198058 5.4704409 0.48423728 9 10
1.0610678 6.8858819 -1.1034888 4 3
0.82114589 5.3165603 0.66053188 8 11
0.9739359 6.2912512 -0.78167003 28 4
0.8474285 5.4677501 0.87634599 19 12
1.3735178 8.841773 -0.78283286 11 5
0.86324042 5.544179 1.0906643 12 13
0.97238243 6.2380037 -0.33086795 22 6
0.96081489 6.1496711 1.4369874 15 14
1.2279018 7.8412318 -0.1385372 10 7
0.90690839 5.7847838 1.5689611 24 15
0.88250202 5.5343819 -1.5016681 7 0
1.4103212 8.8246546 0.15598962 14 8
0.96641374 6.0402737 -1.4122428 15 1
0.86488026 5.3936009 0.28627771 2 9
1.0208491 6.3520765 -1.2505622 20 2
0.86274004 5.3622942 0.47517309 20 10
1.0933913 6.780797 -1.0878454 10 3
0.85317546 5.2793441 0.65663213 11 11
1.0167366 6.2844763 -0.78167003 27 4
0.88526374 5.4597507 0.87603313 18 12
1.305409 8.0243473 1.5802802 6 13
1.0139798 6.2192354 -0.33023992 22 6
1.0125203 6.1966643 1.4495846 7 14
0.97328568 5.9500036 -0.10523801 4 7
0.96977091 5.9155731 1.6062311 23 15
0.90682966 5.4423361 -1.4783745 17 0
1.1655896 6.9802742 0.12352814 3 8
1.0120935 6.0545225 -1.4171916 23 1
0.96982807 5.7892728 0.30763078 2 9
1.06517 6.3447948 -1.2505622 18 2
0.91765606 5.4602766 0.4844116 11 10
1.1544825 6.8548121 -1.1009859 4 3
1.4470117 8.5734491 1.0675756 15 11
1.0605857 6.277225 -0.78167003 28 4
0.92401797 5.4573326 0.8766588 14 12
1.4941689 8.8060207 -0.78143841 11 5
0.96458358 5.6788511 1.1196673 12 13
1.0593845 6.2238188 -0.33086795 11 6
1.0495307 6.152945 1.4410365 21 14
1.0336466 6.0534496 -0.10719268 6 7
1.0517743 6.1466804 1.6709359 18 15
0.95670885 5.5043921 -1.4970094 9 0
1.6418216 9.4266348 0.16701953 8 8
1.0630369 6.0972238 -1.428889 11 1
0.94938356 5.4341202 0.28910384 14 9
1.1077462 6.3275352 -1.2486541 16 2
0.92652047 5.2869263 0.46959516 16 10
1.20026 6.8349118 -1.0991087 3 3
0.95466745 5.4252768 0.67637491 9 11
1.1043832 6.2696676 -0.78167003 25 4
1.0506788 5.9526381 0.95737904 36 12
1.2093021 6.8373585 -0.60747552 7 5
1.1719159 6.6192417 1.3066601 15 13
1.007216 5.6774359 -0.30218783 19 6
1.078818 6.0687218 1.4230404 10 14
1.089913 6.1125622 1.6636889 26 15
0.98375839 5.4348474 -1.4799274 13 0
1.2786418 7.0498929 0.12506394 23 8
1.1066248 6.0954051 -1.4302388 14 1
0.96620774 5.3114243 0.2829282 16 9
1.1550592 6.3370309 -1.2520887 18 2
0.97342074 5.3352098 0.47447586 17 10
1.279205 6.9973655 -1.1266412 4 3
1.0372306 5.6625547 0.70684224 11 11
1.1509879 6.2774253 -0.78361994 33 4
1.0890009 5.9276719 0.9545632 21 12
1.2368076 6.7190185 -0.59771407 7 5
1.2095602 6.5645609 1.2975012 15 13
1.14618 6.2084208 -0.33086795 22 6
1.1488042 6.2105093 1.4581327 21 14
1.4544686 7.8552647 -0.13944472 16 7
1.1558146 6.2301683 1.6978531 18 15
1.0248955 5.4449325 -1.484586 10 0
1.3448721 7.1311879 0.12666957 4 8
1.1524053 6.1047654 -1.4342879 23 1
1.1353977 6.0031891 0.32019141 7 9
1.1989063 6.3268838 -1.2517071 16 2
1.0128689 5.3400297 0.47552174 9 10
1.5688466 8.2555056 -1.3309445 13 3
1.046663 5.4972205 0.68709946 4 11
1.1962739 6.2770367 -0.78459489 25 4
1.1114626 5.8209686 0.93860692 5 12
1.6894475 8.8396263 -0.78736496 11 5
1.1789556 6.1453462 -0.32793713 11 6
1.181132 6.1508732 1.4459854 14 14
1.1775703 6.1208048 -0.1087983 6 7
1.2226847 6.3433504 1.7309818 30 15
1.0758518 5.504004 -1.5027034 8 0
1.3711152 7.0080438 0.12464508 27 8
1.1912451 6.0774484 -1.4297889 22 1
1.0205075 5.2015629 0.27779928 18 9
1.2438376 6.328208 -1.2536151 22 2
1.0647525 5.4071121 0.48214555 16 10
1.2655473 6.4208932 -1.0365349 11 3
1.0617505 5.3770156 0.67296261 8 11
1.2423782 6.2802162 -0.78605735 30 4
1.1641015 5.8791523 0.94924444 21 12
1.4014376 7.0648293 -0.63013601 8 5
1.306453 6.5739918 1.3028439 24 13
1.2347885 6.2076979 -0.33170533 22 6
1.2217563 6.131011 1.4432859 7 14
1.2367184 6.1947961 -0.11026431 4 7
1.2230566 6.1208138 1.6724888 15 15
1.114442 5.502234 -1.5042564 9 0
1.8232199 8.9854975 0.16003856 7 8
1.2353004 6.0825672 -1.4329382 13 1
1.1073638 5.442872 0.2910926 6 9
1.2938677 6.3482261 -1.2593395 16 2
1.0856034 5.3216524 0.47517309 19 10
1.3119247 6.4196429 -1.0377864 16 3
1.0777663 5.2644544 0.65980065 6 11
1.2853914 6.2675009 -0.78556985 25 4
1.1916152 5.8050909 0.93860692 16 12
1.8038715 8.7722435 -0.78353012 11 5
1.3261731 6.4378004 1.277657 14 13
1.2780933 6.1989269 -0.33170533 22 6
1.2515211 6.0593529 1.4284393 5 14
1.4232433 6.8725948 1.8805792 14 15
1.1533896 5.492228 -1.5037388 8 0
1.869453 8.8942719 0.15864237 15 8
1.2787946 6.0735722 -1.4329382 12 1
1.0877537 5.1573029 0.2762292 24 9
1.3345057 6.3217497 -1.2559049 18 2
1.129015 5.3390884 0.47743914 11 10
1.7360727 8.1957169 -1.3268772 9 3
1.121901 5.2917571 0.66418797 4 11
1.3315898 6.2700248 -0.78703225 27 4
1.2240793 5.7539086 0.93172377 21 12
1.6451612 7.7266212 -0.691145 9 5
1.3170308 6.1749358 1.2272835 20 13
1.3240913 6.1974344 -0.33212399 11 6
1.2974633 6.0676188 1.4324883 7 14
1.358502 6.3314648 1.735123 6 15
1.1982654 5.5142474 -1.5120209 8 0
1.6106634 7.399579 0.13218452 4 8
1.3244834 6.0797286 -1.4365374 14 1
1.1262869 5.1612916 0.27685726 26 9
1.3797089 6.3120384 -1.2559049 20 2
1.4272757 6.5241942 0.58429211 2 10
1.8042409 8.2335672 -1.3350118 11 3
1.3648748 6.2181597 0.78167003 3 11
1.3744787 6.2566986 -0.7865448 25 4
1.2455432 5.6603365 0.9179576 36 12
1.3811047 6.2711916 -0.5618059 32 5
1.2958242 5.8741822 1.1692775 3 13
1.3699079 6.1997414 -0.33275205 22 6
1.3843952 6.2601061 1.480178 14 14
1.3462856 6.0777292 -0.10865869 4 7
1.2299612 5.4755888 -1.5037388 8 0
1.4346708 6.3817282 0.11417364 9 8
1.3651832 6.0627294 -1.4347378 13 1
1.170172 5.1924744 0.27895069 22 9
1.4252354 6.3139915 -1.2581946 20 2
1.2548579 5.5501752 0.49783361 3 10
1.4094602 6.2289195 -1.0115054 5 3
1.9209809 8.4757719 1.0670881 8 11
1.419886 6.254693 -0.78751975 33 4
1.3089858 5.7615256 0.93579108 16 12
1.4398863 6.3274493 -0.56773251 6 5
1.5204785 6.6708555 1.3299388 9 13
1.4067491 6.1669054 -0.33149597 11 6
1.4363093 6.2863851 1.4887261 22 14
1.402066 6.1266608 -0.10970583 4 7
1.5025995 6.5606999 1.8034512 26 15
1.2689462 5.474618 -1.5058093 8 0
1.7125341 7.3766685 0.13218452 9 8
1.4090627 6.0646863 -1.4374373 10 1
1.2326517 5.2970037 0.28502163 26 9
1.4683893 6.3000636 -1.2574313 22 2
1.8207846 7.8058381 0.70125508 4 10
1.4021297 6.0015635 -0.97615117 7 3
1.3365011 5.7116647 0.72024786 13 11
1.467856 6.2680779 -0.79044467 25 4
1.382103 5.8926406 0.9586305 10 12
1.4698972 6.2571158 -0.56232882 16 5
1.500697 6.3832355 1.2746042 5 13
1.3847615 5.8808742 -0.31663257 21 6
1.4810562 6.2799978 1.4896258 11 14
1.4134194 5.9885254 -0.10740211 4 7
1.4377041 6.0819211 1.6745592 21 15
1.3044391 5.4543519 -1.5027034 8 0
1.7453592 7.2867455 0.13078834 13 8
1.4540933 6.066072 -1.4401367 10 1
1.2560805 5.2319493 0.28198618 20 9
1.5054487 6.2610269 -1.2517071 14 2
1.3638922 5.6679425 0.5100354 12 10
1.4296442 5.9320974 -0.96645224 16 3
1.3851957 5.7388582 0.72487891 12 11
1.5134411 6.2653966 -0.79141963 24 4
1.5574493 6.4377241 1.0490496 12 12
1.5149519 6.252511 -0.56285179 6 5
1.5082155 6.219965 1.2440747 12 13
1.2740144 5.2461104 -0.2829282 7 6
1.4811112 6.0896192 1.4468851 7 14
1.7175901 7.0458412 1.9432135 5 15
1.3429509 5.4469876 -1.503221 9 0
1.7051046 6.90552 0.12415642 11 8
1.487528 6.0198269 -1.4315885 20 1
1.3175226 5.3238688 0.28742909 10 9
1.5614018 6.2999101 -1.2616292 14 2
1.3923943 5.6138058 0.50602621 9 10
2.0653374 8.3145323 -1.3569127 7 3
2.1522169 8.6513624 1.0946305 2 11
1.5561857 6.2508249 -0.79093212 22 4
1.4556438 5.8382673 0.95299888 5 12
1.6339419 6.538795 1.3100946 8 13
1.3658836 5.4579644 -0.29486081 8 6
1.4420458 5.7580357 1.3704019 7 14
1.866619 7.4423165 -0.13392976 6 7
1.3856981 5.4562039 -1.5083975 11 0
1.5205619 5.9828553 0.10775116 2 8
1.5391287 6.0470667 -1.4405866 18 1
2.0138383 7.9063597 0.4275848 2 9
1.6081299 6.3043542 -1.2646821 16 2
1.4113338 5.5248017 0.49887949 9 10
1.6424183 6.4247279 -1.0503011 11 3
1.4179084 5.5384455 0.70196748 12 11
1.6027478 6.2513456 -0.79239452 22 4
1.6259325 6.3371892 1.0362221 8 12
1.6029994 6.2387471 -0.56354898 26 5
12.734357 49.489441 9.933135 1 13
1.3860697 5.3827796 -0.29130197 8 6
1.5522808 6.019557 1.4351877 20 14
1.4242702 5.4522529 -1.5099503 13 0
1.5258548 5.8328032 0.10523801 22 8
1.5846958 6.0534167 -1.4446357 13 1
1.6501092 6.2853785 -1.2631556 16 2
1.4286596 5.4379864 0.49190697 18 10
1.6907493 6.4264779 -1.0524912 13 3
1.524309 5.7856364 0.7346285 5 11
1.6482958 6.2518086 -0.79385698 22 4
1.6156768 6.119411 1.0024322 4 12
1.6709607 6.3198619 -0.57191598 6 5
1.6064349 6.0715261 1.220796 32 13
1.3704145 5.1721845 -0.28041607 15 6
1.5078045 5.6827173 1.3573546 13 14
2.3580415 8.8808794 -0.16038762 9 7
1.8079464 6.7995491 1.8852381 6 15
1.4738292 5.4850874 -1.521856 10 0
1.6324943 6.0629039 -1.4495846 16 1
2.287816 8.4849157 0.46055645 13 9
1.6949729 6.2774963 -1.2639189 16 2
1.4374833 5.3201694 0.48214555 16 10
2.2489192 8.3117962 -1.3637959 9 3
2.1985273 8.1143007 1.0322334 10 11
1.6950182 6.2516446 -0.79531944 17 4
1.7261633 6.3577161 1.043418 8 12
1.7793322 6.5445218 -0.59335625 18 5
1.511685 5.5562544 1.1192856 18 13
1.6763396 6.1529818 -0.33421743 11 6
1.8828818 6.9015918 1.6515907 13 14
1.5720655 5.7583551 -0.10419086 4 7
1.5223727 5.5119071 -1.5322088 10 0
1.4589577 5.2751303 0.095534474 31 8
1.6638631 6.0119195 -1.4401367 14 1
1.6839697 6.0763187 0.33044925 2 9
1.7445284 6.2863197 -1.2681167 14 2
1.4879181 5.3579979 0.48650333 5 10
1.7967219 6.4612422 -1.0621902 4 3
1.8131471 6.5115142 0.82993031 2 11
1.7375591 6.2358332 -0.79483193 19 4
2.1760995 7.7991738 1.2824498 6 12
1.7906661 6.4091315 -0.58220035 21 5
1.5467353 5.5323315 1.1166143 20 13
1.4952615 5.3410316 -0.29067394 8 6
1.5959464 5.6930089 1.365003 15 14
1.6003457 5.7048812 -0.10342296 12 7
1.6101468 5.7321157 1.5953608 3 15
1.5671437 5.5234466 -1.5384204 11 0
1.7068592 6.0039053 -1.4410365 15 1
2.3322356 8.1928196 0.44642577 2 9
1.7899904 6.2796507 -1.2692615 16 2
1.5127156 5.3034129 0.48249418 24 10
2.3359995 8.1789169 -1.3472137 13 3
1.7160994 6.0005593 0.76631445 7 11
1.7799556 6.2197347 -0.79434443 20 4
1.7935382 6.2589369 1.0312161 4 12
1.8524013 6.455842 -0.58760399 14 5
1.5831532 5.5138502 1.1150879 16 13
1.7565702 6.1097798 -0.33317071 11 6
1.4302497 4.968236 1.1935903 12 14
1.6143079 5.542048 -1.5467027 9 0
1.5358251 5.2657642 0.095743902 22 8
1.7547357 6.0124221 -1.4459854 16 1
2.3311155 7.9769602 0.43553987 6 9
1.8387492 6.2839603 -1.2726961 18 2
1.6073719 5.4896693 0.50044823 9 10
2.4147165 8.2363377 -1.3594157 11 3
1.7624224 6.0036702 0.76826441 5 11
1.831167 6.2338219 -0.79775679 16 4
2.531153 8.6056671 1.420738 12 12
1.6216086 5.5026631 1.1150879 5 13
1.7143921 5.8100286 -0.31746995 10 6
1.4660041 4.9618673 1.1944902 12 14
2.1413321 7.2429438 -0.13183548 6 7
1.6501935 5.5213881 -1.5441145 8 0
1.5828714 5.2893968 0.096372187 22 8
1.7961085 5.998158 -1.4455354 15 1
2.5651376 8.5554714 0.46809283 9 9
1.8837036 6.2747307 -1.2734593 22 2
1.6015216 5.3313866 0.48702627 4 10
1.9213986 6.3881478 -1.0565585 32 3
2.3435166 7.7817445 0.99786633 5 11
1.8786519 6.2341905 -0.79946297 24 4
2.0022938 6.6361027 1.0978571 15 12
1.9020255 6.2958417 -0.5754022 23 5
1.609424 5.3239536 1.0811238 28 13
1.5813301 5.2244344 -0.28606835 8 6
1.667343 5.5016799 1.3272111 7 14
1.8610663 6.137044 -0.11193974 7 7
1.7045791 5.6139555 1.572067 5 15
1.6926652 5.5226622 -1.547738 9 0
1.6203465 5.280129 0.096407093 15 8
1.844807 6.0078263 -1.4509343 14 1
2.6547377 8.6347179 0.47343111 9 9
1.9332366 6.2801909 -1.2772754 24 2
1.6733067 5.4324183 0.49731067 15 10
1.9490638 6.3198371 -1.0474852 21 3
2.1324754 6.9059768 0.88745266 1 11
1.9227121 6.2228208 -0.7997067 23 4
2.2581599 7.2994447 1.2101772 2 12
1.9978083 6.4498897 -0.59074163 29 5
1.5274061 4.9281611 1.0028921 16 13
1.8971596 6.1136198 -0.33547351 11 6
1.66986 5.3745255 1.2993174 7 14
1.9133641 6.1544533 -0.11249821 19 7
1.7421801 5.5457277 -1.5575731 22 0
1.7327653 5.5090423 0.1008051 14 8
1.8808542 5.9762125 -1.4464353 15 1
1.9016061 6.0348024 0.33160067 11 9
1.9764428 6.2646694 -1.2768939 14 2
1.7093893 5.4149051 0.49678773 18 10
1.9478956 6.1629267 -1.0237073 21 3
2.0830135 6.5824285 0.84772325 6 11
1.9697071 6.2205997 -0.80116916 20 4
1.7807497 5.6170335 0.9332881 21 12
2.4791901 7.8106785 -0.71694314 10 5
1.7495674 5.5086613 1.1234834 8 13
1.7570091 5.5254159 -0.3038626 9 6
1.6287153 5.1157675 1.2394803 5 14
1.6188025 5.0815711 -0.093091138 19 7
1.6700877 5.2362318 1.4726803 37 15
1.7814434 5.5352702 -1.5580908 6 0
1.6847095 5.2284417 0.095883526 22 8
1.9273112 5.9777746 -1.4500345 14 1
2.4559953 7.6084538 0.41900173 2 9
2.0261707 6.2693987 -1.2807101 16 2
1.8660798 5.7706113 0.53060412 16 10
2.5798607 7.9683723 -1.3265644 6 3
1.9244692 5.9370131 0.76631445 10 11
2.0118623 6.2029204 -0.80068165 23 4
1.8937393 5.8318005 0.97114527 5 12
2.0925937 6.4365258 -0.59213609 14 5
1.6318957 5.0165057 1.0254076 21 13
2.0021272 6.1473055 -0.33882302 22 6
1.6414335 5.0338688 1.2223841 5 14
1.6691279 5.1157713 -0.093928859 10 7
1.7413946 5.3309531 1.5027034 6 15
1.8170202 5.5135245 -1.5555025 7 0
1.7443527 5.2868156 0.097175002 16 8
1.9677753 5.9604726 -1.4491347 14 1
2.7334483 8.2700167 0.45647424 6 9
2.078522 6.2811961 -1.2860527 16 2
2.7060523 8.1727676 0.75319988 2 10
2.6807978 8.0870466 -1.3494039 19 3
1.9008417 5.7274928 0.74096566 15 11
2.0670013 6.2245197 -0.80531269 26 4
1.7630275 5.3029513 0.88510633 14 12
4.0226426 12.085459 -1.1143733 17 5
1.6588132 4.9807763 1.0204465 5 13
2.0108795 6.0308633 -0.33317071 11 6
1.6833217 5.0426207 1.2273329 7 14
1.8403753 5.5098858 -0.10139848 12 7
1.7736655 5.3040104 1.4985623 13 15
1.8455882 5.471417 -1.5472202 8 0
1.9699618 5.8334098 0.10747192 21 8
2.0062201 5.9373589 -1.4468851 17 1
2.0410137 6.0333848 0.33379877 16 9
2.1216924 6.2646723 -1.2856711 18 2
2.0161684 5.949676 0.54960412 3 10
2.139997 6.3078475 -1.0549942 4 3
1.894815 5.5787492 0.72341651 8 11
2.1110449 6.2118168 -0.80555642 23 4
1.8114614 5.3241744 0.89073795 29 12
2.6422224 7.7570443 -0.71694314 10 5
1.7112811 5.0211058 1.0311319 17 13
2.0916293 6.1300945 -0.33945104 11 6
1.6983266 4.971734 1.212936 21 14
1.7087002 4.9992495 -0.092218518 17 7
1.8862617 5.465703 -1.5492908 8 0
1.8682811 5.4074802 0.099862665 10 8
2.0361614 5.8900561 -1.438787 16 1
2.0138447 5.8189216 0.32270354 19 9
2.1595917 6.2330117 -1.2822365 16 2
2.0074053 5.7905045 0.53618211 18 10
2.1600177 6.2237058 -1.043418 19 3
2.0145044 5.7979012 0.75364012 11 11
2.1667452 6.232553 -0.81018746 26 4
2.0076656 5.7684746 0.96739089 5 12
2.1312206 6.1165981 -0.56668663 6 5
1.7100984 4.9052229 1.0097612 21 13
2.1435885 6.1417427 -0.34091645 11 6
1.8075595 5.1731582 1.2651247 7 14
1.7692977 5.0608182 -0.093579806 10 7
1.8481895 5.2805514 1.4990799 19 15
1.9243736 5.4524016 -1.5492908 7 0
1.9073191 5.3980761 0.099932484 18 8
2.0778813 5.8775344 -1.4392369 15 1
2.0490882 5.7896576 0.32186615 7 9
2.2161641 6.2547946 -1.2898688 16 2
2.103703 5.9340906 0.55082428 1 10
2.2298424 6.2829385 -1.0559328 14 3
2.1798766 6.1353569 0.79946297 4 11
2.2141936 6.228497 -0.81164992 26 4
1.9796692 5.5626311 0.93516535 16 12
2.0856054 5.8538294 -0.54367751 12 5
1.7522124 4.9153562 1.0143408 13 13
2.069608 5.7993226 -0.32270354 10 6
1.7977391 5.0319524 1.2336316 7 14
1.8126628 5.0709386 -0.093998663 19 7
1.9058386 5.3257246 1.5156444 14 15
1.9519013 5.4097595 -1.5410087 8 0
1.9374831 5.3639417 0.099548534 16 8
2.140059 5.9215322 -1.4536338 13 1
2.0982883 5.7996278 0.3232269 23 9
2.2637913 6.2502451 -1.2921586 16 2
2.1206388 5.8518252 0.54454905 1 10
2.282409 6.2913585 -1.0600001 6 3
1.96041 5.3979044 0.70513606 8 11
2.2284701 6.1326609 -0.80116916 22 4
1.8732672 5.1495566 0.86789852 9 12
2.0896037 5.7380328 -0.53426468 6 5
1.8120257 4.9730992 1.0288421 15 13
2.1079938 5.7791023 -0.32238951 21 6
1.762638 4.8270755 1.1863918 10 14
1.833612 5.0187159 -0.09326566 24 7
2.0378623 5.5717359 1.5896666 15 15
1.9842715 5.3815007 -1.5368675 8 0
1.9908098 5.3934326 0.10035134 26 8
2.1880956 5.9247289 -1.4581327 15 1
3.257268 8.8102617 0.49227205 6 9
2.3196371 6.2674303 -1.2990277 15 2
2.4672561 6.6627097 0.62159473 1 10
2.4175961 6.5216141 -1.1016116 3 3
2.2508209 6.0652409 0.79434443 3 11
2.3050876 6.2081404 -0.81311232 24 4
1.9284403 5.1881986 0.8766588 19 12
2.1300049 5.7274103 -0.53461331 21 5
1.8562876 4.9860864 1.0341848 17 13
2.1852529 5.8634362 -0.32793713 11 6
1.7791109 4.7711444 1.1755942 12 14
1.861609 4.9870591 -0.092916615 22 7
1.9955628 5.3402176 1.5275501 11 15
2.00545 5.3241286 -1.5244442 13 0
2.1276152 5.6454692 0.10530782 27 8
2.24385 5.947598 -1.4675807 25 1
2.21473 5.8673115 0.32866985 16 9
2.3608537 6.2478237 -1.2982645 15 2
2.5842016 6.8316751 0.63902587 1 10
3.1010089 8.1936131 -1.387574 9 3
3.432107 9.0588884 1.1894449 15 11
2.3504813 6.1974659 -0.81384355 23 4
1.9602091 5.1657166 0.87509453 13 12
2.1600299 5.6863265 -0.53217298 23 5
1.9238511 5.0592527 1.0521209 4 13
2.1654527 5.6916227 -0.3191447 10 6
1.808217 4.7476802 1.1728948 12 14
1.9070656 5.0019684 -0.093440183 3 7
2.0518339 5.3788557 1.5425617 23 15
2.0534291 5.3410082 -1.5332441 9 0
2.1346548 5.5464969 0.1037371 17 8
2.2842822 5.9321871 -1.4675807 15 1
1.9704505 5.1118574 0.28711507 2 9
2.413605 6.2549996 -1.3032255 16 2
2.6858935 6.957046 0.65244788 5 10
2.408304 6.231545 -1.0581229 8 3
2.9867299 7.7202325 1.0163903 3 11
2.3947644 6.1868763 -0.81457478 24 4
2.0126376 5.194272 0.88229048 9 12
2.2702839 5.853148 -0.54925549 31 5
1.9646339 5.0625134 1.0555553 18 13
2.380157 6.1269011 -0.3444753 11 6
1.8681574 4.8039579 1.1899911 22 14
1.9077121 4.9031463 -0.09183456 8 7
2.0612905 5.2923942 1.521856 52 15
2.0899606 5.3247442 -1.5327265 8 0
2.0906916 5.3211446 0.09979286 26 8
2.3256409 5.9160948 -1.4675807 15 1
1.9797611 5.0310688 0.28334689 6 9
2.4550526 6.2325182 -1.3020806 15 2
2.1506989 5.4570775 0.51317304 3 10
3.2136583 8.1458416 -1.3869481 7 3
1.9701627 4.9887819 0.65858197 8 11
2.409446 6.0980058 -0.80506897 20 4
2.0684679 5.2296906 0.89073795 14 12
2.3433657 5.9186635 -0.55692518 6 5
1.9616079 4.9519353 1.0353296 17 13
2.3139162 5.8353539 -0.32898384 22 6
1.8872707 4.7545738 1.1809931 22 14
2.0282488 5.1019459 1.4711276 7 15
2.1428871 5.3494763 -1.5441145 8 0
2.1776533 5.4307737 0.10213149 14 8
2.3697889 5.9069495 -1.4693804 15 1
1.932963 4.8132524 0.27183297 33 9
2.5087559 6.2407284 -1.3074232 15 2
2.3604832 5.8689289 0.55343896 6 10
2.3549001 5.8491497 -0.99867773 22 3
2.0227516 5.0190949 0.66443169 16 11
2.3138835 5.7385979 -0.75973356 16 4
2.1086245 5.2242818 0.89230233 4 12
3.4056528 8.4292812 -0.79538327 11 5
1.9924524 4.9290195 1.0334216 19 13
2.2549605 5.5728173 -0.31506249 21 6
1.9160261 4.7304454 1.1782937 27 14
1.9714816 4.864912 -0.091625139 10 7
2.1816406 5.3379641 -1.5451498 8 0
2.086036 5.0989518 0.096162759 16 8
2.3962023 5.8541918 -1.4603822 17 1
1.9884783 4.8532367 0.27486849 20 9
2.5515182 6.2212458 -1.3070416 13 2
3.4496942 8.4070463 0.79503471 5 10
2.4909942 6.0646272 -1.0384121 3 3
2.0577445 5.0048499 0.66443169 19 11
2.4890673 6.0509191 -0.80336279 24 4
2.2977285 5.5802302 0.95581466 10 12
2.9344637 7.1195469 -0.67371386 9 5
2.006609 4.865984 1.0231179 2 13
2.2671363 5.4923244 -0.31139898 31 6
1.9743061 4.7781897 1.1935903 10 14
2.0069227 4.8547268 -0.091694944 29 7
2.0918965 5.0552797 1.4659511 16 15
2.2143962 5.3119035 -1.5420439 8 0
2.0738373 4.9698453 0.093998663 18 8
2.4340136 5.8301263 -1.4585826 17 1
2.0461853 4.8963637 0.27811331 4 9
2.6176143 6.2576175 -1.3184903 16 2
2.2175918 5.2987266 0.50253999 13 10
2.624861 6.2657247 -1.0759563 3 3
2.0987737 5.0050087 0.66638166 11 11
2.3369491 5.5702739 -0.74169689 24 4
2.0329802 4.8410006 0.83160573 33 12
2.3600483 5.6170716 -0.53304452 14 5
2.0839117 4.9550109 1.0448701 11 13
2.322473 5.51686 -0.31370175 10 6
2.0430927 4.8508458 1.2151856 10 14
2.0578566 4.8811355 -0.092462853 7 7
2.0843272 4.9390998 1.4364457 37 15
2.2604954 5.3176494 -1.5482556 8 0
2.0825739 4.896728 0.092881702 19 8
2.480763 5.8273363 -1.4621819 17 1
2.0669441 4.8529215 0.27643853 16 9
2.661691 6.2432661 -1.3192534 18 2
2.2521811 5.2776194 0.50201708 18 10
2.5154262 5.8916345 -1.0146341 15 3
2.1671152 5.0709243 0.67710614 8 11
2.3687561 5.5373964 -0.73950326 13 4
2.0464518 4.7816496 0.82378399 12 12
2.4211707 5.6517396 -0.53792524 15 5
2.4434173 5.698174 1.2051498 3 13
2.3709958 5.5266204 -0.31516716 10 6
2.1007454 4.891973 1.2291325 7 14
2.2814085 5.3075695 -0.10084001 12 7
2.0988162 4.8804312 1.4235048 26 15
2.289726 5.2861857 -1.5435969 10 0
2.1532998 4.9664645 0.094487324 16 8
2.5281231 5.8281941 -1.4666809 14 1
2.249522 5.1809616 0.29601219 13 9
2.7145998 6.24614 -1.3238329 18 2
2.3126836 5.3188071 0.50742072 15 10
2.5249608 5.8014803 -1.0021193 15 3
2.1596541 4.957397 0.66394424 17 11
2.4420846 5.6030335 -0.75047147 15 4
2.1295497 4.8813114 0.84349471 4 12
3.1813569 7.2853045 -0.69550282 23 5
3.0362675 6.9497423 1.4741904 9 13
2.3471022 5.367198 -0.30700275 10 6
2.150475 4.9128919 1.2381306 15 14
2.1177416 4.8358126 -0.092148706 24 7
2.1181009 4.8320422 1.4136697 22 15
2.3460824 5.3142529 -1.5565379 9 0
2.1806433 4.9348507 0.094173186 15 8
2.5789962 5.8335714 -1.4725296 13 1
2.4238396 5.4774504 0.31391108 4 9
2.7660906 6.2449861 -1.327649 16 2
2.3715539 5.3517137 0.51212716 12 10
2.6366844 5.9444199 -1.0299646 22 3
2.2473743 5.0619431 0.680031 6 11
2.4827504 5.5894771 -0.75095892 25 4
2.143513 4.8212004 0.83567303 12 12
2.5735612 5.7830286 -0.55378759 12 5
2.2007418 4.9429469 1.0517392 15 13
2.4202869 5.4309511 -0.31160831 10 6
2.1926599 4.9155564 1.2426296 15 14
2.2826562 5.1149125 -0.097768381 7 7
2.2250588 4.9811773 1.46181 17 15
2.3759904 5.2818894 -1.551879 10 0
2.2421348 4.9796786 0.095325045 1 8
2.6268628 5.8314152 -1.4765787 25 1
2.3175337 5.139946 0.29548883 9 9
2.8120472 6.2308903 -1.3287939 15 2
2.5129824 5.5656433 0.53426468 9 10
3.3769407 7.472136 -1.298719 9 3
2.2990217 5.0823035 0.68490577 9 11
2.4955237 5.5141354 -0.74315935 24 4
2.8634291 6.3211884 1.0991087 15 12
2.5923049 5.7200093 -0.54942977 15 5
2.436332 5.3708625 1.1463805 14 13
2.5200689 5.5503163 -0.31945869 21 6
2.268784 4.9945531 1.2664744 13 14
2.2496102 4.9477625 -0.094871283 24 7
2.272583 4.9936557 1.4700923 16 15
2.4120023 5.2634172 -1.5513614 13 0
2.7501781 5.9986043 0.11518589 21 8
2.6772604 5.8341894 -1.4819776 15 1
2.3891351 5.2039156 0.3000944 15 9
2.8593102 6.2223101 -1.3310837 15 2
2.424396 5.2710185 0.50759506 9 10
2.8298714 6.1497583 -1.072202 4 3
2.5694075 5.5786004 0.75412756 10 11
2.5937963 5.6263762 -0.76070851 22 4
2.3065772 5.001061 0.87227869 9 12
2.6346803 5.7071991 -0.54995275 18 5
2.541292 5.4998646 1.1776732 15 13
2.5770686 5.5747299 -0.32186615 10 6
2.3085051 4.9892054 1.2691739 5 14
2.3689761 5.1152048 -0.098396674 9 7
2.3203256 5.0078707 1.4788921 37 15
2.4559383 5.2643857 -1.5565379 13 0
2.3359621 5.0026474 0.096372187 1 8
2.7086651 5.7981739 -1.4774785 16 1
2.4998503 5.346324 0.30930555 26 9
2.915163 6.228869 -1.336808 20 2
2.2557635 4.8177299 0.46541166 9 10
2.8786042 6.1423736 -1.0743921 12 3
2.4177718 5.1543593 0.69904256 5 11
2.6337178 5.612186 -0.76119596 16 4
2.3422773 4.9866233 0.8725915 18 12
2.7668548 5.8852015 -0.56895268 13 5
2.6070826 5.5428405 1.1906482 15 13
2.8898497 6.1384668 -0.35557052 11 6
2.5592506 5.4313049 1.3861483 18 14
2.3440485 4.9723473 -0.09595333 11 7
2.4038684 5.0946302 1.5094327 26 15
2.4909756 5.2436204 -1.5555025 9 0
2.3880038 5.022337 0.097070284 22 8
2.7574463 5.7967215 -1.4819776 14 1
2.5766087 5.4116936 0.31412044 4 9
2.9661791 6.2243156 -1.3402424 15 2
2.3022041 4.8288417 0.46802634 6 10
3.776402 7.9138389 -1.3888253 12 3
2.3835399 4.9904709 0.67905599 11 11
2.6334674 5.5112696 -0.74998403 18 4
2.3642468 4.9434199 0.86789852 32 12
2.8285201 5.9088721 -0.57313615 27 5
2.6753924 5.5864797 1.2040049 8 13
2.5182493 5.2536416 -0.30532798 9 6
2.4580228 5.1234007 1.3119146 21 14
2.4219697 5.0460005 -0.097698569 9 7
2.4686587 5.138669 1.5275501 12 15
2.5292044 5.2295809 -1.5565379 9 0
3.5103524 7.2518291 0.1406315 5 8
2.7689691 5.7176976 -1.4666809 15 1
2.5690265 5.3001156 0.30867749 7 9
3.0189869 6.2228866 -1.3444403 16 2
2.3593488 4.8610468 0.47273275 22 10
3.8643589 7.9548011 -1.4007144 3 3
2.4296064 4.9969177 0.68222463 1 11
2.9306412 6.0247111 -0.82261819 19 4
2.4108067 4.9516587 0.87227869 18 12
3.6988447 7.5904822 -0.7387321 10 5
2.7194898 5.5782537 1.2062945 8 13
2.5688789 5.2646523 -0.30700275 10 6
2.4732041 5.0640907 1.3011169 21 14
2.4755762 5.066699 -0.098431572 16 7
2.4026287 4.9130569 1.4654335 15 15
2.5613859 5.2031302 -1.5539496 10 0
2.4048631 4.8808794 0.094976 9 8
2.8157115 5.7122102 -1.4702801 20 1
2.2790029 4.6193333 0.2699489 3 9
3.0727882 6.2227821 -1.3490196 26 2
2.4232314 4.9051914 0.4786593 22 10
3.9697056 8.0285616 -1.418548 13 3
2.4609103 4.9727178 0.68124968 6 11
2.6714036 5.395689 -0.73925954 15 4
2.8075538 5.665709 1.0014936 14 12
2.7592399 5.5608907 1.2066761 10 13
2.582473 5.2000809 -0.30428126 9 6
2.6498826 5.3311453 1.3744509 18 14
2.4939682 5.0152736 -0.097768381 9 7
2.4859343 4.9947443 1.494939 29 15
2.6140866 5.2179399 -1.5637847 9 0
2.8625093 5.7063498 -1.4738793 15 1
2.9976578 5.9705582 0.35012761 7 9
3.1249719 6.2187209 -1.3528358 24 2
3.5515292 7.0583606 -1.2514758 15 3
2.4857426 4.935915 0.67856854 11 11
2.7081144 5.375134 -0.73901576 10 4
3.0124691 5.9740419 1.0596871 12 12
2.8968868 5.7398396 -0.56250316 19 5
2.7749882 5.4959264 1.1967541 15 13
2.8637395 5.6667833 -0.33275205 22 6
2.6307449 5.2012224 1.3456572 18 14
2.4584973 4.8585672 -0.095045805 11 7
2.532963 5.0013952 1.5021858 16 15
2.660979 5.2202163 -1.5699965 9 0
2.5291233 4.957263 0.097140096 8 8
2.9164546 5.7139969 -1.4810777 14 1
3.0011058 5.874783 0.34573138 2 9
3.18082 6.2212267 -1.3581785 24 2
2.8925154 5.6549029 0.55570501 12 10
3.5809124 6.9947124 -1.2445928 9 3
2.4785035 4.837172 0.66735661 11 11
3.1286113 6.1033378 -0.84211725 23 4
2.5320127 4.935235 0.87853605 9 12
3.8333349 7.4652719 -0.7342 10 5
2.8859539 5.6178708 1.2276652 8 13
2.8016324 5.4443803 1.4135925 7 14
2.9600737 5.749804 -0.11288217 21 7
2.6067483 5.0591521 1.5249618 18 15
2.6964712 5.1997957 -1.5694788 11 0
2.9365184 5.6554484 -1.47118 15 1
2.8256099 5.4372139 0.32113346 14 9
3.2368577 6.2232533 -1.3635212 18 2
4.0263329 7.7378168 0.76313567 11 10
3.6159711 6.9432626 -1.2398998 13 3
2.5067074 4.8091888 0.66589415 9 11
2.9462755 5.6501069 -0.7824012 28 4
2.5499542 4.8859162 0.87290442 32 12
3.2865131 6.2945433 -0.6212461 8 5
2.795079 5.3487654 1.1730938 12 13
2.9286945 5.5997009 -0.33118194 22 6
2.6606498 5.0850291 1.3249618 10 14
2.9806588 5.6917987 -0.11214916 11 7
2.6151025 4.9894967 1.5094327 26 15
2.7254941 5.1671758 -1.5653377 10 0
2.4796431 4.6990819 0.092742085 8 8
2.9868474 5.655489 -1.4765787 11 1
3.0305037 5.7357202 0.3399744 9 9
3.2938273 6.2288451 -1.3696271 18 2
2.9003551 5.4801335 0.54245734 1 10
3.6723919 6.935946 -1.2430284 4 3
2.5226514 4.7604437 0.66150689 16 11
3.1112139 5.8661513 -0.81530601 23 4
2.5100071 4.7305951 0.8481878 21 12
3.0500424 5.743546 -0.56895268 6 5
2.8857901 5.4296727 1.1952276 16 13
2.9676831 5.581399 -0.33128664 11 6
2.702491 5.0783739 1.3281111 15 14
2.9827237 5.6002512 -0.11075297 13 7
2.6126645 4.9033847 1.4887272 18 15
2.7523868 5.1331811 -1.5606788 13 0
2.5104952 4.678133 0.092672281 1 8
3.0455532 5.6728001 -1.4864765 16 1
2.971209 5.5296907 0.32898384 19 9
3.3707073 6.2679453 -1.3833653 10 2
2.9659085 5.5129018 0.5476867 9 10
3.4678686 6.4405341 -1.1585537 2 3
2.5473511 4.7269878 0.6593132 15 11
3.1096194 5.7679563 -0.80458146 16 4
2.5711148 4.7651091 0.85757387 9 12
6.5264049 12.090509 -1.202052 20 5
2.8340337 5.2458091 1.1589739 18 13
3.0217729 5.5886559 -0.33296138 22 6
2.9196503 5.3975263 1.4167417 12 14
3.2530653 6.0089016 -0.11926974 7 7
2.7158568 5.0124164 1.5275501 9 15
2.8020277 5.1392827 -1.5684435 10 0
4.2601147 7.8103604 0.15529151 14 8
3.0906849 5.6616631 -1.489176 21 1
2.9034774 5.3165207 0.31746995 9 9
3.6147957 6.6135182 -1.4650315 9 2
2.9125302 5.3242583 0.53095281 4 10
3.4148991 6.2400284 -1.1266412 28 3
2.6004443 4.7478437 0.66467547 13 11
3.3721402 6.1516938 -0.86137259 23 4
2.7032201 4.9293623 0.89042509 4 12
4.5285277 8.2510052 -0.82344747 11 5
3.0347371 5.5224462 -0.33023992 22 6
2.9290853 5.3257875 1.4032447 10 14
3.2235799 5.8564086 -0.11668679 5 7
2.6921372 4.888895 1.4954566 15 15
2.8509891 5.1454377 -1.576208 9 0
2.974303 5.3635831 0.10705306 14 8
3.1556213 5.6882081 -1.5017732 20 1
2.9211328 5.261198 0.31537652 16 9
3.7266772 6.7065325 -1.4913632 13 2
4.2865591 7.7109265 0.77185118 8 10
3.4737458 6.2436552 -1.131647 5 3
2.6451159 4.7503853 0.66760033 2 11
3.4284258 6.1546106 -0.86502868 35 4
3.0694237 5.505619 0.99836493 14 12
3.0560524 5.4771395 -0.54873258 21 5
3.0639775 5.4890909 1.2219409 17 13
3.0926962 5.5359993 -0.33233336 22 6
3.9647534 7.091188 1.8756418 2 14
2.8573697 5.1042933 1.5674082 3 15
2.8830469 5.1186776 -1.5741374 13 0
2.9979305 5.3182983 0.1065644 23 8
3.1895096 5.6558561 -1.4990739 15 1
2.9469931 5.2215433 0.31422511 21 9
3.7666478 6.668386 -1.4886919 11 2
3.0248709 5.3529787 0.53792524 10 10
4.5003691 7.9576154 -1.4479576 5 3
2.6733241 4.7231665 0.66638166 5 11
3.4771779 6.1408896 -0.86649108 30 4
2.996758 5.2881355 0.9626978 30 12
3.7547343 6.6202865 -0.66586983 18 5
3.1254785 5.5085459 1.2310997 5 13
3.2259469 5.681004 -0.34238186 11 6
3.9949055 7.0294514 1.8666438 5 14
2.7639565 4.8575463 1.497527 3 15
2.9331112 5.1235723 -1.5819021 12 0
3.0667973 5.3527617 0.10768134 12 8
3.2231054 5.6233053 -1.4963745 16 1
3.0330641 5.2874646 0.31945869 11 9
3.813107 6.6419291 -1.4886919 11 2
3.1018589 5.4008393 0.54489768 10 10
3.5664866 6.2048221 -1.1335243 8 3
2.6993062 4.6923418 0.66467547 15 11
3.2763867 5.6932178 -0.80653143 20 4
3.4634538 6.0134125 1.0991087 22 12
3.2197869 5.5858374 -0.56407195 6 5
3.1658182 5.489995 1.2318629 5 13
3.1597068 5.4749804 -0.33128664 22 6
4.0536261 7.0182672 1.871143 2 14
3.7947147 6.5673447 -0.13239396 6 7
2.9911525 5.1413765 -1.5938078 9 0
3.2720933 5.617506 -1.5008734 11 1
3.069901 5.2661624 0.31945869 11 9
3.8524582 6.6032763 -1.4860206 11 2
3.1053393 5.320549 0.53897113 16 10
3.7711265 6.4560947 -1.184209 5 3
3.5024087 5.9912529 0.85211051 13 11
3.4433262 5.8878274 -0.83748621 16 4
3.2143936 5.4875817 -0.55640227 22 5
3.867116 6.5992537 1.4867837 15 13
3.2251301 5.4993062 -0.33411276 22 6
3.2038977 5.4587288 1.461282 14 14
3.9761448 6.7717657 -0.13707121 6 7
3.1603677 5.3781114 1.6714535 15 15
3.0112414 5.0937624 -1.5855255 13 0
3.5210316 5.9513717 0.12070084 28 8
3.3231392 5.6146512 -1.5062722 21 1
3.0383925 5.1294684 0.3124457 19 9
3.7122538 6.2620997 -1.4150395 14 2
3.1678154 5.3415823 0.54332888 9 10
3.5600193 5.9981384 -1.1047403 18 3
3.5329957 5.9478831 0.84942937 11 11
3.6496408 6.1418099 -0.87721562 35 4
3.7924314 6.3770428 1.1751359 9 12
3.3739185 5.6710458 -0.57731962 6 5
3.5143487 5.9024048 1.3352814 3 13
3.2297049 5.4200368 -0.33065861 11 6
3.0576704 5.0908327 -1.5912195 12 0
3.5532203 5.9135547 0.1204216 14 8
3.3722987 5.6080155 -1.5107714 14 1
3.1030948 5.1583004 0.31548119 9 9
3.7487137 6.2265964 -1.4127499 14 2
3.1227727 5.1828108 0.52938396 7 10
3.5711889 5.924706 -1.0956671 25 3
3.5641744 5.9083967 0.84723574 13 11
3.3312895 5.5179896 -0.79141963 19 4
3.3782411 5.5935483 1.0349705 8 12
3.2670784 5.4052262 -0.55256736 12 5
3.3400486 5.5216026 1.2543784 7 13
3.2044837 5.2954011 -0.32437828 11 6
3.7724991 6.2291422 1.6812842 17 14
3.7282667 6.1512523 -0.12555261 17 7
3.0972817 5.0781484 -1.5938078 9 0
3.4079254 5.5830798 0.11417364 3 8
3.4002368 5.5682988 -1.5062722 10 1
3.1015379 5.0751591 0.31171298 21 9
3.8105304 6.2304206 -1.4196191 14 2
3.1527772 5.1529379 0.52851242 19 10
3.6516628 5.9636469 -1.1075561 28 3
3.5555503 5.8021274 0.8355363 10 11
3.3594344 5.4799547 -0.78922594 27 4
3.4089451 5.5563579 1.0324676 36 12
3.442342 5.6064076 -0.57557648 23 5
3.3145878 5.3920054 -0.33170533 22 6
3.7587156 6.1097031 1.6560897 18 14
3.750134 6.0933766 -0.12488942 28 7
3.1326585 5.0564017 -1.5938078 9 0
3.3677883 5.4316874 0.11155578 19 8
3.4318376 5.5328326 -1.5031229 14 1
3.1537471 5.080533 0.31338775 21 9
3.9782577 6.4037828 -1.4654131 11 2
3.1865711 5.127418 0.52816379 12 10
3.8497026 6.1896167 -1.1544864 37 3
3.7868848 6.0838876 0.8798967 9 11
3.5550065 5.7091317 -0.82578677 9 4
3.578243 5.7419863 1.0715762 16 12
3.3274665 5.3354173 -0.55012703 28 5
3.8263464 6.1329613 1.4051175 21 13
3.3267632 5.3280749 -0.3291932 11 6
4.0718384 6.5163007 1.7739639 27 14
3.7925823 6.0670476 -0.12488942 25 7
3.1864016 5.063839 -1.6031252 9 0
3.4066894 5.4097371 0.11159069 24 8
3.5108912 5.5730433 -1.5206691 20 1
3.1880713 5.0567031 0.31328306 7 9
3.9023881 6.1849117 -1.421527 24 2
3.5551503 5.632401 0.58272326 5 10
3.9983144 6.3295999 -1.1857734 12 3
3.8292663 6.057302 0.8798967 17 11
3.854727 6.0952215 -0.8855027 27 4
3.6076784 5.7001743 1.0684476 41 12
3.6066427 5.6941333 -0.58969575 18 5
3.5937583 5.6716075 1.3051336 38 13
3.3638816 5.3047185 -0.3291932 11 6
3.6170635 5.6995826 1.558461 10 14
3.8434227 6.0539265 -0.12516867 28 7
3.2175133 5.0349607 -1.6010547 9 0
3.4745426 5.4329906 0.11256802 17 8
3.54971 5.5483985 -1.5206691 14 1
3.3159158 5.178977 0.32228485 19 9
4.0386801 6.3029833 -1.4551095 11 2
3.3599949 5.241776 0.54472339 15 10
3.6818955 5.7395487 -1.0800236 22 3
3.9679766 6.1807656 0.90183324 10 11
3.6440239 5.6739736 -0.82798034 16 4
3.6121392 5.6200113 1.0581229 29 12
3.4264271 5.3269787 -0.55413622 18 5
3.6417649 5.6595879 1.3081865 19 13
3.4029934 5.2844644 -0.32940254 22 6
3.6726003 5.6987624 1.5652094 21 14
3.8975093 6.0454359 -0.12555261 5 7
3.2536366 5.0139961 -1.6015723 11 0
3.4219911 5.269403 0.10967092 10 8
3.6042833 5.5479941 -1.5274177 14 1
3.404247 5.2360754 0.3273091 7 9
4.0140567 6.1693182 -1.4306859 15 2
3.6367085 5.5872216 0.58324623 15 10
3.7714717 5.7898426 -1.0944157 15 3
3.8766086 5.9467058 0.87160963 17 11
3.9784911 6.1006656 -0.89427733 35 4
3.6717994 5.6260881 1.0640674 12 12
4.3720999 6.6965652 -0.69968635 9 5
3.675818 5.6258078 1.3062785 27 13
3.4660363 5.3006973 -0.33191466 11 6
3.8115826 5.8269291 1.6075002 14 14
3.9505723 6.0348096 -0.12590165 17 7
3.2832501 4.9830923 -1.5989841 9 0
3.4324656 5.2075887 0.10886811 32 8
3.6311271 5.5048008 -1.5224687 15 1
3.4640074 5.2494588 0.3296119 9 9
4.2193236 6.3892283 -1.4883102 13 2
3.5405087 5.3572464 0.5618059 13 10
3.8162415 5.7722759 -1.09598 28 3
4.0002441 6.0460014 0.89013374 5 11
4.0593395 6.1306744 -0.90280819 46 4
3.785279 5.7145977 1.0856553 7 12
3.7120066 5.5997381 -0.58777833 14 5
3.807255 5.7390685 1.338716 15 13
3.4600699 5.2137446 -0.32793713 11 6
3.9114666 5.8894606 1.6322449 11 14
3.7933638 5.7073112 -0.11961879 18 7
3.3514528 5.0120182 -1.6155485 9 0
3.6844914 5.505909 0.11563965 6 8
3.6760991 5.4912944 -1.5256181 14 1
3.4683354 5.1770258 0.32657638 11 9
4.1348181 6.1671968 -1.4432793 12 2
3.5580261 5.304894 0.5588426 18 10
3.8872719 5.7914176 -1.1047403 10 3
3.9648705 5.9025798 0.87307209 17 11
4.0489411 6.0254593 -0.89135242 17 4
3.7743726 5.6126304 1.0712634 36 12
4.2282476 6.2851834 -0.6627323 8 5
3.7870226 5.6250792 1.3181087 13 13
3.4740644 5.1563344 -0.32584369 11 6
3.8414564 5.6994896 1.5868047 18 14
3.3548965 4.9421463 -1.6005371 12 0
3.6803169 5.4194927 0.11434817 12 8
3.7001064 5.4445438 -1.5197693 21 1
3.4540837 5.0806246 0.32197085 23 9
4.0817232 5.9993172 -1.4104601 7 2
3.5467575 5.2091084 0.5513472 15 10
4.080061 5.990128 -1.1479162 15 3
4.7328286 6.9432697 1.0317459 14 11
3.9991765 5.8625779 -0.8713659 17 4
3.8225126 5.6014919 1.0740792 24 12
4.2338171 6.199573 -0.65680563 8 5
3.4978073 5.1160812 -0.32479697 11 6
3.8624487 5.6451893 1.5791564 16 14
4.3362751 6.3305993 2.0560586 7 15
3.4081848 4.9478326 -1.6098546 10 0
3.6647201 5.3162851 0.11270764 31 8
3.7824388 5.4850068 -1.5382153 25 1
3.5166948 5.0958381 0.32448295 14 9
3.9684319 5.7461267 -1.3574153 13 2
3.6059127 5.2192712 0.55500776 18 10
4.0824642 5.9046273 -1.1369658 11 3
3.9961791 5.7755251 0.86234754 5 11
4.0796642 5.8939786 -0.88014042 20 4
3.8547738 5.5649281 1.072202 24 12
4.2883453 6.1862383 -0.65854877 13 5
3.9615524 5.712687 1.3513094 18 13
4.2007275 6.0530715 -0.38613471 25 6
3.8083897 5.4836369 1.5413646 17 14
5.6763067 8.1701841 -0.17365146 11 7
3.4548202 4.9413338 -1.6155485 14 0
3.7109144 5.3036804 0.11298689 14 8
3.8273439 5.4680457 -1.5409148 24 1
3.5705161 5.0973387 0.32615772 9 9
4.0354939 5.7568665 -1.366574 18 2
3.8252904 5.4549732 0.5828976 23 10
4.0611744 5.7870526 -1.119758 15 3
4.0740514 5.8010941 0.87039089 6 11
3.7946868 5.3972931 1.0449823 35 12
4.3474832 6.1789603 -0.66098917 13 5
3.8826878 5.5163188 1.3112395 24 13
4.2497869 6.0333924 -0.38676277 25 6
3.9038379 5.5381498 1.5643097 14 14
4.1152353 5.8358779 -0.12464508 8 7
3.5037649 4.9375777 -1.6222779 11 0
3.8636348 5.4406834 0.11647736 9 8
3.8688109 5.4459591 -1.5422645 17 1
3.7622476 5.2920413 0.34028843 7 9
4.0687575 5.718955 -1.3642844 24 2
3.8956282 5.4735856 0.58777833 16 10
4.0877247 5.7392511 -1.1160036 16 3
4.1248212 5.7870593 0.87258458 9 11
4.2595167 5.9738293 -0.90085822 6 4
3.8230953 5.3578057 1.0424794 17 12
4.4159842 6.1841321 -0.66482401 9 5
4.0203872 5.6280622 1.3444403 29 13
4.2720561 5.9759574 -0.38498333 25 6
3.9662173 5.5440445 1.5737575 17 14
4.1442361 5.7907462 -0.12429604 20 7
3.5663741 4.9521875 -1.6352189 9 0
3.684058 5.1118326 0.10998507 26 8
3.9021752 5.4124956 -1.5404649 10 1
3.7208059 5.1571274 0.33327541 14 9
4.3062553 5.9641867 -1.4299227 10 2
3.9489119 5.4672527 0.59004438 5 10
4.016603 5.5568829 -1.0859681 9 3
4.4443474 6.1441407 0.93108183 10 11
4.3092642 5.955204 -0.90256441 8 4
4.3018274 5.9405599 1.1616825 15 12
5.1979375 7.1727614 -0.77498883 10 5
4.0261636 5.553762 1.3333733 15 13
4.3453383 5.9896364 -0.38780949 25 6
4.020854 5.5382972 1.5800562 16 14
3.6099811 4.9396448 -1.6393598 9 0
3.729099 5.0989008 0.11026431 31 8
3.9387181 5.3835464 -1.5400149 15 1
3.7531788 5.1261907 0.33296138 28 9
4.0925117 5.5855746 -1.3459667 11 2
4.279088 5.8380761 0.6332736 6 10
4.3392024 5.9157658 -1.1619954 17 3
4.288619 5.8425207 0.88989002 5 11
4.3107843 5.870575 -0.89427733 8 4
4.1735854 5.6795707 1.1163164 10 12
4.3602548 5.9292593 -0.64390665 34 5
4.4367795 6.0267072 -0.39220569 25 6
4.1854105 5.6811051 1.6290956 13 14
3.6397755 4.9081154 -1.6372893 9 0
3.7669866 5.0759559 0.11033412 31 8
3.9878223 5.3715644 -1.5445139 13 1
3.8377073 5.1655979 0.33725294 14 9
4.1384377 5.5663185 -1.3482565 20 2
4.0129695 5.3955989 0.58830124 13 10
4.4311142 5.953465 -1.1754488 5 3
4.2664561 5.7280617 0.8769719 17 11
4.4406214 5.9597211 -0.91255772 2 4
3.9202933 5.2575617 1.038725 13 12
4.5278425 6.0679398 -0.66238362 13 5
4.2101836 5.6401734 1.3681006 16 13
4.3137937 5.7747736 -0.37776098 25 6
4.076787 5.4535222 1.5719579 12 14
4.8442287 6.4777789 -0.14118996 17 7
3.662334 4.8671503 -1.632113 9 0
3.8985627 5.1773295 0.1131265 28 8
4.0263963 5.3451519 -1.5449638 16 1
4.252388 5.6410642 0.3702246 16 9
4.1511855 5.5028105 -1.3398608 22 2
4.0517402 5.3690419 0.58847558 24 10
4.0844789 5.4084916 -1.0734534 16 3
4.2201643 5.5841126 0.85942268 13 11
4.5742998 6.0505023 -0.93132555 22 4
4.2703528 5.6443763 1.1210095 14 12
4.4558449 5.8852754 -0.64582402 21 5
4.0846915 5.3931055 1.3150556 12 13
4.2430148 5.5980768 -0.36813116 24 6
4.2101512 5.5506921 1.6084001 18 14
4.7418714 6.2494497 -0.13693158 13 7
3.7290483 4.8844585 -1.6466069 9 0
3.9977436 5.2326131 0.11494155 28 8
4.0636144 5.3169122 -1.5449638 17 1
6.2864399 8.2193451 0.54230523 8 9
4.5224152 5.9086623 -1.4463322 12 2
4.1533217 5.4244652 0.59771407 13 10
4.0464444 5.2810626 -1.0537428 21 3
4.4897547 5.8553972 0.90597677 24 11
4.7082472 6.1381292 -0.94984972 6 4
4.4960895 5.857305 1.1695042 21 12
4.5441585 5.9156456 -0.65262216 25 5
4.3555098 5.6680183 1.3894712 21 13
4.5547166 5.9229684 -0.39157766 25 6
4.3605137 5.666338 1.6506908 16 14
3.7630575 4.8583055 -1.6466069 9 0
4.0586758 5.2361879 0.11563965 40 8
4.1101871 5.3007336 -1.548563 16 1
5.4473972 7.020215 0.4656854 9 9
4.2324266 5.4505186 -1.3413873 11 2
4.3023129 5.5385227 0.61357641 10 10
4.0868516 5.2573628 -1.0546813 11 3
4.8693705 6.2594862 0.97373611 14 11
4.7058764 6.0471454 -0.94083142 5 4
4.0950813 5.2584677 1.0556198 8 12
4.5914669 5.8916368 -0.6534937 38 5
4.3684211 5.6034074 1.3810756 31 13
4.3649879 5.5949807 -0.37189934 24 6
4.4371424 5.6833754 1.6646378 5 14
58.188454 74.451103 25.319233 62 15
3.7992704 4.8349543 -1.6476421 9 0
4.0802989 5.1888623 0.11522079 34 8
4.1699848 5.3010111 -1.5571113 14 1
6.4401164 8.1809921 0.54565471 6 9
4.6640029 5.9205108 -1.4650315 9 2
4.4296651 5.6210227 0.62612689 8 10
4.0451698 5.1294336 -1.0346577 11 3
4.7370911 6.0025072 0.93888152 12 11
4.7442884 6.0094705 -0.94010019 3 4
4.1610799 5.2669535 1.0631288 28 12
4.4366593 5.6097326 1.3902344 16 13
4.4212952 5.5862966 -0.37336475 24 6
4.9139304 6.2020655 -0.13811834 6 7
3.840157 4.8173757 -1.6507479 9 0
4.2124453 5.2806196 0.11790846 27 8
4.2141848 5.2809086 -1.5598106 13 1
4.6188674 5.7838855 0.38791415 14 9
4.7150269 5.900075 -1.4680845 8 2
4.4140587 5.5214872 0.61845714 16 10
4.3906183 5.4882369 -1.1131878 12 3
4.8270764 6.0273342 -0.94814354 5 4
4.2026901 5.2439408 1.0643803 16 12
4.7794428 5.9614563 -0.66848457 31 5
4.5076575 5.6184363 1.4001565 17 13
4.5677214 5.6892314 -0.38236654 12 6
4.4084072 5.4849162 -0.12283003 16 7
59.316769 73.748795 25.359608 62 15
3.8639774 4.7784319 -1.6466069 9 0
4.1967287 5.1880803 0.11647736 35 8
4.2779241 5.2846818 -1.5697085 14 1
4.6681857 5.7647295 0.38875154 9 9
4.7451901 5.8556418 -1.4650315 9 2
4.8440342 5.9733591 0.67284232 20 10
4.541122 5.5978241 -1.1416589 13 3
4.1938305 5.1660333 0.81701219 14 11
5.6838822 6.9965119 -1.1068175 10 4
4.19344 5.1600232 1.0531169 29 12
4.4765019 5.5044098 -0.62072319 27 5
4.3014026 5.2853332 1.3245962 28 13
4.9001484 6.0188942 -0.40675509 26 6
4.4617577 5.4726028 -0.1232489 22 7
3.9160123 4.7759218 -1.6548891 9 0
4.2404571 5.1679306 0.11668679 29 8
4.3125606 5.2539349 -1.5692586 23 1
4.5447812 5.532907 0.37524885 7 9
4.6351051 5.6388602 -1.4188558 12 2
4.4783797 5.4462523 0.61688834 17 10
4.5687923 5.5522585 -1.1388431 6 3
4.2802687 5.1979246 0.82676172 18 11
4.5323391 5.5020847 -0.87526566 21 4
4.2884145 5.2022634 1.0678217 24 12
4.6352668 5.6190319 -0.63728279 24 5
4.5622029 5.5284953 1.3932874 16 13
4.8492103 5.8721161 -0.39911404 13 6
4.4657755 5.4020352 -0.12234137 19 7
3.9566705 4.7573781 -1.6579949 9 0
4.2431707 5.0982409 0.11577927 28 8
4.3541222 5.2296896 -1.5710582 21 1
4.2125401 5.0560517 0.34489399 19 9
4.6680751 5.5988221 -1.4169476 8 2
4.5724406 5.4821787 0.62455803 8 10
4.5745354 5.4807954 -1.1307085 19 3
4.2591887 5.0993557 0.81579345 15 11
4.5362773 5.4291768 -0.86868477 32 4
4.2295957 5.0585399 1.0443566 30 12
5.3226042 6.3612566 -0.72565866 10 5
4.4582944 5.3263907 1.3501645 39 13
4.7002783 5.6115174 -0.38362259 12 6
4.8528576 5.7875137 -0.13183548 6 7
4.0022411 4.7444077 -1.6631712 9 0
4.4489288 5.2701945 0.1203867 31 8
4.4093833 5.2215004 -1.5778067 14 1
4.2309761 5.0066876 0.34353325 14 9
4.7146549 5.5750909 -1.4192374 12 2
5.0391054 5.9566517 0.68260378 7 10
4.6203456 5.4577713 -1.1325856 6 3
4.3075142 5.0846457 0.81823081 16 11
4.590754 5.4170632 -0.87185335 20 4
4.4883947 5.2925382 1.0991087 11 12
4.6774993 5.5135665 -0.63257635 28 5
4.4852066 5.2831635 1.3471116 20 13
4.5777001 5.388299 -0.37053862 24 6
4.797276 5.640769 -0.12925252 15 7
4.0151715 4.6928649 -1.6548891 9 0
4.4977021 5.254982 0.12073575 43 8
4.4596734 5.2068701 -1.5827556 17 1
4.6535082 5.4312625 0.37483016 7 9
4.8240538 5.6263356 -1.4406079 5 2
5.0066199 5.8351355 0.67266804 4 10
4.901834 5.7109976 -1.1920308 10 3
4.4623156 5.195251 0.84089851 18 11
4.5404716 5.2825122 -0.85527909 20 4
4.6556821 5.4146399 1.1310214 14 12
4.8133397 5.5940475 -0.64564973 21 5
4.6078062 5.3514028 1.3726799 19 13
4.7667766 5.5340686 -0.3827852 12 6
4.8025804 5.567771 -0.128345 6 7
3.957144 4.5618148 -1.6181368 10 0
4.5211701 5.2083526 0.1203867 35 8
4.5090671 5.1925788 -1.5877045 14 1
4.7162032 5.4272861 0.37681893 14 9
4.8657923 5.5954838 -1.4413712 5 2
4.6473866 5.3424416 0.61950302 13 10
4.94807 5.6840868 -1.1935952 30 3
4.5415053 5.213366 0.84894192 27 11
4.6920271 5.3823662 -0.87672812 16 4
4.505116 5.1661296 1.0856553 15 12
4.8575139 5.5663142 -0.64634699 25 5
4.7199554 5.40487 1.3948139 27 13
5.257308 6.0180836 -0.4187924 27 6
5.2363296 5.9856253 -0.13881645 6 7
4.0956187 4.653749 -1.6611006 9 0
4.5600643 5.1796641 0.12045651 17 8
4.5461092 5.1601796 -1.5877045 14 1
4.8777547 5.5327282 0.38655341 2 9
4.967072 5.6320524 -1.4596889 8 2
4.5839825 5.194025 0.60608101 5 10
4.9088516 5.5582166 -1.1745101 17 3
4.5909319 5.1964126 0.85137933 16 11
4.7518411 5.3747616 -0.88087165 31 4
4.5760002 5.1722255 1.0937898 7 12
5.114131 5.7784443 -0.67510837 9 5
26.920967 30.396521 7.8926239 2 13
5.2604966 5.9354677 -0.41565222 27 6
5.7398276 6.4694753 -0.15096332 8 7
4.1614542 4.6625156 -1.6745592 9 0
4.6396389 5.1946254 0.12157347 25 8
4.6053939 5.1544738 -1.5958028 11 1
4.805769 5.3749609 0.37786564 9 9
5.0897193 5.68854 -1.4837308 13 2
4.5483785 5.0817285 0.59666818 12 10
4.6654997 5.208919 -1.1075561 28 3
4.6756964 5.2166433 0.86015391 21 11
4.7667222 5.316328 -0.87672812 11 4
4.5579071 5.0798726 1.0809623 16 12
4.9334302 5.4964652 -0.6461727 12 5
4.7170181 5.2479844 -0.3698059 12 6
4.9689546 5.5224619 -0.12967138 9 7
4.1990886 4.6390786 -1.6766298 9 0
4.6695213 5.1569953 0.12143384 14 8
4.6281815 5.1077552 -1.5913037 15 1
4.5914125 5.0653996 0.35829198 7 9
5.1124911 5.6363158 -1.4791514 13 2
4.6440015 5.1162405 0.60451221 17 10
4.6928778 5.1682687 -1.1056789 27 3
5.1302733 5.6460171 0.93668783 18 11
4.7262611 5.1977386 -0.86259133 18 4
5.1320338 5.6420112 1.2079871 10 12
5.0172796 5.5119877 -0.65209925 17 5
5.44945 5.9804769 -0.42402595 27 6
5.0262599 5.5083146 -0.13016005 18 7
4.230566 4.6103911 -1.6766298 9 0
4.7568054 5.1802406 0.12276023 15 8
4.6707516 5.0847449 -1.5940032 14 1
4.6415324 5.049397 0.3594434 16 9
5.243423 5.7001877 -1.505483 9 2
4.6679292 5.0727801 0.60311776 15 10
4.7341971 5.1411929 -1.1069304 25 3
4.8359609 5.2480278 0.87624067 12 11
4.6471686 5.0413828 -0.84187353 12 4
5.1096864 5.5392551 1.1935952 5 12
5.109695 5.5353856 -0.65907168 8 5
5.5425773 5.9980283 -0.42800349 40 6
5.4003963 5.8380284 -0.13881645 6 7
4.273181 4.5920558 -1.680771 9 0
4.6715655 5.0166616 0.1196537 24 8
