# .PCD v0.7 - Point Cloud Data file format
VERSION 0.7
FIELDS x y z intensity ring
SIZE 4 4 4 4 2
TYPE F F F F U
COUNT 1 1 1 1 1
WIDTH 1279
HEIGHT 1
VIEWPOINT 0 0 0 1 0 0 0
POINTS 1279
DATA ascii
0.32195672 -8.6564379 -2.3210893 6 0
0.41210186 -11.238626 -2.596385 9 1
1.4693066 -40.455772 2.1215951 0 9
0.52004009 -14.457872 -2.8121431 9 2
1.471321 -41.104565 3.5984862 0 10
0.69693363 -19.662405 -3.1161747 6 3
0.98742956 -28.276285 -3.4740076 21 4
0.49856159 -14.643283 2.8480153 3 13
1.4471971 -42.946655 -2.2520165 0 6
0.26151553 -8.6584749 -2.3210893 6 0
0.33421084 -11.260709 -2.600884 9 1
1.2045196 -41.067955 2.1532061 0 9
0.4192079 -14.465075 -2.8129063 8 2
0.56054854 -19.698385 -3.121181 7 3
0.82314515 -29.469114 -3.6197636 23 4
0.40911826 -15.119378 2.9399853 14 13
1.0750306 -40.24839 -2.1100812 1 6
0.33270648 -12.87729 3.4516108 7 15
0.20088224 -8.6523638 -2.3190186 6 0
0.25558814 -11.262768 -2.600884 8 1
0.90528953 -40.51627 2.123898 0 9
0.31916216 -14.51083 -2.8213019 8 2
0.88631076 -40.619137 3.5545597 0 10
0.42394942 -19.745266 -3.1280639 6 3
0.6645425 -31.724741 -3.8961632 8 4
0.30430558 -15.159161 2.9472361 30 13
0.79236811 -40.171047 -2.105685 0 6
0.14075571 -8.6709404 -2.3236775 7 0
0.17719923 -11.279865 -2.6044834 9 1
0.62033445 -40.385807 2.1167803 0 9
0.21773182 -14.504852 -2.8197756 8 2
0.63629538 -42.887444 3.7525778 1 10
0.28672069 -19.791199 -3.1349471 6 3
0.4396922 -31.488436 -3.8666708 5 4
0.19746505 -15.084355 2.9323528 4 13
0.54045272 -42.41634 -2.2231269 0 6
0.081658266 -8.66397 -2.3216069 7 0
0.10048472 -11.288605 -2.6062829 8 1
0.34333819 -40.145439 2.1040103 0 9
0.11890027 -14.49422 -2.8174858 8 2
0.34344268 -42.777214 3.7426417 1 10
0.15218376 -19.816395 -3.1387014 6 3
0.22418554 -31.327925 -3.8466842 5 4
0.2431449 -40.973049 -2.1473446 0 6
0.022713866 -8.6759167 -2.3247128 7 0
0.023628166 -11.281233 -2.6044834 8 1
0.071943708 -41.221367 2.1603239 0 9
0.020249262 -14.502546 -2.8190124 8 2
0.052198257 -42.724766 3.7379353 0 10
0.017331954 -19.860432 -3.1455848 6 3
0.0054623052 -31.285057 -3.8413222 5 4
-0.036061302 -41.329266 -2.165976 0 6
-0.039395396 -8.6816521 -2.3262658 6 0
-0.057118792 -11.285009 -2.6053832 9 1
-0.21658607 -40.030476 2.0979395 0 9
-0.081040226 -14.510186 -2.8205388 8 2
-0.25487715 -42.951176 3.7578068 1 10
-0.12491056 -19.879799 -3.1487131 6 3
-0.21251631 -31.220808 -3.8335223 5 4
-0.33456871 -41.671471 -2.1839797 0 6
-0.10020407 -8.6985512 -2.3309245 8 0
-0.13594721 -11.288233 -2.6062829 8 1
-0.50025356 -40.3675 2.1157336 0 9
-0.18501899 -14.521014 -2.8228285 8 2
-0.55977011 -43.338829 3.7919722 1 10
-0.2640067 -19.902145 -3.1524677 6 3
-0.43019977 -31.198715 -3.831085 6 4
-0.87632769 -58.379299 -3.0598743 0 6
-0.16125061 -8.715023 -2.3355832 7 0
-0.21475062 -11.287009 -2.6062829 9 1
-0.80928844 -42.148376 2.2093103 0 9
-0.28377956 -14.515493 -2.8220651 8 2
-0.85922664 -43.178486 3.7783756 0 10
-0.40010479 -19.931486 -3.1574736 6 3
-0.64794874 -31.192968 -3.8308413 6 4
-1.2725506 -58.320065 -3.0571527 0 6
-0.22022502 -8.7002048 -2.3319597 6 0
-0.29167333 -11.289182 -2.6071827 10 1
-0.3851099 -14.513159 -2.8220651 8 2
-0.54036278 -19.969677 -3.1640439 6 3
-0.86206418 -31.253317 -3.8388846 5 4
-1.6786283 -58.273827 -3.0552688 1 6
-0.28139511 -8.7119713 -2.3355832 7 0
-0.37047955 -11.28687 -2.6071827 10 1
-0.48427996 -14.521974 -2.8243549 8 2
-0.67674559 -19.979357 -3.166234 6 3
-1.0822864 -31.306055 -3.8461969 5 4
-2.0739679 -58.225121 -3.0533848 1 6
-0.34114122 -8.7214365 -2.3386889 7 0
-0.44721994 -11.28214 -2.6067328 11 1
-0.58596718 -14.526085 -2.8258812 8 2
-0.81758225 -20.007696 -3.1715527 6 3
-1.2928106 -31.236477 -3.8386409 5 4
-2.4831123 -58.273079 -3.0567341 0 6
-0.40246496 -8.7284918 -2.3412771 8 0
-0.52642709 -11.288476 -2.6089823 10 1
-0.685013 -14.525682 -2.8266447 8 2
-0.95619565 -20.052969 -3.1796873 6 3
-1.5105629 -31.220741 -3.8379095 5 4
-2.8789189 -58.238865 -3.0558968 0 6
-0.46349394 -8.7273979 -2.3417947 7 0
-0.60543144 -11.288418 -2.6098821 10 1
-0.78915185 -14.52433 -2.8274078 8 2
-1.1022637 -20.092953 -3.187196 6 3
-1.73057 -31.247097 -3.8425407 5 4
-3.2955928 -58.21677 -3.0558968 0 6
-0.52429336 -8.7220221 -2.3412771 6 0
-0.68516695 -11.299479 -2.6134815 9 1
-0.89052987 -14.518467 -2.8274078 8 2
-1.2461714 -20.143917 -3.1965823 4 3
-1.952011 -31.287746 -3.8491216 5 4
-3.7016885 -58.188358 -3.0556874 0 6
-0.58491302 -8.7142944 -2.3402419 8 0
-0.76350802 -11.286642 -2.6116817 10 1
-0.99025959 -14.488391 -2.8228285 8 2
-1.3900272 -20.182022 -3.2040911 7 3
-2.1664073 -31.215925 -3.8420532 5 4
-4.1081042 -58.165085 -3.0558968 0 6
-0.64373642 -8.6830263 -2.3329952 6 0
-0.84257519 -11.284923 -2.6125815 10 1
-1.0899065 -14.461548 -2.8190124 8 2
-1.5374653 -20.258493 -3.2178574 7 3
-2.3879094 -31.247545 -3.847903 5 4
-4.5119014 -58.107113 -3.0544314 0 6
-0.70340204 -8.6667671 -2.3298893 6 0
-0.92165565 -11.282651 -2.6134815 9 1
-1.1911628 -14.4575 -2.8197756 8 2
-1.6821235 -20.286638 -3.2241147 5 3
-2.6099582 -31.27759 -3.8537526 5 4
-4.9201517 -58.106037 -3.0561061 0 6
-0.76304066 -8.6520233 -2.327301 6 0
-1.0010885 -11.283706 -2.6152809 8 1
-1.2875198 -14.39799 -2.8098533 8 2
-1.8233558 -20.270466 -3.223489 7 3
-2.8427427 -31.418747 -3.8734956 5 4
-5.3275127 -58.09016 -3.0571527 0 6
-0.82104266 -8.6214848 -2.3205717 5 0
-1.0809537 -11.288081 -2.6179802 8 1
-1.3840431 -14.347612 -2.8018396 6 2
-1.9644445 -20.253309 -3.2228632 7 3
-3.0570078 -31.346766 -3.8671584 5 4
-0.87826347 -8.5867157 -2.3128071 6 0
-1.1589345 -11.272505 -2.6161807 9 1
-1.4790506 -14.312472 -2.7968783 8 2
-2.1071548 -20.286625 -3.2303722 7 3
-3.2852724 -31.415478 -3.8783703 5 4
-0.9413023 -8.6227884 -2.3241951 6 0
-1.236061 -11.26823 -2.6170807 9 1
-1.5763475 -14.278381 -2.792299 8 2
-2.2487283 -20.27142 -3.2303722 5 3
-3.5073876 -31.46736 -3.8876324 5 4
-1.0001395 -8.6044931 -2.3210893 6 0
-1.3124378 -11.239969 -2.6125815 10 1
-1.6728131 -14.261471 -2.7911541 6 2
-2.3820367 -20.216408 -3.2241147 5 3
-3.7349267 -31.50913 -3.8959196 5 4
-1.0572678 -8.5859823 -2.3179834 6 0
-1.3903494 -11.242381 -2.6152809 10 1
-1.7699131 -14.229962 -2.787338 6 2
-2.5196855 -20.171843 -3.2197344 5 3
-3.9552462 -31.530249 -3.9017694 5 4
-7.2811852 -57.475128 -3.0362184 0 6
-1.1091999 -8.5170889 -2.301419 6 0
-1.4698128 -11.240129 -2.6170807 8 1
-1.8733068 -14.248404 -2.7934437 6 2
-2.657865 -20.134178 -3.2166057 5 3
-4.1692696 -31.456604 -3.8961632 5 4
-7.8215523 -58.464176 -3.0912759 0 6
-1.1688963 -8.5110521 -2.3019366 7 0
-1.5450541 -11.206429 -2.6116817 8 1
-1.9738116 -14.242758 -2.7949703 6 2
-2.797272 -20.107306 -3.2153544 5 3
-4.4063449 -31.552561 -3.9117627 5 4
-6.356957 -45.117836 -2.3878806 0 6
-1.2280087 -8.5007715 -2.301419 6 0
-1.6210136 -11.17994 -2.6080825 8 1
-2.0754614 -14.244171 -2.7980232 6 2
-2.9301474 -20.036469 -3.2072198 7 3
-4.6371813 -31.593697 -3.9207807 5 4
-6.6612554 -45.001228 -2.3841124 0 6
-1.2803755 -8.4461517 -2.2889957 6 0
-1.700197 -11.176058 -2.6098821 8 1
-2.1778185 -14.248743 -2.8018396 6 2
-3.0687592 -20.007711 -3.2059684 5 3
-4.8425355 -31.462456 -3.9085941 5 4
-5.5585842 -35.823566 -1.8999001 9 6
-1.3399152 -8.4408226 -2.290031 6 0
-1.7794042 -11.171614 -2.6116817 8 1
-2.270107 -14.204509 -2.7961152 8 2
-3.2023721 -19.970758 -3.2034652 6 3
-5.0273428 -31.212297 -3.8817825 5 4
-1.3926003 -8.4029198 -2.2822666 5 0
-1.856683 -11.166933 -2.6134815 8 1
-2.3727748 -14.209615 -2.800313 6 2
-3.3358393 -19.912846 -3.1978338 4 3
-5.2143455 -31.026617 -3.8630149 8 4
-5.6738801 -33.51041 -1.7812021 14 6
-1.4551797 -8.4158354 -2.2884779 7 0
-1.9345975 -11.153699 -2.6134815 8 1
-2.4768438 -14.235688 -2.8087084 6 2
-3.4665499 -19.862436 -3.1934536 6 3
-5.3900447 -30.756777 -3.8340099 5 4
-4.6581707 -26.498919 -2.3539023 24 5
-5.9150219 -33.545753 -1.7851796 7 6
-1.5114034 -8.400032 -2.2869251 6 0
-2.0070112 -11.121094 -2.6089823 8 1
-2.5775673 -14.225776 -2.810235 6 2
-3.5973585 -19.794992 -3.1865704 6 3
-5.5049419 -30.201857 -3.7694192 9 4
-5.3880568 -29.502192 4.7499766 38 12
-6.063983 -33.040035 -1.7604771 7 6
-1.5675223 -8.3759832 -2.2833018 7 0
-2.0831642 -11.09915 -2.6071827 8 1
-2.6736116 -14.204044 -2.8094718 6 2
-3.7217534 -19.715696 -3.1778102 6 3
-5.5061007 -29.05682 -3.6312191 6 4
-3.5883822 -18.82881 -1.0045364 18 6
-1.6270767 -8.3783941 -2.2869251 6 0
-2.1608996 -11.09619 -2.6098821 8 1
-2.7693198 -14.16769 -2.8060372 9 2
-3.8479054 -19.631081 -3.1684241 11 3
-5.8272176 -29.674154 3.7131157 11 11
-5.7317019 -29.16086 -3.6490121 10 4
-5.9095712 -30.01042 4.8444633 18 12
-3.6861978 -18.685114 -1.6662434 36 5
-3.6147039 -18.272331 -0.9761703 18 6
-1.6824772 -8.3516808 -2.2827842 6 0
-2.2329109 -11.054091 -2.6035836 10 1
-6.0082483 -29.690607 1.5875591 25 9
-2.8705015 -14.159556 -2.808327 8 2
-6.0392203 -29.763474 2.6570299 18 10
-3.9769926 -19.565022 -3.1621666 9 3
-6.0568104 -29.743624 3.7270086 22 11
-5.9058065 -28.976196 -3.6309755 10 4
-3.6808033 -17.995256 -1.6069776 34 5
-3.7939422 -18.499046 -0.98967308 18 6
-1.7336367 -8.3056917 -2.2734666 6 0
-2.3044403 -11.01153 -2.5972848 8 1
-2.9745278 -14.164149 -2.813288 6 2
-4.1029029 -19.486521 -3.154032 9 3
-4.7151427 -22.336309 -2.8029952 10 4
-3.7815711 -17.852171 -1.5965189 34 5
-4.0375133 -19.011326 -1.0185626 28 6
-1.7968812 -8.317934 -2.280196 5 0
-2.3820839 -10.998982 -2.5981846 8 1
-3.0787575 -14.167978 -2.818249 8 2
-4.2321153 -19.426523 -3.1490262 9 3
-4.8781624 -22.335815 -2.8071387 26 4
-3.9061105 -17.825335 -1.5965189 34 5
-4.0960011 -18.645197 -1.0004543 18 6
-1.8536434 -8.2995319 -2.2786431 6 0
-2.4622169 -10.997298 -2.601784 8 1
-3.1754425 -14.136562 -2.8163409 6 2
-4.3437653 -19.290512 -3.1318183 13 3
-6.5113444 -28.846159 -3.6309755 6 4
-4.1146474 -18.125326 -0.97407693 18 6
-1.9106711 -8.2826223 -2.2776077 6 0
-2.5362983 -10.96845 -2.5990846 8 1
-4.9528971 -21.402229 1.1512865 12 9
-3.2711487 -14.112709 -2.8159592 8 2
-4.4852514 -19.304754 -3.1390145 11 3
-6.3601985 -27.288177 -3.4403718 9 4
-3.9430027 -16.877319 -1.5163356 31 5
-4.2948499 -18.339979 -0.98716092 18 6
-1.9643217 -8.2581491 -2.2745018 6 0
-2.6090906 -10.943349 -2.5972848 8 1
-5.010344 -20.982485 1.1305615 11 9
-3.3632011 -14.062796 -2.8106167 8 2
-4.6189933 -19.269129 -3.1383884 11 3
-6.5036778 -27.048172 -3.4157543 6 4
-4.0299234 -16.721542 -1.5048311 31 5
-4.1789198 -17.300009 -0.93273151 27 6
-2.0159988 -8.2138634 -2.2662196 6 0
-2.6901267 -10.935751 -2.5999844 8 1
-5.0953841 -20.682356 1.1163261 10 9
-3.4622362 -14.042787 -2.8113799 8 2
-4.7358971 -19.151207 -3.1246223 14 3
-4.4177904 -17.824783 -2.2548268 4 4
-3.9429078 -15.873144 -1.430923 29 5
-3.1939945 -12.839047 2.5717237 1 13
-4.1770697 -16.765778 -0.90551674 9 6
-2.0732913 -8.1995897 -2.2662196 6 0
-4.948545 -19.542118 0.35187542 34 8
-2.7597041 -10.89026 -2.5936856 8 1
-5.2077155 -20.520445 1.1095223 17 9
-3.5636008 -14.021458 -2.8121431 8 2
-4.8368139 -18.989422 -3.1036601 19 3
-4.8804135 -19.118742 -2.4227629 11 4
-3.9805448 -15.559559 -1.4051249 28 5
-3.9852791 -15.532889 -0.84041083 17 6
-2.1338911 -8.1980009 -2.2698431 7 0
-2.8346801 -10.866957 -2.5927858 8 1
-5.2700891 -20.18885 1.0935075 13 9
-3.6549854 -13.981681 -2.8090901 8 2
-4.9963069 -19.085497 1.7260323 8 10
-4.913394 -18.755415 -3.0708089 9 3
-4.7691331 -18.153032 -2.3045497 1 4
-3.9876201 -15.146043 -1.3702626 27 5
-4.138299 -15.685002 -0.8501454 17 6
-2.1866467 -8.1720896 -2.2667372 7 0
-2.9065633 -10.839881 -2.5909863 8 1
-3.7545459 -13.963407 -2.8106167 8 2
-4.9940906 -18.560436 1.6815828 13 10
-4.9090462 -18.219025 -2.9885242 6 3
-5.1942635 -19.237446 -2.4466491 6 4
-4.1103959 -15.191631 -1.3768864 27 5
-4.1927867 -15.453333 -0.83915478 17 6
-2.7409341 -10.067481 2.7957633 0 15
-2.2395465 -8.1417236 -2.2625961 9 0
-2.9759552 -10.79678 -2.5855875 9 1
-5.0561895 -18.331383 0.99658144 10 9
-3.8526394 -13.948882 -2.8129063 8 2
-5.1538181 -18.634577 1.6915187 16 10
-5.0397959 -18.209938 -2.9925916 10 3
-6.6210003 -23.858391 -3.0401528 21 4
-4.149097 -14.920701 -1.3549231 26 5
-4.2158527 -15.130071 -0.82314003 17 6
-2.2938628 -8.1225729 -2.2615609 9 0
-3.0483155 -10.772525 -2.5846877 9 1
-5.2156205 -18.407089 1.0026524 10 9
-3.9509988 -13.925423 -2.8136694 9 2
-5.2892447 -18.62973 1.6943076 8 10
-5.1840854 -18.235111 -3.0026033 18 3
-5.4078364 -18.996941 2.4252002 3 11
-6.5901818 -23.135023 -2.9536257 11 4
-4.2093863 -14.73811 -1.3409783 26 5
-4.258184 -14.879449 -0.81110275 17 6
-2.3537409 -8.1174927 -2.2646666 9 0
-3.1245348 -10.754723 -2.5855875 8 1
-5.3590631 -18.42201 1.0054785 16 9
-4.0393357 -13.867341 -2.8075638 8 2
-5.4498401 -18.697556 1.7038947 13 10
-4.1866951 -14.345261 -2.3668537 24 3
-5.5653853 -19.044468 2.4361684 17 11
-4.1970053 -14.352642 -1.8360838 13 4
-4.250515 -14.498053 -1.3218039 25 5
-4.3264914 -14.728632 -0.80450839 17 6
-2.4070489 -8.0897541 -2.2615609 7 0
-4.9644561 -16.663561 0.30349734 28 8
-3.2017677 -10.740117 -2.5873871 8 1
-5.4881105 -18.386061 1.0055832 8 9
-4.1377344 -13.844447 -2.8087084 11 2
-5.7315187 -19.1649 1.7500874 12 10
-4.2079768 -14.052645 -2.323365 19 3
-5.7221451 -19.085012 2.4464054 15 11
-4.2126784 -14.041589 -1.8000103 19 4
-5.4904013 -18.277281 3.0226271 3 12
-4.2516012 -14.144416 -1.292171 24 5
-4.3323979 -14.3768 -0.78692347 17 6
-2.4600842 -8.0616655 -2.2584553 7 0
-3.2732518 -10.706322 -2.5846877 8 1
-5.5272431 -18.067526 0.99019635 10 9
-4.2152004 -13.761524 -2.7976415 14 2
-5.6922569 -18.560591 1.6984911 16 10
-4.2293525 -13.781955 -2.2833178 18 3
-5.8192701 -18.939358 2.4327562 20 11
-4.2393923 -13.780362 -1.7702743 31 4
-4.269259 -13.851637 -1.2681161 23 5
-4.3995156 -14.247744 -0.78148061 35 6
-2.5102887 -8.0299826 -2.2543139 7 0
-5.1602845 -16.486654 0.30154267 27 8
-3.3483799 -10.691233 -2.5864871 8 1
-5.6239619 -17.935116 0.98506743 21 9
-4.2406025 -13.506989 -2.7518475 17 2
-5.5802054 -17.762995 1.6289408 2 10
-5.667913 -18.02018 -2.991966 6 3
-5.9602914 -18.926672 2.4364121 9 11
-4.2597122 -13.518308 -1.7402943 9 4
-4.3094463 -13.642907 -1.2517307 22 5
-4.5018873 -14.226203 -0.78200394 26 6
-4.818202 -15.198106 -0.27829608 28 7
-2.5662866 -8.0122614 -2.2543139 9 0
-5.3399835 -16.652075 0.3052426 28 8
-3.4181738 -10.652751 -2.5828879 8 1
-5.0556812 -15.737165 0.86626482 11 9
-4.3047357 -13.383607 -2.7327666 24 2
-5.7217803 -17.778606 1.6339959 11 10
-4.2983823 -13.339884 -2.2198052 7 3
-6.0246277 -18.674896 2.4093571 10 11
-6.4145007 -19.87154 -2.5638874 11 4
-6.0139832 -18.608551 3.0974028 8 12
-4.292954 -13.267486 -1.2200061 21 5
-5.8809328 -18.164358 3.711235 2 13
-4.8671474 -15.0152 -0.82722223 8 6
-4.8228998 -14.852182 -0.27257168 27 7
-2.626976 -8.0088358 -2.2584553 9 0
-5.2876506 -16.101423 0.2958183 27 8
-3.4851582 -10.606413 -2.5774891 8 1
-5.2141056 -15.849472 0.87442923 11 9
-4.2948852 -13.039956 -2.6686549 26 2
-6.0852237 -18.464863 1.7009314 11 10
-4.3158946 -13.08069 -2.1816354 24 3
-6.1193652 -18.52494 2.3954639 12 11
-6.0773458 -18.365446 3.0639257 21 12
-4.3591557 -13.157757 -1.212685 21 5
-5.5152545 -16.637623 3.4070857 15 13
-4.7541823 -14.32498 -0.79100567 8 6
-2.6717563 -7.9573369 -2.2491376 7 0
-5.2928853 -15.745675 0.28995427 26 8
-3.5591199 -10.581823 -2.5774891 8 1
-6.0964894 -18.104898 1.001187 7 9
-4.5902748 -13.616138 -2.7930622 17 2
-6.1401148 -18.202936 1.6807113 9 10
-6.1312737 -18.155798 -3.0351417 4 3
-6.0241113 -17.817945 2.3094242 7 11
-4.3415055 -12.833804 -1.6635166 18 4
-5.4494591 -16.090485 2.6906731 15 12
-4.3638968 -12.870389 -1.1889786 20 5
-5.7082238 -16.825533 3.4536428 15 13
-4.7776332 -14.066395 -0.77854973 17 6
-2.7360311 -7.9640684 -2.2563846 7 0
-5.5002394 -15.991989 0.29519001 27 8
-3.6240304 -10.53092 -2.5711906 8 1
-6.248107 -18.13554 1.0052691 11 9
-4.3613067 -12.644647 -2.5999634 18 2
-5.4084306 -15.671671 1.4504458 5 10
-4.3781266 -12.671879 -2.1234417 9 3
-5.9647136 -17.244537 2.2404461 6 11
-4.4595633 -12.885724 -1.6742412 19 4
-5.5978727 -16.156574 2.7081938 12 12
-4.3726797 -12.606197 -1.167364 19 5
-5.75281 -16.575687 3.4105201 9 13
-4.5709047 -13.155419 -0.72987735 26 6
-5.7973118 -16.66634 4.0738635 3 14
-5.2406797 -15.05765 -0.27829608 28 7
-2.7896433 -7.9393067 -2.2548318 6 0
-5.6104217 -15.949428 0.29512021 27 8
-3.6909924 -10.486982 -2.5666916 8 1
-6.316154 -17.925711 0.99605805 15 9
-4.3515134 -12.336173 -2.5427208 7 2
-5.5329576 -15.676744 1.4544551 12 10
-4.251924 -12.020398 1.5655338 6 11
-4.3917823 -12.408896 -1.6162314 30 4
-4.1417165 -11.689367 1.9641914 10 12
-4.274085 -12.049589 -1.1185567 17 5
-4.3965049 -12.374151 -0.68821788 26 6
-4.2717109 -12.009624 2.9428098 17 14
-2.8495717 -7.932364 -2.2584553 7 0
-3.7588358 -10.44629 -2.5630925 8 1
-6.5731354 -18.247597 1.016469 2 9
-4.4128876 -12.237162 -2.5286009 10 2
-5.6598468 -15.686465 1.4589872 9 10
-4.4116864 -12.213784 -2.0568006 17 3
-4.6525483 -12.859536 -1.679116 16 4
-4.38938 -12.118921 2.0414701 24 12
-4.4361048 -12.241254 -1.1391256 27 5
-4.2776918 -11.79127 2.4381576 25 13
-4.7486844 -13.075297 -0.72903991 8 6
-2.9062123 -7.9159045 -2.2594905 7 0
-5.6918912 -15.495144 0.28813922 26 8
-3.8249457 -10.401504 -2.5585933 8 1
-5.6558194 -15.372067 0.85841441 18 9
-4.3847985 -11.904709 -2.4660156 3 2
-5.3804698 -14.592247 1.3606755 12 10
-4.4201951 -11.981464 -2.0226979 8 3
-4.4358211 -12.010909 1.5721147 19 11
-4.4338198 -11.992603 -1.569921 23 4
-4.4580612 -12.05171 2.0352125 25 12
-4.5103869 -12.180092 -1.1363366 18 5
-4.3687773 -11.785049 2.4431186 22 13
-4.5722537 -12.327338 -0.68905526 8 6
-4.3337851 -11.671902 2.8744247 15 14
-2.9640949 -7.9067931 -2.2625961 7 0
-5.9938455 -15.971757 0.29777294 27 8
-3.8833265 -10.342389 -2.5504949 8 1
-5.7053738 -15.178904 0.84983134 6 9
-4.4449849 -11.813171 -2.4534223 25 2
-5.57163 -14.799553 1.3835102 10 10
-4.466114 -11.850497 -2.0058029 22 3
-4.5588055 -12.083659 1.5857641 23 11
-4.4908104 -11.897143 -1.5613902 11 4
-4.5448828 -12.027685 2.0364642 27 12
-4.5431461 -12.010405 -1.1234375 35 5
-4.4537578 -11.767893 2.4457898 25 13
-4.6490045 -12.270837 -0.68769449 17 6
-4.5450835 -11.983915 2.9590061 19 14
-3.0233667 -7.8967319 -2.265702 9 0
-5.9978566 -15.649436 0.29253724 26 8
-3.945667 -10.289552 -2.5441964 7 1
-4.7254057 -12.310102 0.69104403 10 9
-4.9357882 -12.844765 -2.6747606 19 2
-4.8454351 -12.603064 1.181309 5 10
-4.5324183 -11.776628 -1.998607 10 3
-4.685873 -12.162681 1.6003884 21 11
-4.4680882 -11.591371 -1.5253168 20 4
-4.5583396 -11.813212 2.0054901 19 12
-4.7403097 -12.272048 -1.1509787 18 5
-4.5612826 -11.802438 2.459528 17 13
-4.7518501 -12.282788 -0.69020665 17 6
-4.4681773 -11.537566 2.8564286 17 14
-3.0657628 -7.8430448 -2.2563846 7 0
-6.070529 -15.514071 0.29079199 26 8
-4.0131435 -10.250868 -2.541497 8 1
-4.1903319 -10.69247 0.60186356 8 9
-4.4546204 -11.355186 -2.3709927 10 2
-4.1798768 -10.64937 1.0008965 7 10
-4.485219 -11.415595 -1.9426033 12 3
-4.7590437 -12.100113 1.5964885 20 11
-4.491478 -11.413964 -1.5060616 31 4
-4.5415134 -11.529305 1.9626271 7 12
-4.527678 -11.482428 -1.0798596 16 5
-4.627717 -11.730129 2.4511325 27 13
-4.9754052 -12.598553 -0.709885 17 6
-4.4827046 -11.339363 2.8150375 9 14
-6.0258512 -15.235105 -0.28597516 29 7
-3.1132841 -7.8035073 -2.2512081 7 0
-4.073041 -10.193647 -2.5342987 9 1
-4.3130875 -10.783492 0.60866719 2 9
-4.5250292 -11.301939 -2.3664134 15 2
-4.2378211 -10.579242 0.99706167 12 10
-4.5346618 -11.308834 -1.9297757 14 3
-4.6829405 -11.66683 1.5435972 8 11
-4.5348029 -11.292068 -1.4941182 13 4
-4.7839851 -11.900542 2.0314584 19 12
-4.509551 -11.206556 -1.0568506 15 5
-4.7109613 -11.701178 2.4518957 27 13
-4.9236293 -12.217096 -0.69031131 17 6
-4.6638279 -11.560802 2.8780239 19 14
-5.9674058 -14.784708 -0.27829608 28 7
-3.1648719 -7.7785573 -2.2501729 7 0
-4.5294137 -11.121178 0.2096034 14 8
-4.1290946 -10.133203 -2.5262003 9 1
-4.2913442 -10.520867 0.59547853 16 9
-4.5187373 -11.067306 -2.3236721 16 2
-4.4506288 -10.89506 1.0296578 10 10
-4.5255532 -11.067436 -1.893796 20 3
-4.9179029 -12.014977 1.5940511 15 11
-4.53934 -11.084584 -1.4707193 21 4
-4.8955994 -11.94264 2.0442858 13 12
-4.5388331 -11.061321 -1.0460433 15 5
-4.8001924 -11.692451 2.4568567 18 13
-5.1645789 -12.56755 -0.7120831 26 6
-4.8054252 -11.681977 2.9162655 4 14
-4.5092587 -10.956566 -0.20681101 14 7
-3.2235427 -7.7669778 -2.2532787 9 0
-4.5854611 -11.037579 0.20862606 42 8
-4.1862741 -10.071738 -2.5181019 9 1
-4.4475484 -10.689807 0.60678315 22 9
-4.604948 -11.057239 -2.3282516 16 2
-5.0982461 -12.235712 1.1596943 10 10
-4.6034675 -11.037396 -1.8941088 18 3
-4.8823571 -11.69458 1.5560279 4 11
-4.6189098 -11.058119 -1.4714506 19 4
-4.9780912 -11.90635 2.043973 21 12
-4.628252 -11.058771 -1.0488322 15 5
-4.8794279 -11.653221 2.4557118 25 13
-4.7935991 -11.437035 -0.64990795 8 6
-4.8318267 -11.516965 2.8834226 13 14
-4.5082455 -10.740434 -0.20332053 14 7
-3.2671442 -7.7193775 -2.2460318 7 0
-4.6202831 -10.905869 0.20674121 42 8
-4.2534442 -10.035091 -2.5163026 8 1
-4.3793149 -10.322029 0.58762819 8 9
-4.6866331 -11.035663 -2.3305411 15 2
-5.1266661 -12.06596 1.1469696 3 10
-4.6989651 -11.048616 -1.9016175 19 3
-5.1753755 -12.15701 1.6223248 16 11
-4.7068868 -11.051173 -1.4748629 16 4
-5.0920792 -11.943992 2.0564878 7 12
-4.7350602 -11.095826 -1.055456 15 5
-4.9938107 -11.696513 2.4721215 35 13
-4.8372231 -11.318808 -0.64509302 8 6
-4.9764934 -11.633453 2.9212146 17 14
-4.5437779 -10.616777 -0.20157529 14 7
-3.3148332 -7.6821909 -2.2418907 7 0
-4.6297045 -10.719141 0.2038092 13 8
-4.303298 -9.9586411 -2.5046051 8 1
-4.5614805 -10.546009 0.60217756 22 9
-4.7807226 -11.042312 -2.3389368 18 2
-4.4711323 -10.322291 0.98416263 8 10
-4.7916989 -11.05179 -1.9078751 20 3
-4.589962 -10.576374 1.4156344 3 11
-4.798945 -11.05264 -1.479494 21 4
-5.1076274 -11.752347 2.0295811 19 12
-4.7845883 -10.998554 -1.0493551 15 5
-5.1200042 -11.763973 2.4938736 14 13
-5.3596377 -12.302826 -0.70329064 26 6
-5.0046206 -11.476959 2.8906209 16 14
-4.7713127 -10.936707 -0.20827703 15 7
-3.3606069 -7.6411781 -2.2367141 7 0
-4.6689739 -10.60603 0.20227338 13 8
-4.3585796 -9.8962545 -2.4965067 8 1
-4.6156583 -10.470046 0.5996654 16 9
-4.8719625 -11.040998 -2.3458059 22 2
-4.6138959 -10.45122 0.999502 20 10
-4.884707 -11.054206 -1.9141324 19 3
-4.6307635 -10.46964 1.4056411 1 11
-4.8984809 -11.069696 -1.4863187 28 4
-6.450335 -14.562873 2.5226626 7 12
-4.8932447 -11.042237 -1.0566761 15 5
-7.1355467 -16.087112 3.4208241 15 13
-4.8521471 -10.928891 -0.62667084 17 6
-5.0857902 -11.449752 2.8924208 19 14
-4.8394232 -10.884859 -0.20792797 37 7
-3.4138706 -7.6175303 -2.2367141 9 0
-4.8555961 -10.82946 0.20716007 14 8
-4.4195824 -9.847805 -2.4920077 9 1
-4.7277222 -10.529488 0.60489905 16 9
-5.0355282 -11.204559 -2.387784 22 2
-4.5567865 -10.129849 0.9717865 10 10
-5.0538764 -11.229658 -1.9504251 18 3
-5.0874257 -11.28315 -1.5197108 18 4
-5.178205 -11.479135 1.9945397 13 12
-4.9866128 -11.044124 -1.0601624 23 5
-7.2937665 -16.138882 3.4425762 18 13
-4.8655338 -10.760938 -0.61892503 17 6
-10.635718 -23.500807 5.9553542 15 14
-4.7651215 -10.519292 -0.20157529 14 7
-3.4528089 -7.5659971 -2.2284322 7 0
-4.8504891 -10.618861 0.2037743 40 8
-4.4784117 -9.7997704 -2.4875088 9 1
-4.6540661 -10.174746 0.58637214 10 9
-5.156126 -11.261954 -2.4076281 18 2
-4.7940621 -10.466313 1.0071718 7 10
-5.1519094 -11.237197 -1.957934 18 3
-6.665669 -14.525581 1.9623404 7 11
-5.175705 -11.273517 -1.5231231 21 4
-5.2994576 -11.532452 2.0101831 13 12
-6.1059499 -13.27529 -1.2784004 23 5
-5.0525017 -10.969797 -0.63295114 8 6
-11.076105 -24.025921 6.1078711 12 14
-3.515316 -7.5627303 -2.2346439 9 0
-4.9894552 -10.724348 0.20646198 42 8
-4.520402 -9.7117319 -2.4731119 9 1
-4.9181337 -10.556595 0.61034197 16 9
-5.2462397 -11.250595 -2.4129708 18 2
-4.744031 -10.168978 0.9817223 12 10
-5.2536354 -11.251072 -1.9666944 15 3
-5.5305295 -11.833287 1.6038008 15 11
-5.2677364 -11.265881 -1.527023 18 4
-5.4325919 -11.607889 2.0298939 15 12
-6.262713 -13.369462 -1.291648 24 5
-7.4781003 -15.956785 3.4254034 16 13
-5.1561041 -10.992119 -0.63630062 17 6
-11.164055 -23.778669 6.0646806 23 14
-4.9097052 -10.452592 -0.20157529 14 7
-3.5548036 -7.510066 -2.2263615 7 0
-4.9854364 -10.522996 0.20325074 27 8
-4.576407 -9.655283 -2.4668133 8 1
-4.931788 -10.395687 0.60301495 14 9
-5.3482318 -11.263353 -2.423656 18 2
-4.7448049 -9.988039 0.96742868 8 10
-5.3524132 -11.256937 -1.9742032 17 3
-5.6317706 -11.833823 1.6091629 9 11
-5.3701525 -11.279016 -1.5338477 14 4
-7.1162157 -14.932877 2.6199648 6 12
-5.3983917 -11.323048 -1.0974652 25 5
-7.705997 -16.148705 3.4780664 13 13
-5.385077 -11.274852 -0.65482759 17 6
-11.77011 -24.632278 6.3026786 16 14
-5.1827235 -10.836589 -0.20967323 15 7
-3.6172113 -7.505949 -2.2325733 7 0
-5.0621595 -10.499625 0.20346016 13 8
-4.6250701 -9.5844879 -2.4569156 8 1
-5.0406418 -10.441017 0.60762054 22 9
-5.4384418 -11.254972 -2.4297619 18 2
-5.0468988 -10.435365 1.0141442 2 10
-5.444396 -11.252251 -1.9798348 19 3
-5.5772161 -11.516503 1.5711397 8 11
-5.4634838 -11.271617 -1.5379913 20 4
-5.7653651 -11.889143 2.0927804 21 12
-5.6833291 -11.699162 2.5282195 28 13
-5.1028814 -10.499639 -0.61180741 9 6
-11.600808 -23.848545 6.1227174 8 14
-5.2740068 -10.832504 -0.21030149 15 7
-3.6682172 -7.4811544 -2.2325733 7 0
-5.181149 -10.557378 0.20527519 27 8
-4.6730232 -9.5177994 -2.4479175 8 1
-4.9927325 -10.159997 0.59328043 10 9
-5.5290146 -11.241393 -2.4351046 18 2
-5.0122552 -10.186248 0.99322683 13 10
-5.5367832 -11.242322 -1.9848408 16 3
-5.6592364 -11.480848 1.5716273 7 11
-5.5497355 -11.253752 -1.5406723 19 4
-5.6305251 -11.407537 2.0148761 15 12
-5.8771739 -11.896787 -1.1609144 19 5
-5.6280026 -11.387401 2.4690685 32 13
-5.8703289 -11.867281 -0.69387019 8 6
-11.530971 -23.290205 5.9998946 11 14
-5.3511696 -10.803521 -0.21044111 22 7
-3.7186313 -7.4519067 -2.2315381 7 0
-5.1921816 -10.39572 0.20283188 40 8
-4.7376137 -9.4814558 -2.4470174 9 1
-5.8773885 -11.752236 0.6886366 6 9
-5.6179018 -11.223588 -2.4396839 21 2
-5.9503784 -11.882628 1.1626576 8 10
-5.6292934 -11.231651 -1.9898466 14 3
-7.1028557 -14.159376 1.9450349 13 11
-5.6388512 -11.236023 -1.5435972 19 4
-5.7286472 -11.40502 2.0214465 21 12
-6.0871625 -12.10824 -1.1856667 20 5
-5.6650224 -11.263644 2.4507508 24 13
-5.8865809 -11.693995 -0.68612444 17 6
-9.2057438 -18.271799 4.7235222 4 14
-5.9412942 -11.787313 -0.23040667 19 7
-6.3110194 -12.509971 3.7544291 2 15
-3.7600691 -7.4050941 -2.2253263 9 0
-5.2863717 -10.402005 0.20366959 27 8
-4.7842612 -9.409934 -2.4371197 9 1
-7.3152771 -14.375648 0.84533042 13 9
-5.7175045 -11.226081 -2.4488428 22 2
-6.0187168 -11.812393 1.1598686 11 10
-5.7165427 -11.209675 -1.9929754 16 3
-5.9994726 -11.754333 1.6203749 8 11
-5.7315974 -11.224672 -1.547497 18 4
-5.8485823 -11.443902 2.0355256 18 12
-5.7685413 -11.282434 -1.108621 17 5
-5.8195391 -11.372376 2.4831884 27 13
-5.9899282 -11.695278 -0.6886366 17 6
-6.3707089 -12.4334 3.2253482 9 14
-5.5033126 -10.731314 -0.21051092 15 7
-6.3805585 -12.431231 3.7440765 2 15
-3.7983751 -7.3529181 -2.2175617 6 0
-4.8301415 -9.3382244 -2.427222 8 1
-6.0361104 -11.664762 0.68832254 12 9
-5.8118429 -11.221768 -2.456475 19 2
-6.0386844 -11.649805 1.1480155 13 10
-5.8218117 -11.22662 -2.0029871 19 3
-5.8400183 -11.242517 -1.5555404 29 4
-5.8680425 -11.291648 2.015502 16 12
-6.3454633 -12.199922 -1.2030978 20 5
-5.9559026 -11.441181 2.5072303 14 13
-7.3572602 -14.127151 -0.83475858 26 6
-6.4420433 -12.359244 3.2177 4 14
-6.4980993 -12.450881 3.7632291 7 15
-3.8357601 -7.302948 -2.2103145 6 0
-4.8681951 -9.2568369 -2.4146245 9 1
-6.1080933 -11.604667 0.68727589 12 9
-5.9120049 -11.222609 -2.4656341 16 2
-6.1271315 -11.626057 1.1497585 13 10
-5.9203215 -11.22414 -2.0098703 20 3
-5.8634825 -11.106984 1.5421348 5 11
-5.9377303 -11.242877 -1.5611464 21 4
-5.8479567 -11.06354 1.982025 9 12
-5.9261913 -11.197356 2.4625809 16 13
-7.4108329 -13.990726 -0.82973433 26 6
-6.065393 -11.441042 2.9895995 2 14
-3.8802776 -7.2640638 -2.2066913 9 0
-6.3478971 -11.87359 0.23501411 18 8
-4.9106417 -9.181385 -2.403827 9 1
-6.0598273 -11.320504 0.67293578 8 9
-6.0031891 -11.205289 -2.4709766 15 2
-7.7959461 -14.54548 1.4438219 4 10
-6.0097418 -11.203424 -2.0136247 18 3
-6.1587229 -11.471543 1.5986823 10 11
-6.0367403 -11.239625 -1.5665088 15 4
-6.055057 -11.264294 2.0255136 15 12
-6.0330629 -11.209302 2.4744112 32 13
-7.554738 -14.024809 -0.83486325 17 6
-6.1136742 -11.340098 2.974303 13 14
-6.5419202 -12.11924 3.6902421 10 15
-3.9142985 -7.2062421 -2.1973739 7 0
-4.9559989 -9.1126394 -2.394829 9 1
-6.3841081 -11.72876 0.69983649 10 9
-6.0944166 -11.187243 -2.4763193 16 2
-6.3212748 -11.598858 1.1556851 21 10
-6.1048369 -11.192411 -2.0192564 17 3
-6.1977596 -11.353345 1.5882014 11 11
-6.1378956 -11.239018 -1.5723584 16 4
-5.9885945 -10.956543 1.9776447 13 12
-6.2074661 -11.352276 -1.1319788 18 5
-6.0734725 -11.098022 2.4591465 21 13
-9.6720791 -17.659096 -1.0551976 9 6
-9.6620579 -17.633495 4.6420903 7 14
-7.4739337 -13.628824 -0.2713151 27 7
-6.5148268 -11.870049 3.6281254 13 15
-3.9607761 -7.1719747 -2.1953032 9 0
-7.5921421 -13.741802 0.27403769 24 8
-4.9949789 -9.0334778 -2.3831315 9 1
-7.7621613 -14.032175 0.84041083 6 9
-6.1894431 -11.179853 -2.4839516 16 2
-6.4899678 -11.713035 1.1715474 15 10
-6.1981149 -11.181697 -2.0248878 17 3
-6.2277722 -11.216721 -1.5752833 16 4
-6.2778907 -11.302345 2.0477273 21 12
-6.3020577 -11.336525 -1.1347678 18 5
-6.2195244 -11.178875 2.486623 39 13
-7.455018 -13.394022 -0.80335701 17 6
-10.035288 -18.015051 4.7608643 15 14
-6.6293492 -11.886168 3.6467607 17 15
-3.9981561 -7.1246328 -2.1890914 9 0
-6.5989952 -11.749658 0.23522353 36 8
-5.0315313 -8.9550972 -2.371434 10 1
-6.5696878 -11.683145 0.70245332 14 9
-6.290451 -11.177432 -2.4931104 15 2
-6.3779621 -11.328303 1.1373824 9 10
-6.2915425 -11.16569 -2.0298939 18 3
-6.3078756 -11.185546 1.5767457 15 11
-6.3176308 -11.198276 -1.5786955 15 4
-6.262435 -11.091391 2.017379 12 12
-6.3731947 -11.282957 -1.1337218 18 5
-6.3379836 -11.21148 2.5034142 33 13
-7.4539285 -13.174771 -0.7933085 17 6
-6.7260294 -11.883381 3.1524642 12 14
-4.0267406 -7.0596294 -2.1777036 9 0
-6.6847634 -11.71489 0.23543297 55 8
-5.0707331 -8.879138 -2.3606362 9 1
-6.6659007 -11.667638 0.70423269 14 9
-6.3819771 -11.161626 -2.4992163 19 2
-6.4855909 -11.333651 1.1424375 12 10
-6.4046931 -11.187751 -2.0417829 19 3
-6.4312353 -11.225026 1.5884452 19 11
-6.4183669 -11.193506 -1.5843016 20 4
-6.3535128 -11.075922 2.0223849 12 12
-6.4557781 -11.245102 -1.1344191 36 5
-6.3505702 -11.052908 2.4778459 15 13
-7.5762758 -13.180873 -0.7967627 17 6
-6.9448671 -12.07262 3.2154503 13 14
-6.8334603 -11.869369 -0.23906307 20 7
-8.5329323 -14.815284 4.5810971 6 15
-4.0630784 -7.0119991 -2.1714919 7 0
-6.7984872 -11.723291 0.23654993 37 8
-5.1212754 -8.8275623 -2.3561375 9 1
-7.1954689 -12.392888 0.75102103 4 9
-6.4834175 -11.157539 -2.5083752 19 2
-6.5986304 -11.351254 1.1487126 13 10
-6.5025063 -11.176915 -2.0480404 17 3
-6.5553908 -11.258767 1.5996571 20 11
-6.528378 -11.20788 -1.5925888 20 4
-6.3680072 -10.923781 2.0026743 9 12
-6.559226 -11.242781 -1.1387769 45 5
-6.9095855 -11.838565 2.6644568 18 13
-10.060617 -17.223585 -1.0453585 9 6
-7.21486 -12.341808 3.3004818 4 14
-6.8878469 -11.777699 -0.23815554 20 7
-8.524909 -14.565282 4.5220861 6 15
-4.0982094 -6.960156 -2.1642449 7 0
-6.8801661 -11.675544 0.23654993 18 8
-5.1649647 -8.7613754 -2.3480392 9 1
-7.0869536 -12.012077 0.73092401 8 9
-6.5811176 -11.145816 -2.5160077 18 2
-6.817553 -11.541643 1.1727676 7 10
-6.6004829 -11.165257 -2.0542977 17 3
-6.4862542 -10.963291 1.5640713 10 11
-6.6135421 -11.173988 -1.5942949 19 4
-7.1468158 -12.065371 2.2210569 13 12
-6.6660013 -11.244705 -1.1436577 46 5
-7.0171022 -11.832254 2.6739974 30 13
-7.051096 -11.880127 -0.72401571 17 6
-8.8762598 -14.943383 4.0126772 3 14
-7.0393643 -11.846225 -0.24052906 31 7
-8.6757593 -14.588434 4.5479684 3 15
-4.1387663 -6.9181132 -2.1601038 9 0
-6.8998723 -11.524287 0.23445563 18 8
-5.2039752 -8.688324 -2.3381412 10 1
-7.4253054 -12.387148 0.75688267 4 9
-6.6789694 -11.13327 -2.5236399 18 2
-6.6683044 -11.111096 1.1337218 6 10
-6.706749 -11.166319 -2.0630579 17 3
-6.6781983 -11.109998 1.5916138 15 11
-6.7251487 -11.183684 -1.6023383 21 4
-7.1534591 -11.886553 2.1972787 12 12
-6.7710676 -11.242269 -1.1481898 46 5
-7.118784 -11.814929 2.6812482 18 13
-7.1431451 -11.846004 -0.7249577 17 6
-7.3834558 -12.234862 3.2991321 17 14
-4.1869631 -6.889051 -2.1601038 9 0
-7.4332404 -12.220731 0.24967413 20 8
-5.2543745 -8.6351337 -2.3336422 10 1
-7.4793968 -12.282127 0.75363785 21 9
-6.7830954 -11.129959 -2.5335619 18 2
-6.9282503 -11.363677 1.1644007 2 10
-6.8154078 -11.169813 -2.0724442 16 3
-7.3504634 -12.037268 1.7317636 14 11
-6.8185844 -11.161872 -1.6059943 19 4
-7.5010729 -12.269461 2.2776861 15 12
-6.8660259 -11.221915 -1.1509787 46 5
-7.3404832 -11.992673 2.7331481 18 13
-11.405001 -18.618568 -1.1442734 20 6
-7.3698931 -12.021866 3.2554917 4 14
-8.9584332 -14.59595 4.5888619 17 15
-4.2187161 -6.8333516 -2.1518216 9 0
-7.5772367 -12.263805 0.25162879 41 8
-5.2899384 -8.5584583 -2.3228445 9 1
-7.3558731 -11.8916 0.73280811 6 9
-6.8916311 -11.132412 -2.5450106 18 2
-7.4794712 -12.077271 1.2428409 8 10
-6.9161162 -11.158898 -2.0793271 16 3
-7.2260966 -11.649958 1.6832595 4 11
-6.9371624 -11.17978 -1.6155001 21 4
-7.3666625 -11.862709 2.2116706 21 12
-6.9706392 -11.220614 -1.1556851 28 5
-7.3929319 -11.891116 2.7216997 22 13
-7.5980077 -12.21146 -0.75374252 26 6
-7.7471027 -12.446242 3.3846135 6 14
-7.7355876 -12.408424 3.9180028 6 15
-4.2663188 -6.8037329 -2.1518216 9 0
-7.6435366 -12.184841 0.25107032 41 8
-5.3329811 -8.4949121 -2.3156462 9 1
-7.6342211 -12.155849 0.75227708 23 9
-6.983963 -11.111839 -2.5511165 15 2
-7.5126858 -11.943808 1.2344739 7 10
-7.0045342 -11.131629 -2.0830817 15 3
-9.0072384 -14.303256 2.0754352 10 11
-7.0309157 -11.156269 -1.6191562 18 4
-7.323976 -11.616786 2.175065 10 12
-7.1083417 -11.266039 -1.1654465 19 5
-7.5543823 -11.963714 2.7503209 17 13
-7.6702862 -12.142573 -0.7526958 17 6
-9.0573483 -14.327308 3.9132483 5 14
-4.31253 -6.7745366 -2.1518216 9 0
-7.5779948 -11.895068 0.24618365 20 8
-5.3760161 -8.4354095 -2.3093476 10 1
-7.7350082 -12.127513 0.75384718 19 9
-7.0846066 -11.099218 -2.5595119 13 2
-7.7289157 -12.103978 1.2564372 18 10
-7.1054778 -11.119077 -2.0899646 16 3
-7.937901 -12.41215 1.8090287 15 11
-7.1216698 -11.131565 -1.6225686 18 4
-7.6285787 -11.914729 2.2407675 7 12
-7.2471881 -11.314703 -1.1755567 19 5
-10.68269 -16.665585 3.8478544 7 13
-10.665507 -16.625994 -1.0352052 19 6
-7.9179692 -12.338244 3.3846135 17 14
-7.5549765 -11.754547 3.7440765 15 15
-4.3618183 -6.7475095 -2.1528571 9 0
-5.4591274 -8.4352999 -2.3196952 11 1
-7.6914678 -11.880101 0.74170524 19 9
-7.1290317 -11.002958 -2.5484452 10 2
-7.9248781 -12.221912 1.2743913 14 10
-7.219696 -11.130116 -2.101228 16 3
-7.8795295 -12.138049 1.7768552 15 11
-7.2392216 -11.143166 -1.6315869 20 4
-9.9334383 -15.284472 2.8871548 6 12
-7.3238297 -11.260491 -1.175208 19 5
-10.190455 -15.656011 3.6310954 21 13
-7.9996581 -12.276136 3.3828139 13 14
-7.6664786 -11.75139 3.7596056 11 15
-4.3864503 -6.6853585 -2.1425042 9 0
-5.5346069 -8.4256353 -2.3273437 9 1
-7.7566614 -11.799413 0.74003047 8 9
-7.2423592 -11.008685 -2.5614202 12 2
-8.7384624 -13.277775 1.3906569 11 10
-7.3319921 -11.132232 -2.1112397 14 3
-9.2346144 -14.010346 2.0603232 15 11
-7.3444052 -11.138379 -1.6381679 19 4
-10.257499 -15.544503 2.9497287 17 12
-7.5691509 -11.4618 -1.2017034 20 5
-10.237267 -15.496189 3.6101062 7 13
-13.738872 -20.780804 -1.3055729 21 6
-8.0679617 -12.193985 3.3756156 17 14
-7.8065109 -11.794353 -0.24688175 22 7
-7.7696691 -11.729793 3.7699585 14 15
-4.42659 -6.6449261 -2.1393983 9 0
-5.5824814 -8.3705778 -2.3228445 10 1
-7.7778673 -11.653606 0.73427355 6 9
-7.2895961 -10.913776 -2.5511165 19 2
-8.7401791 -13.080604 1.3763635 17 10
-7.4292955 -11.110332 -2.1168714 15 3
-9.4503298 -14.122063 2.0864034 5 11
-7.4506984 -11.129724 -1.644505 18 4
-10.160171 -15.165624 2.891222 21 12
-7.6591935 -11.410989 -0.72024751 17 6
-8.8505039 -13.175905 3.6644528 3 14
-8.1499863 -12.119319 3.9133441 20 15
-4.4815302 -6.6266632 -2.1435394 9 0
-5.6036367 -8.276536 -2.3075478 9 1
-11.137088 -16.437048 1.0405437 2 9
-7.394258 -10.904867 -2.5610385 10 2
-8.8122721 -12.991237 1.3734001 10 10
-7.140554 -10.51885 -2.0136247 15 3
-9.429327 -13.880047 2.0603232 11 11
-7.5527644 -11.113557 -1.6498674 19 4
-10.389105 -15.275634 2.9259505 15 12
-10.724444 -15.750954 3.7039843 15 13
-7.7555399 -11.381997 -0.72181761 17 6
-8.4405746 -12.3827 3.4597473 8 14
-7.9298563 -11.624739 -0.24562517 22 7
-7.9392214 -11.62974 3.7730644 14 15
-4.5342426 -6.6047716 -2.1466453 9 0
-9.487833 -13.815215 0.29253724 26 8
-5.643621 -8.2115183 -2.3003495 10 1
-8.9788265 -13.059394 0.83057171 6 9
-7.4683142 -10.854283 -2.5610385 13 2
-9.1648979 -13.310109 1.4138404 10 10
-7.1469951 -10.375648 -1.9954783 21 3
-9.5675278 -13.879283 2.0698292 12 11
-7.6684933 -11.116114 -1.6581545 19 4
-10.499575 -15.214318 2.9278278 14 12
-7.9368925 -11.492304 -1.2219235 21 5
-10.748193 -15.551342 3.6745999 18 13
-7.8771338 -11.393013 -0.72589982 26 6
-8.0977011 -11.703295 3.2856352 5 14
-8.2492046 -11.908926 3.8817682 17 15
-4.5967617 -6.5991173 -2.1549275 9 0
-5.7149878 -8.1952915 -2.3066483 9 1
-11.659838 -16.707775 1.0677582 6 9
-7.5326681 -10.785784 -2.5572224 10 2
-9.3009233 -13.31275 1.4208128 10 10
-7.7716236 -11.115535 -2.1481583 19 3
-7.6202774 -10.890977 1.6320744 15 11
-7.7826838 -11.118953 -1.6664416 19 4
-10.566998 -15.085639 2.9171903 15 12
-7.9826217 -11.387671 -1.2166941 21 5
-10.922558 -15.575873 3.6978786 15 13
-7.8761687 -11.223302 -0.71857274 17 6
-8.1052895 -11.541224 3.2559416 6 14
-7.9008555 -11.245954 -0.23990077 31 7
-8.3254776 -11.841564 3.8786623 14 15
-4.6382599 -6.5605559 -2.1528571 9 0
-8.044363 -11.369875 0.24311201 19 8
-5.7270298 -8.0915689 -2.2886522 10 1
-9.4246511 -13.305988 0.8545416 9 9
-7.6179986 -10.747351 -2.560657 10 2
-8.0118475 -11.298806 1.2118134 11 10
-7.8856144 -11.112562 -2.1581702 20 3
-7.7133651 -10.86179 1.6357305 22 11
-7.898057 -11.117752 -1.674485 20 4
-10.80254 -15.195038 2.9528575 17 12
-7.9810772 -11.218021 -1.2044923 20 5
-7.3506036 -10.328031 2.4641075 10 13
-8.045866 -11.296561 -0.72684181 17 6
-8.6810808 -12.179416 3.4529986 17 14
-8.2890005 -11.616461 3.8237929 10 15
-4.6749358 -6.5154586 -2.1487157 9 0
-8.0652266 -11.232222 0.24136679 38 8
-5.7515445 -8.0070734 -2.2760546 9 1
-8.093914 -11.259726 0.72673714 4 9
-7.665328 -10.655656 -2.5514979 12 2
-8.0020876 -11.119694 1.1985657 16 10
-7.9976349 -11.105328 -2.1675563 17 3
-7.7240114 -10.71749 1.622081 20 11
-8.017271 -11.120312 -1.6832595 21 4
-12.223648 -16.942276 3.308902 17 12
-8.0712414 -11.182825 -1.2065841 21 5
-7.5466771 -10.448346 2.5053222 19 13
-8.1163454 -11.228784 -0.72610915 17 6
-8.8254395 -12.205319 3.4772935 15 14
-8.1743326 -11.296548 -0.24339128 21 7
-7.3716726 -10.179825 3.3677537 22 15
-4.7203088 -6.4826627 -2.1487157 7 0
-8.2050734 -11.264345 0.24325164 39 8
-5.7751627 -7.9226317 -2.2634575 10 1
-8.0691662 -11.065587 0.71773535 16 9
-7.7573528 -10.630195 -2.5579855 9 2
-9.4566593 -12.949317 1.4028589 3 10
-8.1056662 -11.095296 -2.1763165 15 3
-7.8061571 -10.677486 1.6240309 20 11
-8.1216698 -11.10092 -1.6888655 19 4
-7.4888458 -10.232211 2.0083058 7 12
-8.1832561 -11.172817 -1.211639 21 5
-7.6623788 -10.453994 2.5194421 39 13
-9.3995676 -12.819394 -0.83308387 8 6
-8.71099 -11.871601 3.3994603 4 14
-8.2529984 -11.239204 -0.24339128 21 7
-7.3847513 -10.053123 3.3423893 37 15
-4.7735081 -6.4628139 -2.1528571 9 0
-8.2573605 -11.171412 0.24248375 19 8
-5.8069439 -7.8533673 -2.2549093 11 1
-8.07969 -10.919077 0.71187371 16 9
-7.8033371 -10.537912 -2.5488267 10 2
-7.9909778 -10.787372 1.1745108 13 10
-8.2229261 -11.092392 -2.186954 17 3
-7.7870746 -10.49678 1.6047755 9 11
-8.2254333 -11.08364 -1.6947153 19 4
-12.461972 -16.78006 3.3104665 17 12
-7.5541406 -10.160541 2.4610546 16 13
-9.3624582 -12.583605 -0.82198858 17 6
-7.6734476 -10.309734 2.9671044 13 14
-7.5401897 -10.115942 3.3806944 22 15
-4.8185105 -6.4293313 -2.1528571 9 0
-8.3164177 -11.092549 0.24199508 19 8
-5.8323913 -7.7736659 -2.2436619 9 1
-8.3216753 -11.087462 0.72652781 24 9
-7.8324389 -10.428041 -2.5350883 9 2
-8.1738329 -10.874661 1.1901989 18 10
-8.3528481 -11.10879 -2.2013459 16 3
-7.9347272 -10.545051 1.6203749 11 11
-8.3503742 -11.089375 -1.7044648 19 4
-7.7694588 -10.314168 2.0452244 10 12
-7.6851902 -10.187488 2.4805171 12 13
-9.3095407 -12.336248 -0.80995136 17 6
-7.6230979 -10.094181 2.9203146 19 14
-7.5832415 -10.030481 3.3693066 21 15
-4.8551478 -6.387156 -2.1497512 9 0
-5.8710089 -7.7151766 -2.2382631 8 1
-8.3577366 -10.97507 0.722969 14 9
-7.8693504 -10.326261 -2.5236399 10 2
-8.1172094 -10.647649 1.1713731 18 10
-8.4541607 -11.081615 -2.2076035 16 3
-7.9997211 -10.478354 1.6186688 10 11
-8.4822931 -11.106428 -1.7159206 20 4
-7.739316 -10.126269 2.0186305 9 12
-7.7567396 -10.138061 2.4812803 13 13
-9.3845062 -12.256685 -0.80900931 8 6
-7.745533 -10.108779 2.9401102 13 14
-9.6383801 -12.574614 -0.27655083 28 7
-7.6554337 -9.980361 3.3703418 23 15
-4.8500676 -6.2888556 -2.1280103 5 0
-9.680027 -12.542582 0.27655083 24 8
-5.8937621 -7.6338978 -2.2265656 9 1
-8.3498945 -10.807403 0.71574658 18 9
-7.9508572 -10.283496 -2.5266929 10 2
-8.0438509 -10.400026 1.1502815 9 10
-8.5700102 -11.072312 -2.2176151 19 3
-7.8939886 -10.191552 1.5828393 7 11
-8.5802927 -11.073615 -1.720064 18 4
-8.0434399 -10.373279 2.0790143 12 12
-7.9537301 -10.246501 2.5213501 16 13
-9.2444019 -11.900649 -0.78974968 8 6
-7.7848177 -10.014457 2.9284129 19 14
-9.6645546 -12.42809 -0.27480558 27 7
-7.5967884 -9.7620173 3.3144369 23 15
-4.7581453 -6.0813928 -2.0689995 4 0
-9.7476301 -12.449506 0.27599236 24 8
-5.912066 -7.5480742 -2.2135184 10 1
-8.6222773 -11.000355 0.73249412 8 9
-7.9836822 -10.178306 -2.5144811 9 2
-8.2810698 -10.553655 1.1736392 10 10
-8.69102 -11.068145 -2.2288785 18 3
-8.2127008 -10.451486 1.6320744 8 11
-8.6991034 -11.066505 -1.7283512 19 4
-7.7968984 -9.9116488 1.9973555 4 12
-9.3180494 -11.836884 -1.3179691 25 5
-7.9813433 -10.135197 2.5076118 16 13
-9.2147608 -11.693071 -0.7802245 17 6
-7.8810906 -9.9935284 2.9383106 19 14
-7.6767225 -9.7239075 3.3196132 22 15
-4.6875892 -5.9057908 -2.0203414 4 0
-9.3119297 -11.723497 0.26133233 45 8
-5.9452205 -7.4822049 -2.20632 10 1
-8.6354694 -10.860164 0.72715586 8 9
-8.0520983 -10.11925 -2.5137179 9 2
-8.338419 -10.475318 1.1713731 13 10
-8.8099222 -11.059735 -2.239516 16 3
-8.0936708 -10.153298 1.5942949 10 11
-8.8132763 -11.052068 -1.7356633 19 4
-7.9620085 -9.9774103 2.0217593 9 12
-9.2612152 -11.597171 -1.2984462 24 5
-8.0028877 -10.017875 2.4923472 16 13
-9.2525215 -11.573852 -0.77656096 26 6
-7.9299707 -9.9123955 2.9306624 11 14
-9.3123569 -11.636203 -0.26014557 61 7
-7.8531065 -9.8057871 3.3662007 23 15
-4.6923585 -5.8277798 -2.0048125 4 0
-9.3759851 -11.636399 0.26084366 67 8
-5.9716287 -7.4086547 -2.196872 9 1
-9.3455677 -11.586226 0.78011984 27 9
-8.1052837 -10.041403 -2.5083752 9 2
-8.4451389 -10.458704 1.1760795 10 10
-8.9340973 -11.056347 -2.2514052 16 3
-8.4052553 -10.394457 1.6413364 14 11
-8.9426546 -11.055091 -1.7459003 13 4
-7.9767833 -9.8540249 2.007993 9 12
-9.1588488 -11.306204 -1.2729968 23 5
-8.0615091 -9.9480305 2.4889126 17 13
-9.3305788 -11.505875 -0.77635163 26 6
-7.9154768 -9.7538958 2.900069 11 14
-9.3807592 -11.555384 -0.25979653 49 7
-7.8300142 -9.6382666 3.3273778 16 15
-4.7158198 -5.7739334 -1.9975655 5 0
-9.4468679 -11.558274 0.26056442 44 8
-6.0059366 -7.3456635 -2.1905735 9 1
-9.4768143 -11.582533 0.7843067 17 9
-8.1291695 -9.9283676 -2.4942553 12 2
-8.3916988 -10.245359 1.1586484 4 10
-9.0636606 -11.05787 -2.2645457 15 3
-8.3983049 -10.238831 1.625981 17 11
-9.0699844 -11.053775 -1.7556499 16 4
-8.4139309 -10.246934 2.0999765 4 12
-9.1161299 -11.094205 -1.2562628 34 5
-9.4715824 -11.51449 -0.78137589 17 6
-8.2186928 -9.9842672 2.9855504 11 14
-4.7362952 -5.7170672 -1.9892832 5 0
-9.6192236 -11.60288 0.26307756 22 8
-6.0533385 -7.2990561 -2.1892235 10 1
-9.6569376 -11.635967 0.79247117 4 9
-8.1568899 -9.8215342 -2.4816618 10 2
-11.876497 -14.295152 1.6259774 4 10
-9.0976982 -10.942682 -2.2539082 16 3
-9.1012173 -10.935257 -1.7468753 18 4
-9.8366823 -11.810549 2.4344335 13 12
-9.1448841 -10.972136 -1.249639 22 5
-8.2624807 -9.9099016 2.5079937 29 13
-8.8252544 -10.569874 3.1790082 11 14
-8.0988636 -9.6895704 3.3838003 30 15
-4.7586932 -5.663156 -1.9820364 4 0
-6.0991311 -7.2506533 -2.1874242 10 1
-8.1999617 -9.7343197 -2.4740295 10 2
-10.258177 -12.173352 1.3927487 3 10
-9.1178389 -10.812455 -2.2401419 16 3
-9.1402035 -10.827463 -1.7398069 21 4
-9.6715956 -11.448839 2.3737369 19 12
-9.1955328 -10.877596 -1.2461528 22 5
-8.3010378 -9.8159981 2.4988348 30 13
-8.6028748 -10.158531 3.0732813 6 14
-8.2812433 -9.768363 3.4314229 8 15
-4.7855825 -5.6150932 -1.9768599 4 0
-6.1432772 -7.2004838 -2.1851747 8 1
-8.2192583 -9.6201153 -2.459528 10 2
-9.2521648 -10.817593 -2.2545338 15 3
-9.2620459 -10.817675 -1.7485815 29 4
-9.3153448 -10.864559 -1.2520794 22 5
-8.3565798 -9.7429066 2.4950185 20 13
-9.4088535 -10.962 -0.757092 17 6
-8.7091379 -10.139616 3.0858786 9 14
-8.4613333 -9.8406811 3.4774928 18 15
-4.8221388 -5.5786247 -1.9758247 4 0
-6.1908431 -7.1544738 -2.1842747 8 1
-8.2296486 -9.4972162 -2.4427369 9 2
-9.3740587 -10.806456 -2.2657971 17 3
-9.725852 -11.204103 1.8217031 11 11
-9.3828955 -10.80521 -1.7571123 23 4
-8.6488209 -9.9528389 2.0884004 1 12
-9.4354162 -10.85038 -1.258006 22 5
-8.4437256 -9.7065468 2.5007429 15 13
-9.5533428 -10.974383 -0.76253498 8 6
-8.6363487 -9.9139977 3.0354896 13 14
-4.8383541 -5.5209727 -1.9670248 12 0
-6.2329741 -7.1048441 -2.1820252 11 1
-8.281147 -9.4262304 -2.4389207 9 2
-9.2178011 -10.481329 -2.2107322 16 3
-9.5165672 -10.809629 -1.7683243 19 4
-9.3523006 -10.615575 2.2407675 9 12
-9.544055 -10.829416 -1.2628866 23 5
-9.2406979 -10.477828 2.7155938 19 13
-9.6423597 -10.925573 -0.76368636 17 6
-8.5871229 -9.7264833 2.9954484 8 14
-9.5738058 -10.828835 3.8729684 7 15
-4.860095 -5.4682899 -1.9602956 22 0
-9.5758963 -10.770438 0.25155899 41 8
-6.273356 -7.0509653 -2.1788759 8 1
-9.6442204 -10.835855 0.76023221 17 9
-8.3190022 -9.3403215 -2.4312882 10 2
-9.6879044 -10.869648 1.2738683 20 10
-10.840156 -12.158173 -2.5799174 9 3
-10.691565 -11.983099 1.9718461 6 11
-16.338449 -18.299261 -3.0121231 9 4
-9.4375029 -10.566401 2.2438962 6 12
-8.4812078 -9.4823828 2.4728849 5 13
-8.6626177 -9.6750088 2.9981477 11 14
-9.753293 -10.885502 -0.25511929 23 7
-9.3881245 -10.474264 3.768923 6 15
-4.8933258 -5.4307747 -1.9587426 15 0
-9.8865337 -10.964708 0.25770223 21 8
-6.3107624 -6.9965239 -2.1752765 9 1
-9.9123383 -10.98176 0.77530497 6 9
-8.3182068 -9.2091722 -2.4122074 9 2
-9.7563248 -10.797539 1.2731711 16 10
-10.965839 -12.127624 -2.5896165 7 3
-16.449308 -18.172907 -3.0096855 9 4
-10.743018 -11.860375 2.5345516 3 12
-8.3094959 -9.1640987 2.4045751 5 13
-8.5203447 -9.383462 2.9261632 11 14
-9.9132118 -10.913594 -0.25735319 24 7
-9.3999472 -10.341279 3.7445941 9 15
-4.9506664 -5.4178743 -1.9665072 3 0
-6.356822 -6.9494219 -2.174377 9 1
-9.6759005 -10.570498 0.75102103 6 9
-8.3478155 -9.1132383 -2.4022853 10 2
-9.9862623 -10.898093 1.2932168 4 10
-11.063588 -12.065331 -2.5927453 7 3
-10.988021 -11.974527 1.9954888 9 11
-16.528793 -18.006443 -3.0011547 7 4
-8.2678337 -9.0006571 1.9357203 3 12
-8.4237671 -9.16078 2.4190764 19 13
-10.079509 -10.95371 -0.78011984 8 6
-8.5447273 -9.2793093 2.9122164 23 14
-10.023154 -10.873405 3.9625196 4 15
-4.9857435 -5.3803458 -1.9654719 3 0
-9.9026918 -10.678973 0.25421175 21 8
-6.3998814 -6.8991585 -2.1725771 9 1
-10.195148 -10.982815 0.78535342 2 9
-8.4058924 -9.0489826 -2.400759 10 2
-10.178739 -10.95363 1.3082078 4 10
-11.189252 -12.032642 -2.6024442 9 3
-11.070001 -11.896072 1.9952452 3 11
-16.810085 -18.051868 -3.0286973 9 4
-8.2173662 -8.8213024 1.9094393 18 12
-8.4797316 -9.0902176 2.4164052 40 13
-8.6106281 -9.2208557 2.9126663 8 14
-8.9207325 -9.5429153 3.5002687 6 15
-4.9950066 -5.3135638 -1.9540838 3 0
-6.447752 -6.8517661 -2.1721272 10 1
-8.4580889 -8.9786472 -2.397706 10 2
-10.195359 -10.815273 1.3003637 1 10
-11.285913 -11.96376 -2.6049469 9 3
-11.327166 -12.0033 2.0264435 10 11
-16.901634 -17.897987 -3.0226038 7 4
