# .PCD v0.7 - Point Cloud Data file format
VERSION 0.7
FIELDS x y z intensity ring
SIZE 4 4 4 4 2
TYPE F F F F U
COUNT 1 1 1 1 1
WIDTH 1286
HEIGHT 1
VIEWPOINT 0 0 0 1 0 0 0
POINTS 1286
DATA ascii
-1.487558 3.8075278 -1.0953223 2 0
-1.4795306 3.7908897 0.071031295 2 8
-1.3087535 3.3550444 -0.83141905 33 1
-1.465593 3.7609909 0.21154197 1 9
-1.3154274 3.3791237 -0.70484847 27 2
-1.4752263 3.791579 0.35594404 2 10
-1.4584548 3.7523484 -0.63762695 3 3
-1.4772447 3.8046241 0.50112677 1 11
-4.7356873 12.203011 -1.607213 1 4
-1.4730306 3.7996652 0.64544868 1 12
-1.304366 3.3663399 -0.3158524 34 5
-1.4832741 3.8320403 0.7987265 2 13
-1.4543015 3.7610888 -0.2113326 1 6
-1.4829614 3.8371992 0.94974333 4 14
-1.4674537 3.80497 1.092734 1 15
-1.4581764 3.8106034 -1.0932516 2 0
-1.4494083 3.7896655 0.070821866 1 8
-1.2846019 3.3622799 -0.83096921 34 1
-1.4470836 3.7895381 0.21258868 1 9
-1.2839991 3.3659871 -0.70026904 28 2
-1.4416255 3.7831674 0.35420093 1 10
-1.427255 3.7474208 -0.63512403 2 3
-1.447078 3.8034594 0.49966437 1 11
-4.6426215 12.215364 -1.6045319 2 4
-1.4387152 3.7874441 0.64169425 1 12
-1.2730572 3.3548737 -0.31393498 33 5
-1.4537016 3.8349586 0.79719996 2 13
-1.4130994 3.7298114 -0.20902982 1 6
-1.4809688 3.9130716 0.96593982 4 14
-1.4367402 3.8022208 1.0891106 1 15
-1.4254233 3.802351 -1.0880753 2 0
-1.4187064 3.7884564 0.070612431 1 8
-1.2575872 3.3599954 -0.82826978 39 1
-1.4177946 3.7920651 0.21216999 2 9
-1.2604705 3.3748684 -0.70026904 24 2
-1.4193575 3.8043396 0.35524681 2 10
-3.5930631 9.6356983 -1.6287959 2 3
-1.4315763 3.8432326 0.50356412 1 11
-1.3942367 3.7469881 -0.49088979 3 4
-1.3984677 3.7603667 0.63543689 1 12
-1.2447479 3.3506057 -0.31271479 36 5
-1.4214289 3.8302894 0.79414707 2 13
-1.3988694 3.7735369 -0.21091393 1 6
-1.4292407 3.8575306 0.94974333 4 14
-1.4001164 3.7870364 1.0818636 1 15
-1.5425187 4.2060328 -1.2004027 3 0
-1.3833081 3.775979 0.070193581 1 8
-1.2348515 3.3725684 -0.82916957 34 1
-1.3933688 3.8096159 0.21258868 1 9
-1.2376357 3.38749 -0.70103228 18 2
-1.3798027 3.7807095 0.35210916 2 10
-1.3727839 3.7635112 -0.6344983 3 3
-1.3795729 3.7862339 0.4947896 1 11
-1.3605987 3.7382152 -0.4884524 3 4
-1.3958338 3.8371067 0.64670014 2 12
-1.2200592 3.3575547 -0.3125405 45 5
-1.3939854 3.8403623 0.79414707 2 13
-1.3541298 3.7346315 -0.20819245 1 6
-1.4016004 3.8676593 0.94974333 4 14
-1.3624703 3.7678909 1.0735815 1 15
-1.3578193 3.7859924 -1.0777225 2 0
-1.3616475 3.8008411 0.070472814 1 8
-1.2054325 3.3666401 -0.82557034 39 1
-1.3687626 3.8270113 0.21300736 1 9
-1.2127032 3.3944108 -0.70065069 14 2
-1.3453368 3.7677333 0.35001746 1 10
-1.343163 3.7657959 -0.63324684 3 3
-1.3537762 3.7997484 0.49527705 1 11
-4.3263717 12.14985 -1.5835704 2 4
-1.3471565 3.7874398 0.63668835 1 12
-1.1859978 3.3380373 -0.30992582 43 5
-1.3553135 3.8167 0.787278 2 13
-1.3253534 3.7364647 -0.20777377 1 6
-1.3419304 3.7937026 1.0782403 1 15
-1.3441441 3.8318381 -1.0880753 2 0
-1.3311119 3.7989314 0.070263386 2 8
-1.1786792 3.3657775 -0.82332087 33 1
-1.3235468 3.7836874 0.21007656 2 9
-1.1896238 3.4046478 -0.70103228 15 2
-1.3124316 3.758224 0.34827435 2 10
-1.3116353 3.7601597 -0.6307438 2 3
-1.3128483 3.7678659 0.48991477 1 11
-1.3050096 3.7474737 -0.48723367 2 4
-1.3038106 3.7482426 0.62855375 1 12
-1.1607018 3.3405902 -0.30940288 39 5
-1.3286368 3.8260682 0.787278 2 13
-1.3018538 3.7531741 -0.20819245 1 6
-1.3467839 3.8870869 0.94974333 4 14
-1.3109921 3.7901986 1.0746168 1 15
-1.2973052 3.7826533 -1.0715109 2 0
-1.2954851 3.7816472 0.069774717 2 8
-1.1532593 3.3683934 -0.82197118 39 1
-1.2970994 3.7928352 0.21007656 2 9
-1.1912112 3.4871838 -0.71629703 5 2
-1.2874495 3.7710657 0.34862295 1 10
-1.2879026 3.7767034 -0.63199526 3 3
-1.2916322 3.7919724 0.49186471 1 11
-1.2768964 3.7508554 -0.48650244 2 4
-1.2826971 3.7722163 0.63105673 1 12
-1.1379377 3.3484128 -0.30940288 37 5
-1.2968428 3.8203781 0.78422499 2 13
-1.270491 3.7470388 -0.20735508 2 6
-1.3202941 3.8961644 0.94974333 4 14
-1.2845014 3.799258 1.0746168 1 15
-1.8062255 5.3888597 -1.5228913 2 0
-1.2773364 3.8131311 0.070193581 2 8
-1.1260053 3.3652742 -0.81927174 39 1
-1.2598509 3.7674813 0.20819245 1 9
-1.2265347 3.6721132 -0.75255072 4 2
-1.2560469 3.7648423 0.34722847 2 10
-1.2534178 3.7591472 -0.62761515 3 3
-1.2657911 3.8006763 0.49186471 1 11
-1.2531856 3.7672126 -0.48747739 3 4
-1.2420356 3.7358713 0.62354785 1 12
-1.1132778 3.352494 -0.30905426 37 5
-1.2775587 3.8516994 0.78880447 2 13
-1.2273597 3.7025173 -0.20442426 1 6
-1.2722373 3.8423872 0.93444669 4 14
-1.2489105 3.7785654 1.0663346 1 15
-1.2420201 3.7910013 -1.0689226 2 0
-1.2394899 3.7877464 0.069565296 1 8
-1.104284 3.3765652 -0.82017154 39 1
-1.243441 3.8065617 0.20986721 2 9
-1.1832088 3.6264603 -0.74148381 5 2
-1.2254499 3.7581508 0.34583399 2 10
-3.1369851 9.6317596 -1.6043921 3 3
-1.2257166 3.7678905 0.48650244 1 11
-1.2127838 3.7303479 -0.48162767 2 4
-1.2195846 3.755724 0.62542504 1 12
-1.0873572 3.3505189 -0.30818272 43 5
-1.2452576 3.8416305 0.78498828 2 13
-1.2125549 3.7451985 -0.20630836 1 6
-1.266451 3.9139972 0.94974333 4 14
-1.2266531 3.8000619 1.069958 1 15
-1.2143465 3.7959001 -1.0678874 2 0
-1.2148985 3.7999043 0.069635101 1 8
-1.072385 3.3582029 -0.81387293 36 1
-1.211431 3.7959094 0.20882049 2 9
-1.2026188 3.7728493 -0.76972359 3 2
-1.1919302 3.7438328 0.34374225 2 10
-3.0629659 9.6265373 -1.6000119 2 3
-1.2000408 3.7761464 0.48650244 1 11
-1.1903149 3.7500763 -0.48309013 2 4
-1.1939919 3.7639384 0.62542504 1 12
-1.062736 3.3542295 -0.30783406 43 5
-1.1994534 3.7903337 0.77277648 2 13
-1.1858296 3.7495568 -0.20609902 1 6
-1.1897228 3.7733164 1.0601228 1 15
-1.6931406 5.4193811 -1.5213385 2 0
-1.1931041 3.8235655 0.069914341 1 8
-1.0477626 3.359843 -0.81252325 33 1
-1.1753963 3.7737646 0.20714574 3 9
-1.1814984 3.7980247 -0.77315807 3 2
-1.1788403 3.7918129 0.34740278 2 10
-2.9980283 9.6552305 -1.6012633 2 3
-1.1818812 3.8109765 0.48991477 1 11
-4.0807776 13.166594 -1.6925216 2 4
-1.1641808 3.7608602 0.62354785 1 12
-1.039291 3.3594823 -0.30765978 37 5
-1.1956491 3.8696895 0.787278 2 13
-1.1537343 3.7386594 -0.2050523 1 6
-1.1560831 3.7485919 0.90565288 4 14
-1.1599429 3.7704513 1.057017 1 15
-1.1540108 3.7864106 -1.0606405 2 0
-1.1495724 3.7742095 0.068867192 1 8
-1.0220107 3.3596189 -0.8107236 30 1
-1.1508437 3.7854996 0.20735508 2 9
-1.148774 3.7834363 -0.76857871 3 2
-1.1401995 3.7599103 0.34374225 2 10
-2.9288003 9.664072 -1.5993862 3 3
-1.1605157 3.8341324 0.49186471 1 11
-3.8727262 12.810927 -1.6432863 2 4
-1.136271 3.761133 0.62229639 1 12
-1.0112079 3.3513963 -0.30626526 39 5
-1.1334841 3.7613971 0.76361769 2 13
-1.1340188 3.7655501 -0.20609902 2 6
-1.1658076 3.8760056 0.93444669 4 14
-1.1409168 3.8004632 1.0632287 2 15
-1.6177078 5.4403586 -1.5208209 2 0
-1.1277497 3.7974787 0.069146432 1 8
-0.99690098 3.3590248 -0.80892402 33 1
-1.1243898 3.7934411 0.20735508 1 9
-1.1189909 3.7800686 -0.766289 3 2
-1.1100584 3.7523 0.34234774 1 10
-1.1138338 3.7698987 -0.62260926 1 3
-1.1224822 3.8040626 0.48698995 1 11
-1.0959924 3.7166724 -0.47577798 2 4
-1.1066355 3.7576051 0.62041914 1 12
-0.98328847 3.3430829 -0.30487078 38 5
-1.1122838 3.7840939 0.76667058 2 13
-1.0987014 3.7427132 -0.20442426 2 6
-1.1036332 3.7643673 0.90565288 4 14
-1.1062187 3.7805238 1.055464 1 15
-1.5780745 5.4459534 -1.5192679 2 0
-1.0900931 3.7668419 0.068448335 2 8
-0.97072089 3.3565421 -0.80667448 39 1
-1.0956624 3.7935231 0.20693639 1 9
-1.0903972 3.7802429 -0.76476252 3 2
-1.0893539 3.7791023 0.34409088 2 10
-2.7728207 9.6318855 -1.5874972 3 3
-1.1068693 3.849962 0.49186471 1 11
-1.0798837 3.7585762 -0.48016527 2 4
-1.0890944 3.7956188 0.62542504 1 12
-0.95992696 3.3498654 -0.30487078 35 5
-1.0880024 3.7993157 0.768197 2 13
-1.0692506 3.7387707 -0.20379624 2 6
-1.0848169 3.7982147 0.9119516 4 14
-1.0729142 3.7640026 1.0487348 1 15
-1.556282 5.5144739 -1.5353146 2 0
-1.0637691 3.7743602 0.068448335 1 8
-0.94990581 3.3726161 -0.80892402 64 1
-1.0626624 3.778008 0.20568034 2 9
-1.0639797 3.7877634 -0.76476252 3 2
-1.0564827 3.7635965 0.34199914 2 10
-1.0472254 3.7356293 -0.61447465 1 3
-1.0585579 3.7811317 0.48211515 1 11
-1.0386441 3.712496 -0.47334057 2 4
-1.0604433 3.7955198 0.62417358 1 12
-0.93383986 3.34689 -0.30399922 45 5
-1.0582863 3.7954729 0.76590741 2 13
-1.0345526 3.715359 -0.20212148 2 6
-1.0614083 3.8169599 0.91465092 4 14
-1.0497118 3.7825696 1.0518407 1 15
-1.5110935 5.5009875 -1.5285853 2 0
-1.033161 3.7662671 0.068169102 2 8
-0.91809404 3.3490949 -0.80172557 51 1
-1.0352062 3.781482 0.20547098 3 9
-1.0349215 3.78563 -0.7628544 3 2
-1.0291319 3.7670364 0.34165049 2 10
-1.0242397 3.7542837 -0.6163519 2 3
-1.029004 3.7769382 0.48065275 1 11
-3.4417222 12.641469 -1.6086755 2 4
-1.0142261 3.7303956 0.6122846 1 12
-0.91201752 3.3590963 -0.30452216 37 5
-1.0255959 3.7800312 0.76132792 2 13
-1.0054554 3.7109244 -0.20149344 2 6
-1.0245537 3.7866554 0.90565288 4 14
-1.0187448 3.7730207 1.0471818 1 15
-1.0098617 3.7794075 -1.0482172 2 0
-1.0047802 3.76566 0.068029478 2 8
-0.89368641 3.3516569 -0.80082577 42 1
-0.99541986 3.7384365 0.20274951 2 9
-0.99686444 3.7491245 -0.7540772 2 2
-1.0017846 3.7702785 0.34130189 1 10
-2.5715094 9.6916628 -1.5881228 3 3
-1.0148131 3.8300827 0.48650244 1 11
-0.98619974 3.7247167 -0.47309685 2 4
-0.982099 3.7144682 0.6085301 3 12
-0.88600135 3.3557498 -0.30365062 45 5
-1.0011846 3.794692 0.7628544 2 13
-0.97443533 3.6985397 -0.20044672 2 6
-1.0062261 3.8273365 -0.069076627 2 7
-0.99336231 3.7837777 1.0482172 1 15
-0.87563795 3.3712673 -0.93330151 13 0
-0.97645825 3.7648401 0.067889862 2 8
-0.86537659 3.3389504 -0.79632676 36 1
-0.98430878 3.8033016 0.20588967 2 9
-0.85031551 3.2902949 -0.66058075 7 2
-0.97543871 3.7771802 0.34130189 2 10
-0.85037965 3.2976694 -0.53938609 11 3
-0.97220886 3.7755582 0.47870281 1 11
-0.83007169 3.2259018 -0.40899354 19 4
-0.96499175 3.7556722 0.61416179 3 12
-0.84472674 3.2923775 -0.29737538 45 5
-0.96881741 3.7787683 0.75827497 2 13
-0.8460539 3.3047371 -0.17877965 4 6
-0.97158527 3.800591 0.90565288 4 14
-0.95546257 3.7456946 1.0357939 1 15
-0.95112807 3.7754438 0.067959674 2 8
-0.82396734 3.2730987 -0.77923048 60 1
-0.94604713 3.7635925 0.20337754 2 9
-0.81776679 3.2580669 -0.65294844 40 2
-0.9393512 3.7452474 0.33781564 2 10
-0.94101095 3.7629952 0.47626543 1 11
-0.80560541 3.2239146 -0.40801859 31 4
-0.9377923 3.7584844 0.61353606 3 12
-0.80775428 3.2421286 -0.29232034 64 5
-0.95284736 3.827352 0.76667058 2 13
-0.93563926 3.7694545 0.8966549 4 14
-0.95268953 3.8410125 -0.069076627 2 7
-0.92696732 3.7428975 1.0332056 1 15
-0.81102091 3.311861 -0.91363126 57 0
-0.9209494 3.7664516 0.067680433 2 8
-0.79647303 3.2598403 -0.77473146 57 1
-0.91217536 3.7390597 0.20170279 2 9
-0.79871684 3.2789569 -0.65600139 45 2
-0.91789353 3.7710726 0.33955875 2 10
-0.79632318 3.2765896 -0.53406733 55 3
-0.91191036 3.7578981 0.474803 1 11
-0.78822428 3.2506812 -0.41069973 50 4
-0.91710997 3.7879782 0.61729044 3 12
-0.78743953 3.2573724 -0.29319191 50 5
-0.90951073 3.765209 0.75293231 2 13
-0.78624952 3.2599218 -0.17574416 47 6
-0.91842562 3.813786 0.90565288 4 14
-0.92585105 3.8475699 -0.069076627 2 7
-0.90442497 3.7643054 1.0373468 1 15
-0.78341615 3.2986469 -0.9084549 44 0
-0.89463031 3.77279 0.067680433 2 8
-0.77549285 3.2729063 -0.77653104 60 1
-0.88880843 3.7569985 0.20233083 2 9
-0.77264833 3.2710779 -0.65333003 60 2
-0.88605207 3.7541196 0.33746704 2 10
-0.76663399 3.2532277 -0.5293743 45 3
-0.88929027 3.7796316 0.47675291 1 11
-0.76551259 3.2561045 -0.41069973 49 4
-0.89154369 3.7981355 0.61791623 1 12
-0.76195186 3.2511513 -0.29214606 49 5
-0.88141006 3.7638214 0.75140589 2 13
-0.76347178 3.2653315 -0.17574416 74 6
-0.89177984 3.8201044 0.90565288 4 14
-0.89896733 3.8539398 -0.069076627 2 7
-0.87812489 3.7705271 1.0373468 2 15
-0.76729858 3.3341579 -0.91673708 35 0
-0.86468893 3.7633519 0.067401193 2 8
-0.75785577 3.3010328 -0.78192985 30 1
-0.85988235 3.7514307 0.20170279 2 9
-0.75417274 3.2955303 -0.65714622 33 2
-0.86426485 3.7796361 0.33921015 2 10
-0.7513777 3.2912402 -0.53469306 30 3
-0.85405713 3.7470393 0.47187814 3 11
-0.75598627 3.3194354 -0.41801187 20 4
-0.8536185 3.7541854 0.60978162 1 12
-0.75335181 3.3185658 -0.29772401 42 5
-0.85771793 3.7813706 0.75369561 2 13
-0.75345123 3.3270717 -0.17877965 28 6
-0.85735327 3.7920234 0.8975547 4 14
-0.8720417 3.8601215 -0.069076627 2 7
-0.84030229 3.7256842 1.0233705 3 15
-0.83992159 3.7730541 0.067471005 1 8
-0.74637133 3.3555729 -0.79362732 45 1
-0.82999754 3.7376995 0.20065607 3 9
-0.8238672 3.7192934 0.33328354 2 10
-0.82853377 3.7527654 0.47187814 1 11
-0.82209849 3.7329001 0.60540146 3 12
-0.73373878 3.3372383 -0.29894418 71 5
-0.82774842 3.7679458 0.74987942 2 13
-0.83902425 3.832037 0.90565288 4 14
-0.84574461 3.8659682 -0.069076627 2 7
-0.82151812 3.7615154 1.0316528 1 15
-1.2099681 5.6105437 -1.5379028 3 0
-0.81103492 3.7670963 0.067261577 2 8
-0.72128755 3.3530815 -0.79182774 51 1
-0.8089155 3.7668359 0.20191215 3 9
-0.80701977 3.7644086 -0.74835294 3 2
-0.80038542 3.7366438 0.33432943 2 10
-2.0752363 9.7048941 -1.5718536 3 3
-0.81060272 3.7972853 0.47675291 1 11
-2.8000071 13.127913 -1.6481611 3 4
-0.79930902 3.7540052 0.60790437 1 12
-0.71000999 3.3403306 -0.29876989 52 5
-0.80305439 3.7813144 0.75140589 2 13
-0.79117954 3.731818 -0.19992337 2 6
-0.80418116 3.7996712 0.8966549 4 14
-0.79225689 3.7465668 -0.06684272 2 7
-0.78925431 3.7388055 1.0238881 1 15
-1.1597384 5.5658989 -1.5234089 4 0
-0.7806437 3.7530887 0.066912524 2 8
-0.69627649 3.3504028 -0.7900281 45 1
-0.7809754 3.7645688 0.20149344 3 9
-0.77992338 3.7661059 -0.74758971 3 2
-0.77670139 3.7538466 0.33537531 2 10
-0.77196664 3.7375379 -0.6044628 2 3
-0.78086603 3.787298 0.474803 1 11
-0.76698804 3.7232735 -0.46675962 2 4
-0.75955188 3.6937079 0.59726685 3 12
-0.68587148 3.3413026 -0.29842126 50 5
-0.77978992 3.8022149 0.75445884 2 13
-0.75709748 3.6981168 -0.19782993 2 6
-0.77919555 3.8128297 0.89845449 4 14
-0.75168186 3.6814723 -0.065586142 2 7
-0.76892048 3.7726188 1.0316528 1 15
-1.1223736 5.5814357 -1.5254794 3 0
-0.75442314 3.7584472 0.066912524 2 8
-0.67286777 3.3551824 -0.7900281 42 1
-0.75153846 3.754262 0.20065607 2 9
-0.7505362 3.756057 -0.74453676 3 2
-0.74891537 3.7513621 0.33467805 2 10
-0.74508452 3.7389612 -0.60383707 2 3
-0.74433762 3.7420366 0.46846578 1 11
-0.73556077 3.7012789 -0.46334729 2 4
-0.7391293 3.726047 0.60164702 3 12
-0.66252816 3.3460095 -0.29842126 44 5
-0.75322825 3.8075659 0.75445884 2 13
-0.72158855 3.6543267 -0.19521314 2 6
-0.75104886 3.8105292 0.8966549 4 14
-0.74527985 3.7847314 -0.067331389 2 7
-0.73771852 3.7532525 1.0249234 1 15
-0.74333066 3.8348262 -1.0466642 2 0
-0.72512883 3.7479157 0.066633284 2 8
-0.64868808 3.3559716 -0.7891283 28 1
-0.72455555 3.7554948 0.20044672 2 9
-0.72132397 3.7457831 -0.74148381 3 2
-0.71969819 3.7408466 0.33328354 2 10
-0.72268695 3.7634716 -0.60696578 2 3
-0.71670043 3.7393436 0.46749085 3 11
-0.71044791 3.7102237 -0.46383476 2 4
-0.7064237 3.6961918 0.59601539 3 12
-0.63542062 3.3309817 -0.29667813 41 5
-0.71927726 3.7741606 0.74682647 2 13
-0.69531423 3.6553504 -0.19500379 1 6
-0.72442985 3.8156793 0.8966549 4 14
-0.70020676 3.6916087 -0.065586142 2 7
-0.70970297 3.7488203 1.0223353 1 15
-1.0471723 5.6117549 -1.5296206 3 0
-0.70187485 3.7686141 0.066912524 2 8
-0.62381893 3.3527548 -0.78732872 28 1
-0.70123684 3.7761712 0.20128411 2 9
-0.70088029 3.7816136 -0.74758971 3 2
-0.69429004 3.7496982 0.33363217 2 10
-0.69208771 3.7451153 -0.60321134 2 3
-0.69057924 3.7442553 0.46749085 3 11
-0.68057156 3.6936185 -0.46115363 2 4
-0.68703485 3.7360034 0.60164702 1 12
-0.61358756 3.3431759 -0.29737538 39 5
-0.69432741 3.7868142 0.74835294 2 13
-0.67480958 3.6876209 -0.1964692 2 6
-0.69567305 3.8091419 0.89395547 4 14
-0.69236362 3.7947681 -0.067331389 2 7
-0.68351394 3.7536836 1.0223353 1 15
-0.68528265 3.8201108 -1.039935 3 0
-0.6720221 3.7537384 0.06656348 2 8
-0.60039705 3.3570282 -0.78732872 30 1
-0.67204779 3.7652454 0.20044672 2 9
-0.67136574 3.7690187 -0.74415511 3 2
-0.66739541 3.750531 0.33328354 2 10
-0.66247284 3.730406 -0.6000827 2 3
-0.6665011 3.7607133 0.46895328 1 11
-2.3467155 13.254775 -1.6527921 2 4
-0.65543669 3.709585 0.59664112 3 12
-0.58746505 3.331681 -0.2959809 41 5
-0.67059994 3.8070369 0.75140589 2 13
-0.64489919 3.6686373 -0.19521314 2 6
-0.66300231 3.7793558 0.88585728 4 14
-0.65662599 3.7545581 1.0213 1 15
-0.65859652 3.8248019 -1.039935 3 0
-0.64580148 3.7583385 0.06656348 2 8
-0.57430851 3.3457727 -0.78372949 32 1
-0.64372361 3.7580335 0.1998187 2 9
-0.64437509 3.7697434 -0.74339187 4 2
-0.63180745 3.7001076 0.32840282 2 10
-0.63707715 3.7388346 -0.60070843 3 3
-0.63956279 3.7613609 0.46846578 1 11
-2.2521346 13.259091 -1.6513296 2 4
-0.63084167 3.7218611 0.59789258 3 12
-0.56352669 3.3317721 -0.29563227 46 5
-0.63222909 3.7419367 0.73766762 2 13
-0.62059975 3.6809275 -0.19563182 2 6
-0.63983619 3.8031094 0.89035624 4 14
-0.62912196 3.7514293 1.0192294 1 15
-0.92941791 5.6324549 -1.5296206 3 0
-0.62084717 3.770648 0.066703096 2 8
-0.55093664 3.3497007 -0.78372949 33 1
-0.61811882 3.7663782 0.20002805 2 9
-0.62057978 3.7896497 -0.74644482 4 2
-0.61046332 3.731956 0.33084321 2 10
-0.60905039 3.7314935 -0.59883118 3 3
-0.61009705 3.7461414 0.46602839 1 11
-0.6021139 3.7011831 -0.4604224 2 4
-0.60167766 3.7066758 0.59476393 3 12
-0.54147273 3.3394639 -0.2959809 44 5
-0.60859847 3.7617638 0.74072057 2 13
-0.59457034 3.6831987 -0.19552715 2 6
-0.61455297 3.8112245 0.89125609 4 14
-0.59985292 3.736656 1.0140531 1 15
-0.88645881 5.6159072 -1.5234089 3 0
-0.5908047 3.7471328 0.066214427 2 8
-0.52844638 3.3592405 -0.78507918 34 1
-0.58626515 3.7310374 0.1979346 2 9
-0.59233743 3.7782695 -0.74339187 3 2
-0.58254707 3.7243159 0.32979733 2 10
-0.58485651 3.7433598 -0.6000827 2 3
-0.58152801 3.7305932 0.46359101 1 11
-2.0521383 13.195092 -1.6396303 2 4
-0.57764781 3.718493 0.59601539 3 12
-0.51814562 3.3431628 -0.2959809 39 5
-0.58592349 3.7892029 0.74529999 2 13
-0.56735003 3.6733434 -0.19479445 2 6
-0.58437103 3.7923098 0.88585728 4 14
-0.57094574 3.7137966 -0.065586142 2 7
-0.57733834 3.759747 1.0192294 1 15
-0.57873428 3.8357444 -1.0394174 2 0
-0.56820393 3.7748947 0.066633284 2 8
-0.50499058 3.3589051 -0.78417933 34 1
-0.56376004 3.7587411 0.19919068 2 9
-0.56449306 3.7726045 -0.74148381 3 2
-0.55836087 3.7360773 0.33049458 2 10
-1.5199906 10.194828 -1.6325504 3 3
-0.56014037 3.7659783 0.46749085 1 11
-1.9611142 13.200901 -1.6386554 2 4
-0.55340958 3.7341599 0.59789258 1 12
-0.49158955 3.3250177 -0.29406345 37 5
-0.55839497 3.7814505 0.74301028 2 13
-0.53994673 3.6653593 -0.19416642 2 6
-0.55618149 3.7847288 0.88315785 4 14
-0.54855728 3.7464824 1.0145707 1 15
-0.54781675 3.8110087 -1.0316528 3 0
-0.53729504 3.7470984 0.066074811 2 8
-0.48152712 3.362349 -0.78417933 36 1
-0.5346809 3.7428136 0.19814396 2 9
-0.54063606 3.7939463 -0.74491841 3 2
-0.52945721 3.7201591 0.32875144 2 10
-0.53197837 3.7472494 -0.59945697 2 3
-0.53272367 3.7619348 0.46651587 1 11
-0.52567339 3.7168202 -0.46090987 2 4
-0.52401721 3.7144597 0.59413815 1 12
-0.46947518 3.3362608 -0.29476073 33 5
-0.53580898 3.8124745 0.74835294 2 13
-0.51434451 3.6690395 -0.19416642 2 6
-0.52164787 3.7306206 0.86966079 4 14
-0.52687734 3.7728078 -0.066493668 2 7
-0.52238679 3.750221 1.0145707 1 15
-0.76963586 5.6331062 -1.5234089 4 0
-0.510584 3.7467949 0.066004999 2 8
-0.45646507 3.3540432 -0.78147995 36 1
-0.5101499 3.7583294 0.19877198 3 9
-0.51018351 3.7684455 -0.7391941 3 2
-0.5045405 3.7316623 0.3294487 2 10
-0.50369275 3.7352107 -0.59695399 1 3
-0.50274301 3.738019 0.46310353 1 11
-0.50182641 3.7361391 -0.46285981 2 4
-0.50279367 3.7532694 0.59976977 1 12
-0.44701919 3.3413539 -0.29493502 41 5
-0.50606394 3.7927701 0.74377352 2 13
-0.48819035 3.668581 -0.19395708 2 6
-0.50394559 3.7920372 0.88315785 4 14
-0.49369401 3.724853 -0.065586142 2 7
-0.49695385 3.759522 1.0161237 1 15
-0.73624611 5.6843228 -1.5358323 4 0
-0.48301461 3.7343185 0.065725766 1 8
-0.43154246 3.3455517 -0.77878052 41 1
-0.48353523 3.7537913 0.19835329 3 9
-0.48577136 3.7815673 -0.74110222 4 2
-0.4799971 3.7469511 0.33049458 2 10
-1.300917 10.169333 -1.6237899 2 3
-0.47678685 3.737416 0.46261609 1 11
-1.6749539 13.166214 -1.629637 3 4
-0.4737508 3.7291703 0.59538966 1 12
-0.42217883 3.3325336 -0.29388916 42 5
-0.47415975 3.7533598 0.73537791 2 13
-0.46420768 3.6797454 -0.19437577 2 6
-0.47162241 3.7490592 0.87236023 4 14
-0.46991134 3.7513165 1.0130178 1 15
-0.46925825 3.8273158 -1.0332056 2 0
-0.46178567 3.777298 0.066423863 1 8
-0.40923226 3.3522804 -0.77968031 39 1
-0.45586908 3.7451799 0.19772527 3 9
-0.45510328 3.7497849 -0.73423308 3 2
-0.45352057 3.7422199 0.32979733 2 10
-0.45546395 3.7692556 -0.60133415 2 3
-0.45115623 3.7445955 0.46310353 3 11
-1.5879098 13.19899 -1.6323181 2 4
-0.44440925 3.7049284 0.5910095 1 12
-0.3981933 3.3294647 -0.29336622 35 5
-0.44999716 3.7681966 0.73766762 2 13
-0.44110438 3.7047122 -0.19552715 2 6
-0.45279056 3.8141851 0.88675708 4 14
-0.444166 3.7583425 1.0140531 1 15
-0.65735847 5.6900949 -1.534797 3 0
-0.4299145 3.7327521 0.065586142 2 8
-0.38537368 3.3511839 -0.77878052 39 1
-0.42698368 3.7244599 0.1964692 3 9
-0.43025133 3.7645743 -0.73652273 3 2
-0.42422324 3.717581 0.32735696 1 10
-0.42601264 3.7448657 -0.59695399 2 3
-0.4236609 3.7358191 0.4616411 1 11
-1.4883482 13.144663 -1.6242748 3 4
-0.41587442 3.6843858 0.58725506 1 12
-0.37382725 3.322264 -0.29249465 39 5
-0.42236415 3.7595406 0.73537791 2 13
-0.41145277 3.6739585 -0.19374773 2 6
-0.4200958 3.7630255 0.87415981 4 14
-0.41623122 3.7343028 -0.065586142 2 7
-0.41727522 3.7555919 1.0125002 2 15
-0.60741395 5.6004367 -1.5094327 11 0
-0.40212509 3.7197576 0.065306902 2 8
-0.36238843 3.3576672 -0.77968031 39 1
-0.40182614 3.7352931 0.19688788 2 9
-0.40018988 3.7323494 -0.7296536 2 2
-0.40037996 3.740263 0.32910007 2 10
-1.0893362 10.210062 -1.6262929 2 3
-0.39673182 3.7307897 0.46066615 3 11
-1.3967545 13.156707 -1.6245185 2 4
-0.39388555 3.7225585 0.59288669 1 12
-0.35141233 3.3267131 -0.292669 37 5
-0.39652026 3.7663026 0.73614115 3 13
-0.38954529 3.712496 -0.19563182 1 6
-0.39061627 3.7289732 0.86561167 6 14
-0.39014894 3.7371178 -0.065586142 2 7
-0.38644788 3.7142193 1.0005945 15 15
-0.57395256 5.6602783 -1.5244442 13 0
-0.3759906 3.7144504 0.065167286 2 8
-0.33659172 3.3368487 -0.7742815 50 1
-0.37719187 3.7458909 0.19730657 3 9
-0.8299194 8.2708855 -1.6157707 6 2
-0.37187767 3.719177 0.32700834 7 10
-0.37551588 3.7621768 -0.59883118 2 3
-0.36739674 3.693897 0.45579138 15 11
-0.36767536 3.7098281 -0.45774129 2 4
-0.36542431 3.693701 0.58788079 18 12
-0.32798505 3.3271024 -0.29249465 39 5
-0.36349955 3.7005939 0.72278452 13 13
-0.35919869 3.6633809 -0.19291034 2 6
-0.3634367 3.7199724 0.86291224 17 14
-0.35784957 3.6760609 -0.064469188 5 7
-0.35816935 3.6859989 0.99231225 15 15
-0.35906166 3.7984743 -1.0223353 1 0
-0.35098717 3.7269394 0.065341808 7 8
-0.31478256 3.3487635 -0.77653104 51 1
-0.34544474 3.688776 0.19416642 13 9
-0.34176269 3.6632307 -0.71515214 4 2
-0.34507734 3.7057517 0.32561383 18 10
-0.3408483 3.674228 -0.58443922 5 3
-0.33922651 3.670675 0.45262277 16 11
-0.33667138 3.6569562 -0.45091662 8 4
-0.33872652 3.6863265 0.58631647 15 12
-0.30511272 3.3332794 -0.29284328 41 5
-0.33961496 3.7245481 0.7269823 8 13
-0.33361474 3.6657991 -0.19291034 22 6
-0.3409746 3.7612348 0.87191027 6 14
-0.33163929 3.6724949 -0.064364478 28 7
-0.3353737 3.7211189 1.0011121 2 15
-0.32061455 3.6720028 -0.98765355 11 0
-0.32565397 3.7372673 0.065481432 7 8
-0.29148528 3.358696 -0.77833068 42 1
-0.3204155 3.707072 0.19500379 7 9
-0.31364939 3.6361878 -0.70942789 17 2
-0.32298455 3.7597382 0.33014596 4 10
-0.31269518 3.654923 -0.58099771 12 3
-0.31848931 3.7303126 0.4596912 4 11
-0.30978733 3.6433935 -0.44896671 13 4
-0.280157 3.315475 -0.29110017 45 5
-0.31591094 3.7542171 0.73232496 2 13
-0.30637366 3.6561508 -0.19228233 16 6
-0.31292343 3.7421618 0.86696136 4 14
-0.30483079 3.6607711 -0.064120144 20 7
-0.31113377 3.7523019 1.0088767 1 15
-0.29450575 3.6683745 -0.98610061 13 0
-0.29810575 3.7295353 0.065306902 2 8
-0.26772016 3.3567638 -0.77743083 54 1
-0.29737315 3.7450564 0.19688788 2 9
-0.28762314 3.6383388 -0.70942789 17 2
-0.29249871 3.7082732 0.32543954 2 10
-0.28732774 3.6589859 -0.58131051 8 3
-0.29178765 3.7324963 0.4596912 3 11
-0.2882033 3.6949446 -0.45506018 2 4
-0.2864269 3.6887774 0.5860036 3 12
-0.25761938 3.3252957 -0.2917974 39 5
-0.28969386 3.756331 0.73232496 2 13
-0.28221735 3.6761231 -0.19322437 3 6
-0.29006481 3.7870021 0.87685925 4 14
-0.28229693 3.7197089 0.99955922 1 15
-0.4146952 5.6606107 -1.5208209 11 0
-0.27271265 3.731478 0.065306902 2 8
-0.24456176 3.3624384 -0.77833068 54 1
-0.2753433 3.7948024 0.19940001 1 9
-0.60516143 8.380909 -1.6333251 3 2
-0.26788989 3.7281101 0.32700834 2 10
-0.26537931 3.702234 -0.58788079 3 3
-0.26665884 3.7383561 0.4601787 1 11
-0.2612763 3.6810257 -0.45311025 2 4
-0.26270843 3.7103457 0.58913231 3 12
-0.2341181 3.3230381 -0.2914488 41 5
-0.264561 3.7739294 0.73537791 2 13
-0.2577455 3.6859286 -0.19364306 2 6
-0.2674067 3.8433681 0.88945645 4 14
-0.26016667 3.7677984 1.0119824 1 15
-0.24979022 3.7607563 -1.009912 4 0
-0.2463917 3.7293003 0.065237097 2 8
-0.2203889 3.3445797 -0.77383161 57 1
-0.24701509 3.7687304 0.1979346 1 9
-0.24228454 3.7164044 -0.72392935 6 2
-0.24276397 3.733824 0.32735696 2 10
-0.23889074 3.69414 -0.58631647 5 3
-0.2415712 3.7559748 0.46212861 1 11
-0.23608896 3.6807377 -0.45286649 2 4
-0.23880921 3.7436311 0.59413815 1 12
-0.21098907 3.3166015 -0.29075155 39 5
-0.23812275 3.7638869 0.7330882 2 13
-0.23100331 3.6716917 -0.19280569 2 6
-0.23611452 3.7634127 0.87056059 4 14
-0.23396748 3.7501364 -0.065586142 2 7
-0.23182441 3.7367444 1.0031826 1 15
-0.34279534 5.7699261 -1.5487732 2 0
-0.22218567 3.7508528 0.065586142 1 8
-0.19703238 3.3460369 -0.77383161 57 1
-0.22018759 3.7503862 0.19688788 1 9
-0.2170947 3.7199273 -0.72431099 4 2
-0.21865438 3.7692416 0.33032027 2 10
-0.21442251 3.7075131 -0.58819366 2 3
-0.21531768 3.745641 0.46066615 1 11
-0.74722421 13.078296 -1.6084318 2 4
-0.20950396 3.6781158 0.58350062 1 12
-0.18850531 3.3299286 -0.2917974 39 5
-0.20919344 3.7184138 0.72392935 2 13
-0.20690021 3.6891322 -0.19364306 2 6
-0.21222092 3.8077755 0.88045847 4 14
-0.20584953 3.7285914 1.0005945 3 15
-0.19806592 3.7793109 -1.0140531 4 0
-0.19388406 3.7243891 0.065097481 1 8
-0.17407331 3.3551157 -0.77563125 54 1
-0.19293368 3.7438874 0.1964692 1 9
-0.18976748 3.7076607 -0.72163963 5 2
-0.19111682 3.7467985 0.32822853 2 10
-0.18708716 3.6931701 -0.58569074 2 3
-0.18950637 3.7669117 0.46310353 1 11
-0.65410697 13.047508 -1.6040444 2 4
-0.18278573 3.6716292 0.58224916 3 12
-0.16535056 3.3331535 -0.29197174 38 5
-0.18438974 3.743314 0.72850877 2 13
-0.17903435 3.6605949 -0.19207297 2 6
-0.18202795 3.7351997 0.86336219 4 14
-0.17971921 3.7415469 1.0037004 1 15
-0.17307872 3.8114796 -1.0223353 3 0
-0.16744404 3.7016506 0.064678617 1 8
-0.1504712 3.3523555 -0.77473146 57 1
-0.16905108 3.7810287 0.19835329 1 9
-0.16496259 3.7186735 -0.72354776 4 2
-0.16346535 3.7142034 0.32526523 2 10
-0.16194594 3.6943579 -0.58569074 2 3
-0.16265397 3.7403491 0.4596912 1 11
-0.56129748 13.012091 -1.5991696 2 4
-0.15761814 3.6688414 0.58162344 3 12
-0.14173904 3.3262646 -0.29127449 38 5
-0.16123633 3.8151243 0.74224705 2 13
-0.15511934 3.6856749 -0.19332905 1 6
-0.15676135 3.7558501 0.86786121 4 14
-0.15393066 3.7349625 1.0016297 1 15
-0.22281924 5.7738709 -1.5482556 4 0
-0.14389002 3.7626765 0.065725766 1 8
-0.12750064 3.3494074 -0.77383161 57 1
-0.1406932 3.7302248 0.19563182 2 9
-0.13899735 3.7197344 -0.72354776 4 2
-0.13899429 3.7371311 0.32718265 2 10
-0.13629594 3.6993463 -0.58631647 2 3
-0.13697182 3.7532961 0.46115363 1 11
-0.13336277 3.6719851 -0.45116034 2 4
-0.13235599 3.679723 0.58318776 3 12
-0.11844296 3.3251817 -0.29110017 39 5
-0.13275842 3.7455006 0.72850877 2 13
-0.12980677 3.6986439 -0.19395708 2 6
-0.13053674 3.7568529 0.86786121 4 14
-0.12804841 3.7417383 1.0031826 2 15
-0.12002224 3.7980566 -1.0181942 3 0
-0.11561926 3.69963 0.064608812 1 8
-0.10399319 3.3463202 -0.77293181 54 1
-0.11415715 3.7151456 0.19479445 2 9
-0.11243094 3.7009904 -0.71973157 4 2
-0.11284067 3.7360189 0.32700834 2 10
-0.11046457 3.7002077 -0.58631647 2 3
-0.11041427 3.7422554 0.4596912 3 11
-0.10795528 3.6807637 -0.45213532 2 4
-0.10786691 3.7220228 0.58975804 3 12
-0.095739126 3.343852 -0.292669 31 5
-0.10560323 3.7110116 0.72163963 2 13
-0.10375774 3.6914742 -0.19353838 2 6
-0.10452028 3.7654643 0.86966079 4 14
-0.10160747 3.7309542 1.0000768 2 15
-0.093694024 3.8065267 -1.0202647 3 0
-0.091342203 3.7643187 0.065725766 1 8
-0.080535077 3.3430684 -0.77203202 54 1
-0.087650687 3.6918919 0.19353838 2 9
-0.086680479 3.705611 -0.72049481 3 2
-0.08666487 3.7327321 0.32665971 2 10
-0.084360354 3.6890395 -0.58443922 2 3
-0.084106952 3.734997 0.45871624 1 11
-0.082922988 3.7111967 -0.45579138 3 4
-0.081314981 3.6970112 0.58569074 3 12
-0.072135195 3.3324871 -0.29162312 34 5
-0.080788642 3.7626915 0.73156172 2 13
-0.078656912 3.7240577 -0.19521314 2 6
-0.078636348 3.7855854 0.87415981 4 14
-0.075755358 3.74123 1.002665 1 15
-0.06691467 3.7954988 -1.0171589 4 0
-0.065060079 3.7648644 0.065725766 1 8
-0.057195693 3.343549 -0.77203202 51 1
-0.062474854 3.7283595 0.19542249 3 9
-0.060743906 3.7021995 -0.71973157 3 2
-0.060342893 3.717309 0.32526523 2 10
-0.058854926 3.7053394 -0.5869422 2 3
-0.058093157 3.7394629 0.45920372 3 11
-0.056280226 3.6640482 -0.44994166 3 4
-0.054941401 3.6599607 0.57974619 1 12
-0.049041953 3.3448627 -0.292669 34 5
-0.054518137 3.7631638 0.73156172 2 13
-0.051980309 3.6765864 -0.19270101 2 6
-0.051991109 3.7704537 0.87056059 4 14
-0.051150877 3.7570796 -0.065586142 2 7
-0.049609177 3.7397358 1.0021474 1 15
-0.040333193 3.7881465 -1.0150883 3 0
-0.038484715 3.7372327 0.065237097 1 8
-0.033930834 3.3516612 -0.77383161 51 1
-0.036405433 3.7247105 0.19521314 3 9
-0.034897968 3.7025332 -0.71973157 3 2
-0.034758307 3.7574859 0.32875144 1 10
-0.032811277 3.6859069 -0.58381349 2 3
-0.031951416 3.7358072 0.45871624 3 11
-0.030915163 3.6901572 -0.45311025 2 4
-0.029735878 3.7037122 0.58662933 3 12
-0.025597412 3.3331695 -0.29162312 34 5
-0.02800923 3.7320418 0.72545588 2 13
-0.026340213 3.6808541 -0.19291034 2 6
-0.025640585 3.7668276 0.86966079 4 14
-0.024920268 3.7573452 -0.065586142 2 7
-0.023451135 3.7322638 1.0000768 1 15
-0.020865174 5.6931286 -1.5254794 3 0
-0.01228865 3.7054155 0.064678617 2 8
-0.01055389 3.3596115 -0.77563125 51 1
-0.010436409 3.7368572 0.19584116 2 9
-0.0090293726 3.6948338 -0.71820509 3 2
-0.0085071819 3.7496676 0.32805422 1 10
-0.0070931693 3.6939478 -0.58506501 3 3
-0.0058742417 3.7399092 0.45920372 3 11
-0.0051235184 3.668447 -0.45042911 3 4
-0.0038452691 3.6722236 0.58162344 3 12
-0.0023213162 3.3252974 -0.29092586 37 5
-0.0019478179 3.7203667 0.72316611 2 13
-0.00064166699 3.676954 -0.19270101 2 6
0.00066176517 3.8019922 0.87775904 4 14
0.0013115554 3.7574277 -0.065586142 2 7
0.0026149908 3.7458596 1.0037004 1 15
0.018903775 5.7008629 -1.5275501 3 0
0.013551011 3.6974123 0.064539 2 8
0.012841014 3.3440135 -0.77203202 54 1
0.015601833 3.7248557 0.19521314 2 9
0.016836917 3.7105126 -0.72125804 4 2
0.017518636 3.7177575 0.32526523 2 10
0.018597398 3.674154 -0.5819363 2 3
0.020149466 3.7239785 0.45725381 3 11
0.020588728 3.686259 -0.45262277 2 4
0.022049667 3.7156184 0.58850652 1 12
0.020929659 3.3312094 -0.2914488 39 5
0.024253495 3.7556274 0.73003525 2 13
0.024999386 3.6728745 -0.19249167 2 6
0.026983351 3.7707157 0.87056059 4 14
0.027541524 3.7573268 -0.065586142 2 7
0.028765958 3.74575 1.0037004 1 15
0.038889885 3.7765701 -1.0119824 5 0
0.03966153 3.7252214 0.065027662 3 8
0.036269069 3.3516369 -0.77383161 42 1
0.041695081 3.7326443 0.19563182 2 9
0.042358082 3.6769319 -0.71477056 3 2
0.044171978 3.7773125 0.33049458 1 10
0.044627991 3.705538 -0.5869422 2 3
0.046145469 3.7237473 0.45725381 3 11
0.045849208 3.6483114 -0.44799173 2 4
0.047834199 3.7035229 0.58662933 1 12
0.04415895 3.32899 -0.29127449 37 5
0.050312035 3.743588 0.72774553 2 13
0.050311573 3.6486456 -0.1912356 2 6
0.053252157 3.7665384 0.86966079 4 14
0.053773731 3.7570431 -0.065586142 2 7
0.054717269 3.7319365 1.0000768 1 15
0.065454639 3.7877958 -1.0150883 4 0
0.065736227 3.7288527 0.065097481 2 8
0.059667025 3.3513021 -0.77383161 48 1
0.068189636 3.7562253 0.19688788 2 9
0.068170391 3.6843979 -0.71629703 3 2
0.069501534 3.7211347 0.32561383 1 10
0.069968589 3.6774859 -0.58256203 2 3
0.072448641 3.7392123 0.45920372 1 11
0.2532934 12.956207 -1.5911263 2 4
0.0736885 3.7030985 0.58662933 3 12
0.066977635 3.3365803 -0.29197174 35 5
0.076045118 3.7235172 0.72392935 2 13
0.076238967 3.6701703 -0.19238698 2 6
0.079703405 3.8050551 0.87865883 4 14
0.080001526 3.7565763 -0.065586142 2 7
0.080266319 3.7082868 0.99386519 1 15
0.091332704 3.7640712 -1.0088767 4 0
0.091606602 3.7483101 0.065446526 2 8
0.083060466 3.3508039 -0.77383161 48 1
0.092557907 3.7077551 0.19437577 2 9
0.093148403 3.6799233 -0.71553379 3 2
0.09568093 3.7285259 0.32631108 2 10
0.095304996 3.6887729 -0.58443922 2 3
0.097795099 3.7346637 0.45871624 1 11
0.34358063 12.94817 -1.590395 2 4
0.099473201 3.7242324 0.59007084 3 12
0.090377502 3.3400145 -0.29232034 34 5
0.10257798 3.7425206 0.72774553 2 13
0.10143784 3.6775525 -0.19280569 2 6
0.10409107 3.7264867 0.86066276 4 14
0.10509299 3.7159481 -0.064888045 2 7
0.10644197 3.7404826 1.002665 1 15
0.11647359 3.7479148 -1.0047356 4 0
0.11689314 3.7195971 0.064957857 2 8
0.1059915 3.3540564 -0.77473146 45 1
0.11920604 3.7309732 0.19563182 2 9
0.11883684 3.6791832 -0.71553379 3 2
0.12015269 3.6999092 0.32387072 2 10
0.12105516 3.6880176 -0.58443922 2 3
0.12426049 3.7457938 0.4601787 1 11
0.43170825 12.945531 -1.590395 2 4
0.12560387 3.727396 0.59069663 3 12
0.11284044 3.3313572 -0.29162312 37 5
0.12939133 3.780978 0.73537791 2 13
0.12779959 3.6967154 -0.19385241 2 6
0.13080572 3.7646432 0.86966079 4 14
0.13066481 3.7231405 -0.065027662 2 7
0.13241422 3.7357869 1.0016297 1 15
0.14337099 3.766315 -1.009912 3 0
0.1423618 3.7227116 0.065027662 1 8
0.12925434 3.34934 -0.77383161 51 1
0.14506346 3.7420502 0.19625986 3 9
0.14357062 3.6704421 -0.71400726 3 2
0.14676391 3.7188888 0.32561383 2 10
0.1466254 3.698951 -0.58631647 2 3
0.14927855 3.7329602 0.45871624 1 11
0.5217545 12.934268 -1.5894201 2 4
0.15041284 3.7126379 0.58850652 3 12
0.13625763 3.3344696 -0.29197174 33 5
0.15497595 3.7603664 0.73156172 2 13
0.15163794 3.663831 -0.19217765 2 6
0.15740974 3.7714262 0.87146038 4 14
0.15799944 3.7541046 -0.065586142 2 7
0.15743203 3.7251484 0.99904156 1 15
0.16865772 3.7575321 -1.0078415 3 0
0.16870922 3.7296176 0.065167286 2 8
0.15187283 3.3444891 -0.77293181 54 1
0.16844541 3.6810908 0.19311969 2 9
0.16900901 3.6654282 -0.71324408 3 2
0.17299718 3.7377062 0.32735696 2 10
0.48015514 10.296327 -1.6325504 3 3
0.17514956 3.7278614 0.45822877 3 11
0.17215149 3.6504982 -0.44872296 2 4
0.17539085 3.691766 0.58537781 1 12
0.15972377 3.3374171 -0.29232034 38 5
0.18207552 3.7906003 0.73766762 2 13
0.17817782 3.6826322 -0.19322437 2 6
0.18259716 3.7468781 0.86606157 4 14
0.18514544 3.7586899 1.0083591 1 15
0.19568688 3.7716973 -1.0119824 3 0
0.19307205 3.6963975 0.064608812 1 8
0.17562602 3.3511317 -0.77473146 51 1
0.195822 3.7117372 0.19479445 3 9
0.19501266 3.6720009 -0.71477056 3 2
0.19972135 3.7483449 0.32840282 2 10
0.19762218 3.6847081 -0.58443922 2 3
0.20138466 3.7305119 0.45871624 1 11
0.19645345 3.627403 -0.44604182 2 4
0.20029984 3.6746721 0.58287489 1 12
0.18225394 3.3222952 -0.29110017 39 5
0.20637684 3.7500312 0.73003525 2 13
0.20299779 3.6653452 -0.19238698 2 6
0.21829374 3.9167356 0.90565288 4 14
0.20921129 3.7187297 0.99800628 1 15
0.22042187 3.7432399 -1.0047356 3 0
0.21958256 3.7069368 0.064818241 1 8
0.19901545 3.349824 -0.77473146 54 1
0.22244491 3.7222419 0.19542249 3 9
0.21864066 3.6372347 -0.70828301 2 2
0.22252776 3.6911736 0.32352212 1 10
0.62243885 10.264957 -1.6287959 3 3
0.22742186 3.7290154 0.45871624 3 11
0.7889291 12.898847 -1.5867389 2 4
0.22667494 3.685014 0.58475208 1 12
0.20547885 3.3309205 -0.29197174 38 5
0.2320639 3.7406609 0.72850877 2 13
0.2283348 3.6598518 -0.19217765 2 6
0.23740293 3.7945731 0.87775904 4 14
0.23593099 3.7500136 -0.065586142 2 7
0.23394807 3.6978984 0.99282992 1 15
0.24756542 3.7570314 -1.0088767 3 0
0.24560082 3.7173281 0.065027662 2 8
0.22291338 3.3561308 -0.77653104 57 1
0.24618375 3.6967275 0.19416642 2 9
0.24444087 3.6513333 -0.71133596 2 2
0.25123647 3.7332635 0.32735696 1 10
0.24840561 3.6816332 -0.58443922 2 3
0.25172642 3.7115364 0.45676634 1 11
0.88044 12.914812 -1.5894201 2 4
0.25175461 3.6833856 0.58475208 3 12
0.22872648 3.3294051 -0.29197174 37 5
0.25871396 3.7467844 0.73003525 2 13
0.25599822 3.6980627 -0.19427109 2 6
0.26253569 3.7733827 0.87326002 4 14
0.26181364 3.7347629 1.0031826 1 15
0.41201189 5.6646805 -1.521856 2 0
0.27183819 3.7195117 0.065097481 2 8
0.24489841 3.3428745 -0.77383161 51 1
0.27374524 3.718821 0.19542249 1 9
0.2723878 3.6828222 -0.71782345 3 2
0.27634582 3.727493 0.32700834 1 10
0.27439567 3.6837492 -0.58506501 2 3
0.27881512 3.7255254 0.45871624 1 11
0.96983665 12.898453 -1.5882014 3 4
0.28132144 3.732753 0.59288669 3 12
0.25151324 3.3217671 -0.2914488 39 5
0.28367564 3.7292259 0.7269823 2 13
0.28150564 3.6922023 -0.19406174 2 6
0.2879813 3.7597992 0.87056059 4 14
0.2872884 3.7251396 1.0011121 1 15
0.4574624 5.7232099 -1.5384204 2 0
0.29747927 3.7135365 0.065027662 2 8
0.26975092 3.3526914 -0.77653104 57 1
0.30356696 3.7565823 0.19751592 1 9
0.29825056 3.6827877 -0.71820509 4 2
0.30204296 3.7135053 0.32596248 2 10
0.30107063 3.6856291 -0.58569074 3 3
0.30481741 3.7234881 0.45871624 1 11
1.0567707 12.853777 -1.5835704 2 4
0.30444917 3.6873336 0.5860036 1 12
0.27551886 3.3298581 -0.29232034 35 5
0.31100243 3.7428069 0.73003525 2 13
0.30592626 3.6662095 -0.19280569 2 6
0.31389606 3.7538135 0.86966079 4 14
0.31491145 3.7345386 1.0042179 2 15
0.32502154 3.7375505 -1.0052532 2 0
0.327176 3.7471712 0.065655954 2 8
0.29281086 3.346844 -0.77563125 60 1
0.32908639 3.7464132 0.19709724 2 9
0.32459638 3.6805592 -0.71820509 3 2
0.32813612 3.7132905 0.32613677 2 10
0.32609552 3.6755667 -0.58443922 3 3
0.32969308 3.7014389 0.45627886 3 11
1.1528339 12.917267 -1.592345 2 4
0.32912648 3.6733134 0.58412635 3 12
0.29982787 3.3397601 -0.29336622 33 5
0.33959177 3.7679188 0.73537791 2 13
0.32953405 3.6421039 -0.19165429 2 6
0.34326193 3.7864649 0.87775904 4 14
0.34054458 3.7419639 -0.065586142 2 7
0.3404485 3.7264776 1.002665 1 15
0.35182983 3.7428837 -1.0073237 2 0
0.35342464 3.7528207 0.065795571 2 8
0.31653589 3.3485982 -0.77653104 60 1
0.35119033 3.7082958 0.19521314 2 9
0.34852695 3.6665375 -0.71591538 3 2
0.35669923 3.738677 0.32857716 2 10
0.35298643 3.6929262 -0.58756793 2 3
0.35601607 3.7109652 0.45774129 3 11
1.2389898 12.867408 -1.5872264 2 4
0.356776 3.6985154 0.58850652 1 12
0.32352048 3.3415515 -0.29371485 28 5
0.35943282 3.6990187 0.72240293 2 13
0.35896173 3.6874852 -0.19416642 2 6
0.36779317 3.7645812 0.87326002 4 14
0.3663708 3.7298417 1.0042179 1 15
0.37749082 3.7423248 -1.0078415 3 0
0.37719902 3.7263877 0.065376714 2 8
0.33971497 3.3502436 -0.77743083 54 1
0.37868804 3.7216496 0.19605052 2 9
0.37471226 3.6698747 -0.71706021 3 2
0.37869483 3.7024672 0.32561383 2 10
0.37674069 3.6707213 -0.58443922 2 3
0.38435692 3.732085 0.46066615 3 11
1.3249111 12.84288 -1.5852765 2 4
0.38096243 3.6802156 0.5860036 3 12
0.34502372 3.3273818 -0.292669 33 5
0.38907269 3.7394459 0.73079848 2 13
0.38614818 3.6987946 -0.19489913 2 6
0.39543626 3.7813721 0.87775904 4 14
0.39300612 3.7329571 1.0057708 1 15
0.40568274 3.7588048 -1.0130178 3 0
0.40470248 3.7436149 0.065725766 2 8
0.36225533 3.3400407 -0.77563125 54 1
0.40401 3.718986 0.19605052 2 9
0.40308881 3.6984661 -0.72316611 3 2
0.40366569 3.6918111 0.3249166 2 10
0.40645078 3.711272 -0.59132236 2 3
0.41018337 3.7333288 0.46115363 1 11
0.40191874 3.6463668 -0.45042911 2 4
0.40903702 3.7050252 0.59038377 3 12
0.37043965 3.3446946 -0.29441211 28 5
0.42167342 3.795176 0.74224705 2 13
0.40667725 3.6543953 -0.19270101 2 6
0.42442009 3.8017597 0.88315785 4 14
0.41948494 3.7397943 1.0083591 1 15
0.43080896 3.7462852 -1.0104296 2 0
0.42918935 3.720758 0.065376714 2 8
0.38601008 3.3413022 -0.77653104 42 1
0.43107191 3.7199676 0.19625986 3 9
0.43067744 3.7052374 -0.72507423 3 2
0.42989028 3.6928608 0.32526523 2 10
1.1940653 10.226188 -1.6306731 2 3
0.43688798 3.7302978 0.46115363 1 11
1.5054916 12.834958 -1.5867389 2 4
0.43369263 3.6863089 0.58788079 1 12
0.39284837 3.3341119 -0.29371485 28 5
0.44308755 3.7492468 0.73385143 2 13
0.43610671 3.6791589 -0.19416642 2 6
0.44405928 3.7406497 0.86966079 4 14
0.4432576 3.7117598 1.0016297 1 15
0.45952749 3.7642801 -1.0161237 3 0
0.45596185 3.72966 0.065586142 1 8
0.41075027 3.3501315 -0.77923048 54 1
0.4529753 3.6891942 0.19479445 3 9
0.45492679 3.6944265 -0.72354776 3 2
0.46054643 3.7293169 0.32875144 1 10
0.45725745 3.6973934 -0.59007084 2 3
0.46520296 3.7508774 0.46407849 1 11
1.5926038 12.804439 -1.5843016 2 4
0.4577997 3.6754303 0.58662933 1 12
0.41636229 3.3332653 -0.29388916 27 5
0.46925142 3.746062 0.73385143 2 13
0.45965007 3.6642146 -0.19353838 2 6
0.47259364 3.7567935 0.87415981 4 14
0.47028023 3.7278814 -0.065586142 2 7
0.468995 3.7124903 1.002665 3 15
0.73722428 5.7153625 -1.5441145 4 0
0.49224922 3.8057129 0.066982336 1 8
0.43404505 3.3511233 -0.78013027 48 1
0.48129207 3.7057481 0.19584116 3 9
0.47918642 3.6794791 -0.72125804 4 2
0.48437291 3.7142422 0.32770559 2 10
0.48715702 3.7254503 -0.5950768 2 3
0.49034542 3.7396655 0.46310353 1 11
1.6763647 12.767714 -1.581133 2 4
0.48551053 3.6878123 0.58913231 3 12
0.43669623 3.3125763 -0.29232034 28 5
0.50040114 3.7856002 0.74224705 2 13
0.48731756 3.6767564 -0.19437577 2 6
0.50020725 3.7689438 0.87775904 4 14
0.49564254 3.7245944 -0.065586142 2 7
0.49745843 3.7282741 1.0078415 1 15
0.77293891 5.6794496 -1.5358323 4 0
0.50842047 3.7309444 0.065725766 1 8
0.45742974 3.3480113 -0.78013027 51 1
0.51300234 3.7498782 0.19835329 2 9
0.50688857 3.6955826 -0.72507423 4 2
0.50594842 3.6791887 0.3249166 2 10
0.50927067 3.6985652 -0.59132236 2 3
0.51307273 3.7165768 0.46066615 3 11
1.7651932 12.753733 -1.5808893 3 4
0.51114208 3.6883359 0.58975804 3 12
0.46200687 3.3252342 -0.29371485 28 5
0.52356529 3.7586808 0.73766762 2 13
0.5106796 3.6614852 -0.19374773 1 6
0.52218759 3.7344806 0.87056059 4 14
0.52255416 3.7228887 1.0073237 2 15
0.81103009 5.6702318 -1.534797 4 0
0.53445679 3.7273037 0.065725766 1 8
0.48020679 3.3448203 -0.78013027 57 1
0.53632373 3.7264364 0.19730657 2 9
0.53267628 3.6919539 -0.72507423 3 2
0.53810167 3.7249577 0.32927439 2 10
0.52998316 3.65973 -0.58569074 2 3
0.53729391 3.7011175 0.45920372 3 11
0.53280205 3.6656635 -0.45481643 2 4
0.54086822 3.7120435 0.59413815 1 12
0.48520848 3.321928 -0.29371485 28 5
0.54175323 3.7045224 0.72774553 2 13
0.5408625 3.6894491 -0.19542249 2 6
0.54881316 3.7346001 0.87146038 4 14
0.54694927 3.7174065 -0.065586142 2 7
0.54740465 3.7115054 1.0052532 1 15
0.85002488 5.6606102 -1.5337617 3 0
0.56284642 3.739301 0.066004999 2 8
0.50412869 3.3452401 -0.78103006 45 1
0.56172943 3.7186515 0.19709724 1 9
0.55990583 3.6978512 -0.7269823 3 2
0.56260061 3.711261 0.32840282 3 10
0.55848575 3.6754706 -0.58881938 2 3
0.5702948 3.7443755 0.46505347 1 11
0.55718148 3.6540053 -0.45384148 2 4
0.56497759 3.6964612 0.59226096 1 12
0.51231039 3.3440621 -0.2959809 31 5
0.57057714 3.7200558 0.73156172 2 13
0.56478566 3.6737387 -0.19479445 2 6
0.56774938 3.6844535 0.86066276 4 14
0.57288837 3.7134974 -0.065586142 2 7
0.57596117 3.7247753 1.009912 1 15
0.89192444 5.6698055 -1.5379028 3 0
0.59454209 3.7708361 0.066633284 2 8
0.52990133 3.3570383 -0.78462929 48 1
0.58455414 3.6949124 0.19605052 2 9
0.57740664 3.6414983 -0.71667862 3 2
0.58724523 3.6993723 0.32770559 2 10
0.58723724 3.69099 -0.59194809 2 3
0.59204525 3.712858 0.4616411 1 11
2.0284255 12.706482 -1.5799143 3 4
0.58640081 3.6651189 0.58788079 3 12
0.5343821 3.332535 -0.29528365 31 5
0.60649192 3.778012 0.74377352 2 13
0.5910539 3.67365 -0.19500379 1 6
0.60028279 3.7227256 0.87056059 4 14
0.59879947 3.7094076 -0.065586142 2 7
0.60349184 3.7301993 1.0125002 1 15
0.93085563 5.6596279 -1.5368675 3 0
0.61760074 3.7468629 0.066284239 2 8
0.55268884 3.349412 -0.78372949 54 1
0.61554897 3.7222693 0.19772527 2 9
0.61116248 3.6877358 -0.72660065 3 2
0.61436176 3.7030444 0.32840282 2 10
0.61104697 3.6751087 -0.59007084 2 3
0.62121415 3.7282155 0.46407849 1 11
2.122963 12.727256 -1.5843016 3 4
0.61718494 3.6921093 0.59288669 3 12
0.55862045 3.3346181 -0.29580659 30 5
0.62116325 3.7039819 0.73003525 2 13
0.61403835 3.6536772 -0.19416642 1 6
0.62755227 3.726131 0.87236023 4 14
0.62468141 3.7051365 -0.065586142 2 7
0.62823153 3.7182758 1.0104296 1 15
0.98014927 5.7101116 -1.5523967 3 0
0.63764191 3.7069862 0.065655954 2 8
0.57672 3.3493128 -0.78462929 57 1
0.6401636 3.7100084 0.19730657 3 9
0.63555479 3.6756411 -0.72507423 3 2
0.63612294 3.6751065 0.32631108 2 10
0.63466364 3.6590753 -0.58819366 2 3
0.64858484 3.7316113 0.46505347 1 11
2.2165279 12.739505 -1.587714 3 4
0.64837247 3.7188473 0.59789258 1 12
0.58120263 3.3267114 -0.29545796 27 5
0.6591807 3.7691758 0.74377352 2 13
0.64711559 3.6925814 -0.1964692 2 6
0.65489846 3.7293363 0.87415981 4 14
0.65484488 3.7176044 1.0114648 1 15
1.0216901 5.7126384 -1.5549849 2 0
0.66915166 3.7339377 0.066214427 2 8
0.6000886 3.3452048 -0.78462929 51 1
0.66958219 3.7251062 0.19835329 3 9
0.6653744 3.6943009 -0.7296536 3 2
0.67307669 3.7333207 0.33188906 2 10
0.66370326 3.673995 -0.59132236 2 3
0.67037767 3.703552 0.46212861 1 11
2.3011596 12.700281 -1.584789 3 4
0.67008644 3.6909063 0.59413815 1 12
0.60726607 3.3382549 -0.29685244 30 5
0.68266654 3.7490296 0.74072057 2 13
0.66499215 3.6447477 -0.19416642 2 6
0.69633609 3.8090205 0.89395547 4 14
0.68008417 3.7091422 1.0104296 1 15
0.69580269 3.7396357 -1.0192294 3 0
0.68933779 3.697722 0.065655954 1 8
0.62342948 3.3409336 -0.78462929 45 1
0.6933679 3.7085617 0.19772527 3 9
0.69078779 3.6876361 -0.72927201 2 2
0.69838762 3.7246144 0.33154044 2 10
0.6915248 3.6809204 -0.59319955 2 3
0.69474995 3.6909778 0.46115363 1 11
2.3941786 12.707316 -1.587714 3 4
0.69290614 3.6706095 0.59163523 1 12
0.63203609 3.3417649 -0.29754972 27 5
0.71393567 3.7711782 0.74606317 2 13
0.69265246 3.6517901 -0.19479445 2 6
0.73237038 3.8538425 0.90565288 4 14
0.70885724 3.7194848 1.0145707 1 15
1.0899866 5.6390171 -1.538938 3 0
0.721219 3.724231 0.066214427 2 8
0.64747852 3.3403263 -0.78552908 48 1
0.71848017 3.6997094 0.19751592 3 9
0.72063988 3.703922 -0.73346978 3 2
0.71523303 3.6727126 0.32735696 2 10
0.71569425 3.668247 -0.59194809 2 3
0.72278404 3.6977274 0.46261609 1 11
2.4874139 12.713668 -1.5906389 3 4
0.72155291 3.681191 0.59413815 1 12
0.65458274 3.3333609 -0.29720107 30 5
0.74024433 3.7661026 0.74606317 2 13
0.71735817 3.6429465 -0.1945851 1 6
0.74869829 3.7951026 0.89305568 4 14
0.73255754 3.7030749 1.0114648 1 15
0.74642754 3.7219801 -1.0171589 3 0
0.74483806 3.7073419 0.066004999 2 8
0.67385608 3.3510087 -0.7891283 48 1
0.75296891 3.7376776 0.1998187 2 9
0.74570382 3.6949515 -0.73270655 3 2
0.74480087 3.6871593 0.32910007 2 10
0.74206781 3.6670337 -0.59257382 2 3
0.75410306 3.7198281 0.46602839 1 11
2.579658 12.713504 -1.5928324 2 4
0.75116974 3.6954217 0.59726685 1 12
0.678846 3.3366377 -0.29789832 27 5
0.76102948 3.7339113 0.74072057 2 13
0.74357408 3.6417627 -0.19479445 1 6
0.7557829 3.6982734 0.87146038 4 14
0.7630477 3.7205801 1.0176765 1 15
0.7723937 3.7166781 -1.0171589 3 0
0.77249932 3.713933 0.066214427 2 8
0.69643909 3.3424072 -0.78822851 51 1
0.77757764 3.7285554 0.19960935 2 9
0.76642102 3.6686506 -0.72850877 3 2
0.77623755 3.7091715 0.33154044 2 10
0.76296175 3.6425636 -0.58944511 2 3
0.77777523 3.7068384 0.46505347 1 11
0.77702737 3.6968532 -0.46383476 2 4
0.77549309 3.686357 0.59664112 1 12
0.70212358 3.3318172 -0.29789832 30 5
0.78788954 3.7323489 0.74148381 2 13
0.77082109 3.6483421 -0.19542249 1 6
0.80095142 3.7844195 0.89305568 4 14
0.78875631 3.7171903 1.0181942 1 15
1.2060513 5.6113868 -1.5379028 4 0
