# .PCD v0.7 - Point Cloud Data file format
VERSION 0.7
FIELDS x y z intensity ring
SIZE 4 4 4 4 2
TYPE F F F F U
COUNT 1 1 1 1 1
WIDTH 1293
HEIGHT 1
VIEWPOINT 0 0 0 1 0 0 0
POINTS 1293
DATA ascii
-2.8933251 -16.663858 -2.6787841 7 3
-3.1916687 -18.306301 -2.2816379 12 4
-3.8465261 -21.926617 -1.1666733 30 6
-3.8745236 -21.995962 -0.38985187 36 7
-1.4635605 -8.1750555 -2.2253263 5 0
-1.7279691 -9.6229162 -2.2571588 8 1
-8.0169544 -44.556381 2.3725986 1 9
-2.1541154 -11.948137 -2.3599257 6 2
-8.1151552 -44.967064 3.9976597 0 10
-2.8791816 -15.922085 -2.5627096 5 3
-3.0855787 -17.012602 -2.1229641 15 4
-3.2299526 -17.755672 -1.5789135 33 5
-4.0016618 -21.911015 -1.1673013 20 6
-1.5209501 -8.1665373 -2.2258439 6 0
-1.7958207 -9.6144495 -2.2580585 8 1
-8.3398752 -44.606789 2.3782506 1 9
-2.2306931 -11.908112 -2.3549647 7 2
-8.3564835 -44.523548 3.9633203 2 10
-2.562218 -13.63843 -2.1979043 14 3
-2.5361958 -13.448165 -1.6803347 1 4
-3.3168056 -17.536921 -1.5614822 33 5
-3.279031 -17.287624 -0.92215961 18 6
-4.1774282 -21.940451 -0.38985187 36 7
-1.5761353 -8.1540995 -2.2253263 5 0
-1.8619658 -9.6058302 -2.2589586 10 1
-8.7683535 -45.151356 2.4104898 1 9
-2.3096473 -11.87105 -2.3507669 6 2
-2.6350517 -13.50582 -2.1794453 22 3
-2.941364 -15.033923 -1.8809316 16 4
-3.4775476 -17.708845 -1.5789135 33 5
-3.4305127 -17.421083 -0.93053341 18 6
-4.3266735 -21.911509 -0.38985187 36 7
-1.6277052 -8.1163788 -2.2180793 5 0
-1.9289794 -9.592598 -2.2589586 9 1
-9.0305014 -44.826679 2.3964636 0 9
-2.3944087 -11.864259 -2.3526752 7 2
-2.7030237 -13.357373 -2.158483 21 3
-2.8303232 -13.948862 -1.7476066 31 4
-3.5414557 -17.391287 -1.5527666 33 5
-3.5848145 -17.557173 -0.93911648 9 6
-4.4795389 -21.88077 -0.38985187 36 7
-1.6882592 -8.1237326 -2.2232556 7 0
-1.9966962 -9.5827112 -2.2598584 9 1
-9.9961748 -47.890739 2.5639386 0 9
-2.4755712 -11.839567 -2.3511486 7 2
-10.107822 -48.299187 4.3171725 1 10
-2.7872932 -13.295644 -2.1515999 17 3
-3.1179097 -14.834036 -1.8611888 10 4
-3.6956782 -17.522102 -1.5667117 33 5
-3.688288 -17.441833 -0.93430161 9 6
-1.7343695 -8.0626431 -2.2097969 5 0
-2.0619042 -9.5609188 -2.2580585 9 1
-10.348823 -47.905685 2.5685444 0 9
-2.561487 -11.837347 -2.3542016 7 2
-10.206495 -47.127251 4.2186866 0 10
-2.8884208 -13.314471 -2.1578572 27 3
-3.024802 -13.907986 -1.7476066 5 4
-3.8051715 -17.437473 -1.5614822 33 5
-3.8223433 -17.472242 -0.9373371 27 6
-1.7922919 -8.0578814 -2.2118676 4 0
-2.1294501 -9.5500956 -2.2589586 9 1
-10.660371 -47.730907 2.5631013 0 9
-2.6393502 -11.7981 -2.3500037 6 2
-10.767262 -48.091133 4.3115945 1 10
-2.9661736 -13.226519 -2.1469069 19 3
-3.1357572 -13.948505 -1.7554061 13 4
-3.9382131 -17.461018 -1.5660143 33 5
-3.8684714 -17.110058 -0.91933346 27 6
-1.8502322 -8.0527048 -2.2139382 4 0
-2.196944 -9.5387945 -2.2598584 9 1
-10.677278 -46.285236 2.4894123 0 9
-2.7185569 -11.765997 -2.3473325 7 2
-11.017006 -47.644032 4.2783008 0 10
-3.0602226 -13.213186 -2.1481583 18 3
-3.3672843 -14.50444 -1.828284 9 4
-4.1303964 -17.693354 -0.95220047 18 6
-1.9014384 -8.0248852 -2.2097969 5 0
-2.2627223 -9.5274115 -2.2607579 9 1
-10.957878 -46.067703 2.4816666 1 9
-2.8035858 -11.768228 -2.3515301 6 2
-11.348904 -47.600887 4.2812643 1 10
-3.1588068 -13.228557 -2.1541028 17 3
-3.6244209 -15.14337 -1.9118865 6 4
-5.212069 -21.709827 -1.9533345 33 5
-4.1918583 -17.42016 -0.93901187 18 6
-5.2366471 -21.712021 -0.38985187 36 7
-1.9500798 -7.9813886 -2.201515 4 0
-2.3236165 -9.4886694 -2.2553592 10 1
-11.374372 -46.378033 2.5026009 0 9
-2.8861437 -11.750276 -2.3519118 9 2
-11.771306 -47.888107 4.3143835 1 10
-3.2392759 -13.158229 -2.146281 18 3
-5.3021536 -21.489332 -2.7176867 31 4
-5.3491411 -21.614891 -1.9481051 34 5
-5.361063 -21.614508 -1.167092 40 6
-5.3880978 -21.674932 -0.38985187 36 7
-2.010469 -7.9863129 -2.2066913 5 0
-2.3888497 -9.4684372 -2.2544594 9 1
-11.869117 -46.975235 2.5392361 0 9
-2.9748483 -11.756486 -2.3572545 7 2
-3.3330011 -13.142953 -2.1475327 20 3
-5.4725823 -21.532598 -2.7279236 28 4
-5.4961481 -21.57798 -1.9481051 34 5
-5.517262 -21.597841 -1.1682433 30 6
-2.0739298 -8.0020046 -2.2149734 4 0
-2.4529343 -9.443984 -2.25266 8 1
-11.932345 -45.907513 2.4858534 1 9
-3.0572746 -11.745464 -2.3591626 6 2
-3.4233809 -13.123784 -2.1481583 18 3
-5.621768 -21.490028 -2.7274361 26 4
-5.6547384 -21.569921 -1.9508941 33 5
-5.665164 -21.563648 -1.1684526 30 6
-5.7003884 -21.636263 -0.39054993 36 7
-2.1193957 -7.9541016 -2.2056561 4 0
-2.5191703 -9.4345999 -2.2544594 9 1
-12.279376 -45.923424 2.4912963 0 9
-3.1275196 -11.680217 -2.3503854 7 2
-3.5164547 -13.105289 -2.149097 17 3
-5.8277082 -21.673635 -2.7557099 12 4
-5.8902497 -21.845404 -1.9794812 33 5
-5.8551569 -21.670111 -1.1764077 40 6
-2.1764057 -7.9447017 -2.2072091 6 0
-2.5818799 -9.405508 -2.25176 9 1
-3.2089851 -11.658097 -2.3503854 7 2
-3.6141641 -13.103272 -2.1528513 16 3
-3.6414776 -13.175381 -1.6783847 3 4
-6.0095072 -21.640253 -1.1770358 50 6
-6.0410471 -21.709734 -0.39334235 36 7
-2.2412384 -7.9627862 -2.2165263 6 0
-2.6464217 -9.383502 -2.2508602 10 1
-3.292433 -11.642967 -2.3519118 7 2
-3.7039366 -13.072019 -2.1519127 18 3
-6.1324625 -21.599705 -2.7569287 30 4
-6.163177 -21.607374 -1.1775591 40 6
-2.2876542 -7.9153957 -2.2077267 4 0
-2.7053597 -9.3423367 -2.2454615 9 1
-3.3719921 -11.614042 -2.3507669 6 2
-3.8011761 -13.066707 -2.1553543 16 3
-6.2836618 -21.55827 -2.7571721 34 4
-6.3155584 -21.569571 -1.1778731 40 6
-2.3219838 -7.8288522 -2.1880562 4 0
-2.7705154 -9.3232222 -2.2454615 8 1
-3.4490676 -11.577047 -2.3480957 7 2
-3.8889143 -13.028494 -2.1534772 17 3
-6.4659858 -21.524956 -1.1778731 40 6
-2.3630893 -7.7680931 -2.175633 3 0
-2.8355362 -9.3036528 -2.2454615 8 1
-3.5232022 -11.538281 -2.3450427 7 2
-3.9861736 -13.030057 -2.1581702 23 3
-5.673737 -18.500202 -2.3759649 8 4
-6.6288052 -21.53389 -1.1808039 41 6
-2.4055629 -7.7186303 -2.1663156 4 0
-2.8976362 -9.2804174 -2.2445617 9 1
-3.6024954 -11.509655 -2.3442793 7 2
-4.087091 -13.033953 -2.1634889 26 3
-5.8138103 -18.506609 -2.3818147 4 4
-6.7789731 -21.487089 -1.1808039 41 6
-6.7912793 -21.486864 -0.39334235 36 7
-2.4441113 -7.6538005 -2.1528571 5 0
-2.9635427 -9.2636738 -2.2454615 8 1
-3.6875551 -11.499182 -2.3473325 7 2
-4.1743608 -12.993818 -2.1616118 27 3
-5.9544234 -18.501471 -2.3864458 2 4
-6.9374151 -21.465847 -1.1822693 41 6
-2.4950831 -7.6292057 -2.1507864 4 0
-3.0245028 -9.2316475 -2.2427619 8 1
-3.7628443 -11.458235 -2.3442793 7 2
-4.2692919 -12.977494 -2.1638019 20 3
-6.0691504 -18.41609 -2.3808398 2 4
-7.0896163 -21.424479 -1.1826881 41 6
-7.0906177 -21.38995 -0.39334235 36 7
-2.5409226 -7.5896182 -2.1445746 5 0
-3.0901165 -9.2140036 -2.2436619 7 1
-3.837625 -11.423053 -2.3423715 6 2
-4.3562684 -12.944389 -2.1631761 20 3
-6.3517494 -18.830345 -2.4400682 3 4
-7.2365623 -21.379509 -1.1828974 51 6
-2.5912735 -7.5684924 -2.1435394 4 0
-3.1527624 -9.1927557 -2.2436619 8 1
-3.912811 -11.382986 -2.3397002 7 2
-4.4696817 -12.980901 -2.1744394 19 3
-6.2849464 -18.221815 -2.3667028 2 4
-6.3520637 -18.374775 -1.7009314 37 5
-7.3908715 -21.343565 -1.1837348 41 6
-2.6300004 -7.5101047 -2.1321514 3 0
-3.2142808 -9.163166 -2.2418623 8 1
-3.9882755 -11.34428 -2.3374104 7 2
-4.5765991 -12.995961 -2.182261 17 3
-6.4384198 -18.252377 -2.3764522 4 4
-6.4801888 -18.329983 -1.7009314 37 5
-7.5510306 -21.323452 -1.1855142 41 6
-7.6001649 -21.426542 -0.39683282 35 7
-2.6849716 -7.498836 -2.1342218 3 0
-3.2808049 -9.1478405 -2.2436619 7 1
-4.0660481 -11.312465 -2.336647 7 2
-4.6658778 -12.959976 -2.1816354 16 3
-6.5724206 -18.225657 -2.3788898 4 4
-6.5885606 -18.240477 -1.6967479 37 5
-7.7085452 -21.294632 -1.186875 41 6
-7.7495646 -21.372963 -0.39683282 35 7
-2.7306187 -7.4617672 -2.1290457 3 0
-3.3392234 -9.110075 -2.2400625 8 1
-4.1456604 -11.291899 -2.3381736 7 2
-4.7580752 -12.939042 -2.1835127 16 3
-6.7084236 -18.203545 -2.3820584 2 4
-6.7129812 -18.18656 -1.6960508 56 5
-7.8553958 -21.24729 -1.187189 41 6
-2.7854028 -7.4538651 -2.1321514 3 0
-3.4025221 -9.090786 -2.2409625 8 1
-4.2230134 -11.259005 -2.3374104 7 2
-4.8260603 -12.846334 -2.1735008 17 3
-6.8416367 -18.172987 -2.3842521 2 4
-6.838376 -18.135525 -1.6957021 56 5
-2.8235078 -7.3940387 -2.1207633 3 0
-3.4647024 -9.0589247 -2.2391627 8 1
-4.2994061 -11.223748 -2.3362653 6 2
-4.9362683 -12.85942 -2.1816354 17 3
-6.977602 -18.148867 -2.3874207 2 4
-6.9662504 -18.091059 -1.6960508 75 5
-2.8610239 -7.3381486 -2.1104105 3 0
-3.5321128 -9.0454073 -2.2418623 8 1
-4.3733659 -11.182489 -2.3339758 6 2
-5.0259223 -12.824645 -2.1816354 17 3
-7.1048603 -18.101561 -2.3876643 4 4
-7.0872784 -18.029005 -1.6948305 93 5
-2.9109061 -7.3185043 -2.1104105 4 0
-3.5921605 -9.0175352 -2.2409625 8 1
-4.4508367 -11.156109 -2.334739 6 2
-5.1321239 -12.844226 -2.1907084 18 3
-7.2225442 -18.048513 -2.3869331 2 4
-7.2150221 -17.993292 -1.6960508 37 5
-2.9637358 -7.3097796 -2.1135163 3 0
-3.6474879 -8.9826794 -2.2382631 7 1
-4.5173321 -11.108158 -2.3309228 6 2
-5.1978145 -12.755945 -2.1816354 17 3
-7.3549781 -18.022827 -2.3901019 4 4
-7.3236451 -17.919224 -1.6936104 56 5
-3.0030909 -7.2644429 -2.1062696 4 0
-3.7085457 -8.9576435 -2.2382631 8 1
-4.5988526 -11.091661 -2.3339758 4 2
-5.2891173 -12.737611 -2.1844511 19 3
-7.4720597 -17.968153 -2.3893704 2 4
-7.4707355 -17.929649 -1.6993626 93 5
-3.0545189 -7.234581 -2.1041989 3 0
-3.7771852 -8.9331493 -2.2391627 8 1
-4.6762357 -11.037941 -2.3301597 6 2
-5.4029808 -12.734806 -2.1910214 17 3
-7.6137052 -17.919376 -2.3905892 4 4
-7.5996227 -17.860245 -1.6981425 75 5
-8.9551678 -20.974812 -0.39808941 35 7
-3.1003678 -7.2024341 -2.1010931 3 0
-3.837914 -8.9029827 -2.2382631 7 1
-4.7535944 -11.011261 -2.3313043 7 2
-5.4785638 -12.67235 -2.1866412 17 3
-7.7244186 -17.832998 -2.3862021 2 4
-7.7130256 -17.781166 -1.6957021 75 5
-3.144666 -7.170548 -2.0979872 4 0
-3.8952916 -8.8695154 -2.2364633 9 1
-4.8287692 -10.974214 -2.3305411 7 2
-5.5947776 -12.697062 -2.1975915 19 3
-7.868865 -17.832674 -2.3932703 2 4
-7.8556218 -17.777456 -1.7004085 93 5
-9.2953806 -20.966345 -0.4003233 35 7
-3.1914949 -7.141366 -2.0959167 3 0
-3.9587095 -8.8456621 -2.2373631 9 1
-4.9073715 -10.950049 -2.3324494 6 2
-5.7207055 -12.746994 -2.2129223 16 3
-5.9661803 -13.269159 -1.786361 4 4
-7.9909902 -17.747614 -1.7028488 94 5
-9.4415274 -20.90094 -0.4003233 35 7
-3.2304289 -7.0983758 -2.089705 4 0
-4.0236759 -8.8291512 -2.2400625 9 1
-4.983696 -10.915524 -2.3324494 6 2
-5.8309126 -12.753454 -2.2210569 16 3
-5.966289 -13.031505 -1.7597934 3 4
-8.1188507 -17.700451 -1.7037203 37 5
-9.5835743 -20.836191 -0.4003233 35 7
-3.2831554 -7.0826616 -2.0917757 3 0
-4.0884981 -8.8079166 -2.2418623 9 1
-5.0448766 -10.848421 -2.3255801 6 2
-5.9448233 -12.766158 -2.2304428 17 3
-8.2098312 -17.606037 -2.385227 2 4
-8.2439117 -17.64695 -1.704069 75 5
-3.3176775 -7.0281224 -2.0824583 3 0
-4.1532207 -8.7862062 -2.2436619 9 1
-5.1238513 -10.820035 -2.3271067 6 2
-6.0380321 -12.733271 -2.2320073 21 3
-8.3648968 -17.616436 -2.394489 16 4
-8.368618 -17.592567 -1.7044177 75 5
-3.3616409 -6.9943423 -2.0793524 4 0
-4.2110782 -8.7499733 -2.2418623 9 1
-5.1967063 -10.778695 -2.3259618 7 2
-6.2152376 -12.874035 -2.2642329 16 3
-8.5118704 -17.607651 -2.4013138 13 4
-8.499917 -17.551645 -1.7061608 75 5
-10.105178 -20.810801 -0.40381378 35 7
-3.4086895 -6.9672337 -2.0783172 3 0
-4.2720599 -8.7203627 -2.2418623 9 1
-5.2640452 -10.726291 -2.3225272 6 2
-6.321517 -12.864017 -2.2701774 19 3
-8.6030369 -17.483679 -2.3925393 19 4
-8.6209526 -17.496958 -1.7065095 75 5
-3.4422622 -6.9161978 -2.0700347 4 0
-11.548456 -23.182884 0.45208713 51 8
-4.3295808 -8.6875935 -2.2409625 8 1
-5.3360553 -10.688455 -2.3221457 7 2
-6.2561259 -12.515015 -2.2160509 17 3
-8.7594862 -17.477058 -1.7103442 76 5
-3.4997301 -6.91329 -2.0762465 3 0
-4.3886151 -8.6579218 -2.2409625 9 1
-5.3926864 -10.620378 -2.3152766 9 2
-6.3590732 -12.507358 -2.2223082 17 3
-9.0576916 -17.784397 -2.4505491 9 4
-8.8776646 -17.408381 -1.7096471 76 5
-3.5243337 -6.8399863 -2.0617526 3 0
-4.4522438 -8.6297588 -2.2418623 9 1
-5.4648967 -10.57898 -2.3145132 7 2
-6.4992504 -12.559779 -2.2398291 16 3
-9.2135916 -17.782417 -2.45908 6 4
-10.748799 -20.727684 3.6981113 10 12
-9.0081577 -17.363663 -1.7113901 76 5
-10.778664 -20.758673 4.546597 15 13
-9.1482372 -17.603601 -1.0397062 9 6
-3.5630317 -6.7981043 -2.0565763 3 0
-4.5105696 -8.5950165 -2.2409625 9 1
-10.870653 -20.696762 1.2251849 19 9
-5.5304074 -10.520491 -2.3103154 6 2
-10.870723 -20.670597 2.0432792 17 10
-6.5518103 -12.447677 -2.2279398 16 3
-10.887842 -20.668114 2.8683171 18 11
-10.776686 -20.448454 -2.8380935 21 4
-10.901538 -20.667864 3.700927 21 12
-9.1477556 -17.335592 -1.7148763 57 5
-10.930659 -20.696806 4.5496502 17 13
-10.861329 -20.548161 -1.2180672 31 6
-3.6104047 -6.7730641 -2.0565763 3 0
-10.988489 -20.605576 0.4076184 43 8
-4.5704646 -8.5633173 -2.2409625 9 1
-11.01598 -20.631102 1.2257082 19 9
-5.6157699 -10.508575 -2.3160398 7 2
-11.058926 -20.676779 2.0514719 19 10
-6.6531625 -12.434142 -2.2335715 16 3
-11.087315 -20.703773 2.8836725 2 11
-10.986693 -20.498695 -2.8556428 21 4
-9.3005857 -17.330999 -1.720803 38 5
-11.370289 -21.169996 4.6710043 4 13
-11.025523 -20.519497 -1.2207886 41 6
-3.64538 -6.7279491 -2.0503645 3 0
-4.6342225 -8.5422859 -2.2436619 9 1
-5.6796231 -10.451863 -2.3122237 7 2
-6.7426391 -12.392597 -2.2345102 19 3
-11.101279 -20.378113 -2.8493054 12 4
-11.506599 -21.078323 4.6679516 7 13
-11.166588 -20.43852 -1.2205793 10 6
-3.6810753 -6.6820307 -2.044153 5 0
-4.6918635 -8.5063114 -2.2427619 9 1
-5.7458897 -10.404368 -2.3103154 6 2
-6.8488216 -12.386174 -2.2417061 17 3
-11.360612 -20.511972 -2.8790414 25 4
-11.402407 -20.536655 -1.2310464 10 6
-3.709486 -6.6264777 -2.0348353 4 0
-4.7496538 -8.4741793 -2.2427619 8 1
-5.8116579 -10.352017 -2.3076441 9 2
-6.9602928 -12.382832 -2.2498407 16 3
-11.918611 -21.178047 -2.9838493 7 4
-25.75428 -45.631973 -2.7460678 0 6
-3.7652111 -6.6172099 -2.0400119 4 0
-4.8106284 -8.4442005 -2.2436619 9 1
-5.8662705 -10.280499 -2.3007751 7 2
-7.074986 -12.383678 -2.258914 20 3
-12.086864 -21.13051 -2.9889677 9 4
-27.08987 -47.225101 -2.8532519 0 6
-3.8035793 -6.577383 -2.0358706 4 0
-4.8616509 -8.3969183 -2.2400625 9 1
-5.9438081 -10.249486 -2.3030648 7 2
-7.1612682 -12.333984 -2.258914 23 3
-12.208149 -21.000992 -2.9826305 9 4
-3.8474464 -6.547339 -2.0348353 3 0
-4.9241047 -8.3694925 -2.2418623 9 1
-6.010447 -10.203713 -2.3019197 6 2
-7.2360258 -12.269639 -2.2560983 17 3
-7.495265 -12.688962 -1.8095162 12 4
-3.8899436 -6.5176811 -2.0338001 3 0
-4.984961 -8.3424721 -2.2436619 9 1
-6.0744762 -10.149714 -2.2992485 7 2
-7.3367381 -12.244241 -2.2607911 8 3
-12.486335 -20.81365 -2.9801931 9 4
-3.9193246 -6.4639344 -2.0255179 3 0
-5.0430784 -8.3074675 -2.2436619 9 1
-6.1421275 -10.102027 -2.2981036 6 2
-7.4076571 -12.169102 -2.2564111 9 3
-12.623072 -20.712412 -2.9782434 11 4
-26.777588 -43.817123 -2.6912198 0 6
-3.9704349 -6.4462843 -2.0286238 3 0
-5.1029987 -8.2753763 -2.2445617 9 1
-6.2073445 -10.050548 -2.2961955 7 2
-7.4758115 -12.090209 -2.2514052 9 3
-12.792438 -20.664293 -2.9840932 9 4
-4.0102186 -6.4102197 -2.0260355 2 0
-5.1482344 -8.2197304 -2.2391627 8 1
-6.2825761 -10.015285 -2.2981036 6 2
-7.5642366 -12.044413 -2.2526565 9 3
-12.944842 -20.587925 -2.986043 9 4
-26.283232 -41.688652 -2.5827796 0 6
-4.0340791 -6.3517909 -2.0162005 2 0
-5.2061539 -8.1877861 -2.2400625 8 1
-6.3527117 -9.9755993 -2.2988667 6 2
-7.678966 -12.044281 -2.2623556 13 3
-13.102837 -20.527781 -2.9901865 7 4
-4.0961246 -6.3510723 -2.0250003 2 0
-5.2674174 -8.1577902 -2.2418623 9 1
-6.4087396 -9.9139919 -2.2946692 7 2
-7.7811599 -12.023244 -2.2683001 12 3
-12.899243 -19.901089 -2.9119463 11 4
-4.1043434 -6.2697048 -2.0079181 2 0
-5.3185506 -8.1152267 -2.2400625 9 1
-6.4896464 -9.887063 -2.2988667 6 2
-7.9310818 -12.06933 -2.287385 14 3
-13.322432 -20.250647 -2.9762933 9 4
-4.1405282 -6.2296357 -2.0042949 2 0
-5.3729172 -8.0746536 -2.2391627 8 1
-6.5585132 -9.8415165 -2.2988667 6 2
-8.1083355 -12.15334 -2.3139789 9 3
-13.467892 -20.163744 -2.9772682 9 4
-25.019957 -37.360268 -2.3564789 0 6
-4.1828365 -6.1989779 -2.0037773 3 0
-5.4247942 -8.0304871 -2.2373631 8 1
-6.6270576 -9.7954903 -2.2988667 6 2
-8.8831167 -13.115377 -2.5088961 4 3
-13.473533 -19.870428 -2.9477761 6 4
-4.2150946 -6.1536865 -1.9986008 4 0
-5.4763155 -7.9859934 -2.2355635 8 1
-6.6991353 -9.7582474 -2.3007751 7 2
-8.9811363 -13.067633 -2.5113993 4 3
-13.470111 -19.569849 -2.9170649 6 4
-4.2414484 -6.102644 -1.9913538 5 0
-5.5327735 -7.9517303 -2.2364633 8 1
-6.7670979 -9.7112408 -2.3007751 7 2
-9.077796 -13.012716 -2.5129635 6 3
-13.579139 -19.443529 -2.9119463 9 4
-24.303495 -34.708984 -2.2206147 0 6
-4.2928567 -6.0855145 -1.995495 4 0
-5.5948973 -7.922462 -2.2391627 8 1
-6.8489103 -9.687396 -2.3061175 7 2
-9.1718664 -12.958687 -2.514528 5 3
-13.691585 -19.315868 -2.9070716 9 4
-24.423523 -34.379932 -2.2101476 0 6
-4.3139424 -6.0278749 -1.9861774 4 0
-5.6396127 -7.8715234 -2.2355635 8 1
-6.9095049 -9.629777 -2.303828 7 2
-9.2678709 -12.902364 -2.5160923 6 3
-13.789005 -19.168245 -2.899272 9 4
-24.749371 -34.32848 -2.2178934 0 6
-4.3774056 -6.0249829 -1.995495 4 0
-5.6935024 -7.8278127 -2.2346637 8 1
-6.9754095 -9.5797176 -2.3034463 6 2
-9.3576345 -12.832518 -2.5154665 6 3
-13.875672 -19.007381 -2.8895223 8 4
-25.025051 -34.192402 -2.2206147 0 6
-4.4010196 -5.9693975 -1.9872128 3 0
-5.7410698 -7.7784677 -2.2319643 7 1
-7.0496159 -9.5374508 -2.3053544 7 2
-9.4375925 -12.754176 -2.5129635 7 3
-13.992666 -18.889315 -2.886354 6 4
-25.339365 -34.11948 -2.2273138 0 6
-4.4356413 -5.9292464 -1.9841069 3 0
-5.7999039 -7.7444377 -2.2337639 8 1
-7.1143727 -9.4892454 -2.3053544 9 2
-9.4945431 -12.650144 -2.5051417 5 3
-14.071716 -18.721348 -2.8756292 6 4
-4.4642205 -5.8835268 -1.9789305 3 0
-5.8477697 -7.6985726 -2.2319643 7 1
-7.1602383 -9.4127846 -2.2988667 6 2
-9.5467234 -12.536404 -2.4957557 5 3
-14.179567 -18.599871 -2.8717294 6 4
-25.972322 -33.982685 -2.2415493 0 6
-4.5004725 -5.8460946 -1.9768599 3 0
-5.9061313 -7.663734 -2.2337639 8 1
-7.2329741 -9.371892 -2.3011565 6 2
-9.6267624 -12.460073 -2.4938784 5 3
-14.243487 -18.415636 -2.8585675 6 4
-26.299498 -33.917332 -2.2492948 0 6
-4.5340424 -5.8053975 -1.9737542 3 0
-5.9570894 -7.6192441 -2.2328641 7 1
-7.2473927 -9.2562456 -2.2851286 5 2
-9.7122965 -12.391007 -2.4935656 6 3
-14.342294 -18.278267 -2.8527179 6 4
-26.614676 -33.833366 -2.2559941 0 6
-4.5576649 -5.7524037 -1.9665072 4 0
-6.0004492 -7.5652561 -2.229265 8 1
-7.305347 -9.2005491 -2.2836022 6 2
-9.8025599 -12.332341 -2.4951301 5 3
-14.437411 -18.13731 -2.8463807 6 4
-26.921577 -33.74823 -2.2624836 0 6
-4.5894537 -5.7122126 -1.9634014 3 0
-6.0518031 -7.5242381 -2.229265 7 1
-7.3496943 -9.1248617 -2.2774963 6 2
-9.8809757 -12.254383 -2.4932528 5 3
-14.533099 -18.004637 -2.8410182 6 4
-4.6145749 -5.6620626 -1.9571897 3 0
-6.1017213 -7.478785 -2.2283652 7 1
-7.3967328 -9.0563774 -2.2729168 6 2
-9.9591608 -12.180722 -2.4920013 5 3
-14.637063 -17.876629 -2.836875 8 4
-4.6431623 -5.618609 -1.9530486 4 0
-6.1723595 -7.4611053 -2.2355635 7 1
-7.4447474 -8.9863749 -2.2683375 6 2
-10.021255 -12.083529 -2.4863696 4 3
-14.777422 -17.799496 -2.8405309 6 4
-4.6773114 -5.5801334 -1.9509782 3 0
-6.2844253 -7.4894862 -2.2571588 9 1
-7.5249853 -8.955224 -2.27368 6 2
-10.085024 -11.989087 -2.4813638 4 3
-14.862967 -17.650343 -2.8332188 6 4
-4.7111478 -5.5414577 -1.9489075 3 0
-6.3491874 -7.4602714 -2.261658 9 1
-7.5822277 -8.8964958 -2.2721536 6 2
-10.163349 -11.912377 -2.4801123 4 3
-14.960043 -17.515961 -2.8283439 6 4
-4.7497211 -5.5084314 -1.9489075 3 0
-6.4163957 -7.4334645 -2.2670567 8 1
-7.6261754 -8.8225517 -2.2668109 6 2
-10.243676 -11.838148 -2.4794865 4 3
-15.076759 -17.405094 -2.827369 6 4
-4.7651687 -5.4489627 -1.93959 3 0
-6.4758353 -7.3972878 -2.2697561 8 1
-7.6824055 -8.7631912 -2.2652845 6 2
-10.292199 -11.72774 -2.4713519 4 3
-15.158604 -17.254673 -2.8200569 6 4
-4.8005285 -5.4126735 -1.9385546 3 0
-6.3901739 -7.1974292 -2.2220664 7 1
-7.73557 -8.7005405 -2.2629948 6 2
-10.358062 -11.637897 -2.4675977 4 3
-15.265484 -17.133606 -2.8176193 6 4
-4.8217607 -5.3626332 -1.9323431 3 0
-6.329505 -7.0320978 -2.1842747 7 1
-7.7867274 -8.6389351 -2.260705 4 2
-10.411895 -11.539256 -2.461653 4 3
-15.359135 -17.004257 -2.8134758 4 4
-4.8538747 -5.3231306 -1.9302725 4 0
-6.1997695 -6.7919955 -2.1230881 3 1
-7.8468466 -8.5843649 -2.260705 6 2
-10.474861 -11.447344 -2.4575858 4 3
-15.441266 -16.857098 -2.806895 6 4
-4.8751802 -5.2720942 -1.9240609 4 0
-6.182169 -6.6784735 -2.1010427 4 1
-7.9092569 -8.5322523 -2.2614682 4 2
-10.527654 -11.344975 -2.4513285 4 3
-15.511292 -16.697979 -2.7983642 4 4
-4.9145098 -5.2407484 -1.9250962 4 0
-6.2166395 -6.622364 -2.0969937 6 1
-7.9375715 -8.4467449 -2.2530727 6 2
-10.588387 -11.255789 -2.4475739 4 3
-15.628843 -16.590731 -2.7986078 6 4
-18.060507 -19.131874 -1.3788432 11 6
-4.9314346 -5.187573 -1.9178492 4 0
-6.2199268 -6.5361328 -2.0830467 5 1
-7.9936385 -8.3882818 -2.2523096 6 2
-10.631258 -11.144431 -2.4394393 4 3
-15.72359 -16.465302 -2.7954392 4 4
-18.073477 -18.879803 -1.3697368 22 6
-4.9514399 -5.1363297 -1.9116375 4 0
-6.2451062 -6.4715176 -2.0762982 6 1
-8.0492764 -8.3294468 -2.2515461 6 2
-10.673093 -11.033026 -2.4313047 5 3
-15.817441 -16.333738 -2.7917831 6 4
-18.242403 -18.791859 -1.372563 33 6
-4.9898777 -5.1044011 -1.9126729 4 0
-6.2560582 -6.3929424 -2.0650506 5 1
-8.1017323 -8.2674427 -2.2500198 6 2
-10.722188 -10.930044 -2.4250474 4 3
-15.924128 -16.215836 -2.7905643 4 4
-18.512285 -18.831673 -2.3103244 25 5
-18.450211 -18.742327 -1.3783199 22 6
-5.0199518 -5.0639515 -1.9106023 5 0
-6.2785754 -6.3269777 -2.0578523 5 1
-8.1550522 -8.2093182 -2.2492564 4 2
-10.800517 -10.861009 -2.4259858 4 3
-16.01874 -16.085983 -2.787396 6 4
-18.670471 -18.709614 -1.3852282 22 6
-5.0433502 -5.0187631 -1.9064611 4 0
-6.2966199 -6.2593646 -2.0497539 5 1
-8.2149496 -8.154954 -2.2500198 6 2
-10.838204 -10.747789 -2.4175384 4 3
-16.094017 -15.943046 -2.7815461 6 4
-18.88587 -18.663052 -1.3915086 22 6
-5.0713696 -4.9766669 -1.903873 6 0
-6.3206806 -6.196156 -2.0434554 4 1
-8.2492371 -8.075429 -2.2439139 4 2
-10.879081 -10.638714 -2.4100296 5 3
-16.189306 -15.81504 -2.7788651 4 4
-19.045223 -18.578978 -2.3277557 24 5
-19.112967 -18.625534 -1.3986262 22 6
-5.1157079 -4.9505453 -1.9074965 5 0
-6.3217516 -6.1112452 -2.0299582 5 1
-8.296936 -8.0094614 -2.2416241 6 2
-10.947398 -10.557022 -2.4087782 4 3
-16.285023 -15.687864 -2.7764277 4 4
-19.3491 -18.594055 -1.406372 22 6
-5.1263852 -4.8920369 -1.8986967 6 0
-6.3572092 -6.0602388 -2.027709 7 1
-8.364027 -7.962173 -2.2446773 6 2
-11.005089 -10.465361 -2.4053366 4 3
-16.327946 -15.510894 -2.7652156 4 4
-19.591866 -18.585495 -2.362618 24 5
-19.566868 -18.542328 -1.4127569 33 6
-5.157598 -4.8534822 -1.8976613 6 0
-6.396523 -6.0130396 -2.026809 7 1
-8.3850565 -7.8713384 -2.2355182 4 2
-11.063472 -10.374766 -2.4022079 4 3
-16.395267 -15.358531 -2.7583909 4 4
-19.774645 -18.478903 -1.4184092 22 6
-5.1913557 -4.8173571 -1.8976613 6 0
-6.4126191 -5.9443917 -2.0187106 6 1
-8.4297962 -7.8060789 -2.2332287 4 2
-11.129483 -10.295195 -2.4012692 5 3
-16.497715 -15.239655 -2.7576597 6 4
-20.01598 -18.450823 -1.4266783 22 6
-5.2097769 -4.7688651 -1.8924849 6 0
-6.4256091 -5.8756199 -2.0101628 5 1
-8.4898863 -7.7523332 -2.234755 4 2
-11.174814 -10.193286 -2.3956378 4 3
-16.586395 -15.113637 -2.7552223 6 4
-20.232979 -18.391239 -1.4329586 22 6
-5.2314692 -4.722024 -1.8883438 6 0
-6.4375253 -5.8045197 -2.0011647 4 1
-8.5350466 -7.6849914 -2.2324655 4 2
-11.248642 -10.117664 -2.3962634 4 3
-16.659014 -14.968289 -2.74986 6 4
-20.479858 -18.356186 -1.4413323 22 6
-5.2628655 -4.6841006 -1.8878261 5 0
-6.4633284 -5.7464852 -1.9966656 5 1
-8.576745 -7.6147904 -2.2294126 4 2
-11.298312 -10.020537 -2.3918834 5 3
-16.691786 -14.788434 -2.7381606 5 4
-20.721249 -18.313284 -1.4492874 23 6
-5.2925339 -4.6446977 -1.886791 7 0
-6.4710503 -5.6729627 -1.9867678 4 1
-8.6195154 -7.5484757 -2.2271228 4 2
-11.363282 -9.9408016 -2.3912575 4 3
-16.728844 -14.614079 -2.7274361 5 4
-20.965864 -18.276808 -1.4576612 23 6
-5.3064985 -4.5933924 -1.8805792 5 0
-6.5050921 -5.6249595 -1.985418 3 1
-8.6749763 -7.4906793 -2.227886 4 2
-11.417449 -9.8483238 -2.3881288 5 3
-16.775297 -14.454519 -2.7189052 3 4
-21.203514 -18.225035 -1.4653022 34 6
-5.3369679 -4.5549803 -1.8800616 6 0
-6.5234423 -5.561708 -1.9791193 3 1
-8.716794 -7.4238214 -2.2255962 4 2
-11.490236 -9.7755013 -2.3893805 5 3
-16.841002 -14.307496 -2.7132993 5 4
-21.501091 -18.247164 -2.4672046 21 5
-21.450478 -18.1849 -1.4737808 23 6
-5.3575034 -4.5098381 -1.8764381 4 0
-6.5328097 -5.4933462 -1.9705712 4 1
-8.7593889 -7.3552117 -2.2233064 4 2
-11.558203 -9.6950474 -2.3893805 5 3
-16.88018 -14.144084 -2.7040372 5 4
-21.66733 -18.11027 -1.4799564 23 6
-5.3888564 -4.4723272 -1.8764381 3 0
-6.5559983 -5.4351687 -1.9660723 5 1
-8.807498 -7.2913785 -2.2225432 4 2
-11.604293 -9.5964937 -2.385 4 3
-16.8974 -13.958886 -2.691119 3 4
-21.944284 -18.083042 -1.4902141 23 6
-5.427423 -4.4407134 -1.8790263 2 0
-6.572659 -5.3720016 -1.9597737 5 1
-8.8216829 -7.1999192 -2.2133844 6 2
-11.677129 -9.5202436 -2.3862517 5 3
-16.945181 -13.80047 -2.6833196 3 4
-22.183157 -18.021334 -1.4978552 23 6
-5.419198 -4.3711801 -1.8655677 2 0
-6.6024146 -5.3198709 -1.9575242 6 1
-8.8747911 -7.1406188 -2.2141476 4 2
-11.740228 -9.4360151 -2.3856258 5 3
-16.996223 -13.645793 -2.6762509 5 4
-22.325577 -17.879761 -1.4990066 23 6
-5.4480696 -4.3320394 -1.8650501 3 0
-6.6287112 -5.2651653 -1.9543748 5 1
-8.9059696 -7.063848 -2.2095683 4 2
-11.774853 -9.3292875 -2.3793685 5 3
-17.028814 -13.477528 -2.6665015 5 4
-22.666183 -17.894255 -1.5134513 23 6
-5.4690585 -4.2867475 -1.8619443 4 0
-6.6284838 -5.1899252 -1.9435771 4 1
-8.9426918 -6.9918275 -2.2065153 4 2
-11.827241 -9.2371292 -2.3768656 5 3
-17.075535 -13.321683 -2.6591895 5 4
-22.856756 -17.787096 -1.5178475 23 6
-5.4896789 -4.2413759 -1.8588384 3 0
-6.6506686 -5.1328092 -1.9395281 3 1
-8.9664049 -6.9100504 -2.2004094 4 2
-11.857004 -9.1278238 -2.3699825 5 3
-17.114618 -13.161005 -2.6509023 5 4
-22.482765 -17.245401 -1.4849806 11 6
-5.5037847 -4.1912446 -1.853662 4 0
-6.6816859 -5.0827155 -1.9381782 2 1
-8.988224 -6.8298516 -2.1943038 4 2
-11.909419 -9.0397387 -2.3681052 5 3
-17.157036 -13.004035 -2.6433463 3 4
-23.496477 -17.770252 -1.5439109 23 6
-5.532186 -4.1536846 -1.853662 4 0
-6.6974206 -5.0230861 -1.9327793 2 1
-9.0073986 -6.7457538 -2.1874344 4 2
-11.937438 -8.9303455 -2.361222 4 3
-17.197453 -12.851301 -2.636034 3 4
-23.781706 -17.726334 -1.5544827 24 6
-5.5579443 -4.1126633 -1.8526268 4 0
-6.713521 -4.9623055 -1.9273807 1 1
-9.0341549 -6.6702929 -2.1828551 6 2
-11.972511 -8.830122 -2.3562162 4 3
-17.230804 -12.68973 -2.6275034 5 4
-24.033789 -17.661026 -1.5630658 24 6
-5.5826879 -4.0724592 -1.8515915 4 0
-6.7219424 -4.8981323 -1.9201821 2 1
-9.0630379 -6.5943561 -2.1786571 4 2
-12.011494 -8.7300673 -2.351836 4 3
-17.233253 -12.511501 -2.6148288 5 4
-21.613537 -15.651342 -1.3985215 11 6
-5.6047077 -4.0288763 -1.849521 4 0
-6.7116518 -4.8192596 -1.9075849 4 1
-9.0817308 -6.5114765 -2.1721697 4 2
-12.036817 -8.6206942 -2.3449528 5 3
-17.274971 -12.358549 -2.6080043 5 4
-21.406679 -15.2918 -2.3016088 25 5
-21.582455 -15.400305 -1.3895198 22 6
-5.6421576 -3.9963484 -1.8526268 4 0
-6.753087 -4.777914 -1.9098345 3 1
-9.0916901 -6.4229927 -2.163774 4 2
-12.07734 -8.5227842 -2.3411984 5 3
-17.325132 -12.212483 -2.6026418 5 4
-21.55547 -15.155058 -1.3809367 11 6
-5.6635818 -3.9524405 -1.8505563 3 0
-6.7718897 -4.7206235 -1.9057853 5 1
-9.1105289 -6.3414197 -2.1576684 4 2
-12.10735 -8.4179621 -2.3355668 5 3
-17.364317 -12.059529 -2.5958173 5 4
-21.427603 -14.842712 -1.3660733 11 6
-5.6878538 -3.9106159 -1.849521 3 0
-6.8062878 -4.6743336 -1.9062351 7 1
-9.1480999 -6.273222 -2.1561418 4 2
-12.159305 -8.3287706 -2.3343153 5 3
-17.376001 -11.888688 -2.5850928 4 4
-21.471312 -14.65223 -1.362305 11 6
-5.6958218 -3.8578115 -1.8433093 3 0
-6.8064728 -4.6048646 -1.8972371 7 1
-9.0550184 -6.11689 -2.1240859 3 2
-12.172943 -8.2138472 -2.3258679 6 3
-17.405899 -11.731586 -2.5772932 4 4
-5.7194009 -3.8158102 -1.8422741 4 0
-6.8352103 -4.5550742 -1.8963374 7 1
-9.0353918 -6.0121965 -2.1095843 3 2
-12.233278 -8.1308498 -2.3264937 6 3
-17.384838 -11.541716 -2.5621812 4 4
-21.723755 -14.384098 -1.3654453 11 6
-5.7491307 -3.7779086 -1.8433093 3 0
-6.8538127 -4.4986887 -1.8927382 7 1
-9.0344496 -5.9209929 -2.0996623 3 2
-12.27487 -8.035511 -2.3236778 5 3
-17.385242 -11.36792 -2.5504818 4 4
-21.903946 -14.284454 -1.3704695 11 6
-5.7753644 -3.7376816 -1.8433093 3 0
-6.8686852 -4.4401526 -1.888239 7 1
-8.9683495 -5.7885714 -2.0748572 4 2
-12.317387 -7.9410563 -2.3211749 5 3
-17.420788 -11.218327 -2.5441446 4 4
-22.177912 -14.243433 -1.3813554 11 6
-5.7882838 -3.688966 -1.8391682 3 0
-6.8797908 -4.3795328 -1.8828404 8 1
-8.9495592 -5.6905227 -2.0615005 3 2
-12.344476 -7.840086 -2.316169 5 3
-17.475212 -11.081555 -2.5407324 4 4
-22.392492 -14.166897 -1.3886824 11 6
-5.8067155 -3.6453724 -1.8370978 3 0
-6.89293 -4.3222504 -1.8783413 7 1
-8.9641066 -5.6122785 -2.0557761 4 2
-12.341962 -7.7181067 -2.3055315 5 3
-17.511511 -10.938159 -2.5351262 6 4
-22.633257 -14.098923 -1.3974749 11 6
-5.7925849 -3.5803666 -1.8246742 2 0
-6.9163041 -4.2699285 -1.8765416 6 1
-8.9612865 -5.523809 -2.0462358 4 2
-12.388813 -7.6276159 -2.3042798 5 3
-17.531645 -10.781323 -2.5270829 4 4
-23.023973 -14.120171 -1.4154785 11 6
-5.8669486 -3.569967 -1.8402034 2 0
-6.9209657 -4.2063599 -1.8697932 3 1
-8.9375305 -5.4234262 -2.0321159 4 2
-12.387707 -7.508172 -2.2942681 5 3
-17.582712 -10.644275 -2.5236704 4 4
-23.190378 -14.000384 -1.4196653 11 6
-5.8751559 -3.5189946 -1.8350271 1 0
-6.931767 -4.1469345 -1.8648442 3 1
-8.9422178 -5.3433328 -2.0248652 4 2
-12.41817 -7.4115324 -2.2905138 5 3
-17.653181 -10.519237 -2.5231831 4 4
-23.532364 -13.989166 -1.434738 11 6
-5.8756762 -3.4651828 -1.8277801 1 0
-6.9447227 -4.090754 -1.8607951 4 1
-8.9285336 -5.2509165 -2.0134165 3 2
-12.421917 -7.2966418 -2.2817533 5 3
-17.655888 -10.35865 -2.5134335 4 4
-20.629608 -12.088808 -2.091912 30 5
-23.7915 -13.919344 -1.4445772 34 6
-5.9064074 -3.427959 -1.8298507 1 0
-6.9562516 -4.0323997 -1.8562962 5 1
-8.9130974 -5.1605115 -2.0019681 3 2
-12.413153 -7.1783009 -2.2711158 5 3
-17.669327 -10.201391 -2.5051465 4 4
-23.989536 -13.816893 -1.4508575 23 6
-5.922894 -3.3838425 -1.8277801 1 0
-6.9818454 -3.9839902 -1.8558462 6 1
-8.9216156 -5.0826092 -1.9958621 3 2
-12.43378 -7.0748558 -2.2657971 9 3
-17.665867 -10.039688 -2.4949093 4 4
-24.297403 -13.769213 -1.4636275 23 6
-5.9329019 -3.3348379 -1.8236392 1 0
-6.9958944 -3.9275191 -1.852247 6 1
-8.9149065 -4.9987221 -1.9867034 3 2
-12.42822 -6.9601355 -2.2560983 5 3
-17.645426 -9.8657408 -2.482235 4 4
-21.550838 -12.019693 -1.2932216 10 6
-5.956039 -3.2933371 -1.8236392 2 0
-7.0265541 -3.8804667 -1.8531467 7 1
-8.9263773 -4.9215317 -1.9813608 3 2
-12.432718 -6.8462491 -2.2479637 5 3
-17.717356 -9.7442226 -2.4827225 4 4
-20.372093 -11.190392 -2.0335178 100 5
-5.9800138 -3.253644 -1.8241568 2 0
-7.0288329 -3.819524 -1.8468481 6 1
-8.859581 -4.8063588 -1.9592268 3 2
-12.447766 -6.7445273 -2.242332 5 3
-17.723909 -9.59128 -2.4744353 4 4
-5.9781775 -3.2000999 -1.8169098 2 0
-7.0306091 -3.7587287 -1.8405495 3 1
-8.8713083 -4.7348471 -1.9546474 3 2
-12.467239 -6.6457033 -2.237639 6 3
-17.729208 -9.4386969 -2.4661481 4 4
-6.0208859 -3.1690853 -1.8231214 2 0
-7.0756521 -3.7195303 -1.8454984 5 1
-8.897192 -4.6691508 -1.9531209 3 2
-12.46434 -6.5328307 -2.2288785 6 3
-17.731356 -9.2815571 -2.4573736 4 4
-6.0342855 -3.1225336 -1.8205333 3 0
-7.0806727 -3.6593041 -1.8400996 5 1
-8.8493156 -4.5655169 -1.9355664 3 2
-12.472768 -6.4266529 -2.2223082 5 3
-17.753357 -9.1357422 -2.451524 4 4
-21.191101 -10.872057 -1.2482127 10 6
-6.0456061 -3.0750768 -1.8174274 3 0
-7.0973592 -3.6053715 -1.8378501 6 1
-8.9229965 -4.5249362 -1.9447254 3 2
-12.496183 -6.3287106 -2.218554 5 3
-17.795448 -9.0008268 -2.4485991 4 4
-21.371706 -10.776907 -1.2543883 10 6
-6.0807509 -3.0397041 -1.8215685 3 0
-7.1206136 -3.5548625 -1.8374002 5 1
-8.8629971 -4.4169979 -1.9248812 3 2
-12.497617 -6.2201948 -2.211045 5 3
-17.809853 -8.852519 -2.442018 6 4
-6.0775476 -2.985256 -1.8143215 3 0
-7.1242619 -3.4947672 -1.8320013 5 1
-8.8822784 -4.3513846 -1.9225914 3 2
-12.50063 -6.1158834 -2.2041619 5 3
-17.835548 -8.7105408 -2.4371433 6 4
-6.0838089 -2.9370992 -1.8101805 3 0
-7.1689501 -3.4563487 -1.8374002 2 1
-8.8805981 -4.2739439 -1.9157225 3 2
-12.500293 -6.0079265 -2.1966531 5 3
-17.83 -8.5580168 -2.4283688 5 4
-6.0902004 -2.8879342 -1.8060393 3 0
-7.1717696 -3.3962073 -1.8320013 1 1
-8.8828621 -4.2008061 -1.9099981 4 2
-12.487312 -5.8973932 -2.1872668 4 3
-17.842627 -8.4113226 -2.4220314 5 4
-6.0922055 -2.8382542 -1.8008629 4 0
-7.2053223 -3.3522439 -1.8347007 1 1
-8.9030685 -4.1345572 -1.90809 3 2
-12.485169 -5.7901292 -2.1797581 5 3
-17.874245 -8.2780018 -2.4186192 5 4
-6.0907907 -2.7860107 -1.7946514 4 0
-7.2462754 -3.3099582 -1.8391999 1 1
-8.8638363 -4.0413523 -1.8935887 3 2
-12.50731 -5.6946397 -2.1766293 5 3
-17.884621 -8.1316481 -2.412282 5 4
-6.1065669 -2.7418399 -1.7936161 4 0
-7.2229729 -3.2385614 -1.8275024 1 1
-8.8954172 -3.9809763 -1.8943518 3 2
-12.53594 -5.6023474 -2.1747522 5 3
-17.897446 -7.9871798 -2.4064322 5 4
-27.252613 -12.122254 -1.5631706 12 6
-6.1255603 -2.6991396 -1.7936161 4 0
-7.2561097 -3.192764 -1.8302019 1 1
-8.9007397 -3.9108577 -1.8897724 3 2
-12.325962 -5.4081535 -2.1318891 3 3
-17.880035 -7.8301854 -2.3966827 5 4
-27.173426 -11.866127 -1.5539594 12 6
-6.1349249 -2.6535485 -1.7910279 10 0
-7.2383146 -3.1263018 -1.8203038 3 1
-8.9097967 -3.8408539 -1.8859563 3 2
-12.207376 -5.2548041 -2.1049824 3 3
-17.894619 -7.6918397 -2.3915641 4 4
-27.097715 -11.6085 -1.5449575 11 6
-6.1355162 -2.6031086 -1.7858515 10 0
-7.2474036 -3.0703714 -1.8171545 3 1
-8.9194603 -3.7732334 -1.8825216 4 2
-12.157337 -5.1354618 -2.0902774 4 3
-17.907644 -7.5497551 -2.3862021 4 4
-26.991987 -11.346386 -1.5344903 11 6
-6.1691437 -2.5679684 -1.7905102 7 0
-7.2627358 -3.0187266 -1.815805 1 1
-8.9183836 -3.6995881 -1.8767973 3 2
-12.063317 -4.9967904 -2.0680637 6 3
-17.890743 -7.3996181 -2.3771837 5 4
-26.922813 -11.096789 -1.5261166 11 6
-6.1833448 -2.5233757 -1.789475 4 0
-7.2908525 -2.9708891 -1.8176044 2 1
-8.9160824 -3.6276984 -1.8710731 4 2
-12.038486 -4.8907704 -2.0580521 10 3
-17.868382 -7.2447023 -2.367434 5 4
-22.449577 -9.0884562 -2.1189303 29 5
-26.916248 -10.880339 -1.5215111 11 6
-6.1896167 -2.476922 -1.7863692 4 0
-7.2783332 -2.9081779 -1.8095063 2 1
-8.9338951 -3.5624573 -1.8695467 4 2
-11.969562 -4.7656894 -2.0405314 4 3
-17.839804 -7.0921121 -2.357197 5 4
-26.843 -10.633318 -1.5131372 11 6
-6.2139511 -2.4364724 -1.7884396 4 0
-7.2839413 -2.851613 -1.8059071 3 1
-8.9238052 -3.4864242 -1.8622959 3 2
-11.980457 -4.6733928 -2.036777 3 3
-17.825991 -6.9428945 -2.3489099 5 4
-26.745281 -10.379181 -1.5035075 11 6
-6.2127748 -2.3861065 -1.7832633 4 0
-7.289114 -2.7951117 -1.8023077 4 1
-9.0066023 -3.4464941 -1.8745077 3 2
-11.87624 -4.5374713 -2.0136247 3 3
-17.829512 -6.8013005 -2.3430603 5 4
-23.189878 -8.8275366 -2.1708751 28 5
-26.682671 -10.141123 -1.4959711 11 6
-6.2401319 -2.3467538 -1.7863692 4 0
-7.3102751 -2.7448394 -1.8027576 3 1
-8.9863195 -3.367002 -1.8653487 3 2
-11.855823 -4.4350724 -2.0048645 3 3
-17.828209 -6.6586075 -2.3367231 5 4
-26.67794 -9.9267416 -1.4917842 11 6
-6.2418585 -2.2977946 -1.782228 3 0
-7.3127971 -2.6876886 -1.7987086 5 1
-8.9579973 -3.2852542 -1.8546635 3 2
-11.80117 -4.32095 -1.9904724 3 3
-17.788496 -6.5026255 -2.325511 5 4
-25.781973 -9.3889694 -1.4379829 11 6
-6.2541137 -2.2528529 -1.7811928 4 0
-7.3222132 -2.6332729 -1.7964592 7 1
-8.9622355 -3.2160068 -1.8508474 3 2
-11.767819 -4.2158084 -1.9798348 3 3
-17.773647 -6.3568916 -2.3177114 5 4
-24.214077 -8.6412973 -2.2493153 26 5
-25.609833 -9.1242886 -1.4247942 22 6
-6.2769766 -2.2117038 -1.7832633 4 0
-7.3404183 -2.5820899 -1.7964592 7 1
-8.9529772 -3.1423049 -1.8443599 4 2
-11.729852 -4.1100321 -1.9685715 2 3
-17.765129 -6.2142968 -2.3108869 5 4
-25.344734 -8.8309355 -1.4065813 11 6
-6.2593875 -2.1565032 -1.7739457 4 0
-7.343523 -2.5257125 -1.7928599 7 1
-8.9784098 -3.0810013 -1.8451231 4 2
-11.713408 -4.012681 -1.9610627 2 3
-17.721678 -6.0605774 -2.2996747 5 4
-24.80378 -8.4632196 -2.2928932 25 5
-26.029665 -8.8662882 -1.441123 11 6
-6.285275 -2.1164508 -1.7770516 4 0
-7.3646717 -2.4756253 -1.7937597 7 1
-8.9829473 -3.0126293 -1.8416885 3 2
-11.632492 -3.8944378 -1.9429164 2 3
-17.669416 -5.9052515 -2.2874877 5 4
-25.71192 -8.5582037 -1.4201887 22 6
-26.789595 -8.90133 -0.49275124 27 7
-6.2815461 -2.0664825 -1.7718753 4 0
-7.326231 -2.4059095 -1.7802627 7 1
-8.9659348 -2.9391832 -1.8340561 3 2
-11.624937 -3.8041086 -1.9372847 3 3
-17.623409 -5.7534094 -2.2762759 5 4
-25.720196 -8.3669252 -1.4174672 22 6
-6.2807536 -2.0189495 -1.7677342 4 0
-7.3442931 -2.3565829 -1.7807125 12 1
-8.9824972 -2.8753204 -1.833293 3 2
-11.611697 -3.710233 -1.9307145 4 3
-17.556253 -5.5995412 -2.2626264 5 4
-26.166304 -8.3105001 -1.4388202 22 6
-6.3168144 -1.9819911 -1.7739457 3 0
-7.3661456 -2.306998 -1.7820623 10 1
-9.0468311 -2.8281705 -1.8424517 3 2
-11.598969 -3.6193404 -1.9244571 4 3
-17.5191 -5.4532399 -2.2528768 5 4
-26.142145 -8.1073513 -1.434424 11 6
-6.3116879 -1.9332899 -1.7687694 4 0
-7.4059052 -2.2642117 -1.7879109 3 1
-9.0137749 -2.7489097 -1.8317665 3 2
-11.574819 -3.5233226 -1.9163225 4 3
-17.468445 -5.3073239 -2.2416649 5 4
-26.064287 -7.8841686 -1.427097 11 6
-6.3342857 -1.8919449 -1.7713577 2 0
-7.4159284 -2.2107852 -1.7865613 6 1
-9.0553293 -2.6926274 -1.8363459 3 2
-11.542323 -3.4255655 -1.9069364 4 3
-17.41371 -5.158175 -2.2299654 5 4
-25.992258 -7.6647291 -1.4201887 11 6
-6.3213711 -1.8401195 -1.7641107 2 0
-7.412468 -2.1535213 -1.7820623 6 1
-9.0399628 -2.6195102 -1.8294767 3 2
-11.552673 -3.341063 -1.9047463 3 3
-17.350119 -5.0078568 -2.2172909 5 4
-25.926121 -7.4488873 -1.413699 11 6
-6.3563666 -1.8022653 -1.7703223 2 0
-7.4235716 -2.1006589 -1.7811624 6 1
-9.0462475 -2.5547149 -1.8271869 3 2
-11.514305 -3.2452011 -1.8947345 2 3
-17.285286 -4.8586717 -2.2046165 5 4
-26.218559 -7.3400855 -1.4268876 11 6
-6.3461413 -1.7527868 -1.7641107 2 0
-7.4301834 -2.0480099 -1.7793628 7 1
-8.9616385 -2.4634006 -1.8065797 3 2
-11.49096 -3.152195 -1.8872255 3 3
-17.206905 -4.710505 -2.1904798 5 4
-26.554361 -7.2345729 -1.4423791 11 6
-6.3507609 -1.7064345 -1.76204 2 0
-7.4367714 -1.9940689 -1.7775632 7 1
-9.0313005 -2.4165525 -1.8172649 3 2
-11.481614 -3.0657518 -1.8822197 3 3
-16.965063 -4.5172243 -2.1556253 3 4
-26.950493 -7.1457939 -1.46122 11 6
-6.3622284 -1.6631682 -1.76204 2 0
-7.4426289 -1.9414364 -1.7757636 7 1
-8.994751 -2.3396051 -1.8065797 3 2
-11.46832 -2.9765902 -1.876588 2 3
-16.799404 -4.3508801 -2.1307638 3 4
-27.367195 -7.0521631 -1.4811077 11 6
-6.3680682 -1.6172829 -1.7604873 2 0
-7.4371119 -1.8846408 -1.7712647 6 1
-9.0584517 -2.2887788 -1.8161201 4 2
-11.469666 -2.8916276 -1.8734595 3 3
-16.648409 -4.1879711 -2.1078525 3 4
-27.747074 -6.9438519 -1.4990066 11 6
-6.3604469 -1.568163 -1.7553109 2 0
-7.4500875 -1.8326758 -1.7712647 7 1
-9.0398874 -2.2170632 -1.809251 4 2
-11.462712 -2.8049076 -1.8690792 3 3
-16.457397 -4.0179677 -2.0800662 11 4
-28.237387 -6.8574352 -1.5228719 11 6
-6.3787546 -1.5255178 -1.7573814 2 0
-7.447536 -1.7769997 -1.7676654 6 1
-9.0242119 -2.148205 -1.8031452 4 2
-11.458476 -2.7213409 -1.8653249 3 3
-16.384598 -3.8791976 -2.0673916 3 4
-6.4209824 -1.4894847 -1.7661812 2 0
-7.4708505 -1.7289027 -1.7703648 6 1
-9.0332479 -2.0838299 -1.8020002 4 2
-11.446393 -2.6341937 -1.8603188 3 3
-16.251972 -3.731158 -2.0474052 3 4
-32.30925 -7.3760691 -1.7368212 8 6
-6.3803325 -1.4331914 -1.752205 2 0
-7.4580178 -1.6711649 -1.7645161 5 1
-9.0111713 -2.0125842 -1.7947495 4 2
-11.445224 -2.5499229 -1.8571903 2 3
-16.124538 -3.5835841 -2.0281496 2 4
-32.566681 -7.1960149 -1.7479165 8 6
-6.3939576 -1.3894337 -1.7532402 2 0
-7.4542665 -1.6157568 -1.7609169 4 1
-9.0422745 -1.9533566 -1.7981842 4 2
-11.416401 -2.4599717 -1.8496813 2 3
-16.011368 -3.4413099 -2.0108442 3 4
-32.979416 -7.0460911 -1.7673854 15 6
-6.3883777 -1.3415855 -1.7490991 2 0
-7.4539213 -1.5612797 -1.7582175 5 1
-9.0073156 -1.8817275 -1.7886436 4 2
-11.43288 -2.3822083 -1.8496813 2 3
-15.935876 -3.3088677 -1.9984137 2 4
-30.722475 -6.3455453 -1.6440818 10 6
-6.4238672 -1.3034482 -1.7563461 2 0
-7.4605556 -1.5097331 -1.7573177 4 1
-9.0106106 -1.8168585 -1.7867355 4 2
-11.441486 -2.300776 -1.8484299 3 3
-15.741987 -3.1569884 -1.9713587 2 4
-33.770744 -6.7296734 -1.8046486 6 6
-6.4138508 -1.2548616 -1.7511697 2 0
-7.4403105 -1.4516428 -1.7501192 4 1
-9.0304766 -1.7569848 -1.788262 3 2
-11.387071 -2.2093008 -1.8371665 3 3
-15.748049 -3.0440011 -1.9694086 1 4
-6.4108539 -1.2090266 -1.7480639 2 0
-7.4595952 -1.4027652 -1.7523687 3 1
-9.0097189 -1.6877502 -1.7817745 4 2
-11.413868 -2.1319237 -1.8390437 3 3
-15.631799 -2.9112949 -1.952347 3 4
-6.4343448 -1.166999 -1.752205 2 0
-7.4711242 -1.351 -1.7528186 3 1
-9.0306587 -1.6281276 -1.7836826 3 2
-11.385342 -2.0464969 -1.8321607 3 3
-15.55404 -2.784606 -1.9401602 3 4
-33.088093 -5.8879299 -1.7613145 7 6
-6.4271097 -1.1193986 -1.7480639 2 0
-7.4918938 -1.300809 -1.7555181 2 1
-8.9840412 -1.5534267 -1.772234 3 2
-11.384121 -1.9622854 -1.8296577 3 3
-15.50267 -2.6638443 -1.9313855 3 4
-37.244217 -6.3528996 -1.9800788 2 6
-6.4576335 -1.0783213 -1.7542756 2 0
-7.4892588 -1.2465543 -1.7528186 2 1
-9.017909 -1.4945223 -1.7768134 3 2
-11.354666 -1.8756814 -1.8227745 3 3
-15.47584 -2.5481367 -1.9257796 2 4
-6.4344816 -1.0283343 -1.7459934 2 0
-7.4939303 -1.1936278 -1.7519189 2 1
-9.0126114 -1.4290717 -1.7737606 3 2
-11.359679 -1.7951347 -1.8215232 4 3
-15.414815 -2.4276798 -1.91603 2 4
-6.4300456 -0.98163879 -1.7428875 2 0
-7.4751077 -1.1371779 -1.7456201 2 1
-8.9951925 -1.362 -1.768418 3 2
-11.336776 -1.7104779 -1.8158915 4 3
-15.333235 -2.3052483 -1.903843 2 4
-6.4367418 -0.93672466 -1.7428875 1 0
-7.4828649 -1.0849642 -1.7456201 2 1
-9.0433435 -1.3047779 -1.7760502 3 2
-11.324977 -1.6279204 -1.812137 4 3
-15.299829 -2.1911144 -1.8977495 3 4
-6.4010258 -0.88593972 -1.7314996 2 0
-7.4825349 -1.0316329 -1.7438205 2 1
-8.9975557 -1.2357119 -1.765365 3 2
-11.261424 -1.5406215 -1.800248 9 3
-15.312786 -2.0839801 -1.8975059 2 4
-6.4528761 -0.84839243 -1.7439228 2 0
-7.5048418 -0.98270273 -1.7474198 2 1
-9.0137501 -1.1738812 -1.7668914 3 2
-11.307167 -1.466538 -1.8058797 4 3
-15.239992 -1.9685119 -1.8867813 2 4
-6.443305 -0.801413 -1.7397816 2 0
-7.5057178 -0.92956477 -1.7460701 3 1
-9.02952 -1.1118866 -1.768418 3 2
-11.273994 -1.3822773 -1.7989967 3 3
-15.223805 -1.8584641 -1.8831252 3 4
-6.4506617 -0.75663739 -1.7402993 2 0
-7.4849257 -0.87397993 -1.7397714 3 1
-9.068265 -1.0524429 -1.7745237 3 2
-11.279445 -1.3030801 -1.7983708 4 3
-15.220634 -1.7503188 -1.8811754 3 4
-6.450026 -0.71095139 -1.7387464 3 0
-7.4714732 -0.81958085 -1.7352724 3 1
-9.0752192 -0.99069482 -1.7745237 3 2
-11.26056 -1.223289 -1.7939906 3 3
-15.15551 -1.6357123 -1.8716695 2 4
-6.4201269 -0.66345644 -1.7294289 3 0
-7.4885101 -0.76990092 -1.7379718 3 1
-9.0584764 -0.92491847 -1.7699443 3 2
-11.280618 -1.1458434 -1.7958679 3 3
-15.101117 -1.525928 -1.8636261 3 4
-6.4322944 -0.61936003 -1.7314996 3 0
-7.4898233 -0.71723098 -1.7370721 3 1
-9.0372 -0.86063421 -1.7646016 3 2
-11.260623 -1.0664272 -1.7914877 3 3
-15.05211 -1.4148953 -1.8563139 2 4
-42.488323 -3.9490042 -2.2363157 0 6
-6.4421334 -0.57607847 -1.7330524 2 0
-7.4906492 -0.66588753 -1.7361722 3 1
-9.0586348 -0.79890156 -1.7676547 3 2
-11.259922 -0.9870972 -1.7902362 3 3
-15.026024 -1.3066783 -1.8519267 3 4
-6.4018073 -0.52632421 -1.7211467 2 0
-7.481627 -0.61115807 -1.7330229 4 1
-9.0639915 -0.73564088 -1.7676547 3 2
-11.250945 -0.90523046 -1.7877333 3 3
-15.022908 -1.2007996 -1.8504643 3 4
-6.4400015 -0.48422715 -1.7304642 3 0
-7.4973712 -0.55978394 -1.7357224 4 1
-9.0494432 -0.66931564 -1.7638384 3 2
-11.24123 -0.8255046 -1.7852304 2 3
-14.967569 -1.0912715 -1.8426646 3 4
-6.4624991 -0.44056961 -1.7356406 3 0
-7.4913745 -0.50677115 -1.7334728 3 1
-9.0498724 -0.60743737 -1.7630752 3 2
-11.25053 -0.74923116 -1.785856 3 3
-14.909457 -0.98244429 -1.8346213 4 4
-6.4576349 -0.39609891 -1.7335701 3 0
-7.4829793 -0.45505914 -1.7307733 3 1
-8.9911814 -0.54047501 -1.7508634 3 2
-11.243655 -0.66996717 -1.7839788 2 3
-14.814734 -0.87497044 -1.8221905 6 4
-6.452527 -0.35058573 -1.7314996 3 0
-7.4742985 -0.40217698 -1.728074 3 1
-9.077076 -0.48206449 -1.7668914 3 2
-11.224387 -0.59021056 -1.7802243 2 3
-14.814535 -0.77121323 -1.8214594 5 4
-6.4586763 -0.30571425 -1.7325348 3 0
-7.4808173 -0.35017076 -1.7289737 3 1
-9.0174627 -0.41578907 -1.7546796 3 2
-11.224287 -0.51165527 -1.7795987 2 3
-14.829473 -0.66821623 -1.822678 3 4
-6.4490719 -0.26014802 -1.7294289 3 0
-7.4577661 -0.29692668 -1.7231251 4 1
-8.9847736 -0.35301206 -1.7478106 3 2
-11.207772 -0.43447679 -1.7764701 2 3
-14.829809 -0.56452322 -1.8221905 3 4
-6.4545546 -0.21637544 -1.7304642 3 0
-7.4459805 -0.24570815 -1.7199757 3 1
-9.0027161 -0.2907871 -1.7508634 3 2
-11.21448 -0.35634935 -1.7770958 2 3
-14.769816 -0.46158242 -1.8143909 3 4
-6.4539771 -0.17125764 -1.7299466 2 0
-7.4767361 -0.1944795 -1.7267244 4 1
-8.9887867 -0.22910053 -1.7478106 3 2
-11.212697 -0.27990782 -1.7764701 2 3
-14.764742 -0.3582623 -1.813416 3 4
-6.4511299 -0.12724811 -1.7289113 2 0
-7.4622993 -0.14328486 -1.7231251 4 1
-8.9823151 -0.16619608 -1.746284 3 2
-11.218328 -0.20169261 -1.7770958 1 3
-14.758899 -0.25761828 -1.812441 3 4
-6.4479971 -0.082158387 -1.7278759 2 0
-7.4592209 -0.091135293 -1.7222252 4 1
-8.9675331 -0.10486779 -1.7432311 3 2
-11.179935 -0.12488576 -1.7708384 2 3
-14.724607 -0.15420131 -1.8080537 3 4
-6.434885 -0.03818756 -1.7242525 2 0
-7.4713602 -0.04042482 -1.7249247 3 1
-8.9994583 -0.04241021 -1.749337 3 2
-11.129176 -0.046619579 -1.7627038 2 3
-14.71142 -0.053922888 -1.8063475 2 4
-6.4311314 0.0067348233 -1.7232174 2 0
-7.4422293 0.011690182 -1.7181761 3 1
-8.9641991 0.018774254 -1.7424678 3 2
-11.148988 0.029187264 -1.7658324 2 3
-14.687618 0.04870801 -1.8034227 2 4
-6.4309363 0.050508544 -1.7232174 2 0
-7.4673104 0.062558122 -1.7240249 4 1
-8.9010296 0.080783427 -1.7302561 3 2
-11.168265 0.10721079 -1.7689612 2 3
-14.671065 0.14851826 -1.8014728 2 4
-6.4265633 0.095346391 -1.722182 2 0
-7.4881248 0.11501747 -1.7289737 3 1
-8.9316559 0.14342883 -1.736362 3 2
-11.131693 0.18458784 -1.7633295 2 3
-14.614097 0.24998733 -1.7946482 2 4
-6.4296041 0.14029424 -1.7232174 2 0
-7.4696059 0.16689985 -1.7249247 2 1
-8.9422131 0.20604928 -1.7386516 3 2
-11.110385 0.26182917 -1.7602009 2 3
-14.621919 0.35224244 -1.7958668 3 4
-6.4477782 0.18573262 -1.7283937 1 0
-7.4643626 0.2189292 -1.7240249 2 1
-8.9288301 0.26656085 -1.736362 3 2
-11.116243 0.33768916 -1.7614522 2 3
-14.597277 0.45363581 -1.7931857 2 4
-42.150383 1.3540778 -2.2101476 0 6
-6.4154749 0.22851674 -1.7201115 2 0
-7.4782791 0.27029386 -1.7276241 2 1
-8.9424458 0.32946756 -1.7394148 3 2
-11.117563 0.41543451 -1.762078 2 3
-14.542276 0.55103177 -1.7868484 2 4
-6.406003 0.2729722 -1.7180409 2 0
-7.4839978 0.32283321 -1.7294236 2 1
-8.9438515 0.39205945 -1.7401782 3 2
-11.086763 0.49181134 -1.7576978 3 3
-14.549973 0.65307313 -1.7883109 2 4
-6.4155173 0.31826064 -1.7211467 2 0
-7.4543138 0.37370571 -1.7231251 2 1
-8.933053 0.45409104 -1.7386516 3 2
-11.102789 0.5702154 -1.7608266 2 3
-14.533165 0.75402158 -1.7868484 2 4
-6.4227839 0.36358607 -1.7237349 2 0
-7.4593053 0.42618036 -1.7249247 2 1
-8.9610252 0.51825809 -1.7447575 3 2
-11.070929 0.64609969 -1.7564464 2 3
-14.499804 0.8538267 -1.7834362 2 4
-6.4278002 0.40890878 -1.7258054 2 0
-7.4678164 0.47899595 -1.7276241 2 1
-8.9571886 0.5808031 -1.7447575 3 2
-11.046435 0.72208238 -1.7533176 2 3
-14.49349 0.9550302 -1.7834362 2 4
-6.4132271 0.45295519 -1.7226996 2 0
-7.4448524 0.52973461 -1.7231251 2 1
-8.9529152 0.64332402 -1.7447575 3 2
-11.037186 0.7989009 -1.752692 2 3
-14.47261 1.0551835 -1.7817299 3 4
-6.4310946 0.49936196 -1.7283937 3 0
-7.4448581 0.58200032 -1.7240249 2 1
-8.9325485 0.70457435 -1.7417046 3 2
-11.058908 0.87812191 -1.7570721 2 3
-14.437188 1.1539779 -1.7783177 3 4
