# .PCD v0.7 - Point Cloud Data file format
VERSION 0.7
FIELDS x y z intensity ring
SIZE 4 4 4 4 2
TYPE F F F F U
COUNT 1 1 1 1 1
WIDTH 1308
HEIGHT 1
VIEWPOINT 0 0 0 1 0 0 0
POINTS 1308
DATA ascii
-8.5215816 -3.1860895 -1.768418 3 2
-10.746681 -4.0116076 -1.81683 3 3
-15.160865 -5.6473145 -1.9864705 5 4
-24.290115 -9.0189428 -1.3579088 22 6
-6.0875115 -2.2361493 -1.7377111 4 0
-7.1060996 -2.6060896 -1.7474198 4 1
-8.5509911 -3.1292205 -1.7699443 3 2
-10.761436 -3.9317415 -1.81464 5 3
-15.101979 -5.5086145 -1.9737961 5 4
-24.605906 -8.9412327 -1.3720396 22 6
-6.0920658 -2.1896765 -1.7346053 4 0
-7.1204515 -2.5551014 -1.74652 5 1
-8.5726299 -3.0694449 -1.7699443 3 2
-10.766301 -3.8485348 -1.8108855 4 3
-15.057806 -5.3736916 -1.9630717 5 4
-24.547287 -8.7264175 -1.3653406 22 6
-6.0999136 -2.1445312 -1.7325348 3 0
-7.1399546 -2.5059724 -1.7469698 7 1
-8.5716143 -3.0017376 -1.765365 3 2
-10.738831 -3.7543755 -1.8018124 4 3
-24.443483 -8.4977732 -1.3562341 11 6
-6.1476221 -2.1131961 -1.7418523 4 0
-7.1425295 -2.4510069 -1.7433707 6 1
-8.6257944 -2.95327 -1.772234 3 2
-10.792817 -3.6888957 -1.8065054 5 3
-15.05058 -5.1353612 -1.9525908 6 4
-24.532469 -8.3372068 -1.3579088 11 6
-6.1585617 -2.0689969 -1.740817 5 0
-7.1557708 -2.3998451 -1.7424709 6 1
-8.61269 -2.8817656 -1.765365 3 2
-10.795824 -3.6059482 -1.8027509 4 3
-14.98249 -4.9956317 -1.9391851 4 4
-24.491823 -8.1473484 -2.2582054 26 5
-24.874397 -8.2601509 -1.3736097 11 6
-6.1765285 -2.0271552 -1.7418523 5 0
-7.176055 -2.3510416 -1.7433707 6 1
-8.6214008 -2.81791 -1.7630752 3 2
-10.826368 -3.5323319 -1.8036896 5 3
-14.975474 -4.8773918 -1.933823 4 4
-25.624897 -8.311204 -1.4118149 22 6
-6.179491 -1.9804492 -1.7387464 4 0
-7.1922927 -2.3008878 -1.7433707 7 1
-8.648345 -2.7600379 -1.7646016 3 2
-10.811239 -3.4440694 -1.7971194 6 3
-14.935383 -4.7492604 -1.9243171 3 4
-26.072632 -8.255703 -1.4332726 22 6
-6.215291 -1.9441824 -1.744958 4 0
-7.1970196 -2.2471354 -1.7406713 7 1
-8.6781769 -2.7046134 -1.7668914 3 2
-10.84009 -3.3721626 -1.7980579 4 3
-14.884753 -4.6189928 -1.9135926 3 4
-26.517481 -8.1983948 -1.4546257 23 6
-6.2099042 -1.8961892 -1.7397816 4 0
-7.200964 -2.1946857 -1.7379718 6 1
-8.6442537 -2.6279731 -1.756206 3 2
-10.842575 -3.2900927 -1.7946163 4 3
-14.889252 -4.5095124 -1.9101802 3 4
-26.543476 -8.0038366 -1.452951 23 6
-6.2155848 -1.8505847 -1.7377111 4 0
-7.2235818 -2.1465821 -1.7397714 7 1
-8.669919 -2.5697947 -1.7577326 3 2
-10.865279 -3.2143197 -1.7946163 4 3
-14.836602 -4.380722 -1.8994557 3 4
-26.698347 -7.8476276 -1.4583939 11 6
-6.2283525 -1.8071467 -1.7377111 4 0
-7.2309046 -2.0939317 -1.7379718 7 1
-8.6612406 -2.5015774 -1.7523898 3 2
-10.887455 -3.1383848 -1.7946163 3 3
-14.819132 -4.2633157 -1.8933623 2 4
-27.378429 -7.8403044 -1.492517 11 6
-6.225945 -1.7594178 -1.7335701 4 0
-7.2528491 -2.0455153 -1.7397714 7 1
-8.7309828 -2.457458 -1.7630752 3 2
-10.885744 -3.0577958 -1.7908621 3 3
-14.783541 -4.141551 -1.8850751 2 4
-27.561981 -7.6902571 -1.4996346 11 6
-6.2452273 -1.7190491 -1.7356406 4 0
-7.2553296 -1.9930021 -1.7370721 7 1
-8.7214184 -2.3891847 -1.7577326 3 2
-10.933502 -2.989017 -1.7952422 3 3
-14.719464 -4.0157475 -1.8733757 2 4
-28.806177 -7.8210711 -1.5643219 12 6
-6.260808 -1.6764082 -1.7366759 4 0
-7.2615352 -1.940291 -1.7352724 7 1
-8.727994 -2.3272355 -1.7558244 4 2
-10.896325 -2.8992903 -1.785856 3 3
-14.714522 -3.9042339 -1.8692321 3 4
-29.839695 -7.8839898 -1.6174953 11 6
-6.2720742 -1.6337533 -1.7366759 3 0
-7.2858911 -1.8937598 -1.7379718 7 1
-8.7402277 -2.2652586 -1.7550613 4 2
-10.93925 -2.8290815 -1.7896105 3 3
-14.710004 -3.7960484 -1.8653324 3 4
-33.724339 -8.658947 -1.8247457 12 6
-6.2795811 -1.5889783 -1.7356406 3 0
-7.2913766 -1.8409404 -1.7361722 6 1
-8.7444057 -2.2013116 -1.7527716 4 2
-10.931912 -2.7459078 -1.7852304 3 3
-14.703411 -3.6850603 -1.8611888 4 4
-33.861488 -8.4426155 -1.8289325 6 6
-6.2792645 -1.5423363 -1.7325348 3 0
-7.3116217 -1.7918475 -1.7379718 7 1
-8.7519312 -2.1383486 -1.751245 4 2
-10.954654 -2.6704571 -1.785856 2 3
-14.694059 -3.5738769 -1.8568015 4 4
-33.923481 -8.2069588 -1.8291419 6 6
-6.2898788 -1.4984612 -1.7325348 3 0
-7.2898264 -1.7326496 -1.7298737 6 1
-8.7284393 -2.0681415 -1.7436126 4 2
-10.984565 -2.5966408 -1.7877333 3 3
-14.695468 -3.4657381 -1.8538766 4 4
-34.182178 -8.0173521 -1.8400277 5 6
-6.2775989 -1.4492984 -1.7263231 2 0
-7.3017449 -1.6817148 -1.7298737 7 1
-8.7637129 -2.0119896 -1.7478106 12 2
-10.979318 -2.5146015 -1.7839788 3 3
-14.688339 -3.3559887 -1.8499768 4 4
-34.72422 -7.8891506 -1.8661957 5 6
-6.2894492 -1.4058584 -1.7268407 2 0
-7.3095031 -1.6298498 -1.7289737 6 1
-8.7829542 -1.9535687 -1.7489554 19 2
-10.98461 -2.4372418 -1.7821016 3 3
-14.717227 -3.2546492 -1.850708 3 4
-36.493641 -8.030324 -1.958307 3 6
-6.2781024 -1.3585219 -1.7211467 2 0
-7.3223324 -1.5804706 -1.7294236 5 1
-8.7963781 -1.8922045 -1.7489554 4 2
-10.939551 -2.3472342 -1.7720897 3 3
-14.719627 -3.1502419 -1.8482705 3 4
-22.683203 -4.8380203 -2.02916 32 5
-36.646488 -7.7961426 -1.9635406 3 6
-6.2912159 -1.3154488 -1.722182 2 0
-7.3179269 -1.5261282 -1.7258245 4 1
-8.8439741 -1.8379407 -1.7558244 4 2
-10.953737 -2.2704062 -1.7717769 4 3
-14.717934 -3.0425839 -1.8453459 3 4
-36.813492 -7.5634241 -1.9696116 2 6
-6.2964587 -1.2707328 -1.7211467 2 0
-7.3322234 -1.4757731 -1.7267244 5 1
-8.8219404 -1.7692025 -1.7489554 4 2
-10.98288 -2.1965885 -1.773967 3 3
-14.727137 -2.9374259 -1.8438834 3 4
-38.060478 -7.5430827 -2.0334613 1 6
-6.3165545 -1.2289594 -1.7242525 2 0
-7.3174772 -1.4197249 -1.7208756 3 1
-8.7858868 -1.6982578 -1.7394148 3 2
-10.984369 -2.1172457 -1.7717769 4 3
-14.729739 -2.8311708 -1.8416896 2 4
-6.2983971 -1.1798505 -1.7170056 2 0
-7.3463669 -1.3721811 -1.7253746 3 1
-8.8380613 -1.6444231 -1.7474288 4 2
-10.991114 -2.0390675 -1.7705256 4 3
-14.727674 -2.724297 -1.8390086 3 4
-6.3102827 -1.136537 -1.7180409 2 0
-7.3346686 -1.3170735 -1.7204256 2 1
-8.8200617 -1.5790365 -1.7417046 3 2
-10.993071 -1.9621261 -1.7686483 4 3
-14.717016 -2.6162007 -1.8353524 2 4
-46.441929 -8.2056866 -2.4716182 0 6
-6.3140655 -1.0928988 -1.7170056 2 0
-7.3549857 -1.2691054 -1.7231251 2 1
-8.7960434 -1.5114357 -1.7348354 3 2
-10.98703 -1.8819942 -1.7655195 13 3
-14.703176 -2.5106182 -1.8314526 2 4
-6.3329763 -1.0506889 -1.7201115 2 0
-7.3675117 -1.2183629 -1.7240249 2 1
-8.8257513 -1.4531826 -1.7386516 3 2
-11.029141 -1.8100458 -1.7702127 9 3
-14.700753 -2.4047084 -1.8290153 2 4
-6.3325257 -1.0052392 -1.7180409 2 0
-7.3373423 -1.1608081 -1.7150269 3 1
-8.8085318 -1.387256 -1.733309 3 2
-11.059072 -1.7357605 -1.7730285 4 3
-14.717183 -2.3020194 -1.8290153 2 4
-6.3355684 -0.96042788 -1.7170056 2 0
-7.3683896 -1.1130482 -1.7204256 3 1
-8.810235 -1.3245593 -1.7317824 3 2
-11.041617 -1.6541213 -1.7683355 4 3
-14.719152 -2.1971664 -1.827309 3 4
-6.338295 -0.91562134 -1.7159703 2 0
-7.3566918 -1.0588057 -1.7159266 2 1
-8.8892317 -1.2730418 -1.7455208 3 2
-11.052896 -1.5769987 -1.7683355 4 3
-14.722341 -2.0926776 -1.8258467 3 4
-6.3368773 -0.87029803 -1.7138997 2 0
-7.3523197 -1.0058357 -1.7132272 2 1
-8.7889643 -1.1961263 -1.7241502 3 2
-11.044061 -1.4971428 -1.7652067 4 3
-14.699214 -1.9847982 -1.8212155 4 4
-6.3638716 -0.82878137 -1.7195939 2 0
-7.3746233 -0.95648754 -1.7168264 2 1
-8.8555145 -1.1422735 -1.7355988 3 2
-11.03857 -1.4179909 -1.7627038 4 3
-14.685144 -1.878607 -1.8178033 4 4
-6.3618326 -0.78339005 -1.7175232 2 0
-7.3811207 -0.90498143 -1.7168264 2 1
-8.8281937 -1.0761465 -1.7287296 3 2
-11.067809 -1.3432724 -1.7658324 3 3
-14.650605 -1.7703243 -1.8119535 4 4
-6.3556328 -0.73762077 -1.7144175 2 0
-7.387259 -0.85342765 -1.7168264 2 1
-8.8003836 -1.0104588 -1.7218604 3 2
-11.018041 -1.2592428 -1.7564464 3 3
-14.631049 -1.6644107 -1.8080537 4 4
-6.3567867 -0.69281352 -1.7133821 2 0
-7.3620386 -0.79847383 -1.709628 2 1
-8.8578072 -0.95601034 -1.7317824 3 2
-11.053853 -1.1871719 -1.7608266 2 3
-14.648233 -1.562858 -1.808785 3 4
-6.3844175 -0.65188289 -1.7195939 2 0
-7.3828135 -0.74991894 -1.7132272 2 1
-8.891613 -0.89690852 -1.7371252 3 2
-11.026492 -1.1064224 -1.7551949 2 3
-14.634829 -1.4607482 -1.80586 3 4
-6.3657346 -0.60510314 -1.7133821 2 0
-7.3723483 -0.69689345 -1.709628 2 1
-8.8702917 -0.83224183 -1.7317824 3 2
-11.031981 -1.0292325 -1.754882 2 3
-14.63281 -1.3574456 -1.8043977 3 4
-6.3505597 -0.55895185 -1.7082058 2 0
-7.3692689 -0.64472669 -1.7078284 2 1
-8.8445921 -0.76758152 -1.7256767 3 2
-11.027089 -0.95117378 -1.7530048 2 3
-14.610285 -1.2525468 -1.8004979 3 4
-6.3870416 -0.51725549 -1.7170056 3 0
-7.3541651 -0.5917027 -1.7033294 3 1
-8.8300419 -0.70579612 -1.7218604 3 2
-11.033308 -0.87609261 -1.7530048 2 3
-14.594927 -1.1486448 -1.797573 3 4
-6.3576627 -0.47134006 -1.7082058 2 0
-7.3735704 -0.54277509 -1.7069286 2 1
-8.8073397 -0.6421349 -1.7165178 3 2
-10.999751 -0.79619193 -1.7467474 2 3
-14.602589 -1.0467285 -1.797573 2 4
-6.3570175 -0.42557555 -1.7071705 2 0
-7.357821 -0.48870569 -1.7024295 3 1
-8.8311996 -0.58192337 -1.7203341 3 2
-10.981512 -0.71591979 -1.742993 2 3
-14.597655 -0.94398558 -1.7961105 2 4
-6.3559771 -0.38095522 -1.7061353 2 0
-7.355217 -0.4369815 -1.7010798 3 1
-8.8429766 -0.5191741 -1.7218604 3 2
-11.017796 -0.64107019 -1.747999 2 3
-14.532544 -0.83794147 -1.7873359 2 4
-6.3797021 -0.33769611 -1.7118292 3 0
-7.3483586 -0.38511184 -1.6988304 2 1
-8.8463058 -0.45897183 -1.7218604 3 2
-11.021904 -0.56606209 -1.747999 2 3
-14.549935 -0.73707086 -1.7887983 2 4
-6.362555 -0.29337311 -1.7066529 3 0
-7.3605433 -0.33552781 -1.7010798 3 1
-8.7943783 -0.39473689 -1.7111752 3 2
-11.005853 -0.4882254 -1.7448702 2 3
-14.546683 -0.6376676 -1.7878234 2 4
-6.3490052 -0.24834441 -1.7025118 3 0
-7.3529701 -0.28375939 -1.6988304 4 1
-8.7929382 -0.33471891 -1.710412 3 2
-11.001025 -0.41300574 -1.7436188 2 3
-14.511106 -0.53463525 -1.7829487 2 4
-6.3273783 -0.20437387 -1.6963001 3 0
-7.3410964 -0.23326941 -1.6956811 3 1
-8.8382311 -0.27466398 -1.7188075 3 2
-11.011538 -0.33643267 -1.7448702 3 3
-14.518377 -0.43596789 -1.7834362 2 4
-6.3518257 -0.16078208 -1.7025118 3 0
-7.3250132 -0.18157856 -1.6916319 4 1
-8.8163433 -0.21392608 -1.714228 3 2
-10.978026 -0.26062766 -1.7392386 3 3
-14.497252 -0.33405459 -1.7805113 2 4
-6.3489099 -0.11747127 -1.7014765 3 0
-7.3299761 -0.13178453 -1.6925317 4 1
-8.8215485 -0.15244113 -1.7149915 3 2
-10.967728 -0.18378428 -1.7373614 3 3
-14.485296 -0.23514144 -1.7788051 2 4
-6.3457117 -0.073101677 -1.7004411 3 0
-7.3307176 -0.080610186 -1.6925317 4 1
-8.7438717 -0.090044849 -1.6997266 3 2
-10.952942 -0.10705617 -1.7348584 3 3
-14.456809 -0.13373385 -1.775149 2 4
-6.3344765 -0.028745875 -1.6973354 3 0
-7.3349991 -0.029445812 -1.6934315 4 1
-8.7756996 -0.029100996 -1.7058325 3 2
-10.961323 -0.030609677 -1.7361099 3 3
-14.463346 -0.032816552 -1.7758802 2 4
-6.3287272 0.01546365 -1.6957825 2 0
-7.3389235 0.021774417 -1.6943314 1 1
-8.7639084 0.032120377 -1.7035428 3 2
-10.909911 0.04569779 -1.7279752 3 3
-14.435431 0.068023026 -1.7724679 2 4
-6.3419876 0.059773568 -1.6994059 3 0
-7.3405409 0.073028617 -1.6947813 3 1
-8.7909546 0.093595833 -1.7088854 3 2
-10.909326 0.12186221 -1.7279752 3 3
-14.390936 0.16828902 -1.7671057 2 4
-6.3607316 0.10436447 -1.7045823 3 0
-7.3184195 0.12391059 -1.6898323 3 1
-8.7704582 0.15461993 -1.7050693 3 2
-10.924009 0.19830751 -1.7304782 3 3
-14.39338 0.26882672 -1.7675931 2 4
-6.3270154 0.14799868 -1.6957825 2 0
-7.319324 0.17504461 -1.6902822 3 1
-8.7966423 0.21651973 -1.710412 3 2
-10.922359 0.27456665 -1.7304782 2 3
-14.339557 0.36798087 -1.7612559 2 4
-6.3547921 0.19304584 -1.703547 3 0
-7.335454 0.22668059 -1.6943314 2 1
-8.8067389 0.2767638 -1.7127017 3 2
-10.920237 0.34890658 -1.7304782 2 3
-14.372352 0.46924686 -1.7656432 2 4
-6.3591228 0.23651105 -1.7050999 2 0
-7.3415308 0.27689835 -1.696131 3 1
-8.8045921 0.33823758 -1.7127017 3 2
-10.885953 0.42390329 -1.7254723 2 3
-14.343038 0.56604463 -1.7624747 2 4
-6.3322272 0.27979326 -1.6983706 2 0
-7.3199506 0.32727647 -1.6916319 3 1
-8.8020163 0.39969489 -1.7127017 3 2
-10.886675 0.50006992 -1.7260981 2 3
-14.358566 0.66708535 -1.7649119 2 4
-6.3436246 0.32468343 -1.7019941 2 0
-7.3408408 0.37957719 -1.6970307 2 1
-8.7990112 0.46113691 -1.7127017 3 2
-10.878973 0.57585484 -1.7254723 2 3
-14.298056 0.76434368 -1.7580873 2 4
-6.3045602 0.36683029 -1.6921589 2 0
-7.3029952 0.42876256 -1.6889325 2 1
-8.7799892 0.52009052 -1.7096486 3 2
-10.886633 0.65059948 -1.7273496 2 3
-14.312186 0.86533898 -1.7605247 2 4
-6.3019171 0.40973568 -1.6921589 2 0
-7.3193536 0.4797354 -1.6934315 2 1
-8.7918177 0.58240986 -1.7127017 3 2
-10.862115 0.72526801 -1.7242209 2 3
-14.339634 0.96500492 -1.7646682 2 4
-6.2989035 0.45371985 -1.6921589 2 0
-7.3080511 0.53025836 -1.6916319 2 1
-8.6896353 0.63660192 -1.6936207 3 2
-10.864668 0.80166364 -1.7254723 2 3
-14.27514 1.0608249 -1.7575998 2 4
-6.2878785 0.49707446 -1.6900884 2 0
-7.3041711 0.58126521 -1.6916319 2 1
-8.7476025 0.70227903 -1.7058325 3 2
-10.839116 0.87590265 -1.7223436 2 3
-14.275299 1.1611018 -1.7585747 2 4
-6.284255 0.54096001 -1.6900884 2 0
-7.3077011 0.63291466 -1.6934315 2 1
-8.72684 0.76196343 -1.7027797 3 2
-10.852415 0.95327854 -1.7254723 2 3
-14.235207 1.2579381 -1.7546749 2 4
-6.3034077 0.5869686 -1.6963001 2 0
-7.2875829 0.68246305 -1.6898323 2 1
-8.7603998 0.82655811 -1.710412 3 2
-10.82583 1.0271536 -1.7223436 2 3
-14.23177 1.3603339 -1.7554061 2 4
-6.2836685 0.63051671 -1.6921589 2 0
-7.3174124 0.73811466 -1.6979306 2 1
-8.6958179 0.88175529 -1.6989634 3 2
-10.810343 1.1037952 -1.7210922 2 3
-14.233773 1.4608767 -1.7568686 2 4
-6.2810349 0.67457443 -1.6926767 2 0
-7.2694569 0.78457975 -1.6880326 3 1
-8.7361279 0.94904727 -1.7081223 3 2
-10.790592 1.1779499 -1.719215 2 3
-14.211389 1.5589094 -1.7554061 2 4
-20.774351 2.2898378 -1.8285275 36 5
-6.3222361 0.72368062 -1.7050999 2 0
-7.2483144 0.83352995 -1.6844335 2 1
-8.7021618 1.0053339 -1.7027797 3 2
-10.782323 1.251372 -1.719215 3 3
-14.196216 1.6576217 -1.7549187 2 4
-6.2845612 0.76274115 -1.6963001 2 0
-7.265686 0.88567811 -1.6898323 2 1
-8.7105207 1.0679733 -1.7058325 3 2
-10.800773 1.3299936 -1.7235951 3 3
-14.178694 1.7534866 -1.7541875 3 4
-65.387711 8.1096907 10.435745 21 12
-6.2886639 0.80782628 -1.6988882 2 0
-7.2361331 0.93338722 -1.6844335 2 1
-8.6989594 1.1282532 -1.7050693 3 2
-10.791224 1.4053649 -1.7235951 3 3
-14.126741 1.8472787 -1.7493128 13 4
-6.223526 0.84366643 -1.6828415 2 0
-7.2641969 0.98861408 -1.6925317 2 1
-8.644187 1.1825693 -1.6959105 3 2
-10.749837 1.4763671 -1.7185892 3 3
-14.058437 1.9382656 -1.742488 19 4
-6.2691216 0.89446014 -1.6968178 2 0
-7.2301116 1.0354342 -1.686233 3 1
-8.6670294 1.2458483 -1.7020162 3 2
-10.716078 1.5461174 -1.7148348 3 3
-14.123145 2.0477583 -1.7522376 3 4
-38.768864 5.662673 -2.053349 1 6
-6.218945 0.93053693 -1.6849121 2 0
-7.2190423 1.0840454 -1.6853334 3 1
-8.6309423 1.3022269 -1.6966736 3 2
-10.689398 1.6185287 -1.7123318 3 3
-14.091217 2.1411605 -1.7500439 4 4
-6.2523766 0.98021263 -1.6957825 2 0
-7.207448 1.1338117 -1.6844335 3 1
-8.6216412 1.3624483 -1.6966736 3 2
-10.658328 1.6900192 -1.7092031 24 3
-14.056322 2.2363613 -1.7476066 4 4
-38.68602 6.2034235 -2.053349 1 6
-6.2568192 1.0257152 -1.6988882 2 0
-7.2147398 1.1866317 -1.6880326 3 1
-8.5925503 1.4194039 -1.6928575 3 2
-10.640423 1.7634157 -1.7082645 31 3
-14.044282 2.3350894 -1.7480941 4 4
-38.740261 6.4898424 -2.0585828 0 6
-6.2152309 1.0635046 -1.6895708 2 0
-7.2062802 1.2369694 -1.6880326 3 1
-8.5826893 1.4778587 -1.6928575 3 2
-10.647639 1.8391669 -1.7113932 5 3
-14.023727 2.4324017 -1.7476066 4 4
-38.203308 6.6675415 -2.0324149 1 6
-6.1964364 1.1037531 -1.6864649 2 0
-7.1957746 1.2856497 -1.6875829 3 1
-8.5605679 1.5356612 -1.6905679 3 2
-10.640372 1.9145035 -1.7123318 4 3
-14.26862 2.5750406 -1.7802675 5 4
-37.62133 6.8369536 -2.0039439 2 6
-6.1809816 1.1455772 -1.6843945 2 0
-7.1732125 1.3333614 -1.6844335 5 1
-8.547987 1.593536 -1.6901863 25 2
-10.617386 1.9850709 -1.7107675 4 3
-14.283463 2.6808167 -1.7844112 7 4
-37.240276 7.0298939 -1.9861497 2 6
-6.2012887 1.1941788 -1.6921589 3 0
-7.1675568 1.3841448 -1.6853334 5 1
-8.5325098 1.6539159 -1.6894228 25 2
-10.59903 2.0602424 -1.7101418 5 3
-14.199617 2.7704139 -1.7763678 9 4
-36.361946 7.1339245 -1.9419782 3 6
-6.1869016 1.2373871 -1.6906061 2 0
-7.1402717 1.4319504 -1.6812842 6 1
-8.5438538 1.7180864 -1.6940023 4 2
-10.599508 2.1391585 -1.7126448 5 3
-14.078756 2.8490047 -1.7636933 9 4
-35.409702 7.210618 -1.8938291 4 6
-6.1800036 1.2809416 -1.6911237 3 0
-7.1339164 1.4825571 -1.682184 6 1
-8.535182 1.7799841 -1.6947654 4 2
-10.584315 2.2131073 -1.7126448 5 3
-13.967207 2.9280801 -1.7522376 7 4
-34.651062 7.3084292 -1.8559378 5 6
-6.1595774 1.3216233 -1.6880178 3 0
-8.5247898 1.8384523 -1.6951473 4 2
-10.569007 2.2850988 -1.7126448 5 3
-13.895988 3.0145729 -1.7459003 7 4
-33.866779 7.3841519 -1.8165812 6 6
-6.1730719 1.3685373 -1.6942296 3 0
-7.0975785 1.5773948 -1.6785848 43 1
-8.5174942 1.8992033 -1.696292 4 2
-10.624125 2.3747723 -1.7242209 6 3
-13.849965 3.1034477 -1.7427318 9 4
-33.066216 7.4517879 -1.7763872 7 6
-6.1257052 1.4029729 -1.6838769 3 0
-7.1224813 1.6351902 -1.687133 7 1
-8.4772444 1.9524517 -1.6909494 4 2
-10.755492 2.4831009 -1.7483118 8 3
-13.789281 3.1911116 -1.737857 9 4
-32.196373 7.4923267 -1.732425 8 6
-6.1157613 1.4457057 -1.6838769 3 0
-7.0976181 1.6817311 -1.6839837 7 1
-8.4710484 2.0134006 -1.6924759 4 2
-10.739818 2.5585833 -1.7486247 9 3
-13.720328 3.276233 -1.7320073 9 4
-31.599497 7.5863662 -1.7031168 9 6
-6.08112 1.4824171 -1.6771475 20 0
-7.0970626 1.7340143 -1.6866829 7 1
-8.4533329 2.0700803 -1.6917126 4 2
-10.683784 2.6222105 -1.7423673 9 3
-13.67399 3.3662477 -1.7290823 9 4
-30.802605 7.6171699 -1.6629229 9 6
-6.0821309 1.5265974 -1.6802533 21 0
-7.0888753 1.7832333 -1.6875829 7 1
-8.4539032 2.1328852 -1.6947654 4 2
-10.603932 2.6812377 -1.7323555 9 3
-13.621898 3.4519281 -1.7254263 7 4
-30.024817 7.6476436 -1.6237755 10 6
-6.0731959 1.5695034 -1.680771 5 0
-7.061162 1.8287691 -1.6839837 7 1
-8.4616098 2.1977775 -1.699345 4 2
-10.493196 2.7313168 -1.7173377 9 3
-13.605148 3.5489471 -1.7264012 7 4
-28.778666 7.5445776 -1.559193 24 6
-6.0919623 1.6198068 -1.6890532 4 0
-7.0369239 1.8750103 -1.6812842 7 1
-8.5883141 2.2948053 -1.7279664 6 2
-10.431893 2.7932639 -1.7104547 9 3
-13.564703 3.6397235 -1.7244513 7 4
-29.35202 7.9142857 -1.5932113 11 6
-6.0842323 1.663316 -1.6900884 4 0
-7.027421 1.9251212 -1.682184 7 1
-8.5682974 2.353667 -1.727203 6 2
-10.36262 2.8523965 -1.7023201 9 3
-13.515998 3.728004 -1.7215265 7 4
-27.259712 7.5546565 -1.4824685 11 6
-6.0352745 1.6953028 -1.6797357 4 0
-7.0250654 1.9773029 -1.6848834 7 1
-8.5270939 2.4064956 -1.722242 7 2
-10.30824 2.9149938 -1.6966884 9 3
-13.439985 3.8081987 -1.7151892 7 4
-26.422558 7.5216794 -1.4397624 22 6
-6.0232925 1.7373943 -1.6797357 4 0
-7.003602 2.024133 -1.6830838 6 1
-8.4836874 2.4583156 -1.7168994 10 2
-10.2478 2.9753213 -1.6901182 8 3
-13.397824 3.8974988 -1.7132393 10 4
-24.870249 7.2678552 -1.3579088 11 6
-6.022131 1.7826926 -1.6828415 4 0
-7.0005097 2.0763028 -1.6857833 7 1
-8.4362087 2.5085318 -1.7107936 9 2
-10.217313 3.0439718 -1.6885538 9 3
-13.360777 3.9880996 -1.7120206 9 4
-19.335686 5.7862673 -1.7657752 38 5
-24.562546 7.3644428 -1.3438828 11 6
-6.0169325 1.8269366 -1.6849121 4 0
-6.9970303 2.1285281 -1.6884826 7 1
-8.3771782 2.5547655 -1.7023981 9 2
-10.173143 3.108299 -1.6847994 9 3
-13.343999 4.0847611 -1.7134831 9 4
-19.207203 5.8942323 -1.7577569 38 5
-24.216537 7.445353 -1.3277633 10 6
-6.0003428 1.8677484 -1.6838769 5 0
-7.0340905 2.1935687 -1.7010798 8 1
-8.3329039 2.6049857 -1.6970552 9 2
-10.147426 3.1780643 -1.6841737 9 3
-13.300004 4.1730661 -1.7115332 9 4
-19.116169 6.0126324 -1.7532248 38 5
-24.544954 7.7342792 -1.3486977 11 6
-5.9871569 1.9095945 -1.6838769 5 0
-7.0687246 2.2586372 -1.7132272 10 1
-8.2846003 2.6535156 -1.6909494 7 2
-10.111825 3.2446046 -1.6819836 8 3
-13.255428 4.2609558 -1.7095833 9 4
-18.952358 6.1068397 -1.742069 39 5
-24.543579 7.9226327 -1.3516285 22 6
-5.9663343 1.9489454 -1.6818062 4 0
-7.0250034 2.2988384 -1.7064787 9 1
-8.2099094 2.6929295 -1.6795008 7 2
-10.0589 3.3052528 -1.6769776 8 3
-13.221587 4.3521509 -1.7090958 9 4
-18.558411 6.1196446 -1.7096471 38 5
-21.967413 7.2607718 -1.2125195 41 6
-5.9599113 1.9930015 -1.6838769 4 0
-7.0069356 2.3472071 -1.7060288 12 1
-34.399353 11.52989 1.9013655 3 9
-8.2286139 2.7612436 -1.6871332 7 2
-10.047402 3.3774214 -1.6788548 8 3
-13.190882 4.444346 -1.7090958 9 4
-18.469927 6.2337666 -1.7054635 37 5
-23.141636 7.8240089 -1.2802423 10 6
-5.9388962 2.0310214 -1.6818062 4 0
-6.9262719 2.3727415 -1.6902822 11 1
-8.1794271 2.8084204 -1.6810273 7 2
-10.031053 3.4500511 -1.6801064 8 3
-13.190354 4.5443764 -1.7129956 9 4
-18.282827 6.3131361 -1.6922158 37 5
-22.905247 7.9227004 -1.2701937 10 6
-5.9646888 2.0864675 -1.6931943 4 0
-6.916894 2.4236176 -1.6920818 10 1
-8.1225748 2.852443 -1.673395 7 2
-9.9955425 3.5160615 -1.6782292 8 3
-13.137712 4.6290917 -1.7103145 7 4
-18.050444 6.3742728 -1.6747848 36 5
-26.965471 9.5383778 -1.4990066 11 6
-5.9517965 2.1287072 -1.6937119 6 0
-6.8851295 2.4665878 -1.6884826 11 1
-8.111702 2.9123991 -1.6753031 6 2
-9.9726095 3.5864286 -1.678542 9 3
-13.112546 4.723392 -1.7112895 7 4
-19.586246 7.0823884 -1.0915188 39 6
-6.0365834 2.2066865 -1.722182 9 0
-6.8567619 2.5105748 -1.6857833 13 1
-8.0653687 2.9594882 -1.6699605 6 2
-9.934351 3.651191 -1.6763519 9 3
-13.088566 4.8182454 -1.7125082 9 4
-17.585835 6.4877563 -1.6399224 35 5
-26.00909 9.6107349 -1.4531603 11 6
-6.0431418 2.2558324 -1.7283937 9 0
-6.8066583 2.5449049 -1.6776849 12 1
-28.089794 10.513513 1.5718583 8 9
-8.0395222 3.0122526 -1.6688155 7 2
-9.9055681 3.717339 -1.6757263 9 3
-13.0406 4.9016371 -1.7105582 9 4
-25.483374 9.6141205 -1.4274111 11 6
-5.9983649 2.2869534 -1.7201115 9 0
-6.7705212 2.5854089 -1.6731859 14 1
-8.0188332 3.0669041 -1.6688155 7 2
-9.8615894 3.777612 -1.6725975 9 3
-13.000503 4.9904242 -1.7098271 7 4
-24.988657 9.6222782 -1.4033364 11 6
-5.9430504 2.3123193 -1.7087234 9 0
-6.7418709 2.6271892 -1.6704865 14 1
-7.9752803 3.1142435 -1.6642361 7 2
-9.8349762 3.8463669 -1.6725975 9 3
-12.957953 5.0781655 -1.7088521 10 4
-24.430151 9.6035929 -1.3757031 22 6
-5.9119897 2.349081 -1.7045823 9 0
-6.7011714 2.6667192 -1.6650877 15 1
-7.9752297 3.1785665 -1.6688155 7 2
-9.7851868 3.9078517 -1.668843 9 3
-12.857676 5.142704 -1.7003212 9 4
-17.32299 6.9532628 -0.9782638 18 6
-5.8739624 2.3815854 -1.6983706 9 0
-6.6823907 2.7134373 -1.6650877 14 1
-7.9049988 3.2163169 -1.6588935 9 2
-9.7576666 3.9760699 -1.668843 9 3
-12.753456 5.2045865 -1.6913029 12 4
-17.233366 7.057375 -0.97596097 18 6
-5.8500514 2.4195831 -1.6963001 9 0
-6.630877 2.7465992 -1.6569895 15 1
-7.8823524 3.2714257 -1.6588935 7 2
-9.7260227 4.0425782 -1.6682173 9 3
-12.649003 5.2652702 -1.6822846 16 4
-16.81324 7.0227904 -0.9549219 27 6
-5.818778 2.4543574 -1.6921589 9 0
-6.6151319 2.7943399 -1.6578892 14 1
-34.148022 14.43874 1.943025 2 9
-7.8846335 3.3370883 -1.6642361 7 2
-9.6902876 4.1072965 -1.6669658 9 3
-12.55529 5.3294039 -1.6747286 19 4
-16.440399 7.0022502 -0.93649971 27 6
-5.812149 2.4994996 -1.6952648 9 0
-6.584723 2.8358307 -1.6551899 14 1
-7.8112597 3.3689103 -1.6535509 9 2
-9.6693602 4.1762943 -1.6682173 9 3
-12.452194 5.3885422 -1.6659541 19 4
-16.066229 6.9724612 -0.91786808 27 6
-5.7843852 2.5343506 -1.6921589 9 0
-6.5581303 2.8774524 -1.6533903 14 1
-7.7875509 3.4233592 -1.6535509 7 2
-9.661665 4.2532458 -1.6719718 9 3
-12.433391 5.4811845 -1.6683915 18 4
-15.735872 6.9600396 -0.90174866 27 6
-5.7559667 2.5699475 -1.6890532 9 0
-6.5343237 2.9215758 -1.6524904 12 1
-7.7515254 3.4706724 -1.6508795 6 2
-9.6252804 4.3156796 -1.6707202 9 3
-12.322389 5.5353184 -1.6586419 19 4
-15.374915 6.9258957 -0.88374507 26 6
-5.7277889 2.6042688 -1.6859473 9 0
-6.5178337 2.9675994 -1.6533903 11 1
-7.7503281 3.5352938 -1.6558405 9 2
-9.596714 4.3835921 -1.6710331 8 3
-12.183335 5.5728226 -1.6449926 19 4
-14.997258 6.872613 -1.4432992 29 5
-15.003075 6.8847852 -0.86511344 70 6
-5.702456 2.6409454 -1.6838769 9 0
-6.4863501 3.0081108 -1.6506908 10 1
-7.7076521 3.5810444 -1.6520243 9 2
-9.587369 4.4604826 -1.6747875 8 3
-11.897615 5.5428944 -1.6116004 20 4
-14.762849 6.8997154 -0.85401821 26 6
-5.6629128 2.6708028 -1.6776651 9 0
-6.4581428 3.0499921 -1.6488912 11 1
-7.6718173 3.6297274 -1.6497347 7 2
-9.5649214 4.5315328 -1.6763519 9 3
-11.71956 5.5623503 -1.5928324 19 4
-15.0402 7.1480474 -1.4568955 29 5
-14.451016 6.8773079 -0.83873612 26 6
-5.6297255 2.7045636 -1.6735239 9 0
-6.4256153 3.0910587 -1.6461918 13 1
-7.6462903 3.6831982 -1.6497347 10 2
-9.5215759 4.5947108 -1.6744747 9 3
-11.694741 5.650939 -1.5947824 19 4
-15.16928 7.3396473 -1.4743265 30 5
-14.182166 6.8742595 -0.82596612 26 6
-5.5898819 2.7336164 -1.6673124 9 0
-6.4003787 3.1341286 -1.6452919 12 1
-7.6021123 3.729171 -1.6459185 9 2
-9.4608994 4.6471353 -1.6694689 9 3
-11.614035 5.7122951 -1.5891764 24 4
-14.938933 7.3573432 -1.4568955 29 5
-13.94039 6.8776622 -0.81466156 26 6
-5.57412 2.7742958 -1.6683476 9 0
-6.3678784 3.1735187 -1.6425927 11 1
-7.5835791 3.7843373 -1.6474451 7 2
-9.3954735 4.6946497 -1.6635244 9 3
-11.72831 5.8705397 -1.6103816 14 4
-13.654051 6.8523483 -0.80063552 26 6
-5.5516605 2.8104272 -1.6673124 9 0
-6.3391767 3.2132654 -1.640793 14 1
-7.5464716 3.8318553 -1.6451553 7 2
-9.348382 4.7529659 -1.6610212 9 3
-11.440413 5.8241501 -1.5762583 19 4
-13.475165 6.8718619 -1.3233728 25 5
-13.408438 6.8466816 -0.78901696 17 6
-5.5181642 2.8420415 -1.6631712 9 0
-6.3200531 3.2592294 -1.6416928 13 1
-7.516048 3.8826444 -1.6443919 7 2
-21.993935 11.366502 2.1659944 2 10
-9.2991819 4.8099461 -1.6582055 8 3
-11.284899 5.8445373 -1.5604153 20 4
-13.253543 6.8758554 -1.3062903 24 5
-18.122734 9.4140081 -1.0702704 9 6
-5.4776545 2.8697369 -1.6569597 9 0
-6.304049 3.3068917 -1.6434923 12 1
-7.4783311 3.9295421 -1.6421022 7 2
-9.2478933 4.8655519 -1.6550769 8 3
-11.150737 5.8741422 -1.547497 15 4
-12.825785 6.7651286 -1.268639 23 5
-12.723482 6.7225256 -0.75416124 52 6
-5.4574866 2.9079084 -1.6569597 9 0
-6.2704921 3.3453195 -1.640793 14 1
-7.4340935 3.9711046 -1.6382861 9 2
-9.2006254 4.9209342 -1.6525738 8 3
-10.983471 5.8843498 -1.5299479 18 4
-12.676411 6.7998796 -1.2585289 45 5
-17.238136 9.2585058 -1.0254709 9 6
-5.4273748 2.9394689 -1.6538538 9 0
-6.2304463 3.3786328 -1.6362939 14 1
-7.4303427 4.036025 -1.6436287 7 2
-9.1157236 4.9576755 -1.6435007 11 3
-10.918757 5.945683 -1.5265356 15 4
-12.523682 6.8309689 -1.2480702 22 5
-17.18009 9.3824539 -1.0258895 19 6
-5.4134898 2.9810147 -1.6559243 7 0
-6.2032943 3.4201655 -1.6353942 14 1
-7.4174528 4.0963402 -1.6470633 6 2
-18.94257 10.465487 1.8933713 1 10
-9.0238419 4.9896526 -1.633176 14 3
-10.915188 6.0429201 -1.5318978 14 4
-12.277054 6.8080807 -1.2281988 21 5
-16.9186 9.3935757 -1.0141662 9 6
-5.3925471 3.018734 -1.6559243 9 0
-6.1690669 3.4576712 -1.6326947 15 1
-7.3869605 4.1470647 -1.6466817 7 2
-8.931963 5.020586 -1.6228514 22 3
-10.71358 6.0294027 -1.5094738 18 4
-12.04872 6.7918739 -1.2100704 21 5
-16.250792 9.1718063 -0.9779498 9 6
-5.3713408 3.0563078 -1.6559243 9 0
-6.1346178 3.4948673 -1.6299953 14 1
-7.3407788 4.1888027 -1.6428655 7 2
-8.8332338 5.0465612 -1.6112752 17 3
-9.9440737 5.6881094 -1.4066161 5 4
-11.873083 6.8025303 -1.1971713 30 5
-16.562311 9.5006838 -1.0006636 18 6
-5.3364944 3.0859957 -1.6517832 9 0
-6.1168156 3.5415156 -1.6317949 15 1
-7.2943721 4.2301016 -1.6390493 7 2
-8.7465372 5.0783525 -1.6018891 20 3
-10.468746 6.0856209 -1.4868062 9 4
-11.715109 6.8210897 -1.1860154 20 5
-15.665626 9.1322536 -0.95031637 9 6
-16.229149 9.472147 -0.32800052 36 7
-5.318151 3.1251333 -1.6528184 9 0
-6.0919418 3.5841324 -1.6317949 15 1
-7.251132 4.2729473 -1.6359965 7 2
-8.755106 5.1653867 -1.6100237 17 3
-10.226032 6.0404315 -1.4582887 19 4
-15.866123 9.3981571 -0.96643591 9 6
-5.2829342 3.1542623 -1.6486773 9 0
-6.0600805 3.6225755 -1.6299953 14 1
-7.2076502 4.3153958 -1.6329435 7 2
-8.7120543 5.2223206 -1.6087722 17 3
-9.8363857 5.9032884 -1.408566 18 4
-15.892535 9.5643015 -0.97208816 18 6
-5.2607856 3.191066 -1.6486773 9 0
-6.0313129 3.6627703 -1.6290956 15 1
-7.1572185 4.3533688 -1.6283641 7 2
-8.6686344 5.2789049 -1.6075207 17 3
-10.167815 6.1991553 -1.4621885 14 4
-13.340891 8.156106 -0.81947649 8 6
-5.2350903 3.2256887 -1.6476421 9 0
-6.0089116 3.7068336 -1.6299953 14 1
-7.1433554 4.413547 -1.6321803 7 2
-21.857595 13.510072 2.248095 5 10
-8.64501 5.3476062 -1.6100237 17 3
-9.9622755 6.1696506 -1.4387896 11 4
-15.148323 9.4070053 -0.93451095 18 6
-5.2157183 3.2642074 -1.6486773 9 0
-5.9828863 3.7486932 -1.6299953 15 1
-7.0840988 4.445569 -1.6256927 6 2
-15.905689 9.9853573 1.6430601 4 10
-8.5740137 5.3868122 -1.6037663 18 3
-9.8584681 6.2010031 -1.430015 16 4
-10.444977 6.5800958 -1.0800339 16 5
-10.409614 6.5654335 -0.64498836 35 6
-5.196063 3.302613 -1.6497126 9 0
-5.9434171 3.782001 -1.6263962 14 1
-7.046267 4.4906964 -1.6241663 6 2
-8.4729166 5.4061627 -1.5918773 18 3
-9.7798071 6.2472334 -1.4248965 9 4
-10.407174 6.6582265 -1.0809054 40 5
-14.892729 9.5389547 -0.92686987 18 6
-5.1663885 3.3346164 -1.6476421 9 0
-5.9070492 3.8170545 -1.6236967 15 1
-7.0180426 4.5419106 -1.6249295 6 2
-8.381918 5.4308105 -1.5818655 16 3
-9.6376953 6.2516203 -1.4105159 13 4
-13.476302 8.7649927 -0.84250432 8 6
-5.1332879 3.3642495 -1.6445363 9 0
-5.8802576 3.8582001 -1.6236967 14 1
-6.9648318 4.5767808 -1.6199685 7 2
-8.3471003 5.4913664 -1.5824912 15 3
-9.5540285 6.2925458 -1.4046662 13 4
-13.434782 8.8720684 -0.84376043 8 6
-5.0935922 3.3893027 -1.6393598 9 0
-5.8402042 3.8905146 -1.6200974 14 1
-6.9335184 4.6240807 -1.6199685 7 2
-8.2668152 5.5195351 -1.5743566 17 3
-9.496665 6.3502626 -1.4027163 10 4
-13.775584 9.232399 -0.86909097 8 6
-5.0607986 3.4174087 -1.6362541 9 0
-5.8135867 3.9301777 -1.6200974 14 1
-6.9124475 4.6800785 -1.6226398 6 2
-8.234622 5.5815473 -1.5756081 17 3
-9.5139971 6.4559994 -1.4117346 9 4
-13.598509 9.2519455 -0.86197329 17 6
-5.0384111 3.4537473 -1.6367717 10 0
-5.7635136 3.95523 -1.6137989 14 1
-6.8618083 4.7159905 -1.6184419 7 2
-8.1596527 5.6142664 -1.5687251 14 3
-9.4409027 6.5031185 -1.407591 10 4
-12.775666 8.8133402 -1.3578864 26 5
-13.315011 9.1957016 -0.84805191 17 6
-5.0189333 3.4921494 -1.6383246 9 0
-5.7389574 3.9975996 -1.6146986 14 1
-6.8158374 4.7547922 -1.6153891 9 2
-8.0716734 5.6371603 -1.5593389 12 3
-9.291153 6.4960704 -1.3919919 13 4
-13.183435 9.2414303 -0.84376043 17 6
-4.9912758 3.5248728 -1.6372893 9 0
-5.704545 4.0330667 -1.6128991 14 1
-8.5331526 6.0351019 0.54774815 8 9
-6.7785058 4.7976727 -1.6142441 6 2
-8.5000124 6.0205703 0.91130042 12 10
-7.8203607 5.5412216 -1.5180402 18 3
-9.245574 6.5607781 -1.3919919 13 4
-8.3921833 5.9574008 1.6300472 24 12
-8.3637486 5.9460011 1.9947174 28 13
-8.5173225 6.0574217 -0.54774815 21 6
-8.3401031 5.93577 2.3633358 24 14
-8.572341 6.1055651 -0.18370403 24 7
-4.9546041 3.5497646 -1.6331483 9 0
-8.4864845 6.0846925 0.18227293 43 8
-5.6927962 4.0831609 -1.6173981 14 1
-8.4064379 6.0339661 0.54230523 25 9
-6.7241182 4.829989 -1.6092831 7 2
-8.3746986 6.0178308 0.90223622 18 10
-7.973937 5.734076 -1.5555844 16 3
-8.3559523 6.0132098 1.2640289 37 11
-8.4907742 6.1147313 -1.2847468 7 4
-8.3055105 5.9835129 1.621287 21 12
-8.4654388 6.103219 -0.91304356 26 5
-8.4327202 6.0863428 -0.54502672 21 6
-8.2795038 5.9801579 2.3579369 19 14
-8.4614391 6.1160626 -0.18223803 30 7
-8.2610025 5.9733791 2.7315764 16 15
-4.9415741 3.594219 -1.6372893 9 0
-8.3969088 6.1096702 0.18126069 53 8
-5.669733 4.1283813 -1.6191977 14 1
-8.3695021 6.0986719 0.54272395 23 9
-6.693408 4.879128 -1.6100464 9 2
-8.3507376 6.0916953 0.90432799 24 10
-7.9071751 5.7723517 -1.5505786 14 3
-8.3137684 6.0713983 1.2640289 37 11
-8.4430723 6.1703434 -1.2840155 9 4
-8.2879925 6.061451 1.6262929 26 12
-8.4451342 6.1786432 -0.91548389 13 5
-8.2878342 6.0679979 1.9966254 33 13
-8.3953962 6.1512523 -0.54544538 10 6
-8.2689886 6.0608525 2.366935 19 14
-8.4153109 6.1726179 -0.18216823 12 7
-8.235177 6.0449142 2.7372704 18 15
-4.9101448 3.6240401 -1.6352189 9 0
-8.3738852 6.1850457 0.18171446 43 8
-5.6313705 4.160913 -1.6164982 14 1
-8.352417 6.175951 0.54439867 23 9
-6.6520095 4.9222283 -1.6085199 10 2
-8.3384342 6.1723666 0.90763986 23 10
-7.8063645 5.7827339 -1.5386896 14 3
-8.3131685 6.162652 1.2706099 29 11
-8.3886261 6.2208619 -1.2823093 12 4
-8.3200283 6.1744933 1.6409978 17 12
-8.3783131 6.2222838 -0.91304356 19 5
-8.3506451 6.2085214 -0.54534072 21 6
-8.4169292 6.2646475 -0.18314555 12 7
-4.8940024 3.665179 -1.6383246 9 0
-8.3833075 6.2829313 0.18286632 10 8
-5.6053033 4.2024641 -1.6173981 13 1
-6.6143451 4.9661894 -1.6077567 10 2
-7.6773782 5.7706246 -1.5211689 12 3
-8.7716818 6.600337 -1.347875 9 4
-12.205534 9.2075529 -0.80126357 17 6
-4.8498373 3.6852307 -1.632113 9 0
-5.5758281 4.2414937 -1.6173981 14 1
-6.5888853 5.019382 -1.6100464 9 2
-7.6180539 5.80971 -1.5174146 14 3
-8.8058567 6.7228513 -1.3603058 7 4
-11.798377 9.0303297 -0.7786544 17 6
-4.839292 3.730793 -1.6372893 9 0
-5.5584235 4.2898412 -1.6209973 13 1
-6.5203862 5.0377092 -1.6016507 15 2
-7.4970813 5.798584 -1.5011454 15 3
-8.5766611 6.6431541 -1.332032 14 4
-8.2940598 6.4381685 -0.55026031 31 6
-4.7955222 3.7493682 -1.6310778 9 0
-5.5229564 4.322772 -1.6191977 13 1
-6.4788771 5.0782633 -1.6001244 13 2
-7.4533076 5.8483424 -1.5005195 15 3
-8.2408838 6.473299 -1.2866967 19 4
-8.2364521 6.4767938 -0.91670412 39 5
-8.2457705 6.493443 -0.55005091 42 6
-4.7722569 3.7851567 -1.632113 9 0
-11.722103 9.3008204 0.26119271 22 8
-5.4682245 4.3418355 -1.6119993 14 1
-6.4410868 5.1198006 -1.5993611 13 2
-7.4442439 5.9235387 -1.506777 11 3
-8.2110176 6.5430427 -1.289134 31 4
-8.2408752 6.5738955 -0.9222821 32 5
-11.304016 9.0271082 -0.75813878 17 6
-4.743371 3.8151312 -1.6310778 9 0
-5.4476509 4.3862891 -1.6146986 14 1
-6.421999 5.1781988 -1.6035589 12 2
-7.3135552 5.9034019 -1.4886307 15 3
-8.3531151 6.7497492 -1.3186264 9 4
-11.290384 9.1460323 -0.76148826 8 6
-4.7136278 3.8457098 -1.6300424 9 0
-5.4078412 4.4168167 -1.6119993 11 1
-6.3577261 5.1981792 -1.5963081 13 2
-7.2640324 5.945538 -1.4867533 14 3
-12.655748 10.365988 2.0086505 3 11
-8.1200228 6.6556325 -1.289134 7 4
-11.170763 9.175765 -0.75761539 17 6
-4.6717806 3.8662078 -1.624866 9 0
-5.3678694 4.4470043 -1.6092998 12 1
-6.2810812 5.2109494 -1.586386 13 2
-7.2243404 5.9998908 -1.4873791 11 3
-7.8871355 6.5573292 -1.2593979 19 4
-10.505321 8.7433834 -1.1957767 20 5
-4.6624327 3.9136322 -1.6310778 9 0
-5.3307261 4.4793549 -1.6075002 10 1
-10.21437 8.5860739 0.6993131 2 9
-6.2649965 5.2700119 -1.5913471 10 2
-7.1380029 6.0107546 -1.4779931 11 3
-7.7698388 6.5520883 -1.2479422 21 4
-13.688298 11.567509 -0.9392212 27 6
-4.6298008 3.9402692 -1.6290071 9 0
-5.2852788 4.5028982 -1.6030012 12 1
-6.2146111 5.3021536 -1.5879126 16 2
-6.9456563 5.9321499 -1.4467061 16 3
-7.642446 6.5364962 -1.2347803 23 4
-10.42157 8.9229012 -1.2003088 20 5
-13.4495 11.527611 -0.92833531 9 6
-4.6044106 3.9758236 -1.6300424 9 0
-5.2588186 4.5457015 -1.6048008 12 1
-6.1804128 5.34798 -1.5886757 19 2
-7.0373893 6.098124 -1.4748644 9 3
-7.5351429 6.5363607 -1.224787 23 4
-13.42695 11.675982 -0.93252218 18 6
-4.5852628 4.0155067 -1.6331483 9 0
-5.2357488 4.5900102 -1.6075002 11 1
-6.1508379 5.3998404 -1.5909655 15 2
-6.9456778 6.104075 -1.4645396 9 3
-7.4118276 6.5206227 -1.2121125 21 4
-7.4446163 6.5563865 -0.86789685 12 5
-13.255232 11.690169 -0.92624182 18 6
-4.5397844 4.0320258 -1.6269366 9 0
-5.191926 4.6160922 -1.6039009 11 1
-6.1183405 5.445497 -1.5921104 12 2
-6.8892202 6.1380692 -1.4614109 9 3
-7.3128018 6.5246291 -1.203338 23 4
-7.2991042 6.5192757 -0.85621798 30 5
-10.221361 9.1389465 -0.71857274 17 6
-4.5237193 4.0731754 -1.6310778 9 0
-5.1574898 4.6487164 -1.6030012 11 1
-6.0247941 5.4380908 -1.5776089 12 2
-6.819818 6.1621776 -1.4557793 9 3
-7.1916666 6.5050106 -1.1906636 24 4
-7.2043447 6.5233397 -0.85029143 36 5
-10.111441 9.1684952 -0.71532792 17 6
-4.4837613 4.0942349 -1.6269366 9 0
-5.1191578 4.6793485 -1.6012017 10 1
-5.9528785 5.4471645 -1.56845 10 2
-15.593415 14.278722 1.8497934 3 10
-6.7281914 6.1630883 -1.4451418 11 3
-7.0963407 6.5094357 -1.1823765 23 4
-7.0705762 6.4926219 -0.83983272 35 5
-9.9444008 9.1411409 -0.70789623 17 6
-4.4529533 4.1220355 -1.6259012 9 0
-5.0814695 4.708787 -1.599402 11 1
-5.8240409 5.4044614 -1.5444082 10 2
-6.5952678 6.1265569 -1.4257438 9 3
-6.987905 6.4981089 -1.171652 22 4
-6.9871669 6.5065236 -0.83530062 35 5
-9.7883024 9.1245441 -0.70130187 35 6
-4.4353356 4.1636004 -1.6300424 9 0
-5.0484715 4.7441492 -1.599402 11 1
-5.844789 5.5001502 -1.5600544 12 2
-6.6414852 6.2564282 -1.4451418 9 3
-10.129988 9.5493565 1.7093396 0 11
-6.8817139 6.4895329 -1.161415 20 4
-6.8604517 6.4785399 -0.82553917 34 5
-12.376065 11.699371 -0.89253747 8 6
-4.3893695 4.1784792 -1.6238307 9 0
-5.0067649 4.7712111 -1.5967026 14 1
-5.7465949 5.4838939 -1.5440264 10 2
-6.5505071 6.2576156 -1.4348172 13 3
-6.7960677 6.4990048 -1.1545902 25 4
-6.7646928 6.4780455 -0.81943828 40 5
-12.077823 11.578165 -0.87683672 8 6
-4.3628716 4.2117038 -1.624866 9 0
-4.9649267 4.7979221 -1.5940032 15 1
-15.665348 15.149 1.1420753 3 9
-5.7152243 5.5307055 -1.5459346 15 2
-6.47403 6.2715802 -1.4276211 9 3
-6.6764293 6.4744296 -1.1419159 23 4
-6.6707058 6.4779205 -0.81351173 40 5
-11.767559 11.439457 -0.86008912 17 6
-4.3333616 4.2420607 -1.624866 9 0
-4.9382682 4.8392878 -1.5962527 16 1
-5.6834812 5.5773449 -1.5478426 10 2
-6.4159985 6.3027797 -1.4244925 10 3
-6.5914369 6.4819074 -1.1350911 22 4
-6.5855699 6.4851904 -0.808631 39 5
-11.804046 11.636304 -0.86867231 17 6
-4.3036418 4.2722087 -1.624866 9 0
-4.8933063 4.8626556 -1.5926535 16 1
-5.5748229 5.5476465 -1.5287617 10 2
-6.3634419 6.3390555 -1.4226153 9 3
-6.5038538 6.4857173 -1.127779 25 4
-6.4922013 6.483139 -0.80270433 39 5
-9.5203981 9.5170746 -0.70548874 17 6
-11.662827 11.670969 -0.2879996 29 7
-4.265542 4.2939262 -1.6217602 9 0
-4.8551207 4.892549 -1.5913037 15 1
-5.6244016 5.6756792 -1.5531853 12 2
-6.2690039 6.3327861 -1.4113519 11 3
-6.3886271 6.4603882 -1.115592 23 4
-6.3991823 6.4801064 -0.79677778 39 5
-11.240674 11.394752 -0.83884072 17 6
-4.2246461 4.312561 -1.6176192 9 0
-4.8004012 4.9054327 -1.5845551 17 1
-5.4021463 5.5280557 -1.5024302 9 2
-6.2135992 6.3650904 -1.408849 9 3
-6.31565 6.4764094 -1.1107173 16 4
-6.2898469 6.4589615 -0.78875941 38 5
-11.121859 11.43286 -0.83590996 17 6
-4.1917524 4.3391695 -1.6165838 9 0
-4.7687454 4.9416294 -1.5854551 17 1
-5.3824925 5.5854278 -1.5077728 9 2
-6.1087327 6.3456955 -1.3950827 9 3
-12.511189 13.00559 2.2158287 1 11
-6.238636 6.4874325 -1.1051114 7 4
-6.211482 6.4682264 -0.784576 38 5
-9.0798016 9.4650249 -0.68738055 8 6
-4.1613569 4.3683276 -1.6165838 9 0
-4.7609982 5.0030351 -1.5944531 21 1
-5.4542665 5.7395654 -1.5390654 9 2
-6.0615649 6.3853211 -1.394457 9 3
-7.6096802 8.0245333 -1.3578683 1 4
-6.1113753 6.4535666 -0.77760357 48 5
-8.6044855 9.0958061 -0.65618831 8 6
-4.1201777 4.3860087 -1.6124427 9 0
-4.7206206 5.030467 -1.5926535 21 1
-15.622512 16.659575 1.1969234 4 9
-5.3831868 5.7445564 -1.5302882 10 2
-5.9709382 6.3784533 -1.3838195 10 3
-7.2809439 7.7860336 -1.3088769 5 4
-5.9764247 6.3999643 -0.76609892 43 5
-5.8827691 6.3062873 -0.45197338 25 6
-4.089457 4.4146662 -1.6124427 9 0
-10.776346 11.641464 0.2768999 24 8
-4.6668568 5.0432763 -1.5863549 22 1
-5.3376222 5.7762289 -1.5287617 12 2
-5.8887477 6.3793392 -1.375059 24 3
-5.8416853 6.3350077 -1.0580697 19 4
-5.8573685 6.3609228 -0.75651181 57 5
-5.8440061 6.3530836 -0.45239204 25 6
-10.652421 11.592539 -0.27480558 27 7
-4.0376916 4.4202857 -1.6041605 9 0
-4.6446695 5.0901294 -1.5908539 22 1
-5.2151852 5.7233787 -1.5051014 11 2
-5.8493872 6.4261384 -1.3763106 33 3
-5.8400521 6.4226346 -1.0658693 31 4
-9.9446507 10.944366 2.3421371 4 12
-5.83671 6.4257154 -0.75947517 68 5
-10.371224 11.433853 -0.80900931 8 6
-10.43696 11.518436 -0.2713151 27 7
-3.9989762 4.4397535 -1.6010547 9 0
-4.607718 5.1209812 -1.5904039 23 1
-53.216293 59.164959 4.1704435 48 9
-5.1551075 5.7353826 -1.4989955 11 2
-5.8662181 6.5334177 -1.3907026 8 3
-9.9450779 11.095647 2.3599706 6 12
-5.7624636 6.4336562 -0.75564027 42 5
-10.154654 11.349385 -0.79812342 17 6
-3.9712303 4.469758 -1.6020899 9 0
-4.570168 5.1493106 -1.5895041 24 1
-5.215209 5.8843646 -1.5283802 7 2
-5.8257027 6.5801277 -1.3919541 10 3
-7.2501616 8.1976967 -1.3437315 1 4
-9.9484768 11.256578 2.3793685 1 12
-5.6736875 6.4219627 -0.74971366 36 5
-10.051389 11.393043 -0.79623932 17 6
-3.9424736 4.5002809 -1.6031252 9 0
-4.5276895 5.1737599 -1.5872546 22 1
-5.172451 5.9167714 -1.527617 7 2
-12.502367 14.311548 1.6625829 1 10
-5.7547913 6.5898709 -1.3856968 9 3
-7.1823163 8.2361431 -1.3417815 2 4
-5.6051579 6.4343762 -0.74657607 41 5
-9.9290276 11.409969 -0.7926805 26 6
-3.9185376 4.5364656 -1.6062311 9 0
-4.4901862 5.2037673 -1.5868047 26 1
-5.1299791 5.9536333 -1.527617 13 2
-5.7409935 6.6698089 -1.3938313 9 3
-7.0909929 8.2469492 -1.3354443 2 4
-5.5122471 6.4199014 -0.74030089 46 5
-9.8341246 11.465565 -0.79163373 8 6
-9.8895502 11.542409 -0.26531148 25 7
-3.8692346 4.5431228 -1.5989841 9 0
-4.4587989 5.2409248 -1.5886043 24 1
-5.0603247 5.9563851 -1.5192213 11 2
-5.698123 6.7142439 -1.3947699 8 3
-7.0075727 8.2659693 -1.3305696 1 4
-9.919961 11.70964 2.4306791 3 12
-5.4338226 6.4186897 -0.7357688 46 5
-9.5655479 11.311284 -0.77635163 8 6
-9.7725964 11.568398 -0.26433414 25 7
-3.8448789 4.5788984 -1.6020899 9 0
-4.433373 5.2853632 -1.5926535 15 1
-7.039887 8.3987398 0.57433486 4 9
-4.8749075 5.8199906 -1.4757168 8 2
-5.6168838 6.712956 -1.3863224 9 3
-6.944602 8.3085976 -1.3295947 2 4
-9.8898897 11.840769 2.4435067 6 12
-5.3633461 6.4258771 -0.73228252 41 5
-5.3193641 6.3799686 -0.43533054 13 6
-9.5636206 11.482686 -0.26084366 25 7
-3.8152823 4.6086054 -1.6031252 9 0
-4.4137554 5.3372073 -1.5989521 16 1
-4.8141527 5.8296638 -1.4696109 8 2
-5.6050782 6.794672 -1.3950827 9 3
-6.8914776 8.3630056 -1.3305696 1 4
-9.8685131 11.984245 2.4588373 3 12
-5.2829099 6.4200835 -0.72740185 45 5
-5.2366452 6.3706613 -0.43219036 26 6
-9.483222 11.549172 -0.26084366 25 7
-3.7879014 4.6411157 -1.6051958 9 0
-9.4575129 11.596051 0.26119271 22 8
-4.3517594 5.3376832 -1.589954 21 1
-4.8092856 5.9072809 -1.4806778 6 2
-4.9667358 6.1072068 -1.2467828 6 3
-6.769093 8.3323326 -1.318139 2 4
-5.2028117 6.413487 -0.72252107 40 5
-5.1492882 6.3543057 -0.42863154 27 6
-3.7505639 4.6614265 -1.6031252 9 0
-9.2936277 11.558938 0.25888899 22 8
-4.2985182 5.3481879 -1.5841054 23 1
-4.63767 5.7784142 -1.4402263 14 2
-6.9497328 8.662281 0.97161222 3 10
-5.3144374 6.6287556 -1.3456494 7 3
-6.6971073 8.3623428 -1.3154578 3 4
-5.1255598 6.409194 -0.71798897 40 5
-5.0848589 6.3651299 -0.42695674 27 6
-3.7059247 4.6723614 -1.5979488 9 0
-7.2054601 9.0910254 0.20248282 13 8
-4.2489743 5.362793 -1.5796063 24 1
-4.5570178 5.7598424 -1.4276329 12 2
-5.459105 6.9074645 -1.394457 7 3
-6.6151929 8.3792896 -1.3108268 2 4
-5.0461502 6.4010139 -0.71310824 39 5
-5.0365877 6.3957691 -0.42664275 27 6
-3.6589365 4.6798568 -1.5917372 9 0
-9.0353031 11.56466 0.25616643 21 8
-4.2534142 5.4460802 -1.5953529 17 1
-4.6289787 5.9354906 -1.4631234 6 2
-5.018631 6.4420733 -1.2934003 4 3
-6.5431228 8.4080353 -1.3081456 2 4
-4.9671116 6.3920336 -0.70822757 39 5
-4.935482 6.3581977 -0.42182785 27 6
-7.0764089 9.1261339 -0.20157529 14 7
-3.6285343 4.7083473 -1.5927725 9 0
-8.8860216 11.538734 0.25421175 21 8
-4.1594181 5.4030652 -1.5742074 23 1
-4.5814457 5.9598799 -1.4612154 9 2
-5.0216575 6.5396228 -1.3059151 5 3
-6.4854722 8.4550848 -1.3083893 2 4
-4.89329 6.3885937 -0.70404404 34 5
-4.8387871 6.3242917 -0.41732696 27 6
-6.9785237 9.1308289 -0.20059796 14 7
-3.5944071 4.7320266 -1.5922549 10 0
-6.8974295 9.0870199 0.19913197 13 8
-4.1321983 5.4459438 -1.5782566 22 1
-4.5266848 5.9745059 -1.4570175 6 2
-4.9508452 6.5414433 -1.2993449 4 3
-6.8612375 9.0721807 1.3966229 3 11
-6.3269238 8.3687277 -1.2881591 13 4
-4.8173585 6.3812556 -0.69951195 34 5
-4.7885041 6.3499446 -0.4168036 27 6
-6.8400116 9.0802965 -0.19843386 13 7
-3.5740213 4.7740145 -1.5979488 9 0
-6.7811117 9.0645008 0.19759615 12 8
-4.1080847 5.4933848 -1.5836555 21 1
-4.4378781 5.9430404 -1.4417528 12 2
-4.8389158 6.4871769 -1.2818241 1 3
-6.2956238 8.4493046 -1.2937651 2 4
-4.75842 6.3955498 -0.6974203 34 5
-4.7226114 6.3543663 -0.4149195 27 6
-3.5474844 4.8081779 -1.6010547 9 0
-6.6559625 9.0279217 0.1957811 12 8
-4.1008472 5.5642881 -1.5958028 14 1
-4.3997703 5.978621 -1.4428977 10 2
-4.8941293 6.6576791 -1.3087308 2 3
-6.1154666 8.3282461 -1.2686601 12 4
-4.6842012 6.3884454 -0.69306242 28 5
-4.6521711 6.3517327 -0.41261673 27 6
-8.4695187 11.576368 -0.25037223 23 7
-3.4786148 4.7843881 -1.5850078 12 0
-8.3605576 11.507325 0.24827793 20 8
-4.0241132 5.5407472 -1.580956 22 1
-4.3533173 6.0028324 -1.4413712 8 2
-5.0422201 6.9604392 -1.361293 4 3
-5.9687324 8.2485132 -1.2501358 7 4
-4.6126494 6.3838477 -0.6890533 33 5
-4.5819993 6.3484273 -0.41031393 27 6
-8.2902603 11.49896 -0.24744022 22 7
-3.4518795 4.8179789 -1.5881137 12 0
-6.4081993 8.9508753 0.192151 12 8
-3.9127488 5.4672837 -1.5521622 20 1
-4.320435 6.0458565 -1.4444242 8 2
-4.6905231 6.5710139 -1.2786956 2 3
-9.7695446 13.696404 2.0656855 3 11
-6.0032029 8.419282 -1.2696348 10 4
-4.5460172 6.3850546 -0.68574136 23 5
-4.4982104 6.3249221 -0.40675509 26 6
-6.4332528 9.0558147 -0.19389623 13 7
-3.4159317 4.8388038 -1.5870785 12 0
-8.111475 11.498745 0.24562517 40 8
-3.8767312 5.4976521 -1.5530621 21 1
-4.2532558 6.040556 -1.4360286 10 2
-4.5172553 6.4226346 -1.2436541 12 3
-5.9419966 8.4577389 -1.2691474 15 4
-6.7850666 9.6649208 1.8703307 4 12
-4.5173283 6.4370518 -0.68800741 9 5
-4.4493599 6.3496284 -0.4063364 26 6
-3.3964074 4.8831511 -1.5938078 13 0
-7.9782233 11.474884 0.24394974 39 8
-3.8271368 5.5085788 -1.548563 21 1
-4.2299495 6.0951743 -1.4421345 10 2
-4.436295 6.3996596 -1.2333294 14 3
-5.8410034 8.4386225 -1.2601291 10 4
-5.9158268 8.5562916 -0.91008025 12 5
-4.3946896 6.3633313 -0.40528968 26 6
-3.4198875 4.9890141 -1.6207249 9 0
-3.7939563 5.5409331 -1.5503626 21 1
-4.2005906 6.1440043 -1.4467138 8 2
-4.3592024 6.3831682 -1.2242563 23 3
-5.8401031 8.5644789 -1.2728035 2 4
-5.8716507 8.6204367 -0.91252059 13 5
-4.3299351 6.3641329 -0.40340558 26 6
-3.3851805 5.0149598 -1.6212426 11 0
-7.7769637 11.525484 0.24269317 19 8
-3.746583 5.5566297 -1.5472133 23 1
-4.1290808 6.1308422 -1.4367918 10 2
-9.72015 14.443316 1.5231338 1 10
-4.2924695 6.3830543 -1.2183118 30 3
-4.6766024 6.962142 -1.0297961 11 4
-5.9534178 8.8729935 -0.93483251 13 5
-4.2353716 6.3219452 -0.39880002 26 6
-7.6058717 11.365802 -0.23871401 20 7
-3.3522286 5.0416865 -1.6222779 11 0
-7.62568 11.477573 0.24052906 19 8
-3.6559515 5.5047288 -1.5256181 23 1
-4.0764236 6.1471429 -1.4337388 10 2
-12.470236 18.811926 1.9746004 1 10
-4.2205315 6.3716936 -1.21049 20 3
-5.6180859 8.4912214 -1.2501358 12 4
-5.7595053 8.7148762 -0.91391504 13 5
-4.1867323 6.3446913 -0.39838135 26 6
-3.3063631 5.0488071 -1.6171014 12 0
-7.6481466 11.683134 0.24374031 19 8
-3.6654341 5.6035066 -1.5458636 21 1
-4.0258956 6.1615992 -1.4306859 10 2
-12.471485 19.102058 1.9958665 2 10
-4.157629 6.3704977 -1.2048583 27 3
-5.5294075 8.4853315 -1.2435548 4 4
-7.2614608 11.156075 -1.164575 19 5
-4.1075225 6.3177853 -0.39492717 26 6
-3.2541177 5.0435982 -1.6083016 14 0
-3.6229877 5.6217728 -1.544064 21 1
-9.6661453 15.010431 0.93566227 2 9
-3.9657872 6.1631374 -1.4245801 12 2
-12.448955 19.354074 2.0132976 2 10
-4.0970359 6.3744407 -1.2001654 31 3
-4.5031238 7.0143304 -1.0234588 14 4
-4.0600853 6.3412609 -0.39461315 26 6
-3.2229714 5.0727153 -1.6103721 22 0
-7.2699208 11.451139 0.23675935 18 8
-3.5899169 5.6568012 -1.5467634 22 1
-3.9100509 6.1707749 -1.4200007 10 2
-12.44361 19.645853 2.0345638 2 10
-4.0270772 6.3628302 -1.1926565 32 3
-4.4423733 7.027142 -1.0207777 5 4
-5.5970039 8.8672781 -0.91740137 13 5
-3.9944153 6.335659 -0.39251971 25 6
-5.9406695 9.4336147 -0.19459434 13 7
-3.1782575 5.0803528 -1.6057135 16 0
-3.5152264 5.6255364 -1.5314667 21 1
-3.8440158 6.1612759 -1.411605 10 2
-3.9564424 6.348875 -1.1848348 30 3
-4.3229265 6.9450674 -1.0044472 12 4
-5.4171705 8.71661 -0.89787841 19 5
