# .PCD v0.7 - Point Cloud Data file format
VERSION 0.7
FIELDS x y z intensity ring
SIZE 4 4 4 4 2
TYPE F F F F U
COUNT 1 1 1 1 1
WIDTH 1347
HEIGHT 1
VIEWPOINT 0 0 0 1 0 0 0
POINTS 1347
DATA ascii
3.3971295 3.4811707 -1.1229557 1 1
3.4480712 3.5309029 0.25864434 1 9
3.438602 3.5187478 -0.95633471 3 2
3.4295838 3.5070729 0.42915487 1 10
3.0624743 3.1305728 -0.69363046 21 3
8.8488464 9.0329905 -1.5526155 2 4
3.3870487 3.4539137 -0.42322829 4 5
3.4679651 3.5339589 0.96244061 2 13
3.0786784 3.1350775 -0.23027822 30 6
3.4533186 3.5104446 1.3194594 1 15
3.1093192 3.1442478 -1.1848736 18 0
3.4868989 3.5236084 0.086529031 1 8
3.4301791 3.4650817 -1.1256551 1 1
3.4844925 3.5174913 0.2594817 1 9
3.4692223 3.4996288 -0.95786124 3 2
3.4882677 3.5163889 0.43333834 1 10
3.1126261 3.136621 -0.69988787 21 3
8.9300499 8.9863348 -1.5555404 2 4
3.5470827 3.5681973 0.79687726 3 12
3.4622626 3.4804385 -0.4295035 4 5
3.5070155 3.5229659 0.9662568 2 13
3.1207671 3.1327763 -0.23174362 34 6
3.5124652 3.51983 1.3324004 1 15
3.1481576 3.1382842 -1.1910853 25 0
3.5573587 3.5437276 0.087645985 1 8
3.4880271 3.473449 -1.1364527 1 1
3.5265627 3.5093727 0.26073778 1 9
3.4969599 3.4774828 -0.95862442 3 2
3.5014279 3.4807138 0.43194386 1 10
3.1377947 3.1170518 -0.7005136 20 3
9.0122957 8.9433489 -1.5589528 2 4
3.5705764 3.5370851 0.97694212 2 13
3.1482399 3.1165335 -0.23216233 37 6
3.5603125 3.5183067 1.3412004 1 15
3.1782558 3.1243551 -1.1941911 26 0
3.5842505 3.5222342 0.08771579 1 8
3.5344381 3.4708598 -1.1436511 1 1
3.5817246 3.5160682 0.26304054 1 9
5.3873353 5.2848892 -1.4669396 3 2
3.5683274 3.4980249 0.43717319 1 10
3.1702249 3.106684 -0.70301658 20 3
9.1184902 8.9232578 -1.5665088 2 4
3.6373136 3.5532286 0.98839068 2 13
3.1951032 3.1201482 -0.23404641 37 6
3.5855598 3.4953411 1.341718 1 15
3.2216387 3.1241674 -1.2024734 24 0
3.6202412 3.5082588 0.087995037 1 8
3.5523832 3.4412975 -1.1418515 2 1
3.6291444 3.5132039 0.26471528 1 9
5.4099889 5.2334991 -1.4631234 3 2
3.6436141 3.5235178 0.44344842 1 10
3.2003589 3.0927117 -0.70489377 22 3
9.2090101 8.8899364 -1.5716273 2 4
3.6210337 3.4931278 0.79687726 3 12
3.6501079 3.5174875 0.98533767 2 13
3.2311926 3.1116214 -0.23509313 30 6
3.6265888 3.4862883 1.3479296 1 15
3.2629178 3.1202919 -1.2097203 21 0
3.6591022 3.4967144 0.088344082 1 8
3.621413 3.4594889 -1.1562485 2 1
3.6911442 3.523639 0.26743674 1 9
3.6735477 3.5043879 -0.98686421 3 2
3.656589 3.4869945 0.44205391 1 10
3.2476141 3.0948219 -0.71052545 21 3
3.6901853 3.514117 0.62567729 1 11
9.334115 8.8856468 -1.5823517 2 4
3.6453304 3.4677651 0.79687726 3 12
3.7229612 3.5379033 0.99831271 2 13
3.2644234 3.0999904 -0.23593052 31 6
3.6704671 3.4794917 1.3551766 1 15
3.3042989 3.1159921 -1.2169672 24 0
3.7037973 3.4902856 0.088832751 1 8
3.6511502 3.4394672 -1.158048 1 1
3.6952927 3.4786201 0.26597136 1 9
5.4911132 5.1655245 -1.4654131 3 2
3.7098711 3.4886818 0.44554016 1 10
3.2950509 3.0964243 -0.71615702 22 3
9.333683 8.7618494 -1.5718709 2 4
3.7074578 3.474237 0.98762739 2 13
3.3093131 3.0989664 -0.23760527 36 6
3.7629461 3.5225363 1.1899911 5 14
3.7341831 3.4907227 1.3696705 1 15
3.3457761 3.1112669 -1.2242141 22 0
3.7655513 3.5003908 0.089740276 1 8
3.7093377 3.4457266 -1.1688457 1 1
3.7745018 3.505029 0.2699489 1 9
5.4541893 5.0612593 -1.4463322 3 2
3.7458251 3.4735329 0.44693464 1 10
3.3421261 3.098098 -0.7217887 25 3
3.7615871 3.484488 0.6295771 1 11
9.4164762 8.7167015 -1.575527 1 4
3.7506709 3.4682996 -0.44693464 4 5
3.7892981 3.5015657 1.0028921 2 13
3.3596714 3.1034749 -0.23969871 38 6
3.7734809 3.4796278 1.3753644 1 15
3.3811142 3.1014779 -1.2293905 21 0
3.7751541 3.4605064 0.089391224 1 8
3.7269609 3.4151301 -1.1670461 2 1
3.8224456 3.5001755 0.27162364 1 9
5.5328422 5.062819 -1.4577808 3 2
3.8134837 3.4882998 0.45216399 1 10
3.3870037 3.0960128 -0.72679466 23 3
9.452137 8.6309872 -1.5716273 2 4
3.7741921 3.4426892 -0.44693464 4 5
3.8420639 3.5021434 1.0105245 2 13
3.3901145 3.0880136 -0.24032672 34 6
3.8162608 3.4700968 1.3820938 1 15
3.4170101 3.0907588 -1.2345669 21 0
3.8371885 3.4695985 0.09029875 1 8
3.8201149 3.451741 -1.1886414 2 1
3.8639696 3.490139 0.27287969 1 9
5.5963259 5.0513468 -1.4654131 3 2
3.8288667 3.4535849 0.45111811 1 10
3.4138675 3.0781777 -0.72804612 22 3
9.5564184 8.6046362 -1.5789393 1 4
3.8897815 3.4962332 1.0166303 2 13
3.4496827 3.0995734 -0.24304819 37 6
3.8570502 3.4595187 1.3883054 1 15
3.4581501 3.0854342 -1.2418139 22 0
3.8971374 3.4746654 0.091136463 1 8
3.8056974 3.3919463 -1.1769439 1 1
3.9210539 3.4923029 0.27518249 1 9
5.6930461 5.0669775 -1.4814411 3 2
3.8731272 3.4459822 0.4535585 1 10
3.4647977 3.0805218 -0.73430347 21 3
3.9577968 3.516367 0.65005112 1 11
9.6340694 8.5535259 -1.5818642 2 4
3.821892 3.3896573 -0.44693464 4 5
3.8964627 3.4533684 1.012051 2 13
3.4817019 3.0846856 -0.2437809 34 6
3.9317548 3.4773033 1.4064229 1 15
3.5120547 3.0886765 -1.2532018 21 0
3.9513366 3.4737802 0.09183456 1 8
3.8166957 3.3530505 -1.1728948 1 1
3.9309344 3.450978 0.27413577 1 9
5.7135253 5.0141592 -1.4776249 3 2
3.9606009 3.4733524 0.46087953 1 10
3.5075514 3.0738764 -0.73868364 18 3
3.9822493 3.4886506 0.65005112 1 11
9.6696482 8.4651432 -1.5779644 2 4
4.0841222 3.5728605 0.85945106 4 12
3.9530005 3.4545012 1.0204465 2 13
3.5217388 3.0754569 -0.24503697 35 6
3.9783802 3.4681206 1.4141873 1 15
3.551048 3.0792682 -1.2594135 22 0
3.9640038 3.4349401 0.091555327 1 8
3.8945127 3.3735306 -1.1895411 2 1
4.0002317 3.4626677 0.27727592 2 9
3.9644942 3.4293127 -1.0189201 3 2
4.0239358 3.479502 0.46541166 1 10
3.5618086 3.077728 -0.74556679 15 3
4.0071115 3.4600649 0.65005112 1 11
9.7405329 8.4078064 -1.5799143 2 4
4.0197363 3.466074 -0.46436578 4 5
4.0246148 3.4678288 1.0326583 2 13
3.5627983 3.0677392 -0.2463977 31 6
3.9995666 3.4377413 1.413152 1 15
3.6076972 3.0845337 -1.2718368 24 0
4.0541763 3.4650459 0.093091138 1 8
3.9298229 3.3563867 -1.1931404 2 1
4.0996547 3.5002029 0.28250951 2 9
5.8098612 4.9568329 -1.4844941 3 2
4.039032 3.4435692 0.46436578 1 10
3.6007166 3.0687883 -0.74932122 15 3
9.7748079 8.3190098 -1.5760144 2 4
4.0577025 3.4472759 1.034948 2 13
3.6155677 3.0705652 -0.2485958 37 6
4.0582385 3.4404216 1.4255754 1 15
3.6522377 3.079833 -1.2801191 21 0
4.0690947 3.4289246 0.092881702 1 8
3.9853668 3.3571799 -1.2030382 3 1
4.1239929 3.4714947 0.28250951 2 9
5.8022575 4.8807654 -1.4738088 3 2
4.071528 3.4236903 0.46541166 1 10
3.6402013 3.0588255 -0.7530756 19 3
4.1304464 3.4683151 0.66223812 1 11
9.8646536 8.280364 -1.5813768 2 4
4.1574411 3.4872723 0.85945106 4 12
4.067739 3.4096115 -0.46436578 4 5
4.1111698 3.4447944 1.0425804 2 13
3.6476345 3.0542264 -0.24932852 33 6
4.0940166 3.4219172 1.4297165 1 15
3.8355699 3.18888 -1.3365415 16 0
4.1636877 3.4592161 0.094487324 1 8
4.0266957 3.3442173 -1.2084371 3 1
4.1604228 3.4528234 0.28334689 2 9
4.1406431 3.4339674 -1.0456334 3 2
4.1076016 3.4053555 0.46680617 1 10
3.6888483 3.0560215 -0.75870728 17 3
4.191258 3.4697757 0.66808778 1 11
9.949749 8.2340755 -1.5857641 1 4
4.1563087 3.4335139 1.0479231 2 13
3.6873507 3.0439444 -0.25058457 34 6
4.1416602 3.412909 1.4379987 1 15
3.9115279 3.2061105 -1.3551766 13 0
4.172266 3.4173925 0.09413828 1 8
4.0288367 3.298739 -1.2021384 3 1
4.2400751 3.4692254 0.28711507 2 9
4.1523547 3.3950369 -1.0425804 3 2
4.1960669 3.4295518 0.4741272 1 10
3.7437503 3.0576861 -0.76559031 17 3
4.2000008 3.4278789 0.66565043 1 11
4.1436868 3.3807163 -0.65663213 1 4
4.2014904 3.4217708 1.0532657 2 13
3.7425914 3.0458632 -0.25288737 35 6
4.2028713 3.4143643 1.4509397 1 15
3.9278052 3.1738682 -1.353106 15 0
4.2240252 3.4107964 0.094766572 1 8
3.8136964 3.0783634 -1.1315038 7 1
4.2672992 3.4420495 0.28732443 2 9
5.8573451 4.7212195 -1.4623603 3 2
4.2199059 3.400176 0.4741272 1 10
3.7865479 3.0488174 -0.76997054 16 3
4.2795076 3.4432726 0.67442501 1 11
4.1981258 3.3765862 -0.66150689 3 4
4.258956 3.4193959 1.0616612 2 13
3.7840147 3.0359104 -0.25424811 31 6
4.2492237 3.4030535 1.4587041 1 15
3.9825544 3.173547 -1.3644941 13 0
4.2565317 3.3894372 0.094976 1 8
4.2812529 3.4054611 0.2866964 2 9
5.9477448 4.7276645 -1.4768617 3 2
4.2803922 3.4011188 0.4783107 1 10
3.8381517 3.0475411 -0.77622795 16 3
4.302846 3.4140627 0.67442501 1 11
4.2676687 3.3849418 -0.66881901 3 4
4.3221521 3.4220121 1.0715834 2 13
3.8421855 3.0398228 -0.25676021 32 6
4.2980609 3.394408 1.467504 1 15
4.0198064 3.1575978 -1.3696705 14 0
4.3146944 3.3868041 0.095743902 1 8
3.8711088 3.037518 -1.1360028 25 1
4.3677897 3.4247868 0.29088327 2 9
5.9806056 4.6860261 -1.4768617 3 2
4.3040304 3.3711555 0.4783107 1 10
3.8686676 3.0279768 -0.77810514 16 3
4.3828669 3.4279668 0.68319964 1 11
4.3068352 3.3672922 -0.67125642 3 4
4.4316921 3.4624166 0.89073795 4 12
4.3407292 3.3889127 -0.48179695 5 5
4.3335552 3.3820913 1.0685304 2 13
3.8885112 3.0325797 -0.25843498 28 6
4.3597651 3.3939846 1.480445 1 15
4.0646639 3.1471999 -1.377435 11 0
4.3603764 3.3737314 0.096232571 1 8
3.9107165 3.0247276 -1.1414016 24 1
4.391593 3.3942103 0.29088327 2 9
5.9758854 4.615356 -1.4677029 3 2
4.3653102 3.3702469 0.48249418 1 10
3.9209948 3.0250256 -0.78436255 24 3
4.3909688 3.3851669 0.68076223 1 11
4.3679757 3.3662224 -0.67710614 3 4
4.3975182 3.3828807 1.0784526 2 13
3.922256 3.0150967 -0.25927237 33 6
4.4155388 3.3881617 1.4913154 1 15
4.1003575 3.1292946 -1.3820938 10 0
4.4563727 3.3997662 0.097838193 2 8
3.9487851 3.0103478 -1.1463506 22 1
4.4590745 3.3981357 0.29381409 2 9
6.0071607 4.5745749 -1.4677029 3 2
4.429956 3.3710592 0.48702627 1 10
3.9792254 3.0269706 -0.79187137 22 3
4.4233913 3.3624079 0.68222463 1 11
4.4261451 3.3620644 -0.68246841 3 4
4.4790082 3.4009862 0.89073795 4 12
4.4648314 3.3853102 1.0891378 2 13
3.9681554 3.0076315 -0.26094711 28 6
4.4462008 3.3638577 1.4939036 1 15
4.1169305 3.0978293 -1.3805408 8 0
4.4768023 3.3661683 0.097768381 2 8
4.0159173 3.0185258 -1.1598476 35 1
4.501853 3.3813162 0.29507017 2 9
6.0577931 4.5466676 -1.4722823 3 2
4.4655495 3.3503931 0.48842075 1 10
4.0255489 3.0180762 -0.79687726 21 3
4.5547886 3.4123805 0.69879889 1 11
4.4902396 3.3627975 -0.68880558 3 4
4.4676156 3.3409886 -0.48807216 5 5
4.500351 3.3642447 1.0921907 2 13
4.0530601 3.027667 -0.26513401 25 6
4.5191355 3.369689 1.510468 1 15
4.1182866 3.0540504 -1.3738115 11 0
4.5323262 3.358644 0.098466478 2 8
4.0682111 3.0136156 -1.1688457 35 1
4.4932432 3.3260388 0.29297671 2 9
4.5141635 3.3390894 -1.0914276 4 2
4.524075 3.3451967 0.49225563 1 10
4.0751166 3.0110309 -0.80250889 21 3
4.5785003 3.3804986 0.69879889 1 11
4.5072174 3.3266525 -0.68783063 3 4
4.5553403 3.3560338 1.0998231 2 13
4.0966163 3.0158746 -0.26659939 25 6
4.5767999 3.3632216 1.521856 1 15
4.164463 3.043463 -1.3820938 9 0
4.5944195 3.355227 0.099304192 2 8
4.1174822 3.0058229 -1.1769439 33 1
4.5808949 3.3416739 0.29716361 2 9
6.0350142 4.3991942 -1.4516749 3 2
4.6181674 3.3651602 0.49992532 1 10
4.1183968 2.998785 -0.80688912 22 3
4.6661954 3.3951693 0.70854843 1 11
4.6314702 3.3686669 -0.70318621 3 4
4.6136103 3.3495247 1.1082187 2 13
4.1385856 3.00245 -0.26796013 26 6
4.7506428 3.4439497 1.3546553 5 14
4.6220722 3.3470531 1.529103 1 15
4.1762013 3.0075438 -1.3789879 11 0
4.6631789 3.3557754 0.10028153 2 8
4.1700039 2.9997661 -1.1859419 32 1
4.7176337 3.3912153 0.30449063 2 9
6.0815244 4.3684087 -1.4554911 3 2
4.6609707 3.3467803 0.50201708 1 10
4.1873808 3.0045073 -0.81627518 16 3
4.6962361 3.3671396 0.70952338 1 11
4.6661696 3.3443458 -0.70489234 3 4
4.7328205 3.3896196 0.92202479 5 12
4.6752019 3.3446519 1.1173775 2 13
4.1789446 2.9874206 -0.26921618 26 6
4.6799221 3.3393893 1.540491 1 15
4.2191534 2.9939668 -1.3862349 9 0
4.7419558 3.3624632 0.10146829 2 8
4.2194619 2.9908655 -1.1940402 30 1
4.7248974 3.3466511 0.30344391 2 9
6.1535358 4.3553371 -1.4654131 3 2
4.7330155 3.3486812 0.50724638 1 10
4.2340603 2.9934487 -0.82128108 16 3
4.7552972 3.3594706 0.71488559 1 11
4.7250748 3.3368831 -0.71025455 3 4
4.6633692 3.2884259 -0.49922809 5 5
4.7337418 3.3368132 1.1257731 2 13
4.2356219 2.9834762 -0.27151898 27 6
4.7347283 3.3288579 1.5508437 1 15
4.2605343 2.9788294 -1.3929642 15 0
4.7718706 3.3338597 0.10160792 2 8
4.2721939 2.9836493 -1.2030382 28 1
4.8202105 3.363878 0.30804947 2 9
4.7215824 3.2925987 -1.118904 4 2
4.7562771 3.3155591 0.50724638 1 10
4.2840314 2.9841397 -0.8269127 13 3
4.7949295 3.3375289 0.71732301 1 11
4.8118048 3.3480318 -0.71976036 3 4
4.8607817 3.3795891 0.93766832 5 12
4.8181977 3.3462403 1.1402746 2 13
4.2760372 2.9674981 -0.27277502 27 6
4.8118458 3.3331258 1.5684435 2 15
4.3019094 2.963259 -1.3996935 10 0
4.8543282 3.3412809 0.10286448 2 8
4.3378706 2.9846826 -1.2156355 30 1
4.8369937 3.3256185 0.30763078 2 9
4.4467125 3.0550001 -1.0486863 3 2
4.8023009 3.2980642 0.50968677 1 10
7.7902637 5.3460994 -1.4964522 8 3
4.8770499 3.344388 0.72609758 1 11
4.879271 3.3446593 -0.72634137 1 4
4.8484035 3.3210132 0.93078518 5 12
4.8284788 3.3036525 1.1372217 2 13
4.3510575 2.9747741 -0.2762292 29 6
4.8674788 3.3253503 1.3609538 5 14
4.839787 3.302716 1.5699965 15 15
4.2841263 2.9071195 -1.3872701 9 0
4.9106383 3.3297553 0.10356259 2 8
4.3844118 2.9718199 -1.222834 32 1
4.8898592 3.3119292 0.30951488 2 9
4.375258 2.9611571 -1.0269341 22 2
4.878016 3.3001835 0.51526475 3 10
4.3465552 2.9384141 -0.83098 19 3
4.8936977 3.3058157 0.72512263 4 11
4.3530269 2.9394696 -0.64493263 16 4
4.8649187 3.2826664 0.92953372 16 12
4.3562183 2.9372017 -0.45965937 38 5
4.8693318 3.2819355 1.1414195 15 13
4.3667498 2.9409785 -0.27591521 28 6
4.884109 3.2869358 1.3591542 10 14
4.8851719 3.2839363 1.5772433 3 15
4.3251967 2.8910961 -1.3939995 20 0
4.9005055 3.27318 0.10286448 4 8
4.356431 2.9086757 -1.2093369 30 1
4.9195056 3.2821472 0.30993357 9 9
4.3762202 2.9174736 -1.0223546 26 2
4.8893323 3.2583115 0.51404458 15 10
4.3603854 2.9036205 -0.82972854 16 3
4.8885627 3.2528765 0.72097909 11 11
4.363524 2.9024141 -0.64347017 16 4
4.9173303 3.2683051 0.93516535 5 12
4.369472 2.9030719 -0.45896214 35 5
4.9657278 3.2967257 1.1585923 2 13
4.3522253 2.8872328 -0.27371708 28 6
4.9391422 3.2728662 -0.10342296 10 7
4.9724078 3.2924154 1.5979488 1 15
4.4017477 2.8980136 -1.4121168 13 0
4.9527402 3.2595329 0.10349277 6 8
4.3684883 2.872839 -1.2070874 42 1
4.9317207 3.2420001 0.30930555 7 9
4.3959765 2.8876202 -1.0223546 26 2
4.9769187 3.2667389 0.52084273 1 10
4.3949113 2.8836277 -0.83254427 22 3
5.0085373 3.283742 0.73535967 1 11
4.4069266 2.8871098 -0.64688253 25 4
5.0353107 3.2975268 0.95331174 5 12
4.4029698 2.8812239 -0.46035662 38 5
5.0280595 3.2877617 1.1677511 2 13
4.3985248 2.8750269 -0.27539182 35 6
4.9920125 3.2579799 -0.10405125 12 7
5.049716 3.2943792 1.6155485 1 15
4.4003034 2.8543155 -1.4053875 12 0
5.0559196 3.2770863 0.10516821 2 8
4.5580316 2.9532387 -1.2538772 45 1
5.0782976 3.2878165 0.31705123 2 9
4.574275 2.9592311 -1.05899 13 2
5.0927281 3.2933762 0.53060412 1 10
4.9591312 3.204524 -0.93516535 9 3
5.0380106 3.2530029 0.73633462 2 11
5.1064348 3.2896125 1.1807261 2 13
4.5729938 2.9437065 -0.28502163 24 6
5.1148491 3.2861979 1.6290071 1 15
4.4168658 2.8214481 -1.4043522 11 0
5.1460986 3.2847459 0.1065644 2 8
4.6376781 2.9590831 -1.2700737 42 1
5.1853318 3.305969 0.32228485 2 9
5.0269847 3.2025423 -1.1585923 4 2
5.1256795 3.2641635 0.53165001 1 10
7.8728838 5.0097861 -1.4779931 2 3
5.1577568 3.2795289 0.75047147 1 11
5.1147699 3.2509429 -0.74413431 3 4
5.1809106 3.2904437 0.97208387 5 12
5.1543527 3.2710524 -0.5340904 6 5
5.1790109 3.2854328 1.1921747 2 13
4.6575356 2.9523427 -0.28899917 25 6
5.1654196 3.2679677 1.6378069 1 15
4.4855132 2.8214011 -1.4198813 8 0
5.1858373 3.2593782 0.10691345 2 8
4.6994758 2.9525516 -1.2813212 35 1
5.3165464 3.3376489 0.32898384 2 9
5.1124187 3.2070134 -1.1730938 4 2
5.1753521 3.2452331 0.53443903 1 10
5.2092843 3.2639778 -0.97364825 3 3
5.1973495 3.2539778 0.75290889 1 11
4.7923837 2.9992676 -0.69416779 4 4
5.2372518 3.2751436 0.97834122 5 12
5.2151408 3.25752 1.1952276 2 13
4.7186971 2.9451349 -0.2915113 25 6
5.2291017 3.2573628 1.6507479 1 15
4.491962 2.7818811 -1.4157403 12 0
5.2827125 3.2703187 0.10844925 2 8
4.9022765 3.0324395 -1.3308104 22 1
5.2813835 3.2656722 0.32542503 2 9
5.2276578 3.2299302 -1.1944643 4 2
5.258914 3.2467027 0.5407142 1 10
5.268363 3.2512665 -0.98053133 3 3
5.259932 3.2435286 0.7587586 1 11
4.7963042 2.9553261 -0.69173044 10 4
5.2930636 3.2601354 0.98459864 5 12
5.3079953 3.2642233 1.2112557 2 13
4.7692604 2.9317768 -0.2933954 26 6
5.3318882 3.2750702 1.4446357 4 14
5.3137255 3.2600834 1.6704183 1 15
4.5553241 2.7784007 -1.4297165 10 0
5.3566418 3.2645786 0.1094964 2 8
4.987709 3.0385408 -1.3483566 14 1
5.3791189 3.274416 0.33003056 2 9
6.189393 3.7646875 -1.4081705 5 2
5.3319626 3.2418859 0.54594356 1 10
8.0528889 4.8923817 -1.492385 2 3
5.3333535 3.2376344 0.76607072 1 11
4.819705 2.9246678 -0.69221795 16 4
5.3596101 3.2497349 0.99273324 4 12
5.3737512 3.254462 1.2211776 2 13
4.8511281 2.9356329 -0.29716361 27 6
5.4146557 3.2740669 1.4608321 4 14
5.3793507 3.2488742 1.6838769 1 15
4.5911727 2.7564747 -1.4348928 11 0
5.3690124 3.2209332 0.10928696 2 8
5.0505824 3.0287015 -1.3596041 15 1
6.2172074 3.7223976 -1.4085521 10 2
5.3818202 3.2209511 0.54873258 1 10
8.1105804 4.8502398 -1.4967651 2 3
5.4376211 3.249197 0.77777022 1 11
4.8774972 2.9133456 -0.69758022 19 4
5.507689 3.2871537 1.0158856 4 12
5.4705405 3.2610989 1.2379688 2 13
4.9126863 2.9262242 -0.2996757 28 6
5.5445528 3.2999752 1.4896258 4 14
5.4666624 3.2497423 1.7040646 2 15
4.6103048 2.7243552 -1.4348928 9 0
5.4671345 3.2281053 0.11082278 2 8
5.0648909 2.9894061 -1.3578045 15 1
5.4690418 3.2253711 0.33275205 2 9
6.2802544 3.7008305 -1.4169476 12 2
5.4831424 3.2298188 0.55675089 1 10
8.1714821 4.8095312 -1.5017711 2 3
5.4875498 3.227257 0.78167003 1 11
4.9541898 2.9124217 -0.70562357 22 4
5.4366598 3.1909468 -0.55152148 6 5
5.5101089 3.2327602 1.241785 2 13
4.9605622 2.9080193 -0.30135047 28 6
5.5025563 3.2193029 1.7082058 2 15
4.4171233 2.5687633 -1.3691529 12 0
5.5448656 3.2220089 0.11193974 2 8
5.031714 2.9226522 -1.3434076 21 1
5.5536127 3.2232034 0.33652022 2 9
5.0678477 2.938911 -1.1387482 8 2
5.5193462 3.1994538 0.55814534 1 10
5.5075116 3.1900256 -1.0080638 3 3
5.5752344 3.2266533 0.79093212 1 11
5.0139217 2.9006269 -0.71122956 24 4
5.5872526 3.2297049 1.0221429 4 12
5.5801482 3.2217016 1.2524703 2 13
5.0291839 2.9012618 -0.30428126 29 6
5.5533605 3.1971927 1.7170056 3 15
4.6881351 2.6827474 -1.4473162 10 0
5.6193027 3.2129972 0.11298689 2 8
5.1332064 2.9338689 -1.365003 18 1
5.1035867 2.9122186 -1.1421827 19 2
5.6419268 3.2180984 0.56825542 1 10
5.5879993 3.1847541 -1.0187013 1 3
5.6252251 3.2033694 0.79483193 1 11
5.0789046 2.8910854 -0.71756679 24 4
5.6371374 3.2062459 1.0271488 4 12
5.650301 3.2098188 1.2631556 2 13
5.0927396 2.890729 -0.30689809 20 6
5.6427798 3.1964343 1.7377111 3 15
4.7269506 2.6613257 -1.4535278 10 0
5.7147946 3.2148702 0.11445288 3 8
5.1705499 2.9075127 -1.3695021 19 1
5.7095122 3.2079639 0.34321922 2 9
5.1494741 2.8909316 -1.147907 14 2
5.7094293 3.2039859 0.57278752 1 10
8.2221699 4.6102929 -1.4930108 2 3
5.7132607 3.2008898 0.80409402 1 11
5.1370683 2.8768964 -0.722929 21 4
5.7697096 3.228548 1.0471724 4 12
5.7874937 3.2358508 -0.58010858 7 5
5.7239852 3.1990278 1.2746042 2 13
5.1685982 2.8862653 -0.3102476 20 6
5.804709 3.2388268 1.5346161 4 14
5.725708 3.1908171 1.7563461 5 15
4.777061 2.6468801 -1.4633629 13 0
5.8100252 3.2165728 0.11591888 3 8
5.2140903 2.885463 -1.3758006 17 1
5.8430805 3.2308774 0.34991825 2 9
5.2274575 2.8880956 -1.160882 17 2
5.804359 3.2054996 0.58010858 1 10
8.2049313 4.5275016 -1.4842504 2 3
5.7418694 3.1657605 0.80506897 1 11
5.2017322 2.8667772 -0.72926623 24 4
5.8538451 3.2235024 1.0584357 4 12
5.8722286 3.2309551 -0.58638382 7 5
5.8006754 3.1902671 1.286816 2 13
5.2213817 2.8692925 -0.31223634 21 6
5.8710313 3.223629 1.5463136 4 14
5.813354 3.1879995 1.776534 1 15
4.8072987 2.6199346 -1.4669864 10 0
5.8604369 3.1912365 0.11647736 3 8
5.251225 2.8583055 -1.3802997 19 1
5.8690014 3.1919174 0.35012761 2 9
5.307869 2.8843393 -1.1742386 23 2
5.8651118 3.1858239 0.58394349 1 10
8.229394 4.4663405 -1.482999 2 3
5.8755126 3.1861601 0.82066822 3 11
5.3018985 2.8739078 -0.74047816 24 4
5.9248424 3.2088976 1.0671961 4 12
5.8946404 3.1898832 -0.58638382 7 5
5.8677039 3.173979 1.296738 2 13
5.3045382 2.8669598 -0.31600451 21 6
5.9585533 3.217747 1.5634098 4 14
5.8881798 3.1757629 1.7925807 5 15
4.8220654 2.5844865 -1.4659511 16 0
5.970715 3.1974471 0.1182226 3 8
5.2951035 2.8344533 -1.3865983 21 1
5.9510226 3.182893 0.35368642 2 9
5.3694334 2.8694181 -1.1833974 25 2
5.9504762 3.1785953 0.59021866 1 10
8.2812891 4.4199376 -1.4867533 2 3
5.9396501 3.1674845 0.826518 2 11
5.3533659 2.8536291 -0.74486554 25 4
5.8982806 3.1414583 1.0584357 4 12
5.9162183 3.149683 -0.58638382 7 5
5.9555831 3.1679761 1.3112395 2 13
5.3702788 2.8542287 -0.318726 21 6
6.0422707 3.2100306 1.5796063 4 14
5.9597011 3.1608279 1.8075923 2 15
4.8844256 2.574177 -1.4794097 13 0
6.0348024 3.1790998 0.11906032 3 8
5.325109 2.8028634 -1.3892977 18 1
5.4479237 2.8638651 -1.1963725 25 2
5.9972157 3.1499457 0.59265906 1 10
5.9500499 3.1238477 -1.0643803 1 3
5.996232 3.145421 0.83139277 2 11
5.4294195 2.8456774 -0.7526651 25 4
6.0035191 3.1452363 1.0734534 4 12
5.9380617 3.1083059 -0.58638382 7 5
6.0436621 3.1608961 1.3257409 2 13
5.4462218 2.8472183 -0.32207552 21 6
6.1059885 3.1894231 1.5904039 4 14
6.0924077 3.1782701 1.8412387 0 15
4.9361367 2.558651 -1.4897624 10 0
6.1172228 3.1681595 0.12024708 3 8
5.3855987 2.7880533 -1.4000953 15 1
6.1007814 3.1555943 0.35996673 2 9
5.5166192 2.8509996 -1.2070577 25 2
6.1495094 3.1767187 0.6055581 1 10
5.9892673 3.0912926 -1.0675089 1 3
6.0992017 3.1453385 0.84260476 1 11
5.5157137 2.8432169 -0.76192719 25 4
6.1412344 3.1629453 1.0941027 3 12
6.1139221 3.1448259 1.3364263 2 13
5.5476804 2.8511226 -0.32689041 11 6
6.1593118 3.1627376 1.5985022 4 14
4.9487162 2.5214968 -1.4882096 12 0
6.1783967 3.1453345 0.12101499 3 8
5.4153523 2.7556896 -1.4027947 20 1
6.1938777 3.1491332 0.36415362 2 9
5.5959015 2.8426485 -1.2200328 23 2
6.1821961 3.1391218 0.60660398 1 10
6.1058307 3.0976653 -1.0844039 1 3
6.1882949 3.1367867 0.85186678 2 11
5.585011 2.8297594 -0.76875186 22 4
6.1948895 3.1360538 1.0997344 3 12
6.2478595 3.1587605 1.3608499 2 13
5.6637168 2.8609509 -0.33254269 11 6
6.2821455 3.1705861 1.6245965 3 14
4.9938364 2.5007269 -1.4964917 11 0
6.2860441 3.145076 0.12269042 3 8
5.4658318 2.733506 -1.410893 18 1
6.3050418 3.1504548 0.36938724 2 9
5.6524973 2.8219275 -1.2280468 16 2
6.221787 3.1047847 0.60834706 1 10
6.1838784 3.0831685 -1.0944157 4 3
6.2491336 3.1129806 0.85722905 1 11
5.6614928 2.8190167 -0.77655149 25 4
6.2944512 3.1314433 1.1135007 3 12
6.2838249 3.1220536 1.3639028 2 13
5.7014432 2.8302188 -0.3335894 11 6
6.3390422 3.1439722 1.6335946 3 14
5.0406399 2.4803047 -1.5052917 10 0
6.379631 3.1364014 0.12408661 3 8
5.4847808 2.6952832 -1.410893 17 1
6.4165254 3.1503694 0.37462083 2 9
5.7654781 2.8282228 -1.2482725 22 2
6.3613806 3.1191621 0.61985165 1 10
6.2726622 3.0729454 -1.1063046 4 3
6.3598609 3.1129155 0.86941594 1 11
5.7719746 2.823915 -0.78898221 27 4
6.3410034 3.0995712 1.1178808 3 12
6.386622 3.1177285 1.3814572 2 13
5.8144078 2.8358769 -0.33903235 11 6
6.451931 3.1440308 1.6569895 3 14
5.024786 2.4290783 -1.4954566 12 0
6.4733987 3.126575 0.12548281 4 8
5.5245228 2.6670933 -1.4162918 15 1
6.4383631 3.1054969 0.37462083 2 9
5.8257585 2.8075089 -1.2570497 16 2
6.4655714 3.1144488 0.62786996 1 10
6.3615994 3.0616343 -1.1181936 2 3
6.4422665 3.0976841 0.87770307 1 11
5.8362765 2.8050508 -0.79507565 23 4
6.4657712 3.1048193 1.1360272 3 12
6.4932051 3.1138103 1.3997749 2 13
5.8917027 2.8228314 -0.34238186 11 6
6.5580945 3.1392989 1.6785848 3 14
5.0887408 2.4163105 -1.5094327 11 0
6.585402 3.1241646 0.12722805 4 8
5.5641384 2.6384768 -1.4216906 17 1
5.9268441 2.8054066 -1.2746042 16 2
6.5700006 3.1084342 0.63588828 1 10
6.4685421 3.0576689 -1.1332114 2 3
6.5139952 3.0763693 0.8845278 2 11
5.9364982 2.8023708 -0.80604392 26 4
6.5873413 3.1067913 1.1535479 3 12
6.5716214 3.0951724 1.4119867 2 13
5.9727101 2.810544 -0.34594071 11 6
6.671556 3.1365523 1.7019798 3 14
5.122993 2.3888922 -1.5146091 11 0
6.6831827 3.1135817 0.12869404 4 8
5.6248202 2.6193137 -1.4324883 14 1
6.6621799 3.0995526 0.385088 2 9
6.0032568 2.7904391 -1.286816 16 2
6.6746588 3.1011083 0.64390665 1 10
6.4359798 2.9874814 -1.1238253 4 3
6.6541696 3.0859389 0.9006145 2 11
6.0171533 2.7892401 -0.814331 24 4
6.6662288 3.0872915 1.1635597 3 12
6.6607819 3.0805347 1.4264882 2 13
6.0574551 2.7989402 -0.34970888 11 6
6.7428317 3.1127696 1.714577 3 14
5.1711631 2.3675444 -1.5239266 11 0
6.7411265 3.0834844 0.12939215 4 8
5.6890488 2.6010487 -1.4441857 14 1
6.1208248 2.7932899 -1.3078048 13 2
6.7287745 3.0693183 0.64704424 1 10
6.6364312 3.0243943 -1.1551123 4 3
6.7333627 3.0657346 0.90841419 2 11
6.1051373 2.7784104 -0.82359308 26 4
6.7775302 3.0815611 1.1792032 3 12
6.7643547 3.0712979 1.4440426 2 13
6.1314149 2.7813325 -0.35284904 11 6
6.7927976 3.0784903 1.7217753 3 14
5.2228069 2.3472233 -1.5342795 9 0
6.9084301 3.1018708 0.13218452 4 8
5.7177362 2.566056 -1.4468851 15 1
6.8870544 3.0879412 0.3955552 2 9
6.2082601 2.7809923 -1.3223064 13 2
6.8373251 3.0613456 0.65541118 1 10
6.7006588 2.9973512 -1.162621 1 3
6.8343444 3.0542893 0.91913867 1 11
6.2150083 2.7762051 -0.83578002 24 4
6.8349566 3.0502706 1.1854606 2 12
6.8860536 3.0687516 1.4654131 3 13
6.2382636 2.7774527 -0.35787329 12 6
6.8954921 3.0686316 1.7424709 3 14
5.2443686 2.3130455 -1.5358323 8 0
5.7533445 2.5339334 -1.4513842 20 1
6.9079127 3.0409942 0.3955552 2 9
6.2629871 2.7544801 -1.3299388 11 2
6.9096026 3.0359817 0.66029191 1 10
6.7534604 2.9659729 -1.1682527 2 3
6.9095106 3.0316262 0.92645079 1 11
6.286963 2.7558599 -0.84284848 20 4
6.9822135 3.0591671 1.2073613 2 12
6.9648724 3.0457714 1.4776249 2 13
6.3375463 2.7701249 -0.36247885 12 6
6.9846125 3.0500488 1.7595671 3 14
5.2582197 2.2765243 -1.5353146 10 0
5.791925 2.5039899 -1.4567831 15 1
6.3397489 2.7355762 -1.3421506 11 2
7.0398779 3.0362215 0.67075062 1 10
6.8647103 2.9578326 -1.1838962 2 3
7.0070872 3.0162797 0.93668783 1 11
6.44416 2.7726283 -0.86137259 3 4
7.0723639 3.0399907 1.2192503 2 12
7.0576043 3.0292697 1.4928896 3 13
6.4742103 2.7761893 -0.36917788 12 6
7.064847 3.0265398 1.7744139 4 14
5.3042116 2.2525995 -1.5441145 8 0
7.1554437 3.0358355 0.135675 4 8
5.8272061 2.4711018 -1.461282 16 1
6.4165483 2.7157366 -1.3543624 11 2
7.1269612 3.0149448 0.67702579 1 10
6.9798098 2.9498231 -1.2001654 2 3
7.1486731 3.0182481 0.95277458 1 11
7.0961614 2.9946179 -0.94570619 3 4
7.1589427 3.0181684 1.2305136 2 12
7.176291 3.0210583 1.513497 3 13
6.5302553 2.7464089 -0.37127131 12 6
7.1558719 3.0065832 1.7919601 6 14
5.3376422 2.2229412 -1.5492908 8 0
7.2540083 3.0180659 0.137141 5 8
5.8515115 2.4333558 -1.4630816 15 1
7.2467475 3.0105951 0.41125599 2 9
6.4226575 2.6656063 -1.351691 13 2
7.1920037 2.9834378 0.68120927 1 10
7.0987763 2.9418609 -1.2170602 1 3
7.2245922 2.991051 0.96008676 1 11
7.1810937 2.97157 -0.95423704 2 4
7.2565103 2.9998155 1.2436541 2 12
7.2661672 2.9993505 1.5279986 2 13
6.6305122 2.7342546 -0.37587687 12 6
5.3888021 2.2002285 -1.5596437 9 0
7.3822942 3.0111539 0.13916549 5 8
5.8900132 2.4012706 -1.4684805 15 1
7.3600755 2.9975977 0.41648957 2 9
6.4774795 2.6355038 -1.3593234 15 2
7.345541 2.9871953 0.69375974 1 10
8.3526363 3.3933561 -1.4279339 9 3
7.3409467 2.9793563 0.97276115 1 11
7.3046756 2.9631548 -0.96788639 2 4
7.3431849 2.9757876 1.2549174 2 12
7.388845 2.9897885 1.5493692 2 13
6.7420244 2.7253239 -0.38111049 25 6
5.3914766 2.157527 -1.5560201 12 0
7.5888171 3.0337763 0.14265598 5 8
5.9319682 2.3702149 -1.4747791 14 1
7.4475994 2.9728005 0.42025778 2 9
6.5814309 2.6243956 -1.3772594 8 2
7.4365454 2.9638751 0.70038354 1 10
6.8234935 2.7167802 -1.1632469 11 3
7.4316602 2.9559133 0.9820233 1 11
6.7920756 2.7001483 -0.89744592 21 4
7.4372168 2.9536145 1.2674322 2 12
6.81708 2.7045829 -0.6416406 20 5
7.4679375 2.9612892 1.5615808 2 13
6.8091636 2.6973169 -0.38383192 37 6
5.4531689 2.1381726 -1.5694788 11 0
7.6470504 2.9953086 0.14335407 5 8
5.9755893 2.3394034 -1.4815277 14 1
7.5202546 2.9411027 0.4231886 2 9
6.6361666 2.5926702 -1.3848917 12 2
7.5721235 2.9568183 0.71119088 1 10
6.8091698 2.6561522 -1.1576152 33 3
7.577888 2.9529741 0.99859744 1 11
6.7848644 2.6425788 -0.89403361 35 4
7.5497017 2.9374382 1.2830757 2 12
6.7819409 2.6359928 -0.63658553 53 5
7.6201882 2.9602706 1.5890573 2 13
6.7682457 2.6265917 -0.38048244 25 6
5.5058355 2.1145957 -1.5803492 9 0
7.8134017 2.9977205 0.14607665 6 8
5.9826779 2.2941401 -1.4792781 16 1
7.6972723 2.9485435 0.43198103 2 9
6.7054439 2.5659268 -1.3955771 12 2
7.6409664 2.9223843 0.71572298 1 10
6.8293915 2.6092587 -1.1579281 26 3
7.6650848 2.9254808 1.0073721 1 11
6.8439503 2.6107154 -0.89939582 22 4
7.6623192 2.9198301 1.298719 2 12
6.8574457 2.6117516 -0.64198917 24 5
7.7250767 2.9391136 1.6066117 2 13
7.021657 2.6686785 -0.3936711 13 6
5.5150394 2.0740659 -1.5787963 10 0
7.7961884 2.9303951 0.14537854 6 8
6.0113187 2.2571123 -1.4824274 26 1
7.8106604 2.9311686 0.43721461 2 9
6.7337847 2.5243599 -1.3978667 10 2
7.7805943 2.9136908 0.72687888 1 10
7.1207995 2.6651926 -1.2042327 20 3
7.8112583 2.9205115 1.0239463 1 11
7.8189645 2.9187274 1.3218714 2 12
7.8594742 2.9275956 1.6302722 2 13
7.1968856 2.6793599 -0.40246356 26 6
5.5525956 2.0451584 -1.5855255 9 0
6.0686102 2.2316117 -1.4927752 21 1
7.86093 2.8875875 0.43888938 2 9
6.7936344 2.4928424 -1.406644 12 2
7.9573755 2.9182873 0.74152106 1 10
7.2171354 2.6439545 -1.2173731 21 3
7.9209375 2.8986528 1.0356457 1 11
7.8580575 2.8740869 -1.0273587 2 4
7.939343 2.9006755 1.3387663 2 12
7.9511495 2.9002714 1.6451553 2 13
7.286725 2.6550336 -0.40644106 26 6
5.5703726 2.007654 -1.5865607 9 0
6.0913773 2.1918294 -1.4945749 19 1
8.0382738 2.8907874 0.44768184 2 9
6.8289227 2.4531791 -1.4104601 12 2
8.0413141 2.8855469 0.74744761 1 10
7.3390923 2.6321118 -1.2348938 18 3
8.0526104 2.8848424 1.0502701 1 11
7.9751201 2.8539369 -1.0400331 2 4
8.0370216 2.8745067 1.3519068 2 12
8.0525608 2.8737252 1.6619464 2 13
7.4024501 2.6402633 -0.41188401 13 6
5.5970054 1.9732153 -1.5901842 6 0
6.1285872 2.157017 -1.4999737 21 1
8.1115122 2.8517408 0.45061263 2 9
6.9074302 2.4257164 -1.4230535 12 2
8.2003803 2.8781607 0.76034665 1 10
7.4658589 2.6174324 -1.2530402 17 3
8.204196 2.8730729 1.0673318 2 11
8.0904064 2.831635 -1.0524638 3 4
8.184186 2.8612559 1.3731819 2 12
8.1947632 2.8601398 1.6871332 2 13
7.5116787 2.6187844 -0.41690826 13 6
5.638041 1.9435368 -1.5979488 9 0
8.2909365 2.8547971 0.15305761 7 8
6.1766658 2.1255932 -1.5080719 18 1
8.2672157 2.8417888 0.45814902 2 9
6.9836144 2.3978393 -1.4352653 12 2
8.2994242 2.8480022 0.76766777 1 10
7.5848551 2.5998383 -1.2699351 16 3
8.2879095 2.8375852 1.0756189 1 11
8.2395697 2.8194327 -1.0692817 2 4
8.3086376 2.839823 1.3907026 2 12
8.3371649 2.8446991 1.71232 2 13
5.6734419 1.9115278 -1.6041605 9 0
8.5001879 2.8606317 0.15654808 7 8
6.2209086 2.0923572 -1.5152704 15 1
8.3815155 2.8158097 0.46338257 2 9
7.029964 2.3590193 -1.4413712 12 2
8.4588881 2.8368757 0.78056681 1 10
7.7264442 2.5882344 -1.2905844 18 3
8.4656477 2.8325651 1.0960929 1 11
8.3588314 2.7952073 -1.0821998 3 4
8.4444256 2.8205492 1.4101005 2 12
8.4778814 2.8267906 1.7371252 3 13
5.7049971 1.8779157 -1.609337 9 0
8.5878458 2.8252032 0.15780467 7 8
6.2797956 2.0634789 -1.526068 20 1
8.5560904 2.809788 0.4719657 2 9
7.1092844 2.3319173 -1.4543462 9 2
8.5883036 2.8137307 0.79067689 1 10
7.8565221 2.5724638 -1.3093567 19 3
8.5979366 2.811903 1.1107173 1 11
8.5007963 2.776845 -1.0980428 2 4
8.5836096 2.8022432 1.430124 2 12
7.9368205 2.5880206 -0.7303651 10 5
8.6019478 2.8015819 1.7584958 3 13
5.7507505 1.8496869 -1.6186544 4 0
8.729207 2.8043242 0.16003856 7 8
6.3196721 2.029026 -1.5323665 18 1
8.678196 2.7829247 0.47761798 2 9
7.1141729 2.2786353 -1.4520565 9 2
8.7135191 2.7892213 0.80043828 1 10
8.0323391 2.5680833 -1.3356376 16 3
8.734601 2.7892489 1.1258291 2 11
8.6046 2.7460806 -1.1090111 3 4
8.7234173 2.7806411 1.4501476 2 12
8.0268383 2.5555162 -0.73698896 15 5
8.7517767 2.7846339 1.7852092 7 13
5.7524648 1.8060219 -1.6155485 9 0
8.8821383 2.7851968 0.1624819 8 8
6.4006281 2.0058358 -1.548563 17 1
8.8422756 2.7676132 0.48557308 2 9
7.094305 2.2177837 -1.4448059 14 2
8.8659 2.7699118 0.81264013 1 10
8.3065281 2.5919693 -1.3781878 9 3
8.8865252 2.7695429 1.1428908 1 11
8.7448606 2.7237229 -1.1246104 3 4
8.8897429 2.7654405 1.4745514 1 12
8.1909876 2.544939 -0.75041097 26 5
8.885375 2.75898 1.8084878 2 13
5.875762 1.7997653 -1.6466069 3 0
9.1002369 2.7839589 0.16611201 8 8
6.4517469 1.9724973 -1.557561 21 1
8.9874535 2.7443109 0.49248141 2 9
7.2786222 2.2197475 -1.4791514 11 2
9.0374889 2.7544172 0.82658505 1 10
8.3792248 2.5505931 -1.3872609 9 3
9.027195 2.7443941 1.1584901 1 11
8.8681288 2.6943405 -1.138016 2 4
9.0373697 2.7423191 1.4958265 3 12
8.3530273 2.5330646 -0.76365858 32 5
5.8400559 1.7443262 -1.6331483 4 0
9.2646036 2.7654197 0.16876477 9 8
6.4989758 1.9374288 -1.5656594 17 1
9.1437416 2.7241304 0.50001782 2 9
7.1223269 2.1191981 -1.4444242 8 2
9.1634493 2.7230432 0.83634651 1 10
8.4550934 2.5109353 -1.3969599 8 3
9.2017231 2.7291741 1.1784766 2 11
9.0446987 2.6791627 -1.1582464 3 4
9.1922026 2.7211154 1.5183531 1 12
8.4927874 2.5108433 -0.77481455 26 5
5.9167099 1.7234458 -1.6512655 6 0
6.6055756 1.9203503 -1.5881544 14 1
9.3543434 2.7159171 0.51048499 2 9
7.380188 2.1399567 -1.4936529 11 2
9.3425207 2.7071817 0.85098869 1 10
8.5388298 2.4710703 -1.4079103 9 3
9.365489 2.7067516 1.1970007 2 11
9.2191105 2.6627078 -1.1782329 3 4
9.3552246 2.6984787 1.5421312 3 12
8.6402979 2.4889944 -0.7866677 27 5
5.9527588 1.6889495 -1.6579949 7 0
6.6300721 1.8773704 -1.5908539 15 1
7.449739 2.1038544 -1.5047197 11 2
9.5299301 2.6895182 0.86632806 1 10
8.5938978 2.4221146 -1.4141676 9 3
9.5332031 2.6832533 1.2160125 2 11
11.694942 3.2895081 -1.4916809 15 4
9.4993525 2.6683586 1.5627805 3 12
8.8166857 2.4732785 -0.80113554 16 5
9.3392439 2.6058078 2.5980256 0 15
5.9848876 1.6530105 -1.6636889 6 0
6.7125273 1.8502005 -1.6075002 13 1
9.5839138 2.6380534 0.52095217 2 9
7.5513258 2.0757275 -1.5222743 11 2
9.644536 2.6493087 0.87504369 1 10
8.6791801 2.380868 -1.425431 9 3
9.6704044 2.6491513 1.2311242 1 11
11.763574 3.2203553 -1.4975306 18 4
9.6625643 2.6415653 1.5865585 1 12
8.9951887 2.4557478 -0.81577778 17 5
6.0205359 1.6177049 -1.6704183 4 0
6.7346916 1.8058167 -1.6097497 21 1
9.7950268 2.62274 0.53141934 2 9
7.5694265 2.023973 -1.5230374 11 2
9.8706808 2.6374598 0.89386928 1 10
8.7719345 2.3405883 -1.4379457 9 3
9.8382797 2.6214452 1.2501358 2 11
11.735895 3.124872 -1.4911934 19 4
9.8411283 2.6166866 1.6128395 1 12
9.1642427 2.4332781 -0.82954836 29 5
5.9980388 1.5668454 -1.6611006 5 0
10.032704 2.6170604 0.18098146 10 8
6.7678776 1.7641628 -1.6146986 14 1
10.006385 2.6046002 0.54188651 2 9
7.647975 1.9878745 -1.5360124 10 2
10.012274 2.6005366 0.90502524 1 10
8.8607197 2.2981412 -1.4498348 9 3
10.052355 2.6034627 1.2749972 2 11
9.2360535 2.3903286 -1.1714082 31 4
10.065712 2.6012993 1.6466295 1 12
9.2311668 2.3821845 -0.83408046 35 5
9.2066221 2.3707101 -0.49823835 47 6
6.0350451 1.5315887 -1.6683476 4 0
6.7838058 1.717831 -1.6155984 23 1
10.217955 2.5836444 0.55235374 2 9
7.7073512 1.9459677 -1.5451714 9 2
10.207913 2.5754197 0.92106187 1 10
8.9263525 2.2487729 -1.4579694 9 3
10.235846 2.5748627 1.2959588 2 11
9.2794685 2.3325653 -1.1748205 19 4
10.252232 2.573278 1.6741619 3 12
9.263032 2.3215599 -0.83547491 29 5
9.3605165 2.3407843 -0.50567007 11 6
6.0530949 1.4912645 -1.6704183 5 0
6.814558 1.6750777 -1.6200974 26 1
10.429712 2.5598543 0.56282091 2 9
7.7893939 1.9089357 -1.5589095 9 2
10.415296 2.5505345 0.93814445 1 10
9.0032368 2.2014139 -1.4679812 10 3
10.419418 2.5438356 1.3169203 2 11
9.7159472 2.370291 -1.2279556 15 4
10.41197 2.5362418 1.6973141 1 12
9.7141905 2.3644695 -0.874695 24 5
6.0765109 1.4521127 -1.6740416 6 0
6.8545208 1.6342416 -1.6268461 18 1
10.563468 2.5165734 0.56910127 2 9
7.8251271 1.8613224 -1.563489 10 2
10.580171 2.5127487 0.95139205 2 10
9.0872049 2.1564999 -1.4792445 11 3
10.652832 2.5241141 1.344219 2 11
9.9099808 2.3444476 -1.2503796 15 4
10.594318 2.5043921 1.7242209 3 12
9.9049807 2.3377893 -0.89038306 18 5
6.0994267 1.4137738 -1.6776651 4 0
6.9262419 1.6015989 -1.641243 19 1
10.783171 2.4894907 0.57998711 2 9
7.8494096 1.8092933 -1.5657787 10 2
10.802835 2.4880738 0.96986908 1 10
9.080862 2.0881371 -1.4758029 14 3
10.813366 2.4825516 1.3622556 2 11
10.119192 2.3213229 -1.2747533 19 4
10.788692 2.4709413 1.7530048 14 12
10.123055 2.3147714 -0.90851146 19 5
6.0978394 1.3686161 -1.6745592 4 0
10.972203 2.4586093 0.19626977 12 8
6.9638782 1.559163 -1.6475415 14 1
10.905542 2.4376767 0.58563942 14 9
7.869514 1.7561642 -1.5673052 10 2
10.950232 2.4416468 0.98154789 4 10
9.2244062 2.053453 -1.4967651 10 3
11.059096 2.4578183 1.3910168 2 11
10.340568 2.296241 -1.3005898 19 4
11.039035 2.4472954 1.7908621 3 12
10.349061 2.2905424 -0.92733705 13 5
10.892384 2.4048135 -0.58459264 9 6
10.985047 2.4192407 -0.19633958 13 7
6.0959177 1.3235523 -1.6714535 4 0
6.9707842 1.5096829 -1.6466417 15 1
11.304916 2.4442134 0.6061551 2 9
8.0178356 1.7305871 -1.5943999 12 2
11.272784 2.4310892 1.0089148 2 10
9.3466606 2.0122826 -1.5142858 9 3
11.301116 2.4289384 1.4192905 2 11
10.573723 2.2706699 -1.3278885 16 4
11.305013 2.4235842 1.8312221 3 12
6.1201348 1.2841392 -1.6755946 3 0
6.9773383 1.4601859 -1.6457419 15 1
11.53285 2.4093413 0.61745965 2 9
8.0278006 1.6741692 -1.5940183 9 2
11.562553 2.4092293 1.0333185 2 10
9.3798218 1.9510043 -1.5174146 10 3
11.570468 2.4024515 1.4509765 2 11
10.8109 2.2427642 -1.3556747 15 4
6.1024427 1.2360122 -1.6683476 4 0
7.0370269 1.4214714 -1.6574394 12 1
11.811743 2.3816621 0.6314857 2 9
8.1663198 1.6436547 -1.6192051 7 2
11.856459 2.3842189 1.0580707 2 10
9.4900494 1.9049156 -1.5330579 11 3
11.859456 2.376215 1.4851 2 11
11.040404 2.2101021 -1.382486 15 4
6.1336756 1.1978223 -1.6745592 4 0
7.0506043 1.373054 -1.6583391 16 1
12.169219 2.3654587 0.64969862 2 9
8.1987963 1.5907164 -1.6234031 10 2
12.095796 2.344615 1.0779423 2 10
9.6117249 1.8596289 -1.5505786 9 3
12.136933 2.3437932 1.5177609 2 11
10.782683 2.0803239 -1.3483624 15 4
6.1608744 1.1585423 -1.6797357 4 0
7.0791717 1.3273895 -1.6628381 7 1
12.468134 2.3333495 0.66477138 2 9
8.2714577 1.5449742 -1.6356149 10 2
12.417407 2.3171277 1.1051347 2 10
9.6594286 1.7989913 -1.5562103 9 3
12.434038 2.31125 1.5528593 2 11
11.320006 2.102129 -1.4136845 13 4
11.876388 2.1968734 -1.0566761 15 5
11.806396 2.1775341 -0.62918293 8 6
6.1916246 1.1196281 -1.6859473 4 0
7.0844307 1.2772437 -1.6619384 10 1
12.790769 2.3014231 0.68110019 2 9
8.3226213 1.4944776 -1.6436287 13 2
12.703911 2.2789292 1.1291897 1 10
9.7009192 1.7367336 -1.5609033 13 3
12.75081 2.2781556 1.590395 2 11
11.404758 2.0356061 -1.4224591 14 4
11.726658 2.084615 -1.042034 29 5
11.71118 2.0755389 -0.62332129 26 6
6.2067146 1.0787833 -1.6880178 5 0
7.10256 1.2306587 -1.6641879 8 1
13.156451 2.2748783 0.69973183 2 9
8.3538828 1.4414647 -1.6478267 10 2
13.072548 2.2533224 1.1605659 2 10
9.7670259 1.6800375 -1.5696636 13 3
13.082971 2.2457221 1.6298808 2 11
11.531829 1.9773875 -1.4365959 13 4
6.2179065 1.0360609 -1.6890532 4 0
7.1205916 1.1826366 -1.6664374 10 1
13.487274 2.2352214 0.7164793 2 9
8.4237862 1.393042 -1.6596566 7 2
13.430001 2.2185056 1.190896 2 10
9.955883 1.6410502 -1.5981348 11 3
13.421528 2.2074821 1.6700976 3 11
11.333798 1.8620803 -1.4102721 19 4
6.2288036 0.99323195 -1.6900884 4 0
7.136373 1.1341201 -1.668237 10 1
13.889181 2.2023201 0.73699504 2 9
8.4352465 1.3345059 -1.6600385 6 2
13.811203 2.1825433 1.223318 2 10
9.9709988 1.5721203 -1.5987604 12 3
13.720954 2.1584585 1.7054397 4 11
11.328875 1.7801316 -1.4080786 25 4
6.2279458 0.94856197 -1.6880178 4 0
7.163383 1.0871986 -1.672736 10 1
14.267572 2.1603189 0.75625467 2 9
8.4851236 1.2817382 -1.6680523 7 2
14.141318 2.1336291 1.2512078 1 10
9.9914989 1.5039366 -1.6003247 14 3
14.089044 2.1156836 1.7493128 1 11
11.323356 1.6983476 -1.4058849 16 4
6.2458873 0.90672481 -1.6911237 4 0
7.1765842 1.0379992 -1.6740857 8 1
14.69348 2.1199841 0.7780264 2 9
8.4860907 1.2213548 -1.6665258 7 2
14.558182 2.0926762 1.2867674 1 10
10.167961 1.4579834 -1.6269187 11 3
11.268123 1.6097096 -1.3975978 18 4
6.2788572 0.86679691 -1.6983706 4 0
7.1913781 0.98893386 -1.6758853 8 1
15.107624 2.0721765 0.79917014 2 9
8.5352592 1.1676692 -1.6745398 6 2
14.947507 2.0422347 1.3198866 1 10
10.25227 1.3970976 -1.6388077 12 3
11.867234 1.6108441 -1.4704757 12 4
6.296248 0.82444894 -1.7014765 4 0
7.2097015 0.94021302 -1.6785848 8 1
15.4505 2.0094137 0.81654567 2 9
8.5373621 1.1072959 -1.673395 7 2
15.360527 1.9895346 1.3550974 1 10
10.393032 1.3424438 -1.6597699 13 3
12.273933 1.5788623 -1.5194671 15 4
14.126163 1.8096068 -1.2459785 33 5
14.092608 1.7953099 -0.74453139 35 6
6.2980165 0.77999485 -1.7004411 5 0
7.2006168 0.88795233 -1.6749856 9 1
15.884063 1.9559549 0.83873612 2 9
8.5895195 1.0546612 -1.6821721 6 2
15.856583 1.9413271 1.3976295 1 10
10.447026 1.2771827 -1.6669658 12 3
12.566452 1.5273803 -1.5543218 10 4
6.3357983 0.74092507 -1.709241 6 0
7.2103648 0.83937269 -1.6758853 9 1
16.337767 1.8961239 0.86197329 2 9
8.5771704 0.99241275 -1.6783561 6 2
16.344444 1.8882266 1.4394642 1 10
10.522411 1.2119023 -1.6776035 9 3
12.677137 1.4533445 -1.5667524 12 4
15.238823 1.7362467 -1.3418498 26 5
16.319685 1.8363181 4.4004416 1 15
6.3465776 0.69730777 -1.710794 5 0
7.2354212 0.79113257 -1.6803844 9 1
16.823156 1.8335208 0.88688523 2 9
8.6131668 0.93568909 -1.6840802 9 2
16.812807 1.8234861 1.479556 1 10
10.605244 1.1464802 -1.6894923 12 3
12.758029 1.3724496 -1.575527 19 4
15.769624 1.685288 -1.3875195 27 5
16.935144 1.8008789 -0.89253747 8 6
6.3512917 0.65298027 -1.710794 5 0
7.2407684 0.74059707 -1.6803844 9 1
17.383947 1.7719262 0.91577464 2 9
8.6351137 0.87712634 -1.6871332 7 2
17.384113 1.7627474 1.5287117 1 10
10.648366 1.0759935 -1.695124 9 3
12.978638 1.3045981 -1.601607 10 4
16.252563 1.6250945 -1.4290055 29 5
16.231812 1.6115679 -0.85485566 17 6
6.3095422 0.60420436 -1.6983706 5 0
7.2535219 0.69076788 -1.682184 9 1
18.039814 1.714792 0.94968832 2 9
8.6643391 0.82054567 -1.6917126 7 2
17.999004 1.6982437 1.5817024 2 10
10.69871 1.0075569 -1.7020072 9 3
13.104042 1.224852 -1.6159875 11 4
16.481737 1.5318652 -1.4481798 29 5
16.588451 1.5330238 -0.87306851 35 6
6.307735 0.56073236 -1.6968178 6 0
7.2988205 0.64498448 -1.6916319 10 1
18.648216 1.6413426 0.98108989 2 9
8.6639891 0.75952697 -1.6905679 6 2
18.64727 1.6314212 1.6376563 5 10
10.733035 0.93524706 -1.7063874 9 3
13.309845 1.1527619 -1.6403615 13 4
16.789539 1.4452815 -1.4743265 30 5
17.360928 1.4822508 -0.91315782 18 6
6.3057199 0.51621258 -1.6952648 7 0
7.2895494 0.59290397 -1.6884826 9 1
19.355705 1.5709279 1.0177251 2 9
8.6787434 0.70132196 -1.6924759 10 2
10.78444 0.86579853 -1.7135834 8 3
13.511495 1.0752463 -1.664248 12 4
18.003794 1.4137738 -0.94644356 18 6
6.2975292 0.47240877 -1.6921589 7 0
7.2973022 0.54356474 -1.6893824 8 1
20.162918 1.4948279 1.0595938 3 9
8.6873436 0.64100885 -1.6932391 9 2
10.805983 0.79164755 -1.7160863 8 3
13.66303 0.99376363 -1.6820408 9 4
17.205313 1.2423517 -1.5091888 31 5
18.67861 1.3356192 -0.98140395 18 6
6.300674 0.4284322 -1.6921589 7 0
7.2970309 0.49234435 -1.6884826 9 1
20.814293 1.4007303 1.0932982 3 9
8.7110929 0.58317232 -1.6970552 9 2
10.850541 0.72069341 -1.7223436 8 3
13.770657 0.90499246 -1.6944715 10 4
19.01613 1.2297223 -0.99867481 46 6
19.151934 1.2250793 -0.33498147 37 7
6.3207979 0.38659629 -1.6968178 6 0
7.325501 0.44419688 -1.6943314 13 1
21.672855 1.3065859 1.1378884 3 9
8.7071133 0.52187753 -1.6955289 10 2
10.83559 0.64375335 -1.719215 8 3
13.86171 0.81625521 -1.7049522 18 4
6.321414 0.34235492 -1.6963001 9 0
7.3109093 0.3921051 -1.6902822 14 1
22.479219 1.1977673 1.1797572 4 9
8.6909399 0.4600358 -1.6917126 9 2
10.853628 0.56881464 -1.721405 9 3
13.900771 0.72121084 -1.7090958 19 4
17.824492 0.91231686 -1.5614822 33 5
6.3313689 0.29858184 -1.6983706 9 0
7.3173614 0.34124082 -1.691182 13 1
8.7057066 0.39989096 -1.6940023 9 2
10.881016 0.49410346 -1.7251595 9 3
14.04825 0.6305564 -1.726645 11 4
21.50996 0.93914634 -1.1283634 20 6
6.3062749 0.25328782 -1.6911237 9 0
7.3195653 0.29014769 -1.691182 14 1
8.7200565 0.33956638 -1.696292 9 2
10.898017 0.41866359 -1.7273496 8 3
14.141574 0.53585494 -1.7376132 9 4
24.10869 0.88402551 -1.2643322 10 6
6.2963047 0.20886827 -1.6880178 7 0
7.3058314 0.23852821 -1.6875829 12 1
25.888952 0.8362152 1.3574902 6 9
8.7261391 0.278806 -1.6970552 7 2
10.880929 0.34195042 -1.7242209 8 3
14.12719 0.43409771 -1.7354196 7 4
23.864725 0.70829856 -1.2512481 42 6
6.3208127 0.16441341 -1.6942296 9 0
7.2956624 0.18594834 -1.6848834 14 1
8.7475004 0.21836926 -1.7008715 10 2
10.853477 0.26336077 -1.7195278 9 3
14.108047 0.33494246 -1.7327385 9 4
18.739349 0.43507865 -1.6399224 35 5
6.3411217 0.12064931 -1.6994059 9 0
7.2928863 0.13493839 -1.6839837 14 1
8.7331343 0.15548842 -1.6978186 10 2
10.882702 0.18806063 -1.7239079 9 3
14.151763 0.23467024 -1.737857 7 4
26.346661 0.40929535 -1.3809367 33 6
6.3302321 0.075135656 -1.6963001 9 0
7.2975621 0.082792461 -1.6848834 14 1
8.7418594 0.094600819 -1.699345 10 2
10.864016 0.10998104 -1.7207794 9 3
14.204666 0.13636203 -1.7441941 7 4
18.914968 0.17167589 -1.6549132 36 5
26.460756 0.22168954 -1.3867983 11 6
6.3228641 0.033109669 -1.6942296 9 0
7.2862587 0.034339543 -1.682184 14 1
8.758008 0.03515761 -1.7023981 10 2
10.848703 0.037870266 -1.7182763 9 3
14.161587 0.042020138 -1.7388319 7 4
18.445494 0.041854616 -1.6137757 34 5
29.114 0.050819296 -1.5258026 11 6
6.330668 -0.01104911 -1.6963001 9 0
7.2824235 -0.016523322 -1.6812842 14 1
8.7639284 -0.026003178 -1.7035428 12 2
10.817098 -0.037758946 -1.7132704 9 3
14.157565 -0.056832407 -1.7383444 7 4
19.043047 -0.089738913 -1.6660691 36 5
23.916849 -0.12522946 -1.2534462 10 6
6.3343005 -0.055278603 -1.6973354 9 0
7.266541 -0.06721919 -1.6776849 14 1
8.7458658 -0.087010041 -1.7001083 10 2
10.824472 -0.11335774 -1.714522 9 3
14.164762 -0.15575598 -1.7393193 7 4
28.728428 -0.35100141 -1.5057056 11 6
6.3298969 -0.099437959 -1.6963001 9 0
7.2736888 -0.1180737 -1.6794846 14 1
8.7725277 -0.14853039 -1.7054509 10 2
10.815516 -0.18878552 -1.7132704 9 3
14.224857 -0.25574628 -1.7468753 9 4
20.035959 -0.37421548 -1.7532248 38 5
31.492968 -0.60469592 -1.6507809 10 6
6.3290486 -0.1436262 -1.6963001 9 0
7.2882729 -0.16921219 -1.6830838 14 1
48.63773 -1.1462116 2.5497034 0 9
8.7555752 -0.20939456 -1.7023981 10 2
48.632072 -1.1715565 4.2559891 1 10
10.806035 -0.26409382 -1.712019 9 3
14.260431 -0.35598871 -1.7515063 11 4
20.498926 -0.52604282 -1.7940139 37 5
49.033585 -1.2668622 9.5343447 1 13
32.250671 -0.8445136 -1.6907655 9 6
6.3163056 -0.18746357 -1.6931943 9 0
36.396049 -1.0929254 0.63558179 23 8
7.2830181 -0.21997173 -1.682184 14 1
8.769598 -0.27099952 -1.7054509 7 2
10.823672 -0.34014758 -1.7151477 9 3
48.695545 -1.5473341 5.982079 1 11
14.257598 -0.4555358 -1.7515063 10 4
48.740707 -1.5743158 7.7237959 2 12
48.905815 -1.6052831 9.5114479 2 13
30.463413 -1.0105755 -1.5973982 11 6
6.3418703 -0.23254582 -1.7004411 9 0
36.315594 -1.3443259 0.63432515 23 8
7.2968845 -0.27139044 -1.6857833 14 1
8.7635689 -0.33206704 -1.7046876 9 2
10.836825 -0.41630885 -1.7176507 9 3
14.24812 -0.554829 -1.7507752 9 4
31.772745 -1.2761253 -1.6664816 9 6
6.3362331 -0.2766459 -1.6994059 9 0
7.3064928 -0.32284141 -1.6884826 14 1
8.7375698 -0.39065838 -1.7001083 9 2
10.877154 -0.49202633 -1.7245337 9 3
14.255796 -0.65483177 -1.7522376 9 4
48.992378 -2.2932823 9.5335808 1 13
6.3342032 -0.31976852 -1.6994059 9 0
7.3430505 -0.3745527 -1.6974807 14 1
8.7346296 -0.45164809 -1.7001083 9 2
10.893181 -0.56898099 -1.7276624 9 3
14.314445 -0.75519872 -1.7600372 9 4
48.95211 -2.6254458 9.5290022 2 13
31.676344 -1.7099847 -1.6625041 10 6
6.3356733 -0.36420316 -1.7004411 9 0
7.3363652 -0.4255816 -1.6965809 14 1
8.7547817 -0.51399654 -1.7046876 10 2
10.896832 -0.64548248 -1.728914 9 3
14.3544 -0.8578369 -1.7656432 10 4
48.995293 -2.9709318 9.541213 1 13
6.3252654 -0.40792799 -1.6983706 9 0
7.348773 -0.47779986 -1.7001802 14 1
