# .PCD v0.7 - Point Cloud Data file format
VERSION 0.7
FIELDS x y z intensity ring
SIZE 4 4 4 4 2
TYPE F F F F U
COUNT 1 1 1 1 1
WIDTH 1305
HEIGHT 1
VIEWPOINT 0 0 0 1 0 0 0
POINTS 1305
DATA ascii
-22.243866 7.2446408 -1.2260222 41 6
-6.1630383 2.0310707 -1.7387464 4 0
-7.2743306 2.4015279 -1.7685652 14 1
-8.7731705 2.9031465 -1.796276 9 2
-10.918356 3.6193576 -1.821836 12 3
-14.385723 4.7771258 -1.8611888 9 4
-21.895277 7.30057 -1.2095888 20 6
-6.2146063 2.0962775 -1.7573814 4 0
-7.2407718 2.446641 -1.7645161 16 1
-8.7526894 2.964324 -1.796276 7 2
-10.937717 3.7107248 -1.8293447 9 3
-14.344505 4.874886 -1.8602139 9 4
-21.342857 7.2823334 -1.1818507 20 6
-6.2052994 2.1415017 -1.7589344 6 0
-7.2437739 2.5041332 -1.769465 15 1
-8.7429123 3.0292139 -1.7985657 9 2
-10.904081 3.7844036 -1.8280934 9 3
-14.313871 4.9762144 -1.8607013 9 4
-26.548845 9.2660694 -1.473676 11 6
-6.2175231 2.1944165 -1.7666988 5 0
-7.2628613 2.567636 -1.778463 11 1
-8.7326546 3.0941088 -1.8008554 7 2
-10.866226 3.8564694 -1.8262162 9 3
-14.286265 5.0786796 -1.8616763 9 4
-19.920475 7.109035 -1.1084757 39 6
-6.22931 2.2476032 -1.7744634 6 0
-7.2337627 2.6143019 -1.7757636 12 1
-8.7076988 3.152142 -1.8000921 7 2
-10.839725 3.9303441 -1.8262162 9 3
-14.242996 5.1755838 -1.8607013 9 4
-19.158487 7.0034275 5.4657412 2 15
-6.2138667 2.2899525 -1.7744634 6 0
-7.2121439 2.6621304 -1.7748638 13 1
-8.6339245 3.193785 -1.7894068 9 2
-10.823134 4.0100446 -1.8280934 9 3
-14.172077 5.2592907 -1.8560703 13 4
-24.860865 9.2604876 -1.3903571 22 6
-6.2013445 2.3346374 -1.7754986 6 0
-7.1897368 2.7110388 -1.7739639 13 1
-31.326588 11.824828 1.7548249 5 9
-8.644474 3.2664745 -1.796276 9 2
-10.785639 4.0820079 -1.826529 8 3
-14.084899 5.3391013 -1.8494893 16 4
-24.317726 9.2520132 -1.3635612 22 6
-6.1939106 2.3813405 -1.7780869 5 0
-7.1742725 2.7625673 -1.7748638 13 1
-8.6196289 3.3260362 -1.7958944 12 2
-10.773461 4.1636124 -1.8293447 9 3
-13.971382 5.4079194 -1.839496 16 4
-23.809456 9.249423 -1.3386492 22 6
-6.1627483 2.4188774 -1.7739457 7 0
-7.1511836 2.8111598 -1.7739639 12 1
-8.6199446 3.3954875 -1.8008554 9 2
-10.73678 4.235827 -1.8280934 9 3
-13.979441 5.5235662 -1.8455895 20 4
-17.707827 7.0110202 -1.6662434 36 5
-17.636028 6.9932766 -0.99427861 46 6
-6.1528845 2.4647162 -1.7760164 7 0
-7.1350012 2.8624673 -1.7748638 13 1
-25.333981 10.173916 1.4307605 7 9
-8.5923862 3.4541163 -1.8000921 9 2
-10.706948 4.3106775 -1.8280934 9 3
-13.868739 5.592072 -1.8360838 19 4
-17.593189 7.1045346 -1.6599683 36 5
-22.863365 9.2513275 -1.2925936 10 6
-6.121222 2.5017626 -1.7718753 7 0
-7.1004157 2.9063036 -1.7712647 14 1
-8.5432434 3.5020978 -1.7947495 10 2
-10.66274 4.3774567 -1.8255905 9 3
-13.928495 5.7295375 -1.8492455 19 4
-17.241041 7.1027217 -1.6313812 35 5
-22.212744 9.1645002 -1.2593079 10 6
-6.1183171 2.549315 -1.7760164 9 0
-7.0876627 2.9575675 -1.7730643 13 1
-31.265659 13.05948 1.7757591 5 9
-8.509531 3.5578694 -1.7928416 10 2
-10.617342 4.4456859 -1.8230875 9 3
-13.870866 5.8165364 -1.8468081 19 4
-16.78816 7.0501971 -1.5930327 34 5
-21.776352 9.162879 -1.2381642 21 6
-6.1039271 2.5934761 -1.7770516 9 0
-7.0740142 3.0100305 -1.7748638 12 1
-8.4796972 3.6134005 -1.7916965 10 2
-10.619539 4.5318093 -1.8287191 9 3
-13.727709 5.8695254 -1.8331589 19 4
-16.430834 7.0354719 -1.5637484 33 5
-21.478521 9.2101374 -1.2247661 20 6
-6.07195 2.628824 -1.7729106 9 0
-7.0497861 3.05656 -1.7739639 11 1
-8.4920797 3.6889365 -1.7997105 10 2
-10.571342 4.598743 -1.8259033 8 3
-13.716557 5.9755163 -1.8370585 15 4
-16.031939 6.9941845 -1.5302805 32 5
-31.066618 13.566216 6.5893979 2 13
-20.668859 9.0342999 -1.1821647 20 6
-6.0428443 2.6664722 -1.7698047 9 0
-7.0354056 3.1088529 -1.7757636 13 1
-8.4972944 3.7601607 -1.8061981 7 2
-10.516315 4.6601892 -1.821836 12 3
-13.53299 6.0083008 -1.818047 14 4
-15.491165 6.8873968 -1.4832165 30 5
-15.394041 6.8538704 -0.88311702 53 6
-6.0245547 2.7075412 -1.7698047 9 0
-7.0247445 3.1614661 -1.778463 13 1
-8.4690475 3.8185825 -1.8058165 6 2
-10.445716 4.7164221 -1.8152657 13 3
-13.480926 6.0953708 -1.8165846 16 4
-19.703833 8.9380522 -1.1339109 10 6
-6.0160451 2.75436 -1.7729106 9 0
-6.9918737 3.2055583 -1.7757636 12 1
-8.4410744 3.8753221 -1.8054349 7 2
-10.438499 4.7989669 -1.819646 13 3
-13.409195 6.1760459 -1.8126848 19 4
-25.336025 11.701521 -1.4625808 11 6
-5.9866514 2.7903478 -1.7698047 9 0
-6.9769564 3.2563715 -1.7775632 11 1
-8.3924732 3.9241784 -1.8008554 9 2
-10.376119 4.8583198 -1.81464 14 3
-13.384819 6.2756038 -1.8151222 16 4
-19.246176 9.0524616 -1.1146513 19 6
-5.9809866 2.8387027 -1.7739457 9 0
-6.9470115 3.301656 -1.7757636 12 1
-8.3744307 3.9854317 -1.8027636 6 2
-10.305361 4.9109898 -1.8080698 11 3
-13.358596 6.3774433 -1.8175595 16 4
-18.953522 9.072875 -1.1012534 19 6
-5.9466066 2.8747013 -1.7698047 9 0
-6.9267159 3.3529813 -1.7766634 12 1
-8.357358 4.0527067 -1.8054349 7 2
-10.251314 4.9777708 -1.8049411 9 3
-13.26263 6.4485707 -1.8107349 15 4
-13.975046 6.8160834 -0.81487089 17 6
-5.9263926 2.9161463 -1.7698047 9 0
-6.8611856 3.3805845 -1.7658658 15 1
-8.3119717 4.1008129 -1.8016186 7 2
-10.220737 5.0491815 -1.8055668 11 3
-13.153238 6.5093069 -1.8019602 16 4
-13.742258 6.8187261 -0.803985 26 6
-5.9098611 2.9581478 -1.77084 9 0
-6.8693748 3.4429259 -1.7739639 14 1
-8.3041954 4.1693106 -1.8061981 7 2
-10.245244 5.1505828 -1.8162043 10 3
-12.977415 6.5326385 -1.7839236 12 4
-13.467895 6.8001695 -0.79069173 35 6
-5.8890657 2.9993329 -1.77084 9 0
-6.8451719 3.4907978 -1.7739639 14 1
-8.2643948 4.2218266 -1.8039083 7 2
-10.247727 5.2417698 -1.8230875 12 3
-12.873188 6.5932131 -1.7758802 10 4
-13.116202 6.729239 -1.2897307 24 5
-13.038131 6.6978145 -0.76818722 35 6
-5.8885655 3.0510395 -1.7770516 9 0
-6.8483109 3.552861 -1.7811624 11 1
-8.224268 4.2739859 -1.8016186 7 2
-10.168829 5.2912989 -1.8155787 18 3
-12.715938 6.6251364 -1.7605247 11 4
-13.033578 6.802207 -1.2862444 48 5
-12.955652 6.7701707 -0.76609379 26 6
-5.8568683 3.0866694 -1.7739457 7 0
-6.8026595 3.5896699 -1.7757636 14 1
-8.1907568 4.3294649 -1.8008554 9 2
-10.150845 5.3723283 -1.8190202 19 3
-12.555361 6.6533346 -1.7446817 10 4
-16.558226 8.7893372 -1.6400968 35 5
-12.710546 6.7554674 -0.75437051 26 6
-5.8419876 3.1311333 -1.7760164 9 0
-6.7705641 3.6333876 -1.7739639 14 1
-25.279198 13.577315 1.5038215 8 9
-8.1672497 4.3902578 -1.8023818 7 2
-10.109614 5.4411888 -1.8183944 20 3
-12.504938 6.758575 -0.74495006 26 6
-5.8267708 3.1755395 -1.7780869 9 0
-6.7518764 3.6843004 -1.7757636 14 1
-16.392855 8.9488068 0.97878718 2 9
-8.1251173 4.4391599 -1.7997105 6 2
-10.058479 5.5022926 -1.8158915 17 3
-12.32023 6.7507219 -1.7249388 12 4
-16.260784 8.9209738 -1.6226655 35 5
-12.25208 6.7300711 -0.73259878 26 6
-5.7982616 3.2113824 -1.7760164 9 0
-6.7402763 3.7377326 -1.7793628 12 1
-8.076767 4.4862413 -1.7958944 6 2
-19.219973 10.680133 1.9237015 1 10
-10.033631 5.580061 -1.8183944 17 3
-12.645146 7.0410886 -1.7770989 7 4
-12.037394 6.7219572 -0.72255027 26 6
-5.7959008 3.2631567 -1.782228 9 0
-6.7106223 3.7827835 -1.778463 12 1
-8.0409117 4.5382204 -1.7947495 7 2
-19.224747 10.859123 1.9317199 3 10
-9.936944 5.6151867 -1.8077569 17 3
-13.243519 7.4958744 -1.8685009 2 4
-11.934474 6.7632036 -1.2001345 20 5
-11.831545 6.7130604 -0.71292049 26 6
-5.7467256 3.2871842 -1.7739457 9 0
-6.6847191 3.8283722 -1.778463 12 1
-8.002223 4.5903373 -1.7932231 7 2
-19.243702 11.043281 1.9411327 1 10
-9.8906498 5.6804852 -1.8065054 14 3
-12.385103 7.121748 -1.7541875 1 4
-33.71817 19.404476 6.1616411 0 12
-11.715496 6.7448711 -1.1827034 30 5
-11.614831 6.6977201 -0.70266259 26 6
-5.7403378 3.3369343 -1.7791222 9 0
-6.6645656 3.8788695 -1.7802627 12 1
-7.9436507 4.6288848 -1.7871171 9 2
-9.9336538 5.7954583 -1.8215232 12 3
-13.120057 7.6667414 -1.8658198 3 4
-11.487554 6.7208571 -1.1644007 28 5
-11.431103 6.6958661 -0.69428885 26 6
-5.7174921 3.3759289 -1.7791222 9 0
-6.6346545 3.9221592 -1.7793628 11 1
-7.9010067 4.678226 -1.7848274 10 2
-9.8011942 5.8102689 -1.8046281 15 3
-13.071335 7.7611899 -1.866551 2 4
-11.310194 6.7235131 -1.151153 37 5
-11.205586 6.66927 -0.68340296 26 6
-5.6965003 3.4187441 -1.7801574 9 0
-6.5696692 3.9474542 -1.769465 15 1
-7.8664713 4.7322612 -1.7844458 10 2
-9.7356777 5.865983 -1.800248 16 3
-12.98114 7.8307199 -1.8614326 3 4
-11.092434 6.6993036 -1.1337218 27 5
-11.051622 6.6851931 -0.67691332 26 6
-5.6757932 3.4604409 -1.7811928 9 0
-6.5486045 3.9972844 -1.7712647 14 1
-7.8139815 4.7771668 -1.780248 15 2
-19.176006 11.728063 1.9665822 1 10
-9.687748 5.9296865 -1.7989967 15 3
-10.759664 6.5935311 -1.5494469 19 4
-10.758389 6.6005006 -1.1042633 42 5
-10.718802 6.586514 -0.65932846 52 6
-5.6482124 3.4979455 -1.7801574 9 0
-6.4890709 4.0233927 -1.7627165 21 1
-7.836329 4.8644114 -1.7928416 12 2
-16.351973 10.158418 1.6841975 1 10
-9.6438065 5.993403 -1.7983708 15 3
-10.703259 6.6621914 -1.5479845 31 4
-10.718811 6.6796598 -1.1049604 51 5
-10.666943 6.6550927 -0.65890974 26 6
-5.6242719 3.5363107 -1.7801574 7 0
-6.4747267 4.0757756 -1.7663157 20 1
-7.7756057 4.9022484 -1.7867355 10 2
-9.5649805 6.0373869 -1.7914877 17 3
-10.556977 6.6712651 -1.5333602 21 4
-10.538918 6.6701527 -1.0911899 33 5
-10.481879 6.6417441 -0.65032667 26 6
-14.074361 8.9284182 -0.29093161 30 7
-5.6124725 3.5838068 -1.7842987 9 0
-6.5035825 4.1576142 -1.7820623 13 1
-7.7395401 4.9553523 -1.7863539 13 2
-9.5259256 6.1061459 -1.7921134 16 3
-10.396542 6.6718984 -1.516786 23 4
-10.378123 6.6703124 -1.0793368 32 5
-10.314327 6.6369424 -0.64279026 17 6
-5.5711069 3.6123919 -1.7791222 9 0
-6.4547834 4.1901836 -1.7766634 13 1
-7.6586695 4.9793 -1.7756686 19 2
-9.4102211 6.1250863 -1.7783473 16 3
-10.210007 6.6532784 -1.4963119 23 4
-10.209 6.6602387 -1.0664377 31 5
-13.381003 8.7429428 -0.8376894 17 6
-13.841229 9.0539961 -0.28869772 30 7
-5.552206 3.6554465 -1.7811928 9 0
-6.428628 4.237289 -1.7775632 13 1
-7.5934649 5.0107708 -1.768418 12 2
-9.3353462 6.1672211 -1.7720897 14 3
-10.030867 6.6367669 -1.4768128 22 4
-10.045979 6.6543307 -1.0542358 30 5
-13.153066 8.7223377 -0.82711756 17 6
-13.341249 8.860549 -0.27955267 28 7
-5.5143447 3.6845682 -1.7770516 9 0
-6.3931575 4.2766151 -1.7757636 12 1
-7.6219096 5.1062756 -1.783301 15 2
-9.3019075 6.238843 -1.773967 12 3
-9.8766909 6.6318536 -1.4607261 22 4
-9.9045496 6.6580863 -1.0441258 15 5
-13.052089 8.7871809 -0.82460541 17 6
-5.5044756 3.7338192 -1.782228 9 0
-6.3599219 4.3189526 -1.7748638 13 1
-7.653543 5.2032938 -1.7989473 12 2
-9.2690239 6.3086839 -1.7758442 10 3
-9.725172 6.6290894 -1.4451268 18 4
-9.8117447 6.6956282 -1.0392451 14 5
-12.88643 8.8037138 -0.81790644 17 6
-5.488481 3.7777727 -1.7853339 9 0
-6.3207483 4.3555088 -1.7721643 11 1
-7.6283412 5.2644043 -1.8016186 10 2
-9.1873732 6.3474169 -1.7686483 9 3
-9.5883961 6.6318965 -1.4314774 10 4
-12.580111 8.723877 -0.80231029 26 6
-5.4651408 3.8182104 -1.7863692 9 0
-6.2806058 4.3928285 -1.769465 13 1
-7.571424 5.3015676 -1.7966576 10 2
-9.025877 6.3270311 -1.7458088 8 3
-12.370159 8.7035704 -0.7926805 8 6
-12.542625 8.8380175 -0.26782462 26 7
-5.4162908 3.840626 -1.7791222 9 0
-6.2434297 4.4320545 -1.7676654 13 1
-7.5140929 5.3419595 -1.7920781 10 2
-8.9546194 6.3731303 -1.7408029 8 3
-11.447839 8.1566219 -1.7259138 3 4
-12.197049 8.7129221 -0.78556281 26 6
-12.43833 8.8951206 -0.26691711 26 7
-5.3924818 3.8806016 -1.7801574 9 0
-6.2313099 4.489203 -1.7730643 13 1
-7.4591017 5.3816538 -1.7878804 19 2
-8.8890915 6.4204535 -1.7367356 9 3
-11.311793 8.1793499 -1.7139707 2 4
-12.099634 8.7618885 -1.3069874 24 5
-15.544657 11.269 -1.0062113 9 6
-12.133165 8.8055601 -0.26168138 25 7
-5.3621387 3.9158752 -1.7791222 9 0
-6.1840863 4.5210958 -1.7685652 12 1
-7.4086766 5.4243164 -1.7848274 15 2
-8.8026285 6.4519901 -1.728601 10 3
-11.196799 8.2158413 -1.705196 2 4
-11.863084 8.7142973 -1.2878133 24 5
-15.372293 11.308602 -1.0001402 9 6
-5.3439832 3.960114 -1.782228 9 0
-6.1273313 4.5455799 -1.7613667 14 1
-7.4094114 5.5027137 -1.7939863 9 2
-8.7585077 6.5117583 -1.728601 12 3
-11.150315 8.3021088 -1.7069021 3 4
-11.960106 8.9147844 -1.30507 24 5
-11.680518 8.7159042 -0.76379102 17 6
-11.868079 8.8687649 -0.25860977 24 7
-5.3199925 3.9987192 -1.7832633 9 0
-6.0993633 4.5895252 -1.7622666 15 1
-7.3206406 5.5164986 -1.7817745 15 2
-8.6308298 6.5108852 -1.7123318 12 3
-10.81791 8.1696548 -1.6644917 7 4
-11.443094 8.6543417 -1.255217 22 5
-11.520658 8.7224894 -0.75730133 8 6
-11.648069 8.8285532 -0.25511929 23 7
-5.3011622 4.0427933 -1.7863692 9 0
-6.0594277 4.6260843 -1.760017 21 1
-7.2881889 5.5722394 -1.783301 15 2
-16.246689 12.42602 1.7894818 3 10
-8.4690866 6.4821329 -1.6891795 21 3
-8.4222412 6.4532728 -1.3027834 19 4
-8.4281263 6.4671283 -0.92942882 39 5
-8.4849281 6.5177746 -0.56072748 20 6
-5.2514195 4.0631518 -1.7791222 9 0
-6.020823 4.6634994 -1.7582175 19 1
-7.2382517 5.6145616 -1.7806298 12 2
-8.4251862 6.5423136 -1.6894923 27 3
-8.4239998 6.5484653 -1.3100955 31 4
-8.4483776 6.5745153 -0.93657559 19 5
-11.093704 8.645546 -0.73709965 17 6
-11.309244 8.823041 -0.25037223 23 7
-5.2259655 4.1020989 -1.7801574 9 0
-5.9482808 4.6741123 -1.74652 19 1
-7.1196284 5.6005826 -1.7607856 10 2
-8.6008348 6.7730517 -1.7339199 13 3
-9.8167696 7.741694 -1.5350664 9 4
-10.885583 8.5938282 -1.2133822 21 5
-10.87007 8.5908222 -0.72610915 26 6
-5.1918759 4.1327629 -1.7780869 9 0
-5.9711928 4.758213 -1.7627165 15 1
-10.2672 8.187397 0.68821788 2 9
-7.0788202 5.6489258 -1.760404 13 2
-8.5348206 6.8181367 -1.7301654 12 3
-10.326609 8.2583866 -1.6235435 13 4
-10.767731 8.620409 -1.2067584 21 5
-10.816061 8.6715012 -0.72652781 26 6
-10.98378 8.8154163 -0.24583459 22 7
-5.1568856 4.1640539 -1.7760164 9 0
-5.9347973 4.7973337 -1.7618166 18 1
-7.0066309 5.6698074 -1.7520082 18 2
-8.3009529 6.7243752 -1.6919955 6 3
-10.170041 8.2502384 -1.6079443 14 4
-10.626863 8.6300583 -1.1976942 20 5
-10.609561 8.6252308 -0.71658397 17 6
-10.71417 8.7227039 -0.24115735 21 7
-5.1254325 4.1966119 -1.774981 9 0
-5.9411912 4.8697386 -1.7735142 20 1
-6.9274225 5.6861987 -1.7420862 15 2
-8.1225491 6.6743102 -1.6650885 8 3
-10.107513 8.3142309 -1.6069694 12 4
-10.46021 8.6135368 -1.1854924 20 5
-10.464337 8.6292019 -0.71082705 26 6
-10.290606 8.4949932 -0.23291981 19 7
-5.0811491 4.2199478 -1.7698047 7 0
-5.8890686 4.8961458 -1.7681153 21 1
-6.9670258 5.7985263 -1.7619303 9 2
-8.083003 6.7345004 -1.6663401 13 3
-9.6102476 8.0183277 -1.5367726 11 4
-10.399823 8.6863508 -1.1854924 20 5
-10.233749 8.5567398 -0.69910377 26 6
-10.384369 8.6950054 -0.23641029 20 7
-5.0552626 4.2569251 -1.77084 7 0
-5.8615656 4.9411421 -1.769915 18 1
-6.8918691 5.8178983 -1.7531532 12 2
-7.9799633 6.7435918 -1.6547639 11 3
-8.0220556 6.7887678 -1.2903527 5 4
-10.220352 8.6582909 -1.1718961 19 5
-10.126543 8.5879297 -0.69585896 17 6
-5.0364213 4.30303 -1.774981 9 0
-5.8171716 4.9753599 -1.7672155 20 1
-6.809329 5.8301167 -1.7424678 10 2
-10.182426 8.7243128 1.1731163 1 10
-7.7860408 6.6758018 -1.6244158 13 3
-9.7368622 8.3572979 -1.575527 9 4
-10.084098 8.6645098 -1.1631805 28 5
-9.9512825 8.5624733 -0.68800855 26 6
-4.9916596 4.3254333 -1.7698047 9 0
-5.7234111 4.9647737 -1.7492194 21 1
-6.8015246 5.9083071 -1.751245 10 2
-7.7526612 6.7416596 -1.6272315 12 3
-9.5510139 8.3142805 -1.5548092 19 4
-10.113489 8.8132334 -1.1736392 19 5
-9.7889338 8.5424395 -0.68089086 26 6
-4.9482794 4.3487 -1.7651459 10 0
-5.6622763 4.9814391 -1.7411212 21 1
-6.7184238 5.9168372 -1.7401782 12 2
-7.4665484 6.5826468 -1.5765467 19 3
-9.4852934 8.3741894 -1.5535904 10 4
-9.8397198 8.69627 -1.1488869 18 5
-9.7156019 8.5956392 -0.67984414 26 6
-9.7633524 8.6500435 -0.2276841 18 7
-4.8882751 4.3552928 -1.7542756 13 0
-5.7154965 5.097693 -1.7681153 19 1
-6.5920281 5.8877425 -1.7180443 12 2
-7.2687364 6.4989967 -1.5443213 19 3
-9.2624111 8.2902803 -1.5262917 9 4
-9.7713976 8.7550659 -1.1478411 18 5
-12.302962 11.038814 -0.86626482 17 6
-4.846283 4.3789515 -1.7501343 13 0
-5.6537561 5.1139388 -1.760017 20 1
-6.5183258 5.9021683 -1.709267 18 2
-7.1628571 6.4926047 -1.5311806 25 3
-9.2616329 8.4067764 -1.5357976 7 4
-9.4623098 8.597971 -1.1185567 17 5
-12.353124 11.236535 -0.87516189 8 6
-4.7978463 4.3948731 -1.7434052 12 0
-5.6073251 5.141768 -1.7564179 21 1
-6.5029922 5.9714327 -1.7161362 16 2
-7.0460963 6.4769468 -1.5158502 21 3
-9.1165514 8.3889704 -1.5211732 11 4
-9.3610315 8.6260147 -1.1136761 17 5
-9.3441467 8.6195107 -0.66623676 26 6
-4.7684612 4.4295774 -1.7439228 14 0
-5.5484586 5.1595564 -1.7492194 22 1
-6.4798236 6.03408 -1.7210972 12 2
-6.93713 6.4667139 -1.5020839 20 3
-8.9256926 8.3291683 -1.498993 9 4
-9.1957684 8.5932159 -1.1011256 17 5
-11.914989 11.14595 -0.85506499 17 6
-4.7317977 4.4574599 -1.7418523 13 0
-5.4626818 5.15137 -1.7334728 24 1
-6.4218383 6.064343 -1.7168994 13 2
-6.837265 6.4634194 -1.4901948 19 3
-8.8139782 8.3407936 -1.4899747 13 4
-9.0690298 8.594161 -1.0931073 25 5
-11.862969 11.253599 -0.85694903 8 6
-4.7340875 4.5224133 -1.7542756 14 0
-5.422359 5.1853423 -1.7321231 21 1
-6.4077044 6.1361842 -1.7245318 16 2
-6.7377901 6.4590483 -1.4783059 22 3
-6.7216954 6.4503794 -1.1438658 11 4
-8.9657125 8.6158495 -1.087878 24 5
-9.0090113 8.6665354 -0.65514159 17 6
-4.74264 4.5943327 -1.7692871 10 0
-5.3622451 5.200007 -1.7244748 23 1
-6.3773861 6.1930785 -1.7279664 10 2
-6.6302099 6.4453468 -1.4645396 18 3
-10.133841 9.8581667 1.7359071 2 11
-6.6110573 6.4334645 -1.1326538 19 4
-8.8054609 8.5808954 -1.0756762 16 5
-8.6852293 8.4726009 -0.63588196 8 6
-4.6759977 4.5934834 -1.7563461 13 0
-5.3466554 5.2578101 -1.7312233 20 1
-6.3479834 6.2512255 -1.7317824 12 2
-6.5456634 6.4526463 -1.4557793 20 3
-6.5207696 6.4348412 -1.1248541 31 4
-8.7311707 8.6281538 -1.073933 16 5
-8.6457462 8.5526924 -0.63734734 17 6
-4.6145067 4.5952163 -1.744958 13 0
-5.357667 5.3408589 -1.74652 19 1
-6.2761073 6.2651625 -1.7237686 10 2
-6.4429035 6.4384065 -1.4426388 21 3
-6.42068 6.4229212 -1.1151046 30 4
-4.6149378 4.6602645 -1.7573814 14 0
-5.2709122 5.328258 -1.7303236 21 1
-6.2391157 6.3158078 -1.7256767 6 2
-6.3478489 6.4326105 -1.4313755 18 3
-6.3338766 6.4251771 -1.1077924 27 4
-8.4744005 8.608572 -1.0568506 15 5
-10.764834 10.946727 -0.80461305 8 6
-4.5984874 4.7089548 -1.763593 13 0
-5.2090912 5.339817 -1.7222252 22 1
-6.1729498 6.3367114 -1.7195706 12 2
-6.1539979 6.3238773 -1.3975856 23 3
-6.1532636 6.3297501 -1.0839059 25 4
-6.1475716 6.330523 -0.77202559 43 5
-10.754892 11.090432 -0.80963731 8 6
-4.55478 4.7298112 -1.759452 13 0
-5.1568241 5.3606048 -1.7172763 26 1
-6.0766225 6.3233738 -1.7046876 9 2
-6.10534 6.3599186 -1.3963342 20 3
-6.117167 6.3811498 -1.0853684 29 4
-6.12252 6.3934312 -0.77446592 48 5
-8.2271576 8.6002054 -0.62373996 8 6
-4.5158267 4.7537022 -1.7568637 11 0
-5.1389956 5.4153719 -1.723575 25 1
-6.0107222 6.3428421 -1.6985818 9 2
-6.0757279 6.4181666 -1.3997757 17 3
-6.0626788 6.4111018 -1.0834185 25 4
-8.0448265 8.5190687 -1.0251257 14 5
-7.7667236 8.2332067 -0.59317577 19 6
-4.5195112 4.8245878 -1.7713577 12 0
-5.1210389 5.4724593 -1.7303236 22 1
-6.0199118 6.4420276 -1.7138464 7 2
-6.0172935 6.4459867 -1.3966471 10 3
-5.9744511 6.4068141 -1.0756189 27 4
-7.9009738 8.484623 -1.0143185 21 5
-7.7634716 8.3457212 -0.59736264 28 6
-4.4830976 4.8531842 -1.7703223 12 0
-5.0853524 5.5109425 -1.7312233 19 1
-5.921577 6.4261456 -1.6985818 9 2
-5.8758326 6.3899169 -1.0658693 25 4
-7.6786046 8.3591957 -0.99305254 14 5
-7.7819743 8.4836121 -0.603329 18 6
-12.389791 13.521082 -0.32011205 35 7
-4.4330449 4.8650231 -1.763593 13 0
-5.0424747 5.5396647 -1.7294236 21 1
-5.8394036 6.4241738 -1.6875149 10 2
-5.8826981 6.4786153 -1.3860096 13 3
-5.792191 6.3856549 -1.0585573 24 4
-7.5519605 8.3344936 -0.98398834 14 5
-9.9391508 10.98445 -0.77635163 17 6
-7.7946982 8.6235371 -0.20290168 14 7
-4.3920789 4.8864651 -1.7604873 14 0
-5.0228782 5.5941601 -1.7357224 21 1
-5.8335481 6.5061626 -1.6985818 9 2
-5.8173757 6.4949641 -1.3810036 13 3
-5.7210002 6.3963456 -1.0536824 29 4
-7.5944762 8.4999313 -0.99723595 14 5
-7.5646877 8.4755182 -0.59537387 19 6
-7.5506954 8.471734 -0.19808482 13 7
-4.348032 4.9076462 -1.7568637 19 0
-4.9775538 5.6241212 -1.7339227 22 1
-5.7775822 6.5349612 -1.6955289 9 2
-5.8138928 6.5852938 -1.3913282 7 3
-5.6236863 6.3765755 -1.0439328 27 4
-5.6317873 6.3925047 -0.74535584 25 5
-7.4392047 8.4559536 -0.59024501 9 6
-7.4913659 8.5242434 -0.19808482 13 7
-4.323832 4.9495211 -1.7610049 14 0
-4.8228507 5.5265889 -1.6934315 21 1
-5.5978198 6.423686 -1.6562221 6 2
-52.4893 60.254486 6.9912848 48 10
-6.9506474 7.9845371 -1.6766648 3 3
-10.112804 11.625253 1.8918999 0 11
-5.5399566 6.3707418 -1.0366207 23 4
-5.5439062 6.3820291 -0.73960358 35 5
-7.2556586 8.3643532 -0.58030111 19 6
-4.2967372 4.988369 -1.7641107 14 0
-4.8616834 5.6502323 -1.7208756 24 1
-5.4400706 6.3291326 -1.6222582 9 2
-51.742832 60.241596 6.9477072 47 10
-6.9038582 8.0406561 -1.678542 1 3
-10.077392 11.74504 1.900187 0 11
-5.4695024 6.3791223 -1.0317459 25 4
-5.465518 6.3812332 -0.73507148 41 5
-7.3881302 8.6351147 -0.5955832 18 6
-7.2962813 8.5398245 -0.19606033 13 7
-4.2751904 5.0322232 -1.7692871 14 0
-4.7613244 5.6103902 -1.6988304 19 1
-5.4198685 6.3954139 -1.6295089 10 2
-6.9183917 8.1665516 0.93640125 2 10
-5.6554551 6.6804929 -1.3863224 12 3
-5.3798089 6.3616366 -1.0229713 27 4
-5.3822718 6.3735685 -0.72984219 45 5
-7.1216154 8.4422235 -0.57883573 19 6
-4.2312741 5.051578 -1.7656636 13 0
-4.7770643 5.7092547 -1.718626 18 1
-5.4493575 6.5219846 -1.6520243 9 2
-5.580832 6.6864491 -1.3794394 2 3
-5.2945862 6.3502502 -1.0151716 23 4
-5.3070488 6.3742399 -0.72565866 45 5
-6.8006935 8.1769428 -0.55737799 20 6
-7.0449438 8.4796486 -0.19243024 13 7
-4.1860609 5.0690799 -1.7615224 13 0
-4.7358494 5.7409625 -1.7181761 23 1
-5.4461374 6.6113882 -1.6649995 7 2
-6.5983987 8.0187378 -1.6447523 9 3
-47.080856 57.256027 9.1016912 23 11
-5.2249131 6.3563886 -1.0102969 23 4
-5.2270246 6.3680143 -0.72077799 50 5
-6.786499 8.2767334 -0.56093681 30 6
-7.0641332 8.6245384 -0.19459434 13 7
-4.149353 5.0966811 -1.7610049 15 0
-4.721478 5.8056321 -1.7276241 21 1
-5.3788052 6.623342 -1.6585119 4 2
-6.5273185 8.0462017 -1.6409978 2 3
-5.1454163 6.3495274 -1.0034722 21 4
-5.1448402 6.3578858 -0.71554857 45 5
-6.7574286 8.3596354 -0.5633443 20 6
-6.9258614 8.5771856 -0.19243024 13 7
-4.1305985 5.1466169 -1.7682518 15 0
-4.7076492 5.8719025 -1.737522 15 1
-5.247777 6.5549798 -1.6321803 9 2
-6.4611206 8.0792303 -1.6384948 2 3
-46.512302 58.202442 9.1480007 24 11
-5.0662737 6.3418651 -0.9966476 19 4
-5.0754795 6.3624983 -0.71206236 48 5
-6.6889448 8.3941107 -0.56250691 20 6
-6.8135066 8.559617 -0.19096424 32 7
-4.0933695 5.1738138 -1.7677342 13 0
-4.6846652 5.9275579 -1.7442704 14 1
-5.0924206 6.4527555 -1.5978346 10 2
-46.041389 58.361282 6.5035615 35 10
-6.3666439 8.0760527 -1.6287959 5 3
-6.8054185 8.6388283 1.3503125 1 11
-5.0071344 6.3583674 -0.99372268 10 4
-5.0075402 6.3680167 -0.70875043 53 5
-6.4784327 8.2474136 -0.54963231 10 6
-6.6795206 8.5125809 -0.18886994 12 7
-4.0523973 5.1961713 -1.7656636 13 0
-4.6347861 5.949358 -1.7411212 21 1
-5.0364013 6.4742012 -1.5943999 3 2
-45.510525 58.524014 6.4861302 34 10
-6.2676883 8.0657082 -1.6178455 7 3
-46.060406 59.316532 9.2211227 25 11
-6.4622469 8.3250723 -1.2940087 12 4
-4.9140224 6.3373995 -0.70160371 48 5
-6.2568436 8.0808277 -0.53560621 21 6
-4.0136676 5.2212725 -1.7646283 12 0
-4.55516 5.9321103 -1.7267244 17 1
-5.0005808 6.519238 -1.5970714 7 2
-44.882668 58.555672 6.4547544 33 10
-6.193418 8.0830956 -1.6128395 9 3
-45.636276 59.603466 9.2172232 25 11
-6.2157955 8.1240406 -1.2559856 19 4
-4.8394132 6.3319769 -0.6972459 53 5
-6.2016983 8.1232271 -0.53560621 10 6
-3.9488616 5.2099819 -1.7516873 14 0
-4.4299812 5.8511143 -1.6943314 21 1
-4.8412843 6.4036469 -1.560436 7 2
-44.129875 58.392502 6.4035063 32 10
-6.1130276 8.0946102 -1.6065822 10 3
-46.610928 61.765011 9.5009356 28 11
-6.321743 8.3801022 -1.2888902 20 4
-4.7699156 6.3321886 -0.6935854 42 5
-6.0811901 8.0817413 -0.53005862 22 6
-8.289115 11.028028 -0.24080829 21 7
-3.9019897 5.2234921 -1.7470287 13 0
-4.451961 5.9662361 -1.718626 17 1
-4.7378092 6.3585749 -1.5413551 21 2
-43.649738 58.603298 6.3930483 32 10
-6.0233431 8.0927191 -1.5978218 9 3
-6.1351705 8.2519827 -1.2625666 21 4
-4.7030272 6.33494 -0.69027346 52 5
-5.9972587 8.0871019 -0.52765119 33 6
-3.8688617 5.2552752 -1.7485816 14 0
-4.350163 5.9155364 -1.6952311 14 1
-4.6468229 6.328198 -1.5260904 22 2
-5.8697267 8.002368 -1.5718536 14 3
-43.892174 59.883289 9.1163149 23 11
-6.1489787 8.3922901 -1.2774346 11 4
-4.6139817 6.3065152 -0.68364966 55 5
-5.8970499 8.0691099 -0.52377832 22 6
-3.8593073 5.3196836 -1.7610049 14 0
-4.3933816 6.0625296 -1.728524 14 1
-9.9582396 13.751719 0.88981605 2 9
-4.5795121 6.3286743 -1.518458 22 2
-42.448906 58.68399 6.3365707 30 10
-5.8588467 8.105588 -1.5840555 9 3
-5.9263926 8.2080851 -1.2430674 21 4
-4.5558591 6.3191795 -0.68155789 55 5
-5.8674183 8.1473589 -0.52618575 22 6
-6.0221119 8.3714018 -0.18000412 23 7
-3.8422971 5.3747849 -1.7703223 11 0
-4.2739396 5.9852138 -1.6979306 15 1
-4.526103 6.3477011 -1.5154052 22 2
-42.096027 59.060013 6.3452864 30 10
-5.779201 8.1141109 -1.5777982 9 3
-43.984146 61.800301 9.3137436 26 11
-5.8919649 8.2816067 -1.2479422 21 4
-4.4954782 6.3280921 -0.6791175 50 5
-5.8681879 8.2695637 -0.53141934 33 6
-3.7924433 5.3841052 -1.7646283 9 0
-4.2858796 6.0914049 -1.7195259 14 1
-4.443305 6.3245263 -1.5024302 26 2
-5.708796 8.1348562 -1.5740438 12 3
-43.499226 62.031075 9.3025312 26 11
-5.7804461 8.2461424 -1.2364866 18 4
-4.4203424 6.3152509 -0.67441112 58 5
-5.8354907 8.3463411 -0.53372216 32 6
-3.7646756 5.4247341 -1.7692871 11 0
-4.2277055 6.0987554 -1.7132272 14 1
-4.3655224 6.3069639 -1.4909816 24 2
-41.577934 60.090942 6.3930483 32 10
-5.6496181 8.1712627 -1.573418 10 3
-42.55732 61.598331 9.1928492 24 11
-5.761095 8.3418303 -1.2447736 15 4
-6.6578822 9.6475506 1.8565645 1 12
-4.3467412 6.303309 -0.66987902 58 5
-5.8201365 8.4493771 -0.53769964 10 6
-3.7223511 5.4445057 -1.7672166 11 0
-4.1883221 6.1329489 -1.714577 13 1
-4.3014755 6.3080902 -1.4841125 24 2
-5.5701933 8.1778536 -1.5671607 9 3
-5.7652497 8.4737568 -1.258423 12 4
-6.6647825 9.8032436 1.8775268 3 12
-4.2712812 6.2873564 -0.66499835 45 5
-7.3748069 10.868006 -0.68832254 17 6
-3.6810129 5.4655528 -1.7656636 14 0
-4.1040702 6.1005974 -1.6974807 14 1
-4.2354379 6.3053727 -1.4764801 24 2
-5.4799471 8.1673307 -1.5577745 9 3
-42.444851 63.307693 9.358592 26 11
-7.082983 10.568456 -1.5621214 3 4
-4.2139764 6.2947607 -0.6627323 52 5
-7.3142929 10.942473 -0.68978798 17 6
-3.6150024 5.4492607 -1.752205 13 0
-4.0732207 6.1469698 -1.7024295 16 1
-4.1837516 6.3209586 -1.4734272 26 2
-5.4024386 8.1714869 -1.5515171 9 3
-42.597244 64.479591 9.4887476 28 11
-5.6354389 8.5368595 -1.2559856 10 4
-4.1403151 6.2791162 -0.6580258 56 5
-7.0693603 10.733469 -0.67356384 26 6
-3.5746531 5.4688916 -1.7506521 18 0
-3.9993246 6.1256003 -1.6889325 20 1
-4.1073565 6.300673 -1.4619786 24 2
-39.681358 60.894314 6.3588834 31 10
-5.3323245 8.1891384 -1.5477628 9 3
-5.5836935 8.5850058 -1.2574481 6 4
-4.0833569 6.287817 -0.6559341 56 5
-5.4443235 8.3931398 -0.52430165 11 6
-7.0797725 10.926925 -0.22726524 18 7
-3.5322061 5.4872146 -1.7485816 15 0
-3.9438152 6.1337018 -1.6835337 21 1
-4.0356965 6.2862382 -1.4520565 26 2
-5.2451668 8.1796055 -1.5390024 11 3
-6.7955866 10.609636 -1.5470096 7 4
-4.0146704 6.2775655 -0.65192497 51 5
-6.8779507 10.767167 -0.6695863 8 6
-3.5279431 5.5655851 -1.7656636 13 0
-3.890476 6.144619 -1.6790346 19 1
-3.9707274 6.2810717 -1.4444242 24 2
-39.444611 62.419277 6.4599833 33 10
-5.0803585 8.0456581 -1.5070899 6 3
-3.881165 6.1536551 -0.89330238 21 4
-3.8837018 6.1648278 -0.63745707 53 5
-6.6718154 10.606976 -0.65671164 17 6
-8.3967142 13.364773 -0.2755037 27 7
-3.4470646 5.5228868 -1.7444404 14 0
-3.8495457 6.1749368 -1.6799345 21 1
-3.8448646 6.1746273 -1.4138948 28 2
-3.8486595 6.1879396 -1.1541736 33 3
-3.8381126 6.1805992 -0.89330238 35 4
-3.8332202 6.1799378 -0.63623691 57 5
-6.566853 10.599511 -0.65346682 26 6
-3.4255784 5.5725541 -1.7527226 14 0
-3.801307 6.1910334 -1.677235 22 1
-3.8057683 6.208014 -1.4154211 24 2
-3.8063972 6.216342 -1.1544864 27 3
-3.8125255 6.2336764 -0.89720219 23 4
-6.6161623 10.826256 2.0095575 4 12
-3.8159907 6.2466946 -0.64042038 66 5
-5.0637403 8.3022566 -0.50964761 11 6
-6.5928283 10.822014 -0.22119181 17 7
-3.3875911 5.5979862 -1.7532402 12 0
-3.7499285 6.2040782 -1.6736358 18 1
-3.7958927 6.2875586 -1.4276329 26 2
-4.9288964 8.1739473 -1.5117829 8 3
-5.0160022 8.3315487 -1.1940759 6 4
-6.5901904 10.950588 2.0242622 3 12
-3.770237 6.2697659 -0.64007175 49 5
-5.0297389 8.374197 -0.51195037 11 6
-3.325675 5.5810862 -1.740817 13 0
-3.6956513 6.2093644 -1.668237 19 1
-3.7238233 6.2666483 -1.4169476 26 2
-4.8606205 8.1894722 -1.5083412 9 3
-4.8761687 8.2254763 -1.1740894 19 4
-3.7111516 6.270215 -0.63745707 53 5
-3.2299476 5.5075154 -1.710794 13 0
-3.6384225 6.211473 -1.6619384 15 1
-3.6680896 6.2721558 -1.4123683 21 2
-4.7335854 8.1038065 -1.4864405 12 3
-4.8266273 8.273035 -1.1760392 18 4
-3.6472306 6.261539 -0.63397086 41 5
-4.8882213 8.402174 -0.50943822 11 6
-3.255151 5.6403613 -1.744958 9 0
-3.5852377 6.2198391 -1.6574394 14 1
-3.6085446 6.2703857 -1.4062624 21 2
-4.6414566 8.0750017 -1.4751772 10 3
-4.7964268 8.3547335 -1.182864 16 4
-3.5836124 6.2522774 -0.63048464 40 5
-4.8165436 8.4135628 -0.5080775 23 6
-4.7792974 8.3586464 -0.16806667 10 7
-3.1784942 5.5974321 -1.7247702 12 0
-4.228538 7.452651 0.14956713 6 8
-3.530194 6.2243738 -1.6520406 14 1
-3.5627463 6.2920084 -1.4054991 17 2
-3.5279469 6.2381659 -1.1350887 11 3
-4.5798221 8.1080112 -1.1433783 15 4
-3.527153 6.2545819 -0.62821859 44 5
-4.7243633 8.3878164 -0.50451869 23 6
-3.1393392 5.6194854 -1.7247702 11 0
-3.465764 6.2114286 -1.6421427 9 1
-3.4948509 6.273849 -1.3959587 12 2
-3.4804714 6.2557364 -1.1338371 19 3
-4.5693927 8.223074 -1.1550778 19 4
-3.4670949 6.2470889 -0.625081 48 5
-4.6182594 8.3349905 -0.49938977 35 6
-4.6427608 8.3895693 -0.16736858 10 7
-3.1111958 5.6615815 -1.7309818 11 0
-3.4195027 6.2303481 -1.640793 14 1
-3.4379096 6.2716684 -1.3902344 5 2
-3.425477 6.2567573 -1.1297698 33 3
-4.4680738 8.1746502 -1.1438658 13 4
-3.3957121 6.2204266 -0.62002593 50 5
-4.5814948 8.4030581 -0.50158787 23 6
-4.542017 8.3444958 -0.16583277 15 7
-3.1102588 5.7523012 -1.752205 9 0
-3.4297953 6.3512173 -1.6664374 7 1
-4.1347122 7.6693664 -1.6936207 3 2
-3.36392 6.2474737 -1.1238253 41 3
-6.613585 12.293044 1.7139707 2 11
-4.3878856 8.1594152 -1.1375285 15 4
-3.3437238 6.2281814 -0.61845714 46 5
-4.5085659 8.408433 -0.50001782 23 6
-4.4737797 8.3540659 -0.16541392 10 7
-3.0555131 5.7465835 -1.7439228 9 0
-3.3972535 6.3973813 -1.6722862 9 1
-4.0350904 7.6113167 -1.6745398 3 2
-4.1523972 7.8358951 0.77586043 2 10
-3.2952652 6.2236695 -1.1153778 34 3
-5.6810055 10.743145 -1.4921683 10 4
-3.2862096 6.2249446 -0.61584246 46 5
-4.3687134 8.2859964 -0.4909113 24 6
-4.4097581 8.3744793 -0.16520448 10 7
-2.9983144 5.7352467 -1.7340877 11 0
-3.9963739 7.6671567 -1.6806457 3 2
-31.589476 60.631115 5.9813247 20 10
-3.2426138 6.2290015 -1.1122491 33 3
-4.3101616 8.2903357 -1.1472781 13 4
-3.2318256 6.2241817 -0.61357641 38 5
-4.2638841 8.2258625 -0.48557308 36 6
-4.3144169 8.3340254 -0.16380829 24 7
-2.9025729 5.6477895 -1.7014765 14 0
-3.2853537 6.4008484 -1.6610385 9 1
-3.9064782 7.6208034 -1.6646177 3 2
-3.187537 6.2263122 -1.107869 36 3
-5.4283714 10.621675 -1.464626 7 4
-3.1756132 6.2217479 -0.61113608 38 5
-4.2558675 8.3490038 -0.49112067 24 6
-6.777339 13.318505 -0.26084366 25 7
-2.9355114 5.8087997 -1.7439228 9 0
-3.2294159 6.3987069 -1.65474 25 1
-28.552862 56.623257 3.3234382 8 9
-3.131561 6.2237096 -1.1034888 36 3
-4.0925832 8.1407337 1.1187607 1 11
-4.1544456 8.2673836 -1.1360661 19 4
-3.1242526 6.2254119 -0.60939294 33 5
-4.1071215 8.1981554 -0.48054877 24 6
-2.8416092 5.721879 -1.7118292 13 0
-3.1725438 6.3966556 -1.6484413 15 1
-28.021318 56.52282 3.306272 7 9
-3.2128403 6.486433 -1.4070257 17 2
-31.735628 64.127625 6.2598739 28 10
-3.0768631 6.2200933 -1.0991087 36 3
-4.1098108 8.3228836 -1.1397222 27 4
-3.0719028 6.2292027 -0.6076498 37 5
-5.2177916 10.594615 -0.61892503 17 6
-4.046886 8.2316084 -0.16010839 18 7
-2.8219283 5.7832446 -1.7242525 13 0
-3.1337879 6.4309092 -1.6515907 14 1
-3.1740713 6.5251465 -1.4104601 12 2
-28.220503 58.040417 5.6462975 11 10
-3.0150113 6.2064152 -1.0928513 36 3
-4.0853987 8.4210272 -1.149228 16 4
-3.0074909 6.2074642 -0.60346633 48 5
-5.1488018 10.646066 -0.61976248 17 6
-3.9841015 8.2488556 -0.15989895 13 7
-2.7714648 5.7818999 -1.7180409 14 0
-3.057683 6.3875942 -1.6349442 16 1
-27.198364 56.843689 3.3025038 7 9
-3.1194246 6.5253439 -1.4058808 3 2
-27.534655 57.649933 5.5894718 9 10
-2.9607837 6.2018352 -1.0884712 34 3
-29.203527 61.22649 8.3290386 13 11
-5.0085893 10.510157 -1.4295275 18 4
-2.9572349 6.2139153 -0.60207188 37 5
-3.9102557 8.2275677 -0.47740865 12 6
-3.9127026 8.2475615 -0.15934047 13 7
-2.7188737 5.7726674 -1.7097588 14 0
-3.0265744 6.43471 -1.6416928 15 1
-3.5936015 7.6541176 -1.6436287 7 2
-26.887676 57.294922 5.5371785 8 10
-2.9056747 6.1973147 -1.0840909 31 3
-28.913506 61.723682 8.3690128 13 11
-4.9638696 10.601535 -1.4373271 10 4
-2.8985937 6.201921 -0.59893423 25 5
-4.9964585 10.705185 -0.61913443 8 6
-3.8649206 8.2921286 -0.15968952 9 7
-2.6371491 5.7020841 -1.6833591 12 0
-3.0420432 6.5866013 -1.6749856 10 1
-3.0378752 6.5896573 -1.4104601 5 2
-26.643814 57.821419 5.5699492 9 10
-2.8573821 6.2066827 -1.0822138 31 3
-28.730742 62.465073 8.4421339 14 11
-4.9411454 10.747755 -1.452439 13 4
-2.8311303 6.1694903 -0.59387922 21 5
-3.7484076 8.1796808 -0.47154701 24 6
-3.7969551 8.2970877 -0.15927066 9 7
-2.6675599 5.8751507 -1.7289113 12 0
-2.9243655 6.4497185 -1.6349442 16 1
-3.5082374 7.7518382 -1.6539325 3 2
-26.150808 57.809959 5.5511231 8 10
-2.8009651 6.1976786 -1.0772078 36 3
-28.096262 62.226299 8.3831491 14 11
-3.7309475 8.2669754 -1.1136422 6 4
-2.7948008 6.2013335 -0.59509945 25 5
-3.7116954 8.2511873 -0.4741638 24 6
-3.7110782 8.2613735 -0.1580839 22 7
-2.6154695 5.8689265 -1.7216644 11 0
-2.9022436 6.5216088 -1.6479914 11 1
-26.029474 58.518116 3.3565145 10 9
-3.4370537 7.7342749 -1.6451553 4 2
-26.449953 59.575382 5.702775 13 10
-2.7563102 6.211184 -1.0762693 37 3
-27.364708 61.72287 8.290041 12 11
-4.77211 10.773952 -1.446833 5 4
-2.7361264 6.1860738 -0.59178752 18 5
-4.7407823 10.733562 -0.61494756 18 6
-3.6581523 8.2980595 -0.15829334 27 7
-2.5723629 5.8795142 -1.7195939 12 0
-2.8234575 6.4626398 -1.6281958 13 1
-3.3672802 7.7220902 -1.6375229 10 2
-24.182638 55.483807 5.2952342 1 10
-2.6963193 6.1922417 -1.069699 39 3
-26.793766 61.592037 8.2471428 12 11
-4.6693759 10.738829 -1.4378146 22 4
-2.6947491 6.2063818 -0.5919618 10 5
-3.598371 8.3034115 -0.47426847 12 6
-3.5841124 8.2823915 -0.15752542 27 7
-2.5403998 5.9186306 -1.7258054 12 0
-2.7713647 6.4660721 -1.6241466 20 1
-3.3401308 7.8043938 -1.6501163 3 2
-23.883993 55.860123 5.3151054 2 10
-2.6502264 6.2013693 -1.0681347 40 3
-3.5864909 8.4084101 -1.1224167 5 4
-3.4242764 8.0397654 -0.76453012 21 5
-3.4854875 8.1953802 -0.46673208 25 6
-3.5512056 8.3661146 -0.15864237 13 7
-2.5120521 5.9642715 -1.7340877 10 0
-2.7620394 6.5674181 -1.6448421 10 1
-3.2916429 7.8420033 -1.6531693 3 2
-23.6759 56.432934 5.3541517 3 10
-2.5893056 6.1778183 -1.0609387 39 3
-4.473352 10.688654 -1.4227029 12 4
-2.6216536 6.2764945 -0.59509945 7 5
-3.3551497 8.0443954 -0.45678827 25 6
-2.4681399 5.9763069 -1.7325348 9 0
-2.678977 6.4964623 -1.622347 7 1
-3.2181394 7.8194032 -1.6436287 4 2
-2.5386076 6.1774716 -1.0578099 35 3
-24.704456 60.175793 7.9870734 8 11
-3.3797915 8.23668 -1.0931681 11 4
-3.2784662 8.0056658 -0.75686044 21 5
-3.3034432 8.0787153 -0.45741633 25 6
-4.4166632 10.817306 -0.20394883 14 7
-2.4154835 5.9665322 -1.7247702 10 0
-2.6452432 6.5439138 -1.6295455 13 1
-3.142905 7.7907 -1.6329435 7 2
-21.420845 53.125168 5.0114551 0 10
-2.4850857 6.1693916 -1.0534298 34 3
-23.914673 59.429699 7.8656917 7 11
-3.2510958 8.083271 -1.0697693 19 4
-3.2216699 8.0222502 -0.75633752 26 5
-3.3160667 8.2739925 -0.46715081 25 6
-4.2905211 10.721628 -0.20157529 14 7
-2.3716331 5.9778633 -1.7232174 13 0
-3.0674179 7.7553182 -1.6211133 6 2
-21.058226 53.295654 5.0135469 1 10
-2.4401321 6.1788149 -1.0521784 32 3
-23.393059 59.295639 7.8266931 6 11
-3.2280664 8.1907263 -1.0809813 19 4
-23.24692 59.015785 10.046223 6 12
-3.1976905 8.1261215 -0.76400727 16 5
-4.164607 10.599578 -0.59683931 18 6
-2.3175848 5.9596581 -1.7133821 18 0
-2.5286677 6.5125499 -1.6128991 6 1
-3.0039799 7.7527456 -1.6161523 10 2
-20.867649 53.883659 5.0553813 1 10
-2.3883839 6.1735926 -1.0484239 37 3
-22.808216 59.016823 7.7686839 5 11
-3.1557872 8.1699181 -1.0753752 20 4
-3.1573589 8.1867361 -0.76766777 26 5
-3.1758456 8.2518234 -0.46338257 12 6
-4.1781497 10.873097 -0.20332053 14 7
-2.2848606 5.9991622 -1.7201115 12 0
-2.3563855 6.1967115 -1.5305669 2 1
-20.402166 53.680855 3.0096319 0 9
-2.9427764 7.750988 -1.6115729 9 2
-21.102823 55.641308 5.2063355 0 10
-2.3393042 6.1712351 -1.0452952 37 3
-22.365202 59.063034 7.7545471 5 11
-3.035464 8.0246468 -1.0534387 28 4
-2.9910178 7.9196754 -0.74064946 35 5
-4.0680985 10.788677 -0.60427099 9 6
-4.0584774 10.785963 -0.20115645 21 7
-2.2419467 6.0091457 -1.7185585 7 0
-2.3127906 6.2089553 -1.5296671 14 1
-20.026907 53.82198 3.0096319 0 9
-2.8954329 7.7897468 -1.6153891 10 2
-2.2892911 6.1688962 -1.0421665 39 3
-21.688738 58.50671 7.6614385 4 11
-3.0662911 8.2759409 -1.0836623 13 4
-2.9639826 8.016984 -0.7477963 26 5
-3.9318185 10.651931 -0.59505987 9 6
-3.9586895 10.742038 -0.19983006 14 7
-2.1900036 5.9974303 -1.710794 9 0
-2.2573733 6.1919947 -1.5215689 25 1
-2.8342681 7.7913203 -1.6115729 10 2
-19.524902 53.702477 4.9992533 1 10
-2.2380764 6.1624479 -1.0384121 37 3
-21.249969 58.574596 7.6507144 4 11
-2.9313004 8.0843992 -1.0558761 24 4
-2.9133639 8.0524693 -0.74919075 26 5
-2.9983578 8.3009729 -0.46254522 37 6
-3.8741021 10.743077 -0.1993414 14 7
-2.1357315 5.9780083 -1.7009588 10 0
-2.2095101 6.1947536 -1.5184196 42 1
-19.273476 54.096355 3.0096319 0 9
-2.7784927 7.8072166 -1.6108096 7 2
-19.508705 54.847408 5.0930328 0 10
-2.1916962 6.1686144 -1.0368477 40 3
-20.832556 58.69907 7.6477895 4 11
-2.872798 8.0990534 -1.0551448 21 4
-21.365665 60.301338 10.132574 15 12
-2.9042728 8.205966 -0.76156688 15 5
-2.8771214 8.1428022 -0.4526014 25 6
-3.7577639 10.652941 -0.19717729 13 7
-2.1035032 6.0201283 -1.7087234 9 0
-2.157223 6.1842675 -1.512121 58 1
-2.7258525 7.8319879 -1.6119545 3 2
-2.13885 6.155777 -1.0321548 37 3
-20.476925 59.000607 7.6682639 4 11
-2.8083794 8.0964069 -1.05222 19 4
-20.856211 60.195183 10.090024 7 12
-2.8299756 8.1770868 -0.75703478 36 5
-3.715709 10.754588 -0.59631598 18 6
-2.8265371 8.1949196 -0.15131237 28 7
-2.0370686 5.9633698 -1.6885355 11 0
-2.1121094 6.193644 -1.5107714 52 1
-18.571695 54.522762 3.0186336 0 9
-2.6609945 7.8210878 -1.6058486 3 2
-18.860313 55.465302 5.1254549 0 10
-2.0882018 6.1481123 -1.0284003 35 3
-20.091337 59.221073 7.6785007 4 11
-2.7466917 8.1007738 -1.0502701 24 4
-20.316362 59.987568 10.031204 6 12
-2.7587695 8.1551237 -0.75319988 15 5
-4.4354806 13.134254 -0.72652781 8 6
-2.7730899 8.2258224 -0.15152179 20 7
-1.9776475 5.924305 -1.6735239 16 0
-2.0651214 6.1971459 -1.5080719 49 1
-18.249893 54.829224 3.0284727 0 9
-2.6019926 7.8264341 -1.6031773 9 2
-18.473915 55.599392 5.1258035 0 10
-2.0402513 6.1475425 -1.0258973 35 3
-19.657417 59.299591 7.6707006 4 11
-2.6813307 8.0933714 -1.0468577 23 4
-3.8401568 11.604756 1.9360331 3 12
-2.6773875 8.1004066 -0.74640173 25 5
-2.6727958 8.1007462 -0.44705379 13 6
-1.9398332 5.9489865 -1.6766298 13 0
-2.0157752 6.1928816 -1.5035729 66 1
-17.871611 54.970493 3.0293102 0 9
-18.277195 56.318283 5.1801887 0 10
-1.9911922 6.1428452 -1.0227686 33 3
-19.245396 59.44294 7.6716762 4 11
-2.6540971 8.2025509 -1.0585573 14 4
-2.6356602 8.1601543 -0.75023663 26 5
-2.6449625 8.2085571 -0.45197338 25 6
-1.8976681 5.9605441 -1.6761122 20 0
-1.9665896 6.188231 -1.4990739 70 1
-17.523623 55.174622 3.0339155 0 9
-17.6898 55.832916 5.1240606 0 10
-1.9445627 6.1411905 -1.0202657 38 3
-18.816391 59.496853 7.6619263 9 11
-2.5806236 8.1697702 -1.0519762 29 4
-2.5858166 8.2011566 -0.75232834 31 5
-2.5800371 8.1977911 -0.45040327 38 6
-3.3621309 10.708911 -0.19592072 13 7
-1.86164 5.988081 -1.6802533 19 0
-1.9198015 6.1865845 -1.4954746 70 1
-17.207775 55.520729 3.0462668 0 9
-17.337614 56.043396 5.1324272 0 10
-1.8981427 6.1432929 -1.0183885 38 3
-3.8270366 12.401456 1.5935637 5 11
-2.5419197 8.2421579 -1.0590447 21 4
-2.5064859 8.1423998 -0.74535584 25 5
-2.5110173 8.1774178 -0.44830981 39 6
-1.8197929 6.0009308 -1.6802533 18 0
-1.8709215 6.1811838 -1.4909756 70 1
-2.3352454 7.7298183 -1.569595 13 2
-16.894136 55.991402 5.1167393 0 10
-1.8517202 6.1409407 -1.0158856 42 3
-18.171726 60.33987 7.7374849 5 11
-2.4431496 8.1228342 -1.0414956 19 4
-2.4724948 8.2360306 -0.75232834 26 5
-2.4713488 8.2478914 -0.45124069 38 6
-1.7843839 6.0317035 -1.6854297 16 0
-1.8221821 6.1713476 -1.4855767 66 1
-2.322818 7.8871799 -1.5982162 3 2
-3.8224244 12.987467 1.1844466 4 10
-1.8076892 6.1499281 -1.0152597 40 3
-17.885902 60.928108 7.7967138 6 11
-2.3933904 8.1583242 -1.0439328 21 4
-2.4040599 8.2106037 -0.74849349 26 5
-2.4293842 8.3186235 -0.45417148 12 6
-2.3776252 8.1572618 -0.14831054 24 7
-1.7400907 6.0365887 -1.6833591 16 0
-1.7747433 6.1689363 -1.4819776 70 1
-2.248493 7.8311005 -1.5837147 3 2
-16.158976 56.353077 5.1289411 0 10
-1.7603475 6.1430998 -1.0121311 35 3
-17.689228 61.811832 7.8942089 7 11
-2.3287435 8.1481113 -1.0405205 20 4
-2.3127973 8.1083975 -0.73768622 25 5
-3.0196073 10.607442 -0.57799834 19 6
-2.3271728 8.1967459 -0.14872941 28 7
-1.7010505 6.0557332 -1.6854297 16 0
-1.7232432 6.147099 -1.4738793 70 1
-2.1763222 7.7842112 -1.5711213 15 2
-15.879051 56.834023 5.1627574 0 10
-1.7089235 6.1247959 -1.0071251 42 3
-2.2684343 8.1465626 -1.0383269 13 4
-2.3274331 8.3754253 -0.76052105 15 5
-2.2600503 8.1550074 -0.44349492 39 6
-2.2862506 8.2663612 -0.14970674 20 7
-1.650581 6.0376453 -1.6771475 15 0
-1.6792604 6.1552191 -1.4729795 63 1
-15.176599 55.667088 3.0238671 0 9
-2.1279283 7.8158951 -1.574556 3 2
-15.129578 55.647663 5.0452719 0 10
-1.6661578 6.1324739 -1.0064995 40 3
-2.2120247 8.1641178 -1.0385706 16 4
-2.1992242 8.1337433 -0.73716325 35 5
-2.2029316 8.1644173 -0.44318092 26 6
-2.1463947 7.9770203 -0.14419177 15 7
-1.6054717 6.0338054 -1.6730064 14 0
-1.6343237 6.1552062 -1.4702801 47 1
-14.685224 55.385571 3.0029328 0 9
-2.0667787 7.8058882 -1.569595 4 2
-1.6202767 6.1324978 -1.0046222 38 3
-2.0993423 7.9682059 -1.0117593 19 4
-2.1479592 8.1700945 -0.73908067 30 5
-2.1408112 8.1602783 -0.44213417 26 6
-2.1544197 8.235568 -0.14858977 16 7
-1.5583869 6.0301766 -1.6688653 15 0
-1.5873165 6.1554217 -1.4675807 56 1
-14.429964 56.038544 3.0326595 0 9
-1.6873792 6.5576501 -1.3162005 5 2
-14.950089 58.18457 5.2558398 0 10
-1.5724247 6.1286273 -1.0021193 40 3
-2.0692637 8.0826674 -1.0244337 6 4
-1.5380706 6.0209141 -0.54367751 21 5
-2.0823629 8.1753893 -0.44213417 52 6
-2.1057382 8.2852945 -0.14921807 12 7
-1.5218967 6.0633931 -1.6750768 14 0
-1.525371 6.0907378 -1.4495846 77 1
-14.077152 56.292923 3.0410333 0 9
-1.5081885 6.0400305 -1.2101108 34 2
-14.523261 58.206329 5.2485185 0 10
-1.5019054 6.0282822 -0.98397291 40 3
-1.4912028 6.012167 -0.54193443 51 5
-2.0372236 8.2381992 -0.44475099 13 6
-2.0238936 8.2027206 -0.14747284 11 7
-1.4639813 6.0100536 -1.6574773 18 0
-1.4699235 6.0482183 -1.4369874 73 1
-13.731359 56.542709 3.049407 0 9
-1.4651896 6.0425243 -1.2085842 34 2
-14.185965 58.592888 5.2743168 1 10
-1.4580475 6.0268464 -0.98209572 41 3
-1.4516816 6.0189147 -0.76022106 33 4
-1.4487275 6.0204935 -0.54176009 45 5
-1.9531256 8.1353502 -0.43847069 39 6
-1.9577307 8.1797009 -0.14680965 34 7
-1.4239298 6.0236392 -1.6585126 14 0
-1.4331965 6.0770502 -1.4414864 36 1
-13.403115 56.921032 3.0646892 0 9
-1.4364514 6.1099401 -1.2200328 21 2
-1.4362381 6.1234212 -0.99617481 29 3
-1.909101 8.1586905 -1.0288211 16 4
-1.9231546 8.2381897 -0.74012655 25 5
-1.8958299 8.146842 -0.43836603 26 6
-1.9078904 8.2181587 -0.14726341 31 7
-1.3762326 6.0089536 -1.6517832 12 0
-1.4054909 6.1515007 -1.4567831 49 1
-13.588069 59.711536 5.3576379 3 10
-1.3888273 6.108016 -0.99210751 33 3
-1.8433204 8.1330996 -1.0239463 18 4
-1.8445044 8.1581345 -0.73175967 30 5
-1.8425293 8.1693001 -0.43888938 39 6
-1.840821 8.1883554 -0.14649549 31 7
-1.3432525 6.0540152 -1.6616182 10 0
-1.3602203 6.1457028 -1.4531839 49 1
-1.750039 7.9332128 -1.5791353 3 2
-13.230171 60.02446 5.3775096 4 10
-1.3465788 6.1194911 -0.99242038 29 3
-1.7853637 8.1338243 -1.0224838 23 4
-1.744921 7.9761777 -0.71432841 25 5
-1.7777872 8.1468401 -0.43700528 39 6
-1.7799381 8.177248 -0.14607665 23 7
-1.3013601 6.0651345 -1.662136 9 0
-1.3148352 6.1436157 -1.4504844 45 1
-11.310901 52.940895 2.8371325 0 9
-1.3665831 6.4072642 -1.2734593 6 2
-12.789234 60.014023 5.3684454 3 10
-1.3009466 6.1152177 -0.99023032 31 3
-1.7227669 8.1189051 -1.0190716 22 4
-1.7283533 8.1733475 -0.73088807 35 5
-1.6845959 7.9870772 -0.42779416 40 6
-1.7145734 8.1503382 -0.14537854 30 7
-1.2578095 6.0683966 -1.660583 11 0
-1.722383 8.3243856 0.14838037 12 8
-1.2687564 6.1373777 -1.4468851 47 1
-10.890975 52.776016 2.8241532 0 9
-1.6062257 7.797276 -1.547461 19 2
-10.928833 53.099915 4.7430153 1 10
-1.2558374 6.1125412 -0.98835307 31 3
-1.6572777 8.0879517 -1.0137093 19 4
-1.653318 8.0973682 -0.72304404 25 5
-1.6367692 8.0377846 -0.42988759 40 6
-1.6711674 8.2287388 -0.14656532 19 7
-1.2085937 6.0429316 -1.6512655 19 0
-1.222829 6.1307974 -1.4432859 42 1
-10.434127 52.408077 2.8004973 0 9
-1.5418054 7.7582331 -1.537539 15 2
-10.425936 52.510479 4.6837497 0 10
-1.2142824 6.1269732 -0.98929167 29 3
-1.5930712 8.0603771 -1.0088346 23 4
-1.5744208 7.9953318 -0.71293396 24 5
-1.5752269 8.0215778 -0.42842221 40 6
-1.6213653 8.2794542 -0.14726341 19 7
-1.1594297 6.0151811 -1.6414305 13 0
-1.1777914 6.1277027 -1.4405866 45 1
-10.049205 52.381569 2.7952638 0 9
-1.2354218 6.4518328 -1.2768939 4 2
-10.028417 52.421513 4.669456 0 10
-1.1666651 6.1100769 -0.98522437 31 3
-1.5427047 8.1025019 -1.0127343 21 4
-1.5375001 8.1059608 -0.72182387 35 5
-1.5232663 8.0539675 -0.42957357 26 6
-2.0156403 10.687939 -0.18984728 12 7
-1.11882 6.0307255 -1.643501 13 0
-1.1335683 6.1281104 -1.438787 40 1
-9.6977463 52.529011 2.7994506 0 9
-1.2060025 6.5452533 -1.2936851 4 2
-9.6398125 52.368767 4.658649 0 10
-1.1236234 6.1161299 -0.98491156 29 3
-1.5021958 8.200942 -1.0237026 9 4
-1.4633492 8.0204544 -0.71328253 29 5
-2.3552876 12.947457 -0.68968332 17 6
-1.9324157 10.654529 -0.18900958 19 7
-1.0848291 6.084034 -1.6559243 9 0
-1.0893941 6.1282001 -1.4369874 49 1
-9.6391993 54.33387 2.8919806 0 9
-1.3889116 7.8448834 -1.5486058 3 2
-9.3315773 52.760475 4.6875844 1 10
-1.0771203 6.1024265 -0.98146993 33 3
-1.4376813 8.1701727 -1.0185841 19 4
-1.4210771 8.1089754 -0.72025502 30 5
-1.8004601 10.305548 -0.54827154 21 6
-1.0380893 6.0667052 -1.649195 10 0
-1.0439602 6.1202884 -1.4333881 49 1
-1.1684182 6.87888 -1.3562704 3 2
-9.1056633 53.665062 4.7621899 0 10
-1.0351536 6.1136923 -0.98209572 33 3
-9.3147659 55.130749 6.8651447 0 11
-1.405059 8.3248587 -1.0366207 16 4
-1.3674031 8.1363821 -0.72182387 35 5
-1.3961736 8.3342686 -0.44286692 13 6
-1.7604107 10.542403 -0.18656623 12 7
-0.99758559 6.0852432 -1.6523008 10 0
-0.99932164 6.1158886 -1.4306886 43 1
-1.1200509 6.884932 -1.3558888 5 2
-8.7384844 53.774517 4.7663732 1 10
-0.99149537 6.1149206 -0.98115706 28 3
-8.9106312 55.076859 6.8505201 0 11
-1.1219449 6.9733419 -0.61793417 7 5
-1.297482 8.0913858 -0.4294689 13 6
-1.3162824 8.2362108 -0.14558797 18 7
-0.95478207 6.0901504 -1.6517832 9 0
-0.95479834 6.1111636 -1.4279894 40 1
-1.2158672 7.8179326 -1.5379206 3 2
-8.3506203 53.755459 4.7594008 0 10
-0.94636059 6.1060772 -0.97865415 28 3
-8.6321039 55.824341 6.9358287 0 11
-1.2592924 8.153368 -1.0129781 4 4
-1.2591207 8.1901274 -0.72496146 10 5
-1.240958 8.1002474 -0.4294689 26 6
-1.6220964 10.625259 -0.18761338 12 7
-0.91224152 6.0966673 -1.6517832 9 0
-0.91268581 6.1215348 -1.428889 42 1
-1.168754 7.8767219 -1.5478426 3 2
