# .PCD v0.7 - Point Cloud Data file format
VERSION 0.7
FIELDS x y z intensity ring
SIZE 4 4 4 4 2
TYPE F F F F U
COUNT 1 1 1 1 1
WIDTH 1314
HEIGHT 1
VIEWPOINT 0 0 0 1 0 0 0
POINTS 1314
DATA ascii
11.440226 -3.2674708 -1.8844098 3 3
15.798394 -4.5211658 -2.0176692 2 4
6.3099217 -1.8379797 -1.7610049 2 0
7.3406162 -2.142375 -1.7654159 5 1
51.099705 -14.93292 2.79003 0 9
8.9049454 -2.6056755 -1.8035268 12 2
11.436092 -3.3528156 -1.8875386 3 3
15.821678 -4.647573 -2.0247374 3 4
6.2839799 -1.8781136 -1.7573814 3 0
7.3497496 -2.2008367 -1.7712647 7 1
51.147259 -15.335183 2.7984037 0 9
8.8884182 -2.6683443 -1.8039083 19 2
11.452131 -3.4445205 -1.8941088 5 3
15.857272 -4.7785349 -2.0335121 3 4
46.477013 -14.06765 -2.5448885 0 6
6.2854915 -1.9264667 -1.7615224 4 0
7.315577 -2.2463729 -1.7667656 7 1
8.8995943 -2.739573 -1.8100141 4 2
51.974518 -16.00931 4.7580061 1 10
11.467445 -3.536612 -1.900679 3 3
15.865252 -4.9020143 -2.0388744 3 4
6.2792611 -1.9726164 -1.763593 3 0
7.2959986 -2.2962203 -1.7658658 7 1
8.9626322 -2.8276274 -1.8268054 4 2
11.47638 -3.6272993 -1.9063107 4 3
15.925265 -5.0426154 -2.0510612 3 4
6.2653365 -2.0164056 -1.763593 4 0
7.2834997 -2.3482955 -1.7667656 7 1
8.9202566 -2.8828835 -1.8222259 4 2
11.488364 -3.7194996 -1.912568 3 3
15.942546 -5.1708198 -2.0578859 3 4
6.2657857 -2.0649338 -1.7677342 3 0
7.2706289 -2.4003081 -1.7676654 7 1
8.9129601 -2.9494054 -1.8248973 3 2
11.480867 -3.8058279 -1.9156966 4 3
16.047354 -5.3289132 -2.0761664 2 4
6.2255902 -2.099982 -1.7604873 3 0
7.2721567 -2.4572458 -1.7721643 7 1
50.671726 -17.141575 2.8034282 0 9
8.959094 -3.0342288 -1.8386356 4 2
11.495173 -3.8998482 -1.9225799 3 3
16.118773 -5.4778614 -2.0903032 2 4
6.2290392 -2.1496956 -1.7656636 4 0
7.2529831 -2.5073183 -1.7717146 10 1
8.912262 -3.0861473 -1.833293 3 2
11.479559 -3.9818864 -1.9244571 3 3
16.192638 -5.6293683 -2.1049275 2 4
6.185113 -2.1817629 -1.7573814 5 0
7.2118621 -2.5481894 -1.7658658 21 1
8.9201088 -3.1587763 -1.8393987 3 2
11.518503 -4.0857043 -1.9357203 2 3
16.266178 -5.7793317 -2.1195517 2 4
6.177 -2.2275109 -1.759452 5 0
7.208559 -2.6037714 -1.769465 15 1
8.8947096 -3.2180839 -1.8386356 3 2
11.471854 -4.1572833 -1.9325917 4 3
16.357908 -5.9408617 -2.1368573 3 4
6.1544437 -2.2668338 -1.7573814 5 0
7.2436895 -2.672338 -1.7825122 7 1
82.274071 -30.385139 4.596458 55 9
8.9070139 -3.2930369 -1.8458863 4 2
11.505535 -4.2605929 -1.9432292 4 3
16.417597 -6.0893464 -2.1500192 3 4
6.1565495 -2.3165479 -1.7625577 3 0
7.2339745 -2.7262793 -1.7847617 7 1
8.9040098 -3.3627689 -1.8500841 3 2
11.493986 -4.3478007 -1.9463578 4 3
16.47864 -6.2431984 -2.1636686 3 4
6.1294069 -2.3553143 -1.759452 4 0
7.2329526 -2.7837145 -1.7892607 7 1
82.822128 -31.90859 4.6515155 55 9
8.8546724 -3.4149582 -1.8447415 3 2
11.490993 -4.4386134 -1.9510508 4 3
16.553141 -6.4039268 -2.1792676 3 4
6.1451859 -2.4107471 -1.7687694 4 0
7.2278523 -2.8398428 -1.7928599 7 1
8.8933363 -3.4995925 -1.8577164 3 2
11.467865 -4.5196242 -1.9523023 5 3
16.644657 -6.5732894 -2.1973045 4 4
6.1250477 -2.4510844 -1.7677342 5 0
7.2192082 -2.8933251 -1.7955593 7 1
8.9269876 -3.5850062 -1.8699282 3 2
11.465357 -4.6113687 -1.9573083 5 3
16.687914 -6.7220345 -2.2090039 23 4
6.0988436 -2.4901338 -1.7651459 19 0
7.2168713 -2.9510293 -1.8000585 7 1
8.901742 -3.6472406 -1.8699282 3 2
11.473089 -4.7077961 -1.9641914 5 3
16.840714 -6.9206185 -2.2355716 5 4
6.0527768 -2.5207672 -1.7568637 15 0
7.1960931 -3.0013404 -1.8000585 7 1
8.9376516 -3.7350354 -1.8829032 3 2
11.465454 -4.7984548 -1.9685715 4 3
16.971405 -7.1132183 -2.2594578 5 4
6.0634813 -2.5750442 -1.7651459 5 0
7.189311 -3.0576062 -1.8036577 7 1
8.9077463 -3.7958012 -1.88214 3 2
11.487998 -4.9024162 -1.9782705 6 3
17.932596 -7.663702 -2.394489 6 4
6.0684032 -2.6272902 -1.7718753 5 0
7.1820927 -3.1139238 -1.8072568 6 1
30.192198 -13.102885 1.7248886 6 9
8.8918343 -3.8625894 -1.8844297 3 2
11.496965 -5.0014091 -1.9857793 4 3
17.891397 -7.7942572 -2.3961952 9 4
6.0675879 -2.6773903 -1.7770516 4 0
7.1637435 -3.1655633 -1.8081565 6 1
8.8725185 -3.9262018 -1.8859563 3 2
11.527673 -5.1083617 -1.9970427 3 3
17.796631 -7.9012499 -2.3908329 9 4
6.0791788 -2.7320912 -1.7858515 6 0
7.170464 -3.2270479 -1.8153551 7 1
8.8162556 -3.9751356 -1.8798503 3 2
11.54574 -5.2131009 -2.0064287 2 3
17.69541 -8.0009403 -2.3844957 9 4
29.569387 -13.41327 -1.7016513 9 6
6.0617142 -2.7752695 -1.7863692 5 0
7.1513033 -3.2786522 -1.8162549 6 1
8.8496571 -4.0629044 -1.8928252 3 2
11.563832 -5.3163233 -2.0158148 2 3
17.678789 -8.1425514 -2.389858 8 4
29.636969 -13.687925 -1.7108626 8 6
6.0496869 -2.8197298 -1.7884396 4 0
7.1341181 -3.329726 -1.8176044 5 1
30.916021 -14.442663 1.7883198 5 9
8.8139629 -4.1212611 -1.8912989 3 2
11.580106 -5.4220533 -2.0252008 3 3
17.813473 -8.3520241 -2.4156942 9 4
29.685272 -13.962501 -1.7192364 8 6
6.0420709 -2.8676939 -1.7920631 6 0
7.1106982 -3.3794501 -1.8176044 4 1
30.699009 -14.603233 1.7816207 10 9
8.8133383 -4.1961966 -1.8974047 3 2
11.588331 -5.5248675 -2.0333354 3 3
17.957161 -8.5728216 -2.4432368 7 4
29.756401 -14.250493 -1.7290756 8 6
6.0201645 -2.9089649 -1.7915455 4 0
7.1307874 -3.4502287 -1.8288521 6 1
30.779665 -14.905991 1.7922974 10 9
8.776763 -4.2541976 -1.8958783 3 2
11.606345 -5.6332355 -2.0433471 4 3
18.380718 -8.9331274 -2.50929 4 4
5.9997096 -2.9509223 -1.7915455 4 0
7.1117716 -3.5025096 -1.8302019 4 1
8.7767792 -4.330133 -1.9023658 4 2
11.612782 -5.7368727 -2.0514817 4 3
19.526052 -9.6588583 -2.6747887 15 4
5.9962373 -3.0013828 -1.7967219 3 0
7.1010838 -3.5590587 -1.833801 4 1
8.7603722 -4.3983479 -1.9054186 4 2
11.650105 -5.8568444 -2.065248 3 3
19.695744 -9.9145422 -2.7074497 15 4
5.9648089 -3.0379107 -1.7936161 5 0
7.0864801 -3.613858 -1.8365004 3 1
8.7207108 -4.4549336 -1.9035107 3 2
11.637071 -5.9524274 -2.0702538 4 3
19.505901 -9.9902678 -2.6908755 15 4
5.960608 -3.0883658 -1.7987925 4 0
7.067997 -3.6668322 -1.8382999 3 1
23.076899 -11.982373 1.3627238 6 9
8.7277231 -4.5356231 -1.9119062 3 2
11.649555 -6.0617909 -2.079953 4 3
19.574759 -10.198661 -2.7101307 13 4
5.9423203 -3.1317046 -1.7998277 4 0
7.0560141 -3.7233622 -1.8418993 3 1
8.7201452 -4.6092873 -1.9172488 3 2
11.648855 -6.1651483 -2.0874617 4 3
18.931269 -10.032053 -2.6306717 15 4
5.9509606 -3.1895399 -1.8091452 3 0
7.0418677 -3.7789814 -1.8450485 3 1
23.248695 -12.486746 1.3830301 20 9
8.6963997 -4.6747003 -1.919157 4 2
11.689024 -6.2912593 -2.1024795 5 3
18.825821 -10.145138 -2.625797 12 4
5.9353337 -3.2347054 -1.8112158 3 0
7.0272884 -3.8345845 -1.8481979 4 1
23.057981 -12.587285 1.3767499 13 9
8.6781626 -4.7413168 -1.9222099 4 2
11.706585 -6.4038582 -2.1134298 11 3
19.005222 -10.413679 -2.6608956 12 4
23.564117 -12.943773 -1.4089887 11 6
5.9199386 -3.2787747 -1.8132863 3 0
7.0180669 -3.8917794 -1.8526968 5 1
22.843807 -12.678168 1.3692133 19 9
8.6774597 -4.8198986 -1.9294606 3 2
23.918732 -13.291132 2.3939939 2 10
11.654688 -6.4815879 -2.1121783 10 3
19.164568 -10.671243 -2.6933126 15 4
5.9103713 -3.3276055 -1.8174274 3 0
7.0009127 -3.9464214 -1.8553963 5 1
22.656078 -12.776466 1.3631425 19 9
8.6649685 -4.8904314 -1.9340401 3 2
23.738623 -13.408796 2.3852785 8 10
11.739284 -6.6336551 -2.1356435 5 3
19.080963 -10.799887 -2.6920938 16 4
5.8775225 -3.3620031 -1.8143215 3 0
6.9772706 -3.9959204 -1.8562962 5 1
21.765776 -12.475468 1.314784 11 9
8.6714859 -4.9742498 -1.9431988 3 2
22.675632 -13.012748 2.2873154 7 10
11.780047 -6.7656221 -2.1515999 7 3
17.850584 -10.264542 -2.5283015 1 4
5.8839717 -3.4204302 -1.8236392 3 0
6.9626775 -4.0523748 -1.8598953 5 1
22.73436 -13.242338 1.3788432 19 9
8.6636868 -5.0504866 -1.9493048 3 2
22.558414 -13.155679 2.2847006 10 10
11.983317 -6.9940705 -2.1975915 8 3
19.063931 -11.140061 -2.7111056 13 4
22.761648 -13.338163 -1.3826114 22 6
5.8649397 -3.4643722 -1.825192 2 0
6.9476361 -4.10882 -1.8634945 5 1
22.684326 -13.426161 1.3814601 27 9
8.6619997 -5.1308579 -1.9569372 3 2
22.371752 -13.256981 2.2751136 18 10
11.976674 -7.1027503 -2.2054133 9 3
18.925953 -11.23741 -2.7025747 15 4
22.633654 -13.476308 -1.3805181 33 6
5.8455796 -3.5082142 -1.8267449 3 0
6.9204521 -4.158227 -1.8639444 6 1
22.585562 -13.576141 1.3810413 27 9
8.6773443 -5.2200603 -1.9683858 3 2
22.329863 -13.44367 2.2803428 5 10
11.914514 -7.1759539 -2.2029104 9 3
18.751856 -11.311842 -2.6889255 15 4
5.8248639 -3.5499327 -1.8277801 3 0
6.893652 -4.2062511 -1.8643943 5 1
22.430574 -13.697056 1.3773779 19 9
8.6808939 -5.3050814 -1.9775445 3 2
11.867496 -7.2610188 -2.203536 9 3
18.6555 -11.432105 -2.6864879 15 4
5.8091669 -3.5976264 -1.830886 3 0
6.8882198 -4.2708769 -1.871143 6 1
22.318409 -13.848788 1.3765405 19 9
8.6536551 -5.3717685 -1.9798342 3 2
11.828654 -7.3540978 -2.206039 9 3
18.583664 -11.567311 -2.6877067 13 4
5.7969913 -3.6463227 -1.8350271 3 0
6.8681288 -4.3250918 -1.8738421 6 1
22.204288 -13.993612 1.3754938 19 9
8.6648111 -5.4649744 -1.9912828 3 2
11.773684 -7.4343882 -2.2054133 9 3
18.483999 -11.685098 -2.6850257 15 4
5.7616262 -3.6804645 -1.8319213 3 0
6.8541846 -4.3834333 -1.8783413 7 1
22.004213 -14.077694 1.369004 19 9
8.6307182 -5.5259447 -1.992046 3 2
11.716155 -7.5100927 -2.2041619 9 3
18.348515 -11.779538 -2.6772258 15 4
5.7623749 -3.736413 -1.8402034 3 0
6.8241887 -4.4299865 -1.8783413 7 1
21.784809 -14.152625 1.3614677 19 9
8.6314335 -5.6117458 -2.001205 3 2
11.673374 -7.5981688 -2.206039 9 3
18.096607 -11.792529 -2.6521208 15 4
5.7361498 -3.776551 -1.8402034 3 0
6.79635 -4.4796653 -1.879241 6 1
21.701309 -14.309376 1.362305 13 9
8.6028671 -5.6768556 -2.0034947 3 2
11.664237 -7.7057605 -2.2141736 9 3
18.051916 -11.943772 -2.6577268 14 4
5.7263737 -3.8262408 -1.8453798 3 0
6.7851377 -4.5388246 -1.8846399 6 1
8.6250057 -5.7782989 -2.0179961 3 2
11.641328 -7.8079095 -2.220118 8 3
17.897686 -12.01768 -2.6470025 14 4
5.7059174 -3.8704624 -1.8474505 3 0
6.7758551 -4.6014094 -1.8909385 6 1
8.5789804 -5.8324585 -2.0164697 3 2
11.63527 -7.9192009 -2.2291915 9 3
17.778906 -12.118855 -2.6418839 12 4
5.6532993 -3.8926733 -1.8391682 3 0
6.7499847 -4.6530252 -1.8927382 6 1
8.588726 -5.9293909 -2.0286815 3 2
11.623804 -8.0337048 -2.2379518 7 3
17.605717 -12.181686 -2.628722 12 4
5.6481538 -3.9475391 -1.8464152 3 0
6.7333031 -4.7112079 -1.8972371 6 1
8.5658541 -6.000104 -2.0328791 4 2
11.607667 -8.1398592 -2.2454607 7 3
17.336676 -12.175381 -2.6011796 14 4
5.630609 -3.9925978 -1.849521 3 0
6.6994905 -4.7558022 -1.8967873 4 1
8.5573597 -6.0836473 -2.0408931 4 2
11.597231 -8.2539139 -2.2545338 8 3
17.054546 -12.151422 -2.5711997 11 4
5.6214151 -4.0453496 -1.8557327 4 0
6.6914244 -4.8206835 -1.9039857 4 1
8.5528908 -6.1708088 -2.0500519 6 2
11.689852 -8.4433994 -2.2839434 8 3
16.85026 -12.184113 -2.5531631 9 4
5.5711946 -4.0685453 -1.8484857 3 0
6.6701922 -4.8764811 -1.9075849 4 1
8.523859 -6.2408061 -2.0534863 25 2
11.651334 -8.5399837 -2.2880106 9 3
16.756786 -12.295581 -2.5519443 6 4
5.5395503 -4.1050401 -1.8474505 4 0
6.6578965 -4.9391837 -1.9138836 3 1
8.4785061 -6.2989912 -2.0531049 12 2
11.547049 -8.588109 -2.2792504 9 3
16.597298 -12.357731 -2.5407324 13 4
5.5261984 -4.1552229 -1.8526268 4 0
6.6606197 -5.0136709 -1.9246813 3 1
8.528388 -6.4289351 -2.0760019 4 2
11.458429 -8.6470938 -2.2736187 9 3
16.360149 -12.359624 -2.5175772 4 4
5.5062709 -4.2007322 -1.8557327 4 0
6.6270037 -5.0612311 -1.9251312 3 1
16.41988 -12.544867 1.0829357 13 9
8.5281019 -6.5202255 -2.0866873 6 2
11.410285 -8.7332926 -2.2758088 8 3
16.322308 -12.510973 -2.5251331 6 4
5.4775496 -4.2381144 -1.8557327 4 0
6.5954814 -5.1086082 -1.9260309 3 1
15.844122 -12.281105 1.0505921 11 9
8.5506296 -6.6325479 -2.1034784 4 2
11.384924 -8.8406029 -2.2830048 9 3
16.717916 -12.99581 -2.5999608 12 4
46.997799 -36.626328 -3.1226776 0 6
5.466064 -4.290565 -1.8619443 3 0
6.5841727 -5.1737938 -1.9332294 3 1
15.48168 -12.174131 1.0321698 8 9
8.7139435 -6.8571978 -2.1553786 4 2
11.30741 -8.9076452 -2.2798762 9 3
15.605825 -12.307057 -2.4403119 6 4
16.355339 -12.930577 -1.0926702 19 6
5.4299321 -4.3238068 -1.8598738 5 0
6.5722737 -5.239069 -1.9404278 3 1
15.480626 -12.349175 1.0378221 8 9
8.7410412 -6.9778814 -2.174078 7 2
11.278898 -9.0134983 -2.2867594 9 3
15.397069 -12.31774 -2.4210565 12 4
5.3936028 -4.3567538 -1.8578032 4 0
6.559783 -5.3044291 -1.9476261 3 1
15.212976 -12.306041 1.0254709 2 9
8.708602 -7.0495701 -2.1778939 9 2
11.23877 -9.1074743 -2.2911394 9 3
15.662139 -12.710128 -2.476629 13 4
5.3757787 -4.4031587 -1.8619443 4 0
6.525033 -5.3501925 -1.9480762 5 1
15.389174 -12.627321 1.043265 2 9
8.69559 -7.1400967 -2.187053 9 2
11.184071 -9.1932392 -2.2930167 9 3
15.932415 -13.110335 -2.5334201 8 4
5.350852 -4.445519 -1.8640147 4 0
6.4965124 -5.4030924 -1.9507756 5 1
15.098666 -12.561886 1.0293437 11 9
8.6467876 -7.1991191 -2.187053 10 2
11.145515 -9.2893877 -2.2980225 7 3
15.400064 -12.853633 -2.4629796 4 4
15.621844 -13.066523 -1.0673395 19 6
5.3352432 -4.4942837 -1.8691912 4 0
6.4863992 -5.4697995 -1.9588737 5 1
15.10371 -12.745561 1.0357287 2 9
8.593317 -7.2567763 -2.1862895 9 2
11.101511 -9.3848248 -2.3024027 9 3
15.600124 -13.201806 -2.50929 13 4
15.898815 -13.487946 -1.0926702 19 6
5.3081436 -4.5351853 -1.8707441 6 0
6.4510179 -5.5174832 -1.9597737 4 1
15.005259 -12.842902 1.0351007 2 9
8.5573578 -7.3293629 -2.1901057 9 2
11.020726 -9.4492416 -2.299274 9 3
15.305733 -13.137145 -2.476629 10 4
16.197895 -13.937306 -1.1198848 9 6
5.2865739 -4.5809889 -1.8743677 4 0
6.438838 -5.5853696 -1.9678718 5 1
15.986102 -13.876924 1.1094178 3 9
8.5267305 -7.4069505 -2.1954484 10 2
10.954491 -9.5259504 -2.299274 9 3
15.104345 -13.148532 -2.4588361 12 4
5.2602677 -4.6228852 -1.8764381 4 0
6.3967624 -5.6276107 -1.966972 4 1
15.165605 -13.346775 1.0587565 6 9
8.4628563 -7.4531398 -2.192014 10 2
10.89236 -9.6029053 -2.2998998 9 3
14.964565 -13.211617 -2.4510365 12 4
15.611282 -13.797131 -1.8227752 37 5
5.2373338 -4.6662946 -1.879544 4 0
6.3888493 -5.6982608 -1.9764199 6 1
15.221064 -13.585318 1.0692236 9 9
8.4194031 -7.5198865 -2.1943038 10 2
10.819162 -9.6734476 -2.2986481 9 3
15.689298 -14.04264 -2.5853364 9 4
5.2160964 -4.7131047 -1.8836851 4 0
6.374927 -5.7662539 -1.9845182 6 1
8.3768854 -7.587707 -2.196975 10 2
10.733807 -9.7328205 -2.294894 9 3
14.733948 -13.373993 -2.4432368 3 4
15.206657 -13.836993 -1.0774928 19 6
5.2115521 -4.7755075 -1.8940378 3 0
6.3546209 -5.829061 -1.9908168 7 1
14.915133 -13.691165 1.0610592 3 9
8.326601 -7.6486602 -2.1977382 10 2
10.665598 -9.807519 -2.294894 9 3
14.749763 -13.57736 -2.4615173 10 4
15.081798 -13.917082 -1.0755041 29 6
5.1695952 -4.803884 -1.890932 3 0
6.3337469 -5.8918638 -1.9971154 7 1
14.73387 -13.710736 1.0547789 8 9
8.3088284 -7.7372694 -2.206897 9 2
10.653501 -9.9310741 -2.3067827 9 3
14.59657 -13.625815 -2.4517674 10 4
5.1620874 -4.8628049 -1.9002496 3 0
6.3020034 -5.942862 -1.9998149 7 1
14.884732 -14.046294 1.0725732 6 9
8.2546101 -7.7950878 -2.206897 9 2
14.590539 -13.783123 1.7560139 1 10
10.629846 -10.048632 -2.3167946 9 3
14.512137 -13.733044 -2.4532301 10 4
5.1377916 -4.9080648 -1.903873 2 0
6.2800784 -6.005568 -2.0061135 6 1
14.723832 -14.085157 1.067863 12 9
8.2141237 -7.8633127 -2.2103314 10 2
14.584602 -13.971479 1.7669954 6 10
10.592577 -10.150821 -2.3236778 9 3
14.476064 -13.891749 -2.4634671 15 4
5.1172771 -4.9572558 -1.9090494 2 0
6.2463927 -6.057405 -2.0088129 9 1
14.4349 -14.007945 1.0541509 8 9
8.1421518 -7.9068441 -2.2061336 9 2
13.956515 -13.557905 1.7023259 11 10
10.550831 -10.256651 -2.3305609 9 3
14.38442 -13.99801 -2.464442 16 4
5.0839229 -4.9942131 -1.909567 3 0
14.214331 -13.987903 1.0451492 8 9
8.1147318 -7.991044 -2.2137661 7 2
10.512732 -10.363342 -2.3380699 9 3
13.438577 -13.261493 -2.3181989 13 4
5.0434585 -5.0241303 -1.9074965 3 0
6.1750083 -6.1577883 -2.0133121 23 1
14.859964 -14.828874 1.1002066 3 9
8.0920858 -8.0807953 -2.2229249 9 2
10.468067 -10.464413 -2.3443272 9 3
13.397583 -13.40694 -2.3272171 11 4
13.497498 -13.521076 -1.6714728 36 5
13.560503 -13.60317 -1.0066299 28 6
5.0272884 -5.0784383 -1.9147433 3 0
6.1647544 -6.2340026 -2.0241096 7 1
13.89094 -14.051879 1.0355194 8 9
8.0700083 -8.1692095 -2.2320838 10 2
13.831886 -14.011694 1.7225461 9 10
10.438221 -10.577605 -2.3537133 9 3
14.160567 -14.369709 -2.4771163 21 4
13.478798 -13.70655 -1.0074672 28 6
4.9926038 -5.1125402 -1.9147433 3 0
6.1657233 -6.3204579 -2.0385065 7 1
14.132677 -14.49747 1.0610592 9 9
8.0675774 -8.281601 -2.2473485 7 2
14.322781 -14.70788 1.7961056 16 10
10.416473 -10.704015 -2.3656023 9 3
14.0818 -14.485689 -2.4805288 21 4
4.9764528 -5.1658826 -1.9219903 3 0
13.647932 -14.177347 0.34349826 33 8
6.1414766 -6.3819389 -2.044805 7 1
13.683417 -14.229111 1.0345774 19 9
8.021903 -8.3476467 -2.2504015 7 2
10.398091 -10.831671 -2.3781171 9 3
14.018596 -14.618457 -2.486866 24 4
4.9278669 -5.1856327 -1.9168139 3 0
6.2105951 -6.5423141 -2.0825968 7 1
13.615111 -14.35235 1.0367755 19 9
7.9432859 -8.3792582 -2.2442954 9 2
10.315973 -10.893591 -2.3762398 9 3
13.951662 -14.753469 -2.4932032 21 4
4.9302559 -5.2630591 -1.9323431 3 0
6.2488384 -6.6776538 -2.1113906 9 1
7.8777614 -8.4301481 -2.242769 7 2
10.181142 -10.906483 -2.3630993 10 3
13.872804 -14.881967 -2.4980781 19 4
4.884604 -5.2896886 -1.9292372 3 0
6.1942878 -6.7150364 -2.1091411 10 1
7.7959523 -8.4631996 -2.2366631 9 2
10.129589 -11.00813 -2.3693566 9 3
13.803499 -15.016453 -2.5044153 16 4
4.844955 -5.3208036 -1.9282019 3 0
6.1315222 -6.7408175 -2.1037421 13 1
7.7328844 -8.5102568 -2.2351367 9 2
10.118153 -11.147034 -2.3843744 9 3
13.727659 -15.14481 -2.5097775 18 4
4.8292804 -5.3766541 -1.9364842 3 0
6.0685778 -6.7635403 -2.0978935 12 1
7.6654224 -8.5552616 -2.232847 10 2
10.092783 -11.276275 -2.3968892 9 3
13.653362 -15.270455 -2.5151396 17 4
4.8018732 -5.4218068 -1.9406252 3 0
6.0237951 -6.8086619 -2.0987935 11 1
7.6029105 -8.6056242 -2.2320838 9 2
10.06087 -11.399779 -2.4081526 9 3
13.57793 -15.401138 -2.5209894 17 4
4.7664466 -5.4581084 -1.9416605 3 0
5.9684291 -6.8417377 -2.0960939 11 1
7.5245934 -8.6377687 -2.2267411 9 2
10.0368 -11.533814 -2.4216058 8 3
13.498732 -15.528514 -2.5263517 17 4
4.7332678 -5.497107 -1.9437311 3 0
5.925602 -6.8891478 -2.0978935 11 1
7.4425926 -8.6619825 -2.219872 9 2
9.9979439 -11.648335 -2.4313047 9 3
13.428749 -15.66759 -2.5336637 17 4
4.7232528 -5.5615931 -1.9551191 3 0
5.8937006 -6.9471545 -2.1032922 11 1
7.3565598 -8.6837702 -2.2122397 9 2
9.9495583 -11.757052 -2.4394393 9 3
13.334609 -15.773792 -2.5361013 17 4
15.756028 -18.657949 -2.1365359 29 5
4.6892719 -5.6003561 -1.9571897 4 0
5.8725629 -7.0210161 -2.1131902 12 1
7.2821755 -8.7155647 -2.2076602 7 2
9.9136028 -11.877584 -2.4503896 8 3
13.272458 -15.924447 -2.5453634 17 4
15.432785 -18.555904 -1.2648555 21 6
4.6485829 -5.6291661 -1.9561545 4 0
5.8618393 -7.1059241 -2.1266873 13 1
7.20118 -8.7419453 -2.2015543 7 2
9.8555441 -11.977011 -2.4566472 8 3
13.210398 -16.071159 -2.5543816 14 4
15.132457 -18.435671 -2.0866828 30 5
15.121773 -18.442335 -1.2498875 31 6
4.6067319 -5.6584854 -1.9551191 4 0
5.8391385 -7.1799359 -2.136585 11 1
7.1746292 -8.8346786 -2.2122397 7 2
9.7679558 -12.040921 -2.4557085 9 3
13.141621 -16.216972 -2.5629125 16 4
15.111167 -18.674063 -2.1016734 30 5
15.186008 -18.786655 -1.2660068 21 6
4.5912991 -5.7206402 -1.9654719 4 0
5.8351917 -7.2783012 -2.1536813 14 1
7.1606293 -8.9443226 -2.2271228 6 2
9.6996965 -12.128875 -2.4597759 8 3
13.062779 -16.351749 -2.5697372 14 4
14.779152 -18.526781 -2.0734351 31 5
15.044527 -18.879721 -1.2651695 21 6
4.5584426 -5.7616444 -1.9685777 3 0
5.8108206 -7.3524971 -2.1635792 14 1
7.1308508 -9.0357056 -2.2374265 9 2
9.6392441 -12.227323 -2.4660332 8 3
12.969183 -16.469059 -2.5738807 13 4
14.725808 -18.726612 -2.0842423 30 5
14.71619 -18.734558 -1.2485267 21 6
4.5181079 -5.7933278 -1.9685777 4 0
5.778512 -7.4174814 -2.1707778 13 1
7.0868831 -9.1100607 -2.2435322 10 2
9.5475864 -12.286518 -2.464469 9 3
12.909883 -16.63133 -2.5850928 13 4
14.550775 -18.772268 -2.0779672 30 5
14.626614 -18.890535 -1.2520856 21 6
4.4799075 -5.8277917 -1.969613 4 0
5.7194657 -7.4483685 -2.1680782 11 1
7.0231104 -9.1593142 -2.2435322 9 2
9.4423599 -12.327783 -2.4594631 9 3
12.828444 -16.766773 -2.5921612 12 4
14.547693 -19.062044 -1.2566911 21 6
4.4391127 -5.8589249 -1.969613 5 0
5.6461596 -7.460146 -2.1599801 10 1
6.9874063 -9.2457123 -2.252691 7 2
9.4489012 -12.516374 -2.4838667 9 3
12.756495 -16.916151 -2.6014233 10 4
14.330399 -19.030899 -2.0842423 30 5
14.427467 -19.180698 -1.2578424 21 6
4.4142842 -5.9114437 -1.9768599 4 0
5.5892806 -7.493134 -2.1581805 13 1
6.9649076 -9.3509493 -2.2664294 9 2
9.3565731 -12.575695 -2.4826152 9 3
12.662954 -17.038252 -2.6065416 7 4
14.289642 -19.27614 -1.2575285 21 6
4.3831072 -5.9537992 -1.981001 5 0
5.5335288 -7.524725 -2.1563809 14 1
6.9522238 -9.4677687 -2.2832205 9 2
9.2672529 -12.634312 -2.4816766 8 3
12.599483 -17.196112 -2.6175098 5 4
14.349015 -19.63419 -1.2744853 21 6
4.3607206 -6.0108361 -1.9898008 12 0
5.485436 -7.5694852 -2.1581805 13 1
6.8905611 -9.5224361 -2.2847471 8 2
9.1730375 -12.690697 -2.4801123 9 3
12.519796 -17.339981 -2.6260407 3 4
14.292131 -19.845715 -1.2817078 10 6
4.3062925 -6.0238461 -1.9841069 29 0
5.4369874 -7.6139383 -2.1599801 11 1
6.8193555 -9.5639143 -2.2832205 10 2
9.1140127 -12.79626 -2.4882469 9 3
12.481291 -17.543423 -2.64359 14 4
13.956741 -19.668108 -1.2639135 10 6
4.2741461 -6.067977 -1.9887657 19 0
5.4285545 -7.7154617 -2.1779761 12 1
6.7224903 -9.565135 -2.2725353 9 2
9.0130796 -12.8386 -2.4844925 9 3
12.36649 -17.64151 -2.6452963 1 4
4.2437611 -6.1127987 -1.993942 6 0
5.3825746 -7.7618413 -2.1806755 11 1
6.6331973 -9.5795527 -2.2649028 10 2
8.885026 -12.845972 -2.473855 9 3
8.935504 -12.933425 -1.9301667 13 4
4.2173414 -6.1661949 -2.0017066 4 0
5.33705 -7.8121018 -2.1842747 11 1
6.5534515 -9.6034002 -2.2599418 10 2
8.6549673 -12.697225 -2.4338076 10 3
8.7802143 -12.90031 -1.91603 19 4
8.8605976 -13.033078 -1.3788038 27 5
8.8653135 -13.054712 -0.8270129 26 6
8.9635143 -13.219168 -0.27878475 28 7
4.1990261 -6.2300014 -2.0130947 4 0
8.9063034 -13.224041 0.27829608 25 8
5.2793989 -7.841783 -2.1824751 12 1
8.9041414 -13.235785 0.83601463 24 9
6.4906287 -9.6554346 -2.2614682 12 2
8.9344139 -13.295809 1.4014642 20 10
8.264389 -12.307987 -2.3480816 29 3
8.2566023 -12.31496 -1.8204844 31 4
8.2893505 -12.37781 -1.303327 61 5
8.7828426 -13.129565 -0.82785022 26 6
8.8332472 -13.224884 -0.27759799 28 7
4.1628833 -6.2727661 -2.0172358 4 0
8.8513498 -13.342551 0.27948281 25 8
5.2274561 -7.8858571 -2.1842747 11 1
8.826848 -13.325804 0.8376894 18 9
6.4089732 -9.6792307 -2.2565072 9 2
8.843441 -13.366049 1.4021616 31 10
8.2948513 -12.54642 -2.3821843 21 3
8.1813669 -12.388865 -1.8229219 29 4
8.1840858 -12.407104 -1.3003637 36 5
4.1422434 -6.3372507 -2.0286238 4 0
5.1530995 -7.8927884 -2.1761765 13 1
6.4317508 -9.8662844 -2.2893264 9 2
8.2609539 -12.686791 -2.3978279 13 3
8.1639452 -12.552181 -1.838521 27 4
8.1515398 -12.547475 -1.3090792 24 5
4.1722269 -6.4789944 -2.0648584 4 0
5.0697379 -7.8817897 -2.1635792 13 1
6.4036984 -9.9709568 -2.3034463 10 2
8.2149372 -12.805909 -2.4097166 9 3
8.1350784 -12.696044 -1.8514392 42 4
4.2460022 -6.6932116 -2.1238692 7 0
5.0034547 -7.8963633 -2.1581805 12 1
6.3293824 -10.004359 -2.3011565 10 2
8.0822048 -12.789723 -2.3962634 9 3
8.1078091 -12.845128 -1.8650886 33 4
4.2216878 -6.7587366 -2.135257 7 0
4.9502697 -7.9344068 -2.1590803 13 1
6.264575 -10.056635 -2.3030648 10 2
8.020895 -12.891121 -2.4047108 8 3
8.0692787 -12.984033 -1.8770318 29 4
8.7169838 -14.048105 -1.4464366 29 5
4.1824961 -6.8012104 -2.1393983 9 0
4.8967967 -7.9720941 -2.1599801 14 1
6.1695819 -10.059958 -2.2939057 10 2
7.9647546 -13.00239 -2.4150355 9 3
8.0447435 -13.14842 -1.8926311 31 4
4.1349139 -6.8302436 -2.1393983 9 0
4.8490877 -8.0194263 -2.1635792 13 1
6.1111131 -10.118526 -2.2977221 9 2
7.8964729 -13.090133 -2.421293 9 3
8.0152292 -13.307993 -1.9074991 33 4
4.0705209 -6.828361 -2.1300809 9 0
4.7804322 -8.0288048 -2.1572804 15 1
6.0343051 -10.150816 -2.2954323 7 2
7.8149815 -13.161926 -2.4244218 9 3
7.9781251 -13.452735 -1.9204172 25 4
8.5106926 -14.390793 -0.87620866 17 6
4.0188403 -6.8499475 -2.1280103 7 0
4.7252507 -8.0636644 -2.1577303 20 1
5.9908543 -10.235708 -2.3053544 7 2
7.7232151 -13.211405 -2.4237959 9 3
7.9490561 -13.619543 -1.9362602 33 4
3.9798517 -6.8905263 -2.1321514 9 0
4.6644106 -8.0855141 -2.1550312 18 1
5.9496264 -10.330022 -2.3171847 6 2
7.6386747 -13.278701 -2.4262989 9 3
7.9184699 -13.781773 -1.9516157 32 4
3.9316497 -6.9181428 -2.1321514 9 0
4.618432 -8.1365213 -2.1599801 14 1
5.9005947 -10.412299 -2.3263433 6 2
7.5817885 -13.395309 -2.437875 8 3
7.8826313 -13.943857 -1.9667276 32 4
3.8851428 -6.9487953 -2.1331868 9 0
4.5767179 -8.1957893 -2.1671786 14 1
5.8344531 -10.465242 -2.3290148 9 2
7.5486302 -13.556644 -2.4575858 9 3
7.8545599 -14.123459 -1.9842769 33 4
36.418221 -65.673164 -3.9355597 48 6
3.8421223 -6.9859052 -2.1362925 9 0
4.5250192 -8.2377882 -2.169878 14 1
5.763083 -10.504714 -2.3290148 9 2
7.4913006 -13.671807 -2.4691617 8 3
7.8129296 -14.28244 -1.9989011 31 4
7.877131 -14.417727 -1.4373724 58 5
3.7981601 -7.0186915 -2.1383629 9 0
4.4836664 -8.2958279 -2.1770763 14 1
5.6952004 -10.555058 -2.3313043 10 2
7.4256582 -13.779421 -2.4791737 8 3
7.7860913 -14.46639 -2.0171814 22 4
7.8158922 -14.546082 -1.4446936 29 5
3.7708488 -7.0859666 -2.1507864 9 0
4.4366174 -8.3475761 -2.1824751 12 1
5.6084914 -10.570281 -2.3259618 10 2
7.3496294 -13.869325 -2.4860568 8 3
7.7471251 -14.637948 -2.0335121 18 4
3.7212884 -7.1121192 -2.1507864 9 0
4.3908677 -8.4025269 -2.1887739 10 1
5.5245728 -10.590031 -2.321764 10 2
7.2681408 -13.950079 -2.4913754 7 3
7.7125502 -14.821987 -2.0515487 7 4
3.6927536 -7.1791553 -2.1632097 9 0
4.3392248 -8.4468422 -2.192373 14 1
5.4549851 -10.637075 -2.3236721 10 2
7.1615705 -13.982897 -2.4882469 7 3
8.7470112 -17.100515 -2.3584158 5 4
3.6385701 -7.1937814 -2.1601038 9 0
4.2781138 -8.4692259 -2.1905735 14 1
5.3851075 -10.679218 -2.3248169 10 2
7.0742221 -14.047199 -2.4910626 8 3
10.512401 -20.901583 -2.8727043 4 4
3.5882595 -7.219008 -2.1601038 9 0
4.2344804 -8.530304 -2.1986716 15 1
5.3201408 -10.731457 -2.3282516 10 2
6.9749374 -14.087943 -2.4898112 8 3
10.390854 -21.024292 -2.879529 4 4
7.8344412 -15.893668 -0.92864931 18 6
3.516988 -7.1981359 -2.1466453 9 0
4.1951194 -8.5974607 -2.2085695 14 1
5.2485309 -10.775397 -2.329778 10 2
6.8703685 -14.123859 -2.4876211 9 3
10.254447 -21.108818 -2.881479 4 4
3.4549472 -7.1981301 -2.1393983 9 0
4.1333117 -8.623023 -2.2076695 14 1
5.1648908 -10.789623 -2.3251987 10 2
7.9721971 -16.669107 1.6165646 1 10
6.7911105 -14.205941 -2.4938784 9 3
10.141026 -21.251554 -2.8912284 4 4
3.3893898 -7.1865354 -2.1290457 9 0
4.0695386 -8.6403799 -2.2049701 13 1
5.0877695 -10.821863 -2.3244352 9 2
6.7094007 -14.290557 -2.5004489 9 3
8.2930374 -17.687656 -2.3986325 16 4
3.3553734 -7.2450819 -2.1393983 9 0
4.0222068 -8.6968803 -2.2121687 14 1
5.0170321 -10.867814 -2.326725 10 2
6.618567 -14.356782 -2.5038903 10 3
9.9142942 -21.535416 -2.9109714 4 4
3.3255017 -7.3140535 -2.1528571 9 0
3.9533372 -8.7070036 -2.2076695 13 1
4.9491434 -10.920456 -2.3305411 9 2
6.5279503 -14.424233 -2.5076447 10 3
7.7375951 -17.112978 2.3060119 7 11
7.4288545 -16.43779 -2.2148538 23 4
7.4524407 -16.51301 -1.5850143 85 5
3.2759335 -7.3406196 -2.1538923 9 0
3.9099073 -8.773551 -2.2175674 14 1
4.86831 -10.939542 -2.3274884 10 2
6.4424529 -14.497216 -2.5126505 10 3
3.2196903 -7.3485928 -2.1497512 9 0
3.8547847 -8.8106728 -2.2202671 13 1
4.8075337 -11.009246 -2.3351207 9 2
6.3450356 -14.550891 -2.514215 9 3
7.6675029 -17.608831 -2.3581719 2 4
3.1698346 -7.3744402 -2.1507864 9 0
3.783957 -8.8158808 -2.2148681 14 1
4.7367425 -11.056977 -2.3381736 10 2
6.2518425 -14.614811 -2.5176563 10 3
7.4851227 -17.523191 -2.339648 9 4
7.5532737 -17.699837 3.0479696 3 12
29.961933 -70.380859 -4.0088301 100 6
3.1287808 -7.4213119 -2.1580334 7 0
3.698123 -8.7846079 -2.2004712 15 1
4.6594357 -11.089776 -2.3381736 9 2
6.1595969 -14.681782 -2.521724 9 3
7.3380623 -17.51643 -2.3318481 15 4
7.3612142 -17.606178 -1.6695553 36 5
3.0739427 -7.435832 -2.1559627 7 0
3.6277819 -8.7885962 -2.1950724 15 1
4.5819011 -11.122035 -2.3381736 10 2
6.0719776 -14.760962 -2.527981 9 3
9.2904472 -22.618706 -3.0023735 4 4
3.024859 -7.464272 -2.1580334 9 0
3.5692627 -8.8209343 -2.196872 14 1
4.5100241 -11.168315 -2.3412266 10 2
5.9791217 -14.828644 -2.5323615 9 3
9.1693821 -22.775087 -3.0145605 4 4
27.992079 -69.773209 -3.9399559 48 6
2.9683967 -7.4744353 -2.1549275 9 0
3.5176516 -8.8709984 -2.2031708 14 1
4.4577503 -11.258992 -2.3538198 10 2
5.8707867 -14.850626 -2.5292327 9 3
9.0072441 -22.83116 -3.0135853 4 4
2.9160502 -7.4908667 -2.1538923 7 0
3.4642467 -8.9129 -2.2076695 13 1
4.3825903 -11.298989 -2.3557279 10 2
5.7741008 -14.909673 -2.5323615 9 3
7.0518088 -18.23727 -2.4008262 5 4
2.8733184 -7.536314 -2.161139 9 0
3.3943138 -8.9168348 -2.2027209 17 1
4.3036013 -11.32931 -2.3557279 10 2
5.689487 -15.001335 -2.541122 9 3
7.0135942 -18.521826 -2.4317811 23 4
7.0390768 -18.62837 -1.7422433 58 5
2.8260396 -7.5706682 -2.1652801 9 0
3.3319798 -8.9403143 -2.2027209 21 1
4.2360377 -11.39036 -2.3622153 10 2
5.6038733 -15.09254 -2.5498822 9 3
7.1510639 -19.280113 2.5248892 1 11
6.9469113 -18.739717 -2.4539614 27 4
2.7744446 -7.593843 -2.1663156 9 0
3.2668121 -8.9560347 -2.2009211 19 1
4.157064 -11.415241 -2.3614521 10 2
5.5084357 -15.150755 -2.5533235 7 3
6.8998604 -19.019154 -2.484185 28 4
7.3094349 -20.18108 -1.8778577 35 5
7.2582984 -20.07271 -1.1186289 29 6
2.727895 -7.6271033 -2.1704566 7 0
3.2110181 -8.9927454 -2.2045202 20 1
4.0752945 -11.438437 -2.3603075 10 2
5.4091516 -15.207453 -2.5564523 7 3
6.8565969 -19.308865 -2.515871 30 4
7.144412 -20.164009 -1.8715824 35 5
7.1233163 -20.137957 -1.1194662 29 6
7.1374292 -20.211508 -0.3741447 37 7
2.7039232 -7.7298431 -2.194268 9 0
7.0545344 -20.189758 0.37330699 37 8
3.1802826 -9.1069326 -2.2270155 15 1
7.0327492 -20.161303 1.1190475 29 9
3.9953399 -11.466609 -2.3603075 7 2
7.0162106 -20.147804 1.8665273 22 10
5.308044 -15.259773 -2.5589554 7 3
7.0025563 -20.153893 2.6197035 21 11
6.7965174 -19.571915 -2.5439007 27 4
6.9836774 -20.133551 3.3752303 19 12
6.9746666 -20.141636 4.1432266 2 13
6.8653412 -19.904539 5.6417375 2 15
2.6636474 -7.7887449 -2.2056561 9 0
3.0587027 -8.9592438 -2.1856244 20 1
3.9101276 -11.479355 -2.3572545 9 2
6.907485 -20.2906 1.8752429 5 10
5.2166433 -15.341342 -2.5664639 7 3
6.878284 -20.251158 2.6260407 29 11
6.7471323 -19.87641 -2.5772932 29 4
6.8607097 -20.2342 3.383991 25 12
6.8364015 -20.197273 4.144753 23 13
6.8148856 -20.180084 4.9174299 21 14
6.7947221 -20.155182 5.6991954 15 15
2.623903 -7.8511248 -2.2180793 9 0
3.0552883 -9.1578426 -2.2288151 14 1
3.8261712 -11.495195 -2.3549647 9 2
5.1181355 -15.40363 -2.5708442 7 3
6.6969471 -20.190578 -2.6119039 31 4
6.6846681 -20.295706 5.7255955 4 15
2.550442 -7.8123207 -2.2020326 10 0
3.0124133 -9.2437983 -2.2445617 14 1
3.7446139 -11.517893 -2.3542016 9 2
5.0196214 -15.467169 -2.5755374 9 3
6.6347518 -20.480452 -2.6433463 26 4
6.663168 -20.617258 -1.8956374 35 5
7.0680852 -21.974968 6.1852579 2 15
2.4981878 -7.8372993 -2.2041032 10 0
2.9436698 -9.251605 -2.2414124 14 1
3.6771798 -11.584923 -2.3625972 9 2
4.9186778 -15.524434 -2.5792918 9 3
6.5813971 -20.810177 -2.6799071 31 4
2.4453568 -7.8559666 -2.2046208 9 0
2.8771601 -9.2602615 -2.238713 15 1
3.6133509 -11.65844 -2.3725193 9 2
4.8210654 -15.583975 -2.583672 9 3
6.518075 -21.108654 -2.712568 5 4
2.3848398 -7.8543611 -2.1994443 9 0
2.8045282 -9.2540121 -2.2324142 15 1
3.5339105 -11.682765 -2.3725193 7 2
4.7240133 -15.646686 -2.5886779 9 3
6.5331216 -21.69346 -2.7817898 20 4
6.3563137 -21.186695 -1.1592416 10 6
2.321995 -7.8389239 -2.1906445 10 0
2.7447894 -9.2840996 -2.2351139 14 1
6.2977438 -21.329155 1.1655219 4 9
3.4589269 -11.729749 -2.3770986 9 2
4.6219149 -15.703919 -2.5927453 10 3
6.3976164 -21.779331 -2.7871521 14 4
2.2613194 -7.8345265 -2.1849504 9 0
2.6928532 -9.3479776 -2.2459114 14 1
3.3883398 -11.793236 -2.3851125 10 2
4.5285044 -15.792769 -2.6021311 10 3
6.7730122 -23.667055 -3.0226038 2 4
2.2013428 -7.8315229 -2.179774 9 0
2.6285794 -9.3703032 -2.2468112 16 1
3.3175631 -11.858197 -2.3935082 10 2
4.4393883 -15.900104 -2.614646 10 3
5.8456726 -20.979248 -2.6740575 3 4
2.1364195 -7.8094325 -2.1694212 9 0
2.5589943 -9.3733845 -2.2432117 14 1
3.2481232 -11.922176 -2.4019036 10 2
4.3409057 -15.966169 -2.6205904 9 3
5.679328 -20.946743 -2.6647954 3 4
4.4862957 -16.638493 3.9784844 3 14
2.084208 -7.827528 -2.1704566 9 0
2.4836223 -9.3472681 -2.2328641 14 1
3.16783 -11.955949 -2.4041934 10 2
4.2359009 -16.020912 -2.6246576 7 3
5.5214262 -20.927336 -2.6574831 3 4
2.0701692 -7.9989877 -2.2139382 9 0
2.4178197 -9.3624926 -2.2324142 15 1
3.0784097 -11.954958 -2.3996141 12 2
4.1391897 -16.109404 -2.6343565 9 3
5.3594179 -20.903837 -2.6496835 3 4
2.0218103 -8.0432224 -2.2222204 9 0
2.3547685 -9.3885937 -2.2346637 14 1
2.9682014 -11.869501 -2.3782434 12 2
4.0443187 -16.208824 -2.6459329 7 3
5.1941686 -20.863693 -2.6399338 3 4
5.1650438 -20.808661 -1.8757659 55 5
1.9692715 -8.072155 -2.2263615 9 0
2.2804101 -9.3688307 -2.2261157 15 1
2.8750806 -11.84796 -2.369848 12 2
3.9422188 -16.28274 -2.6534417 7 3
5.033473 -20.837698 -2.6321344 5 4
1.9155397 -8.0969858 -2.2294674 9 0
2.2212145 -9.4110746 -2.2324142 15 1
2.7734122 -11.787477 -2.3538198 12 2
3.8433442 -16.373327 -2.6637661 10 3
5.6315351 -24.047924 -3.0325971 11 4
1.8615551 -8.12146 -2.2325733 9 0
2.1459043 -9.3845577 -2.2225163 17 1
2.6910524 -11.806552 -2.3538198 12 2
3.7412088 -16.453693 -2.6725268 10 3
5.4349689 -23.960819 -3.0167542 14 4
3.1429613 -13.912448 2.7724547 1 13
1.8056481 -8.1380291 -2.2336085 9 0
2.0879157 -9.4335585 -2.2306147 15 1
2.6051795 -11.809713 -2.3507669 12 2
3.6343153 -16.516068 -2.6784713 8 3
5.3352304 -24.306467 -3.0555084 12 4
1.752843 -8.1693268 -2.2387848 9 0
2.0097716 -9.3907385 -2.2171178 19 1
2.5255527 -11.831013 -2.3515301 12 2
3.5275705 -16.567471 -2.6828516 7 3
5.1027813 -24.04796 -3.0184603 9 4
1.693272 -8.1621513 -2.2336085 9 0
1.9394876 -9.3736668 -2.2099192 15 1
2.3948801 -11.595011 0.6204952 14 9
2.4484453 -11.875276 -2.3568728 10 2
3.421371 -16.638132 -2.6903601 7 3
4.9856353 -24.309656 -3.0469775 14 4
1.6332146 -8.1586208 -2.2294674 9 0
2.311872 -11.559283 0.20576388 27 8
1.8739997 -9.3869781 -2.2099192 15 1
2.3311372 -11.687432 0.6245774 8 9
2.3721576 -11.914772 -2.3614521 12 2
3.3157353 -16.699785 -2.6966176 8 3
4.8362207 -24.447081 -3.0598958 12 4
5.765202 -29.277269 5.8002119 4 13
1.5783763 -8.1733408 -2.2305026 9 0
2.2379291 -11.610485 0.20639215 14 8
1.812273 -9.4109983 -2.2126186 15 1
2.2717304 -11.819142 0.63075304 14 9
2.2907686 -11.940683 -2.3633604 16 2
3.2050066 -16.753571 -2.7016234 7 3
4.6823492 -24.545729 -3.0681827 10 4
2.2158663 -11.693571 -0.62373996 8 6
1.5202181 -8.1784639 -2.2289498 11 0
2.1778336 -11.727685 0.2082072 14 8
1.7507894 -9.446414 -2.2180173 15 1
2.194865 -11.85397 0.6317997 8 9
2.1969523 -11.888429 -2.3500037 12 2
3.0973394 -16.809965 -2.7072554 7 3
4.5237741 -24.648111 -3.0769575 12 4
2.107182 -11.549232 -0.61526155 18 6
1.4672356 -8.2038355 -2.2330909 10 0
2.0945005 -11.73473 0.2080676 14 8
1.6823452 -9.435091 -2.2126186 15 1
2.1054068 -11.831642 0.62981093 2 9
2.1025739 -11.839688 -2.3374104 15 2
2.9881732 -16.877861 -2.7147639 7 3
4.3731503 -24.776077 -3.0891445 10 4
2.2419682 -12.740832 -1.1318045 18 5
2.0647702 -11.78203 -0.62688017 17 6
1.9998538 -11.446849 -0.20283188 14 7
1.4037175 -8.177702 -2.2232556 9 0
1.6177495 -9.4542894 -2.2144182 21 1
2.0392942 -11.930354 0.63431185 8 9
2.0143435 -11.809213 -2.3286331 12 2
2.8785203 -16.92897 -2.71977 8 3
4.2113409 -24.872547 -3.0974314 10 4
2.1612551 -12.805289 -1.1361622 18 5
1.9198925 -11.460531 -0.20283188 14 7
1.3461378 -8.1756296 -2.2201498 9 0
1.5584091 -9.4958496 -2.2216165 15 1
1.9640241 -11.993575 0.63692868 2 9
1.9340667 -11.836551 -2.3313043 13 2
2.7688367 -17.001295 -2.7282174 10 3
4.0546665 -24.979013 -3.1071808 10 4
1.9800317 -12.334179 -0.21805036 16 7
1.2872261 -8.173378 -2.2170439 9 0
1.8598567 -11.822783 0.20890529 14 8
1.4908689 -9.4987974 -2.2198169 16 1
1.8910035 -12.061913 0.6398595 2 9
1.8570952 -11.872718 -2.3358839 15 2
2.6573095 -17.047073 -2.7325976 10 3
2.1302383 -13.69724 1.7020274 1 11
1.7955124 -11.571588 -1.4378146 3 4
4.5034838 -29.191826 5.7414432 4 13
1.7775953 -11.535829 -0.61170274 18 6
1.8823558 -12.272592 -0.21672398 16 7
1.2350134 -8.204875 -2.2232556 9 0
1.7808362 -11.85921 0.20932417 14 8
1.4290699 -9.527998 -2.2243161 14 1
1.8043849 -12.05902 0.63902211 6 9
1.7332956 -11.611608 -2.2820759 12 2
2.5434649 -17.100378 -2.7382293 10 3
2.0287344 -13.672505 1.6971526 0 11
1.7132145 -11.559977 -1.4348897 7 4
1.9388763 -13.114202 2.0996637 9 12
1.6668166 -11.342449 -0.60081685 37 6
1.6766468 -11.478968 3.1084168 0 15
1.1752346 -8.1960869 -2.2185969 10 0
1.7102787 -11.942319 0.21058075 29 8
1.3614159 -9.5300245 -2.2225163 15 1
1.635407 -11.490967 -2.2561257 12 2
1.9211677 -13.58379 1.6844782 5 11
1.6285865 -11.544137 -1.4314774 7 4
1.8961439 -13.457668 2.1525385 1 12
2.8640978 -20.379114 -1.8004633 33 5
1.5671421 -11.193316 -0.59233844 28 6
1.1178571 -8.2138577 -2.2211852 9 0
1.6366779 -12.057575 0.2123958 29 8
1.2999918 -9.5897303 -2.2342138 14 1
1.6907302 -12.504903 0.66131723 14 9
1.5519174 -11.508484 -2.2572706 21 2
1.5551741 -11.578403 -1.8503071 59 3
1.8297129 -13.658502 1.6920341 7 11
1.5454119 -11.55156 -1.43099 7 4
1.7613885 -13.200998 2.1093626 10 12
1.544233 -11.58891 -1.0228598 50 5
1.5028938 -11.339139 -0.59945607 18 6
1.6029416 -12.142792 -0.21379198 16 7
1.4733554 -11.19124 3.0245595 1 15
1.0594978 -8.2137976 -2.2191145 9 0
1.5417941 -11.969271 0.21065055 14 8
1.2320181 -9.5908413 -2.2324142 16 1
1.6365777 -12.757808 0.67408723 8 9
1.4685645 -11.479833 -2.2496383 19 2
1.4683393 -11.526014 -1.8402953 40 3
1.6276262 -12.812039 1.5857641 8 11
1.4587414 -11.514803 -1.4251401 19 4
1.7019873 -13.453732 2.1478455 7 12
1.4652845 -11.615221 -1.0242543 29 5
1.4301581 -11.384776 -0.60134023 18 6
1.0059056 -8.239996 -2.2242911 9 0
1.4842904 -12.194126 0.21442026 15 8
1.169059 -9.618351 -2.2369132 15 1
1.5611681 -12.881938 0.68005347 8 9
1.3718979 -11.35337 -2.2229249 15 2
1.3991622 -11.630123 -1.8553129 32 3
1.5509082 -12.929523 1.5989259 16 11
1.382691 -11.544175 -1.4275776 31 4
1.6087254 -13.471172 2.1487842 13 12
1.383688 -11.62121 -1.0239056 58 5
1.6346419 -13.790401 -0.72778392 8 6
1.3594402 -11.520301 -0.20248282 14 7
1.2733164 -10.82293 2.9199965 0 15
0.94526613 -8.2199478 -2.2170439 9 0
1.4082335 -12.283658 0.21581645 15 8
1.1025467 -9.6320858 -2.2382631 14 1
1.4053023 -12.315068 0.64959395 10 9
1.2881663 -11.323658 -2.2152925 15 2
1.4668411 -12.995265 1.6057506 8 11
1.4687682 -13.073764 2.0837073 4 12
1.3156072 -11.747408 -1.0341899 44 5
1.6365621 -14.6828 -0.7742582 8 6
1.295297 -11.676587 -0.20506579 14 7
0.88910085 -8.2378702 -2.2201498 9 0
1.3121768 -12.197757 0.21414103 15 8
1.036525 -9.6511745 -2.2409625 14 1
1.3209934 -12.340466 0.65043133 10 9
1.2094988 -11.336279 -2.2160556 18 2
1.4812634 -13.952694 -2.2223082 2 3
1.4387444 -13.597412 1.6788722 12 11
1.230757 -11.651192 -1.4385459 4 4
1.5563666 -14.783009 2.3543391 3 12
1.2326988 -11.728351 -1.0317496 36 5
1.2845345 -12.304153 -0.6483379 17 6
0.83118123 -8.2400331 -2.2191145 9 0
0.9683435 -9.6504192 -2.2391627 15 1
1.2086986 -12.066974 0.63556796 18 9
1.1272372 -11.293456 -2.2061336 18 2
1.3761057 -13.860237 -2.206039 6 3
1.2963203 -13.10315 1.6167189 13 11
1.4911679 -15.126531 -1.8663074 19 4
1.3541447 -13.761172 2.1900828 10 12
1.1474857 -11.702962 -1.0287864 29 5
1.1749712 -12.04823 -0.63441652 17 6
0.77543527 -8.2493458 -2.2201498 9 0
1.1449921 -12.226635 0.21435046 15 8
0.90281504 -9.6587267 -2.2396126 17 1
1.1138704 -11.961763 0.6296016 16 9
1.0501814 -11.3206 -2.20995 18 2
1.4643785 -15.875872 -2.5251653 3 3
1.4679394 -16.006119 -1.9735522 3 4
1.3448471 -14.720441 2.3411984 6 12
1.0686462 -11.742435 -1.0315753 29 5
1.3471148 -14.888665 -0.78346932 17 6
0.71815985 -8.2584085 -2.2211852 9 0
1.032692 -11.923541 0.20890529 14 8
0.83334869 -9.6414957 -2.2342138 20 1
1.0008731 -11.626986 0.61159807 14 9
0.97682476 -11.394162 -2.2229249 18 2
1.3712846 -16.094341 -2.5583293 13 3
1.1053573 -13.027006 1.6052631 3 11
1.103617 -13.087832 2.0802658 3 12
0.9838084 -11.715858 -1.0286121 36 5
1.0415149 -12.481433 -0.65639764 17 6
0.66141242 -8.2747765 -2.2242911 9 0
0.91071796 -11.444071 0.20038854 13 8
0.76416826 -9.6237679 -2.2288151 14 1
0.94218636 -11.918409 0.62656611 9 9
0.89109331 -11.322415 -2.2076602 19 2
1.253503 -16.034595 -2.547379 14 3
1.0153104 -13.046282 1.6067256 15 11
1.0572817 -13.678189 2.1728749 15 12
0.90312028 -11.710362 -1.0275662 36 5
1.5306777 -20.030031 -1.0527902 19 6
0.9392854 -12.376519 -0.21665418 24 7
0.60447025 -8.2907515 -2.2273967 9 0
0.69921398 -9.6599665 -2.2360134 19 1
0.86233443 -11.942476 0.62750816 5 9
0.81541163 -11.3478 -2.2114763 22 2
1.1540295 -16.178713 -2.5689671 10 3
0.97398984 -13.722167 1.6891092 12 11
1.3749193 -19.466949 -2.3961952 23 4
1.0031646 -14.238778 2.2607911 4 12
0.82301646 -11.740232 -1.0296578 36 5
0.54700494 -8.279253 -2.2232556 9 0
0.80451143 -12.241725 0.21414103 30 8
0.63420916 -9.6761703 -2.238713 18 1
1.0102173 -15.495796 0.81382424 2 9
0.73794776 -11.380646 -2.216819 19 2
1.0262755 -15.870105 1.3913542 8 10
1.0399115 -16.168634 -2.5661514 4 3
0.86676246 -13.550339 1.6671727 15 11
0.93813002 -14.787574 2.3468301 4 12
0.73789787 -11.695982 -1.0253001 29 5
1.0297563 -16.459187 -0.86427605 17 6
0.48942032 -8.286727 -2.2242911 9 0
0.68035215 -11.588278 0.20262244 13 8
0.5684644 -9.7114878 -2.2459114 16 1
0.85897022 -14.762737 0.77499092 10 9
0.6643737 -11.487437 -2.2366631 15 2
0.85432643 -14.8167 1.2984462 4 10
0.92983335 -16.224802 -2.5739729 6 3
0.82000601 -14.396377 1.7705179 3 11
0.65824884 -11.592132 -1.4256277 10 4
0.83798683 -14.848986 2.3555903 3 12
0.65578169 -11.692891 -1.0246029 14 5
0.8600924 -15.480848 -0.81256813 8 6
0.68204743 -12.393356 -0.21665418 24 7
0.43195781 -8.2976589 -2.2263615 9 0
0.59076011 -11.424994 0.19969043 13 8
0.50005096 -9.7035418 -2.2432117 14 1
0.5944792 -11.614837 0.60950464 4 9
0.58196872 -11.448661 -2.2282674 13 2
0.55017108 -10.860536 0.95139205 7 10
0.81932318 -16.28614 -2.5827332 12 3
0.65906304 -13.192351 1.6218374 8 11
1.2806506 -25.724716 -3.1625097 5 4
0.73732615 -14.915636 2.3652894 3 12
0.57491672 -11.713103 -1.0259974 21 5
0.77272654 -15.913385 -0.83496791 17 6
0.3747144 -8.3159103 -2.2305026 9 0
0.53295916 -11.920275 0.20827703 14 8
0.43194851 -9.6990099 -2.2414124 19 1
0.49133828 -11.119876 0.58333665 16 9
0.50271559 -11.468135 -2.2313204 13 2
0.48676449 -11.148753 0.9763186 10 10
0.70150167 -16.196733 -2.5677156 22 3
0.5609827 -13.057803 1.6047755 6 11
1.1010332 -25.733028 -3.1625097 7 4
0.60989392 -14.371758 2.278312 1 12
0.49312982 -11.716832 -1.0259974 14 5
0.52550334 -12.538114 2.4393022 15 13
0.68234825 -16.417276 -0.8611359 17 6
0.43449134 -10.587475 -0.1849606 12 7
0.31620935 -8.3067417 -2.2273967 9 0
0.44460183 -11.787822 0.20590349 13 8
0.36510459 -9.7251577 -2.2468112 22 1
0.41622013 -11.190895 0.58689547 8 9
0.42292985 -11.479213 -2.232847 19 2
0.4209674 -11.480402 1.00508 7 10
0.59679848 -16.432203 -2.6043212 12 3
0.47109434 -13.09711 1.6091629 3 11
0.41413084 -11.569649 -1.4214841 2 4
0.43684307 -12.324539 1.953241 4 12
0.41252297 -11.696023 -1.0239056 14 5
0.44289121 -12.682746 2.4667788 2 13
0.34872776 -10.242505 -0.17888717 17 7
0.26000988 -8.3666735 -2.2429259 9 0
0.36608508 -11.846539 0.20688082 14 8
0.29862955 -9.7742176 -2.2576087 19 1
0.3438583 -11.319238 0.59348977 14 9
0.34183836 -11.383707 -2.2137661 24 2
0.33584517 -11.315774 0.99043781 6 10
0.338826 -11.483795 -1.819646 31 3
0.32234722 -11.056236 1.358112 8 11
0.35537469 -12.412132 1.9666944 3 12
0.32669115 -11.551241 -1.0110066 29 5
0.35450262 -12.691417 2.4679236 8 13
0.30541101 -11.002657 -0.57684696 29 6
0.28035033 -10.360629 -0.18091165 11 7
0.20099263 -8.2832727 -2.2201498 9 0
0.28184178 -11.784835 0.20576388 13 8
0.23098148 -9.7292671 -2.2468112 23 1
0.27075848 -11.574945 0.60678315 6 9
0.26208541 -11.37404 -2.2114763 18 2
0.30363569 -13.277798 1.1619604 3 10
0.25828993 -11.47008 -1.817143 56 3
0.24656154 -11.121725 1.3659117 14 11
0.25204125 -11.459152 -1.4073473 50 4
0.29992062 -13.855998 2.1950886 21 12
0.24459803 -11.485514 -1.00508 49 5
0.27246109 -12.899632 2.5079937 12 13
0.22543813 -10.852762 -0.56889194 40 6
0.21322292 -10.530238 -0.18384364 30 7
0.14469598 -8.3733263 -2.2439611 9 0
0.20815982 -12.294366 0.21462969 15 8
0.16403343 -9.7890968 -2.2603083 16 1
0.18437333 -11.237064 0.5889889 6 9
0.18298985 -11.395223 -2.2152925 24 2
0.18416186 -11.594244 1.0144928 1 10
0.17740962 -11.42025 -1.8090084 40 3
0.18256523 -12.022319 1.4763253 17 11
0.17173719 -11.440784 -1.40491 42 4
0.17804331 -12.143311 1.9235184 6 12
0.16418132 -11.471004 -1.0036855 64 5
0.18115065 -12.812881 2.4908209 30 13
0.14972115 -10.858065 -0.56910127 30 6
0.14203691 -10.707427 -0.18691526 18 7
0.086792633 -8.4282217 -2.2584553 9 0
0.11337192 -11.395701 0.19892253 13 8
0.094775587 -9.6964693 -2.238713 17 1
0.10334054 -10.964465 0.57464886 18 9
0.10336182 -11.38837 -2.2137661 13 2
0.11307462 -12.702972 1.11141 11 10
0.14229406 -16.637991 -2.6352954 10 3
0.10141512 -12.36274 1.5180047 13 11
0.20220953 -25.186039 -3.0925567 12 4
0.10505109 -13.679081 2.1666176 9 12
0.091120981 -12.733342 2.4751744 6 13
0.069755182 -10.247699 -0.53707159 10 6
0.065825328 -10.476198 -0.18286632 24 7
0.028027304 -8.4518042 -2.2646666 9 0
0.026894135 -9.6306372 -2.2234163 21 1
0.029433364 -11.242534 0.58919823 22 9
0.025783183 -11.363287 -2.2088051 12 2
0.020295613 -10.5716 0.92489672 11 10
0.029015191 -16.624744 -2.6331053 16 3
0.017206674 -12.323442 1.5131298 15 11
0.025757285 -24.593296 -3.0196788 14 4
0.012325788 -14.12394 2.2370131 3 12
-4.4777693e-07 -10.243942 -0.53686231 32 6
-0.007149192 -10.240438 -0.17874755 23 7
-0.029488577 -8.4479361 -2.2636313 9 0
-0.043897197 -11.432175 0.19955082 13 8
-0.038815591 -9.6695709 -2.2324142 16 1
-0.047434095 -10.870977 0.56972927 2 9
-0.053686921 -11.39264 -2.2145293 15 2
-0.053940699 -11.037706 0.96568567 8 10
-0.087997682 -16.806274 -2.6618891 16 3
-0.05979047 -10.705436 1.3144828 11 11
-0.14674407 -25.478239 -3.1283865 17 4
-0.079122528 -12.952304 2.0514817 7 12
-0.083618954 -12.607742 2.4507508 14 13
-0.07285399 -10.435425 -0.54691082 31 6
-0.096818157 -13.529757 3.1236703 5 14
-0.080394126 -10.712068 -0.18698509 25 7
-0.088506021 -8.4513874 -2.2646666 9 0
-0.12230742 -11.487599 0.20052816 13 8
-0.10653525 -9.6885509 -2.2369132 15 1
-0.11591791 -10.37711 0.54387528 12 9
-0.13109602 -11.380231 -2.2122397 18 2
-0.13014586 -10.96534 0.95941037 12 10
-0.20391302 -16.931702 -2.6819129 11 3
-0.13472508 -10.871516 1.3349569 6 11
-0.32420442 -25.444832 -3.1244864 17 4
-0.15388902 -11.914479 1.8872255 3 12
-0.17852934 -13.113323 2.5492084 9 13
-0.14228694 -10.318856 -0.54083985 32 6
-0.14669743 -8.4892206 -2.2750194 9 0
-0.17617112 -9.9929256 0.17445426 29 8
-0.17282654 -9.7070856 -2.2414124 14 1
-0.18662092 -10.280196 0.53885108 21 9
-0.20981546 -11.339781 -2.2046072 18 2
-0.19309779 -10.338699 0.90467656 13 10
-0.32673562 -17.172792 -2.7203958 12 3
-0.20215915 -10.433673 1.2813344 9 11
-0.50515503 -25.838982 -3.1732342 18 4
-0.22641343 -11.377893 1.8024381 15 12
-0.26101017 -12.780084 2.4847147 6 13
-0.21232924 -10.221765 -0.5358156 32 6
-0.30869651 -14.737038 3.4030595 4 14
-0.21760836 -10.218127 -0.17839849 11 7
-0.20577236 -8.4802656 -2.272949 9 0
-0.26456022 -10.82512 0.18900958 11 8
-0.24088031 -9.7173319 -2.2441118 15 1
-0.25549406 -10.234762 0.53654832 8 9
-0.28838784 -11.393044 -2.2152925 15 2
-0.26567972 -10.353033 0.90607113 15 10
-0.44555652 -17.245213 -2.7322848 13 3
-0.27426437 -10.473727 1.2864529 3 11
-0.65130621 -24.54497 -3.0148041 2 4
-0.30496144 -11.417556 1.8090084 21 12
-0.31741247 -11.580816 2.2519279 6 13
-0.31108874 -11.278227 -0.59129167 19 6
-0.26545349 -8.4940691 -2.2770901 7 0
-0.31801385 -10.063443 0.17574574 10 8
-0.30846664 -9.7076216 -2.2423122 14 1
-0.34231988 -10.655872 0.55873871 10 9
-0.37022579 -11.400498 -2.2172008 12 2
-0.33768848 -10.34296 0.90537381 17 10
-0.5652355 -17.129047 -2.7144513 16 3
