# .PCD v0.7 - Point Cloud Data file format
VERSION 0.7
FIELDS x y z intensity ring
SIZE 4 4 4 4 2
TYPE F F F F U
COUNT 1 1 1 1 1
WIDTH 1289
HEIGHT 1
VIEWPOINT 0 0 0 1 0 0 0
POINTS 1289
DATA ascii
3.5402105 -6.3448582 -1.9468369 4 0
2.7036037 -4.8514371 -1.282221 18 1
2.7928689 -5.0198569 -1.1166143 4 2
2.8170638 -5.0695901 -0.91858327 1 3
7.6100774 -13.712005 -1.9255358 24 4
7.6477547 -13.802592 -1.3805469 55 5
3.4921117 -6.3626442 -1.9447664 4 0
2.6771622 -4.8838639 -1.2858201 4 1
2.799226 -5.1150098 -1.1334054 4 2
2.8138149 -5.1480675 -0.9292208 1 3
7.4989448 -13.736919 -1.921636 31 4
7.5311856 -13.818909 -1.3768864 68 5
3.4916539 -6.4684682 -1.969613 4 0
2.813693 -5.2277808 -1.1540129 4 2
2.7815478 -5.1745458 -0.93047231 7 3
7.3746929 -13.736468 -1.9143238 23 4
7.4110007 -13.827249 -1.3725287 40 5
3.518872 -6.6291947 -2.011024 5 0
2.8129444 -5.3149695 -1.168896 25 2
2.7896645 -5.2776661 -0.94549 3 3
7.2656403 -13.763041 -1.9109114 29 4
7.2892065 -13.831059 -1.3678223 67 5
3.4894886 -6.6861401 -2.0208592 6 0
5.1401138 -9.8782768 -2.1645374 10 2
5.7824197 -11.126883 -1.9860923 9 3
7.242538 -13.954383 -1.9304106 21 4
7.2398219 -13.96703 -1.3763635 27 5
3.4339068 -6.69315 -2.0156829 6 0
5.0745454 -9.9165297 -2.1653006 12 2
5.5752993 -10.909173 -1.9404132 1 3
7.2026777 -14.117773 -1.9460098 25 4
3.3804381 -6.7008452 -2.011024 7 0
2.6357248 -5.2314529 -1.3524057 5 1
5.0087199 -9.9587317 -2.1668272 10 2
5.5273776 -11.004316 -1.9504251 12 3
5.491807 -10.947786 -1.5038677 16 4
5.4739909 -10.931305 -1.0695752 15 5
3.3344338 -6.7260122 -2.0115416 6 0
3.9531803 -7.9846134 -2.0569522 12 1
4.9564714 -10.028656 -2.1744595 12 2
6.6307306 -13.433969 -2.3727982 4 3
10.171354 -20.634544 -2.824688 14 4
3.2933178 -6.7612839 -2.0151651 7 0
3.9050138 -8.0277891 -2.0610015 14 1
4.8811922 -10.052419 -2.1721697 10 2
5.9610224 -12.292617 -2.1638019 4 3
10.021861 -20.69433 -2.8232253 17 4
3.2443674 -6.7806263 -2.0141299 7 0
3.8471935 -8.0513382 -2.0601017 14 1
4.817728 -10.096041 -2.1744595 10 2
5.7684379 -12.104651 -2.1237545 9 3
9.8924923 -20.796059 -2.8276129 17 4
3.1981387 -6.8025522 -2.0141299 7 0
3.8130066 -8.121439 -2.0713491 16 1
4.7554584 -10.147206 -2.1782756 10 2
6.319324 -13.50258 -2.361222 8 3
9.6977587 -20.749615 -2.8122571 18 4
3.1505699 -6.8247137 -2.0141299 7 0
3.7635581 -8.1637888 -2.0753984 14 1
4.6787572 -10.167674 -2.1756043 10 2
6.0005536 -13.058146 -2.2761219 8 3
9.6387672 -21.004448 -2.837606 14 4
3.1060381 -6.8535805 -2.0162005 9 0
3.7032583 -8.1827621 -2.0735989 14 1
4.606853 -10.198299 -2.1752226 10 2
5.5737796 -12.35605 -2.1469069 3 3
9.4935255 -21.074848 -2.8380935 14 4
3.0534055 -6.8645067 -2.0130947 9 0
3.6428783 -8.201292 -2.071799 15 1
4.4831982 -10.107388 -2.1492727 10 2
5.0287495 -11.353369 -1.9666944 2 3
9.4778023 -21.438364 -2.8780668 14 4
3.0112481 -6.8957539 -2.0162005 7 0
3.5947595 -8.2437611 -2.0762982 15 1
4.4650216 -10.259048 -2.1748412 10 2
4.9477911 -11.384577 -1.9660686 24 3
9.4069023 -21.686125 -2.9024405 13 4
2.9709513 -6.9384365 -2.0224121 9 0
3.5456364 -8.2925682 -2.0821469 16 1
4.3732476 -10.243025 -2.1649189 10 2
4.8483887 -11.377893 -1.9588726 19 3
9.2342901 -21.701948 -2.8958595 17 4
2.9209433 -6.9554462 -2.0213768 7 0
3.4891641 -8.3207121 -2.0830467 16 1
4.3293982 -10.344687 -2.1798022 10 2
4.7551293 -11.378657 -1.953241 19 3
4.7855248 -11.468264 -1.5258043 7 4
2.8796711 -6.9935312 -2.0265532 9 0
3.4309893 -8.3448687 -2.0830467 16 1
4.2834888 -10.43385 -2.1923954 10 2
4.6670775 -11.38517 -1.9488608 20 3
8.9627047 -21.907768 -2.9063404 15 4
2.8363402 -7.0237188 -2.029659 7 0
3.3617208 -8.3373051 -2.0753984 15 1
4.1951528 -10.425253 -2.1843815 10 2
4.5742254 -11.384482 -1.9432292 21 3
8.8133755 -21.968267 -2.9063404 15 4
2.7915032 -7.0541267 -2.0327649 9 0
3.3105953 -8.3786936 -2.0798974 15 1
4.115447 -10.431651 -2.1798022 10 2
4.4893875 -11.396975 -1.9401004 19 3
8.6583433 -22.025564 -2.905853 15 4
19.027758 -48.553101 -2.7329838 0 6
2.7420254 -7.0693617 -2.0317297 7 0
3.2563014 -8.4083033 -2.0816972 15 1
4.028368 -10.423503 -2.1721697 12 2
4.3997564 -11.402238 -1.9357203 8 3
4.4867616 -11.645868 -1.5323852 5 4
18.586691 -48.419983 -2.7181203 0 6
2.6980927 -7.1027794 -2.0358706 7 0
3.1989045 -8.4344749 -2.0825968 15 1
3.944381 -10.421992 -2.1660638 12 2
4.3123689 -11.412349 -1.9322786 20 3
8.3538389 -22.142849 -2.905853 15 4
2.6444011 -7.110579 -2.0327649 7 0
3.138587 -8.4529486 -2.0816972 15 1
3.8687973 -10.441912 -2.1645374 10 2
4.215457 -11.39586 -1.9244571 16 3
8.1832342 -22.157799 -2.9002469 11 4
2.5960169 -7.1324973 -2.0338001 7 0
3.0788324 -8.4728222 -2.0812473 16 1
3.8091896 -10.505581 -2.1721697 10 2
4.1277275 -11.402722 -1.9207026 18 3
8.0276699 -22.212523 -2.9000032 15 4
2.5591202 -7.1868458 -2.044153 9 0
3.016995 -8.4867649 -2.0794475 16 1
3.7620075 -10.605928 -2.1874344 10 2
4.0414281 -11.41264 -1.9175739 18 3
4.0725021 -11.519557 -1.5002117 9 4
16.261553 -46.177174 -2.5657182 0 6
2.5101566 -7.2081852 -2.0451882 9 0
2.9512734 -8.4892139 -2.0749483 17 1
3.6910155 -10.635 -2.1881976 10 2
3.9584777 -11.424953 -1.9150709 18 3
7.7634487 -22.457523 -2.9175522 15 4
2.4660168 -7.2397332 -2.0493293 9 0
2.9053414 -8.5441599 -2.0834966 15 1
3.637495 -10.721861 -2.2007911 10 2
3.865947 -11.41489 -1.9088136 21 3
7.626812 -22.571356 -2.9253521 15 4
15.368382 -45.639866 -2.5238495 0 6
2.4080496 -7.2388635 -2.044153 9 0
2.8465843 -8.5721292 -2.0852964 15 1
3.5761454 -10.787992 -2.2091868 10 2
3.8313057 -11.584798 -1.9325917 15 3
7.4603391 -22.597662 -2.9219396 15 4
2.3586481 -7.2591734 -2.0451882 9 0
2.7764492 -8.5602808 -2.0776479 21 1
3.4831424 -10.764741 -2.1992648 15 2
3.8499079 -11.919541 -1.9839021 15 3
7.3298097 -22.734211 -2.9329081 18 4
2.3090811 -7.2791452 -2.0462234 9 0
2.7307382 -8.6240435 -2.0884457 19 1
3.3954871 -10.749481 -2.1912506 10 2
4.2596264 -13.509808 -2.2435834 3 3
7.1977329 -22.870037 -2.9438763 15 4
13.911426 -44.391415 -2.4380186 0 6
2.2582078 -7.2950878 -2.0462234 9 0
2.6727667 -8.6503448 -2.0902452 18 1
3.3492734 -10.866733 -2.2103314 10 2
3.9485528 -12.834973 -2.1268833 2 3
7.0775189 -23.048771 -2.9604504 15 4
2.2094567 -7.3180728 -2.0482941 9 0
2.6190586 -8.6911831 -2.095644 17 1
3.2661803 -10.859198 -2.2042258 12 2
3.9792368 -13.25508 -2.1919601 9 3
6.9648385 -23.25926 -2.9811683 9 4
13.288914 -44.548374 -2.4363437 0 6
2.1585023 -7.329236 -2.0472586 9 0
2.5499482 -8.6751566 -2.0875459 20 1
3.1908431 -10.883619 -2.2046072 13 2
3.8277993 -13.081573 -2.1587958 6 3
6.820827 -23.355671 -2.9875054 11 4
2.1094131 -7.3515549 -2.0493293 9 0
2.4785922 -8.6552782 -2.0785477 22 1
3.1169398 -10.91318 -2.2061336 16 2
3.1158156 -10.930914 -1.800248 18 3
3.1036618 -10.90994 -1.392723 19 4
2.0611575 -7.3772655 -2.0524352 9 0
2.422817 -8.6892643 -2.0825968 24 1
3.0480404 -10.961155 -2.2114763 13 2
3.7150338 -13.386901 -2.2004075 8 3
6.517911 -23.534716 -2.9984736 11 4
2.0085914 -7.3877468 -2.0513999 9 0
2.3748527 -8.752986 -2.0938444 17 1
2.9754119 -10.989229 -2.2130029 13 2
3.6521649 -13.516763 -2.2176151 4 3
6.3668771 -23.62948 -3.0048108 16 4
11.042528 -41.15379 -2.2330709 0 6
1.959246 -7.4049826 -2.0524352 9 0
2.2973096 -8.7011175 -2.0776479 21 1
2.9081185 -11.045806 -2.2202537 12 2
3.4834266 -13.259171 -2.1713107 2 3
6.2245145 -23.74332 -3.0138292 9 4
10.712605 -41.067539 -2.2242785 0 6
1.9007667 -7.3922868 -2.0451882 7 0
2.2539437 -8.7848978 -2.0938444 18 1
2.8241212 -11.039211 -2.214911 12 2
3.400058 -13.319531 -2.1772552 8 3
6.043416 -23.726561 -3.0062733 14 4
1.8519223 -7.4166217 -2.0482941 9 0
2.1869073 -8.7777271 -2.0884457 17 1
2.7592912 -11.108197 -2.224833 10 2
3.3549836 -13.536597 -2.2088549 4 3
5.9095545 -23.897287 -3.0226038 11 4
9.6448526 -39.207729 -2.1160476 0 6
1.8046486 -7.4481449 -2.0534704 9 0
2.120079 -8.770051 -2.0830467 20 1
2.6692548 -11.075658 -2.2145293 10 2
3.2123716 -13.359943 -2.1763165 11 3
5.7541556 -23.986217 -3.0286973 7 4
1.7486305 -7.4436364 -2.0488117 10 0
2.0605795 -8.7922277 -2.0848465 19 1
2.5963347 -11.113139 -2.2183454 10 2
3.31587 -14.226598 -2.3136661 5 3
3.276587 -14.091427 -1.7763678 3 4
9.1369896 -39.513702 -2.1254683 0 6
1.6987658 -7.4650812 -2.0513999 9 0
2.0017366 -8.8178015 -2.0875459 18 1
2.5134876 -11.108017 -2.2137661 9 2
3.2086394 -14.214716 -2.3080344 4 3
5.4300327 -24.114573 -3.0350344 14 4
8.8041801 -39.323154 -2.1118608 0 6
1.6466084 -7.476759 -2.0513999 9 0
1.9443102 -8.8505936 -2.0920448 15 1
2.430419 -11.100362 -2.2088051 10 2
2.8753977 -13.165684 -2.1343923 9 3
5.2729583 -24.204264 -3.0416155 11 4
8.5040731 -39.266541 -2.1055803 0 6
1.595176 -7.4918509 -2.0524352 9 0
1.8751882 -8.8296404 -2.0839467 20 1
2.2914846 -10.827031 -2.1511807 10 2
2.6793723 -12.692577 -2.0546105 5 3
5.1308455 -24.36869 -3.0577023 12 4
8.2853775 -39.590816 -2.1198158 0 6
1.5441444 -7.5025353 -2.0524352 9 0
1.8150433 -8.8422003 -2.0839467 18 1
2.2869766 -11.180901 -2.2183454 18 2
2.6051559 -12.770523 -2.0643096 2 3
4.9707932 -24.432226 -3.0613582 15 4
7.9856186 -39.497517 -2.1118608 0 6
1.4917293 -7.5131326 -2.0524352 9 0
1.7517558 -8.8470087 -2.0821469 14 1
2.1898644 -11.100289 -2.1992648 10 2
2.5342422 -12.881432 -2.0793271 9 3
4.8153901 -24.544252 -3.0711076 15 4
7.8098011 -40.065922 -2.1392848 0 6
1.4377894 -7.5157738 -2.0503645 9 0
1.6928705 -8.8743362 -2.085746 16 1
2.1020548 -11.061301 -2.1885793 19 2
2.828213 -14.925047 -2.4059625 24 3
4.6520357 -24.620184 -3.0764699 15 4
7.3810573 -39.32642 -2.0969973 0 6
1.3845857 -7.5218282 -2.0493293 9 0
1.6315781 -8.8897715 -2.0866458 16 1
2.0419102 -11.158395 -2.204989 10 2
4.4945936 -24.732141 -3.0864635 12 4
7.1600718 -39.635189 -2.1108139 0 6
1.3333541 -7.5310783 -2.0493293 9 0
1.5689985 -8.8891582 -2.0839467 17 1
1.9602224 -11.151108 -2.2007911 10 2
2.6085215 -14.884793 -2.3934476 6 3
4.3415165 -24.850155 -3.0974314 17 4
1.2807448 -7.5402036 -2.0493293 9 0
1.5101552 -8.9191084 -2.0884457 17 1
1.8787191 -11.131283 -2.1943038 12 2
2.6100523 -15.513875 -2.4916885 6 3
4.1800623 -24.952299 -3.1064498 12 4
1.2300125 -7.5525599 -2.0503645 9 0
1.4531577 -8.9522638 -2.0938444 15 1
1.7856151 -11.04916 -2.1756043 15 2
2.23876 -13.899367 -2.2298172 5 3
4.016098 -25.017412 -3.1110809 17 4
1.1736891 -7.5380569 -2.044153 9 0
1.3942093 -8.9852991 -2.0992434 14 1
1.7276142 -11.185533 -2.2000279 9 2
2.1305528 -13.84242 -2.218241 3 3
3.8440571 -25.0625 -3.1132746 12 4
1.1199013 -7.5384231 -2.0420823 7 0
1.3397212 -9.0507164 -2.1122904 13 1
1.5842482 -10.754478 -2.113019 10 2
2.0786133 -14.161848 -2.2670486 3 3
3.6715794 -25.106403 -3.115468 17 4
1.0704923 -7.5690117 -2.0482941 9 0
1.2781361 -9.0714273 -2.1149898 14 1
1.5993445 -11.40882 -2.2393346 10 2
2.0078368 -14.377522 -2.299274 8 3
3.50442 -25.190407 -3.1227803 17 4
1.0165958 -7.5686421 -2.0462234 9 0
1.2116736 -9.0569515 -2.109591 14 1
1.5162917 -11.394409 -2.2343736 13 2
1.8734131 -14.134659 -2.2582881 2 3
3.327956 -25.210323 -3.1222928 17 4
0.9651947 -7.5870533 -2.0493293 9 0
1.1435163 -9.0265236 -2.1005929 15 1
1.4305885 -11.340188 -2.2217801 10 2
1.7939022 -14.280361 -2.2795632 3 3
3.1708224 -25.384617 -3.1410608 13 4
0.91260678 -7.5857749 -2.0472586 9 0
1.0778775 -8.9992685 -2.0924947 15 1
1.2843024 -10.786498 -2.1114926 9 2
1.5876671 -13.394105 -2.1362693 9 3
2.9942386 -25.374067 -3.1371608 13 4
3.9721115 -34.017883 -1.7949141 13 6
0.85832173 -7.5804443 -2.044153 9 0
1.0145881 -9.0027027 -2.0915949 15 1
1.2882843 -11.503434 -2.2500198 10 2
1.7669936 -15.852997 -2.526417 9 3
2.8181188 -25.404219 -3.1383796 15 4
3.6844351 -33.588154 -1.7708396 7 6
0.80619687 -7.5939355 -2.0462234 9 0
0.94925618 -8.986311 -2.0861959 15 1
1.2030281 -11.465286 -2.2408609 12 2
1.3346608 -12.784298 -2.0358384 5 3
2.6349528 -25.367989 -3.1315548 15 4
3.4143744 -33.267349 -1.7526268 7 6
0.75430477 -7.6109133 -2.0493293 9 0
0.88649887 -8.9927187 -2.0861959 15 1
1.0569786 -10.799305 -2.1092029 19 2
1.3772467 -14.147936 -2.2514052 2 3
2.4497521 -25.30278 -3.1213179 15 4
3.1736798 -33.202896 -1.7480211 8 6
0.70079798 -7.6121464 -2.0482941 9 0
0.82547259 -9.0180941 -2.0906951 14 1
1.0192106 -11.220924 -2.1901057 10 2
1.3539474 -14.993338 -2.3843744 8 3
2.2666585 -25.248087 -3.1125433 15 4
2.9703474 -33.546535 -1.7649781 7 6
0.6466561 -7.6053042 -2.0451882 9 0
0.76315057 -9.0314045 -2.0924947 14 1
0.90707743 -10.824749 -2.1114926 16 2
1.2379324 -14.866594 -2.3627865 9 3
2.0973804 -25.348364 -3.123024 12 4
2.7493815 -33.729687 -1.773561 7 6
0.59324574 -7.6057811 -2.044153 9 0
0.70158732 -9.0559425 -2.0969937 14 1
0.83313727 -10.852349 -2.1156902 12 2
1.1353153 -14.890632 -2.3652894 9 3
1.9217131 -25.380205 -3.1252177 15 4
2.5209584 -33.843666 -1.7785853 7 6
0.54122806 -7.6251535 -2.0482941 9 0
0.63903254 -9.0703392 -2.0992434 16 1
0.75637358 -10.816641 -2.1076763 18 2
0.75192654 -10.83456 -1.7201536 24 3
0.74339676 -10.821039 -1.3317883 19 4
2.2749002 -33.628887 -1.7664434 7 6
0.48881802 -7.6209488 -2.0462234 9 0
0.57455593 -9.0316935 -2.0893452 20 1
0.70192063 -11.156713 -2.1729329 4 2
1.5691156 -25.436264 -3.1291175 13 4
2.017586 -33.27314 -1.7469743 16 6
0.43558955 -7.6473966 -2.0524352 9 0
0.5141952 -9.1114521 -2.1068916 13 1
0.61809832 -11.05549 -2.1523256 10 2
1.6078986 -28.940651 2.5358834 9 10
0.80035424 -14.496943 -2.299587 9 3
1.3919384 -25.454529 -3.1300926 15 4
1.7781619 -33.262794 -1.7457184 8 6
0.3806487 -7.61938 -2.044153 9 0
0.44961172 -9.0953579 -2.1023927 15 1
0.54432273 -11.169442 -2.173696 6 2
0.6968441 -14.454823 -2.292078 2 3
1.2089064 -25.445988 -3.1278987 12 4
1.5451589 -33.258434 -1.7448809 8 6
0.32661235 -7.6334891 -2.0472586 9 0
0.38484338 -9.1061287 -2.104192 14 1
0.44807503 -10.735544 -2.0885954 9 2
0.54333329 -13.239683 -2.0987251 3 3
1.0301055 -25.426039 -3.1244864 12 4
1.1647314 -29.644415 -1.5547968 12 6
0.27597773 -7.6354876 -2.0472586 9 0
0.32347149 -9.0812159 -2.0978935 15 1
0.99750149 -28.281578 1.4830965 7 9
0.40575525 -11.619311 -2.2599418 10 2
1.0593086 -30.48708 2.6688831 12 10
0.45510623 -13.231151 -2.0968478 2 3
1.0929867 -32.10218 3.9439363 9 11
0.86199099 -25.448185 -3.1264365 12 4
1.0990996 -33.663841 -1.7651873 15 6
0.22266524 -7.637228 -2.0472586 9 0
0.2603994 -9.0949411 -2.1005929 14 1
0.86045069 -30.424067 1.5950954 17 9
0.3174462 -11.364774 -2.20995 10 2
0.80614132 -29.041838 2.54181 3 10
0.36369848 -13.269549 -2.1024795 7 3
0.69273722 -25.767115 -3.164947 10 4
0.85145456 -33.179523 -1.7394379 8 6
0.16934282 -7.6385965 -2.0472586 9 0
0.19715253 -9.1082268 -2.1032922 14 1
0.64454269 -30.265593 1.5865123 8 9
0.22449084 -10.717018 -2.0836341 6 2
0.66841745 -32.178123 2.8158278 2 10
0.34268951 -16.779301 -2.6581347 12 3
0.64554042 -32.157974 3.9492984 9 11
0.51899314 -26.080936 -3.2029705 13 4
0.55393112 -29.658119 -1.5545874 12 6
0.1157179 -7.6202765 -2.0420823 9 0
0.13344602 -9.1015863 -2.1014926 14 1
0.46130571 -32.230465 1.6893001 6 9
0.15539548 -11.128605 -2.1633925 9 2
0.39919865 -28.950653 2.5330944 3 10
0.17764956 -13.218028 -2.0937192 7 3
0.39324278 -30.039816 3.6887417 15 11
0.33729202 -26.113699 -3.2066267 16 4
0.38951468 -33.30801 -1.7457184 8 6
0.062484737 -7.6170349 -2.0410471 9 0
0.069932744 -9.1061945 -2.1023927 14 1
0.21514601 -29.348932 1.5381539 17 9
0.080632478 -11.549544 -2.2450588 10 2
0.22246623 -32.6824 2.8594055 2 10
0.085059837 -13.171537 -2.0862103 10 3
0.1839159 -30.107336 3.696785 3 11
0.15536453 -26.180925 -3.2146699 13 4
0.15768676 -33.461712 -1.7536734 7 6
0.0093015684 -7.6134219 -2.0400119 9 0
0.0063360455 -9.0752811 -2.0951941 14 1
0.0019349938 -11.082572 -2.1542337 10 2
-0.0050334535 -28.853785 2.5243788 3 10
-0.0058663334 -16.810455 -2.6625149 12 3
-0.027435277 -26.199236 -3.2168636 16 4
-0.036805514 -30.126448 4.7715645 3 12
-0.042542342 -7.6171722 -2.0410471 9 0
-0.055342469 -9.0595245 -2.0915949 14 1
-0.17642397 -27.319937 1.4318073 7 9
-0.073231041 -10.758385 -2.0912669 6 2
-0.12082162 -16.482103 -2.6105788 11 3
-0.2057956 -26.202414 -3.217351 19 4
-0.24561992 -29.941755 4.7424679 11 12
-0.095622092 -7.608963 -2.0389764 9 0
-0.11848543 -9.0511236 -2.0897954 14 1
-0.36246067 -27.324097 1.4321213 36 9
-0.14637803 -10.751748 -2.0901217 9 2
-0.44258338 -31.695827 2.7732956 5 10
-0.23418002 -16.563854 -2.6237192 10 3
-0.38807005 -26.15667 -3.2119887 19 4
-0.46415365 -30.921041 4.8979635 7 12
-0.73742586 -46.426426 -2.4334128 0 6
-0.14711316 -7.5926843 -2.0348353 9 0
-0.18117744 -9.104661 -2.1023927 13 1
-0.22204226 -10.779906 -2.0958462 12 2
-0.58809876 -28.311724 2.477489 15 10
-0.26688483 -12.635643 -2.0017357 12 3
-0.66393256 -30.922596 3.7976928 3 11
-0.57222748 -26.224768 -3.2207632 16 4
-0.20144048 -7.5914369 -2.0348353 9 0
-0.24474177 -9.0446892 -2.0888956 15 1
-0.77819121 -28.392361 1.4885395 8 9
-0.29745591 -10.783981 -2.0969911 21 2
-0.88820195 -31.79809 2.783057 2 10
-0.4658573 -16.472006 -2.6099527 7 3
-0.83891541 -29.480583 3.6212258 11 11
-0.75437933 -26.188387 -3.2168636 19 4
-0.88959932 -30.512533 4.8347645 11 12
-0.90341759 -30.085133 -1.5774059 11 6
-0.25391507 -7.5743995 -2.0306942 9 0
-0.30907217 -9.0778179 -2.0969937 14 1
-0.97776139 -28.426157 1.4906329 8 9
-0.37407127 -10.765881 -2.0939381 21 2
-1.0165076 -29.108999 2.5482595 12 10
-0.44012272 -12.478598 -1.9776447 4 3
-1.1658821 -32.731281 4.0214448 5 11
-0.93974358 -26.253899 -3.2256379 16 4
-1.0563594 -29.226368 4.6320248 16 12
-1.1171201 -30.177889 -1.5826395 11 6
-0.30710101 -7.5801635 -2.0327649 9 0
-0.37451729 -9.1260633 -2.1086912 13 1
-0.44717944 -10.759162 -2.0931747 24 2
-1.3064719 -31.171461 2.7295434 5 10
-0.70289141 -16.700855 -2.6474974 10 3
-1.3268689 -31.266838 3.8425407 6 11
-1.126232 -26.322063 -3.2349 16 4
-1.2506909 -29.111929 4.6151299 31 12
-1.2787718 -29.171913 -1.5303035 11 6
-0.35786754 -7.5605302 -2.0281062 10 0
-0.43541685 -9.0979986 -2.1028426 16 1
-1.3845984 -28.721184 1.5069616 8 9
-0.52132946 -10.736168 -2.0893586 24 2
-1.3778974 -28.274317 2.4766176 6 10
-0.61339056 -12.496992 -1.981712 9 3
-1.5151256 -30.650116 3.7679567 10 11
-1.3075355 -26.357407 -3.2402623 19 4
-1.4738098 -29.501019 4.6783299 12 12
-1.5255933 -30.012011 -1.5748937 12 6
-0.41179419 -7.5790668 -2.0338001 9 0
-0.49710649 -9.0616579 -2.0951941 15 1
-1.6384559 -29.77203 1.5626471 17 9
-0.5952636 -10.748054 -2.0924115 27 2
-1.8107419 -32.489288 2.8468552 2 10
-0.68355322 -12.226268 -1.9394747 5 3
-1.6684145 -29.65604 3.6470621 11 11
-1.4924107 -26.363489 -3.2422123 19 4
-1.7728388 -30.746666 -1.6140411 11 6
-0.46384552 -7.5838008 -2.0358706 9 0
-0.55901587 -9.0619555 -2.0960939 15 1
-1.8385893 -29.636274 1.5561575 8 9
-0.66930664 -10.72796 -2.0893586 25 2
-1.8179853 -29.057974 2.5472138 12 10
-1.0513192 -16.710255 -2.6518774 10 3
-1.6613922 -26.18829 -3.221982 13 4
-1.9010438 -29.801197 4.72964 12 12
-1.9343706 -30.075777 5.8582182 4 13
-1.8617824 -28.790274 -1.5119859 23 6
-0.51704109 -7.5842333 -2.036906 9 0
-0.62333399 -9.0733843 -2.0996931 14 1
-0.74527299 -10.738694 -2.0924115 27 2
-2.0685134 -29.730291 2.6073513 3 10
-1.1731894 -16.77739 -2.6637661 13 3
-2.2626715 -32.196205 3.9629476 6 11
-1.8599452 -26.399815 -3.2495244 19 4
-2.1137888 -29.854197 4.7402778 4 12
-2.1241741 -29.779547 5.8032651 4 13
-2.0825801 -29.053482 -1.5265353 11 6
-0.57084459 -7.5919967 -2.0400119 9 0
-0.68783897 -9.0843573 -2.1032922 15 1
-2.3300662 -30.631348 1.6099588 8 9
-0.82082218 -10.741059 -2.0939381 30 2
-2.1734631 -28.376175 2.4898651 3 10
-1.2958964 -16.841663 -2.6753426 10 3
-2.356276 -30.483461 3.7540636 14 11
-2.0484984 -26.441601 -3.2563491 19 4
-2.3247612 -29.872192 4.7455964 15 12
-2.4132993 -30.801338 6.0055227 3 13
-2.4163611 -30.702795 -1.6140411 11 6
-0.62351614 -7.5839758 -2.0389764 9 0
-0.75140369 -9.0812759 -2.1037421 16 1
-0.89228493 -10.715659 -2.0901217 28 2
-2.3796487 -28.4576 2.4984066 12 10
-1.1061662 -13.200611 -2.0980992 18 3
-2.5116162 -29.84757 3.6777732 3 11
-2.2363825 -26.466219 -3.261224 19 4
-2.4278729 -28.672709 4.5575624 15 12
-2.5345769 -29.686348 5.7914348 6 13
-0.67546624 -7.5834045 -2.0400119 9 0
-0.81250399 -9.0681877 -2.1019428 16 1
-0.96813202 -10.720901 -2.0924115 36 2
-1.5336967 -16.885147 -2.6853542 18 3
-2.8653088 -31.484468 3.8817825 13 11
-2.4121494 -26.402937 -3.2553742 19 4
-2.6431413 -28.820297 4.5838432 7 12
-2.8968945 -31.406363 6.1306934 5 13
-2.6737247 -28.876686 -1.5198363 11 6
-0.72706836 -7.5786314 -2.0400119 9 0
-0.87570632 -9.0779648 -2.1055419 16 1
-2.8699145 -29.642525 1.560763 8 9
-1.0426022 -10.729694 -2.0954645 30 2
-1.6435989 -16.823202 -2.6772196 17 3
-3.0027809 -30.679901 3.7850182 10 11
-2.5921979 -26.389858 -3.2558618 19 4
-2.7256882 -27.649651 4.4005022 3 12
-2.8674064 -28.932091 5.651381 4 13
-3.0844989 -31.012217 -1.6333007 10 6
-0.77784753 -7.5658202 -2.0379412 9 0
-0.93687797 -9.0659781 -2.104192 14 1
-3.1552534 -30.428867 1.6032598 8 9
-1.1143926 -10.710633 -2.0931747 31 2
-1.3771622 -13.169139 -2.0971608 3 3
-3.2765541 -31.226776 3.8552151 9 11
-2.7759519 -26.367168 -3.2553742 19 4
-3.0924067 -29.323843 4.6701951 4 12
-3.2144027 -30.277966 5.9185138 4 13
-0.8332352 -7.5715809 -2.0410471 9 0
-1.0006567 -9.0493584 -2.1019428 17 1
-3.4380941 -30.993095 1.6342428 7 9
-1.1918762 -10.710189 -2.0947013 33 2
-3.4249887 -30.679495 2.7007821 9 10
-1.8789877 -16.804502 -2.6781583 11 3
-3.6052513 -32.141544 3.9712348 5 11
-1.4689621 -13.054956 -1.6130629 14 4
-3.2442043 -28.786671 4.5882235 7 12
-3.3301055 -29.364645 5.7444959 4 13
-3.2909811 -28.929459 -1.5259073 11 6
-0.88604361 -7.5539131 -2.0379412 9 0
-1.0715437 -9.0942192 -2.11409 15 1
-1.268486 -10.701385 -2.0947013 27 2
-3.9144664 -32.925468 2.9008915 4 10
-1.4524487 -12.198704 -1.9457321 8 3
-3.5409217 -29.651066 3.6665616 7 11
-1.5644667 -13.061851 -1.6152564 18 4
-3.7300715 -31.096685 4.9605374 27 12
-3.5589597 -29.495995 5.7750254 4 13
-3.4791956 -28.750509 -1.5177429 23 6
-0.93697137 -7.5224581 -2.0312121 12 0
-1.1358663 -9.0805178 -2.1127403 16 1
-1.3489515 -10.723201 -2.1008072 24 2
-3.6337814 -28.804802 2.540067 9 10
-1.5436631 -12.219356 -1.950738 13 3
-3.7081051 -29.270483 3.6226885 7 11
-1.6443858 -12.943981 -1.6020945 7 4
-3.7639585 -29.423035 5.7658668 4 13
-0.99041897 -7.533144 -2.0358706 9 0
-1.1940787 -9.0455284 -2.1064417 20 1
-4.0168533 -30.347303 1.6043066 25 9
-1.4198433 -10.698201 -2.0977542 25 2
-3.8620138 -29.06052 2.5648191 6 10
-1.576966 -11.834574 -1.89098 19 3
-4.0216088 -30.100475 3.7287147 15 11
-3.5140905 -26.26696 -3.2539117 16 4
-4.280231 -31.908897 5.0991383 6 12
-3.8730676 -28.759239 5.640696 4 13
-4.2184243 -31.24122 -1.6521416 10 6
-1.0445772 -7.5375276 -2.0389764 9 0
-1.2588093 -9.0485525 -2.1091411 15 1
-4.1836491 -30.034403 1.5892338 17 9
-1.4958881 -10.711622 -2.1023335 27 2
-1.5891988 -11.33646 -1.8130757 6 3
-3.6921208 -26.204441 -3.2492807 22 4
-4.1016221 -29.074108 4.6504841 16 12
-4.1266694 -29.068249 -1.5386772 11 6
-1.0953031 -7.5264196 -2.0379412 9 0
-1.3209351 -9.0436306 -2.1100409 14 1
-4.591136 -31.356178 1.6608294 22 9
-1.5694923 -10.693148 -2.1008072 25 2
-4.1928043 -28.531418 2.5229845 3 10
-1.6087109 -10.920551 -1.7483118 12 3
-4.3019776 -29.132931 3.6158638 7 11
-3.8820136 -26.257252 -3.2590301 11 4
-4.3569145 -29.398447 4.7071137 28 12
-1.1484028 -7.5224085 -2.0389764 9 0
-1.3828579 -9.0264835 -2.1082413 14 1
-1.6455997 -10.691632 -2.1027153 22 2
-4.3833861 -28.446316 2.5181038 9 10
-1.6601868 -10.748972 -1.7226565 22 3
-4.4378357 -28.666683 3.5617537 11 11
-1.6661025 -10.749961 -1.3356882 19 4
-4.5111027 -29.039383 4.6545515 8 12
-1.1978416 -7.4951315 -2.0338001 9 0
-1.4421384 -8.9935198 -2.1028426 15 1
-4.8066521 -29.908649 1.5875591 8 9
-1.7192647 -10.674069 -2.1015704 24 2
-4.9669189 -30.802937 2.7297177 2 10
-2.7162344 -16.807707 -2.6966176 12 3
-4.2453871 -26.182856 -3.2568367 13 4
-5.1235933 -31.356564 -1.665121 9 6
-1.251411 -7.4942079 -2.0358706 9 0
-1.5029571 -8.9717016 -2.100143 15 1
-5.0035124 -29.835844 1.5854656 25 9
-1.7964351 -10.689223 -2.1069131 24 2
-4.9260597 -29.248783 2.594975 13 10
-2.6502788 -15.71944 -2.5248528 3 3
-5.276473 -31.229536 3.8888512 3 11
-4.32236 -25.528221 -3.1790838 10 4
-1.3023926 -7.4855165 -2.0358706 9 0
-1.5593001 -8.9343872 -2.0938444 17 1
-5.3479376 -30.579277 1.6269157 16 9
-1.8737261 -10.691893 -2.109966 22 2
-2.9442952 -16.749201 -2.6934888 17 3
-4.5722032 -25.930248 -3.2329502 19 4
-1.3525532 -7.4648366 -2.0327649 9 0
-1.626513 -8.9501266 -2.100143 14 1
-1.9478672 -10.686617 -2.1114926 18 2
-5.6707106 -31.049854 2.7614424 5 10
-3.0642726 -16.761808 -2.6988077 13 3
-4.7610021 -25.940651 -3.2383125 19 4
-5.7163963 -30.963537 -1.6501528 20 6
-1.4061915 -7.4706454 -2.036906 9 0
-1.6917337 -8.9618273 -2.1055419 14 1
-2.0078053 -10.5956 -2.0962276 18 2
-5.8696728 -30.94594 2.7556903 16 10
-3.1786337 -16.726421 -2.6966176 16 3
-4.8943529 -25.681446 -3.2100389 19 4
-1.4531237 -7.4341025 -2.029659 7 0
-1.74901 -8.9230251 -2.0992434 15 1
-2.0968869 -10.658379 -2.1114926 18 2
-6.0382252 -30.663761 2.7342498 2 10
-3.2765949 -16.608862 -2.6812871 26 3
-5.1266823 -25.915384 -3.2436748 19 4
-1.5088264 -7.4427099 -2.0348353 9 0
-1.8120383 -8.9144173 -2.100143 14 1
-2.1712441 -10.64348 -2.1114926 22 2
-3.4071109 -16.657188 -2.6928632 20 3
-5.315455 -25.917856 -3.2485497 19 4
-1.5639249 -7.4471202 -2.0389764 9 0
-1.8798494 -8.9282455 -2.1064417 14 1
-2.2560484 -10.678004 -2.1214147 21 2
-3.5085802 -16.563425 -2.6815999 16 3
-5.4995651 -25.895649 -3.2504992 19 4
-1.6125947 -7.4209185 -2.0348353 9 0
-1.9371557 -8.8920555 -2.1010427 15 1
-2.3309581 -10.663913 -2.1217961 12 2
-3.6232836 -16.53467 -2.6809742 12 3
-2.5632529 -11.668053 -1.4668195 3 4
-1.6643634 -7.4094796 -2.0348353 9 0
-2.0000422 -8.8821182 -2.1019428 15 1
-2.408246 -10.668864 -2.125994 21 2
-3.7466452 -16.557791 -2.688796 7 3
-2.6534383 -11.688592 -1.4716942 11 4
-1.7138863 -7.3942151 -2.0338001 9 0
-2.0613353 -8.8720942 -2.1028426 14 1
-2.487571 -10.672824 -2.1301918 12 2
-2.7301073 -11.685737 -1.900679 5 3
-2.7306743 -11.660596 -1.4704757 9 4
-1.7699593 -7.4008584 -2.0389764 9 0
-2.1295838 -8.8840189 -2.1091411 14 1
-2.5702822 -10.689557 -2.1370609 10 2
-2.7806139 -11.537726 -1.8797168 4 3
-2.8479023 -11.789826 -1.4892435 6 4
-1.8178843 -7.3733158 -2.0348353 9 0
-2.1859443 -8.8462324 -2.1037421 15 1
-2.6609035 -10.736142 -2.1500359 12 2
-2.9496689 -11.874617 -1.9379103 4 3
-2.8980095 -11.640596 -1.472913 9 4
-2.9519207 -11.830713 -1.0667863 15 5
-6.6660137 -26.636883 -1.4390297 11 6
-1.8721678 -7.3716803 -2.0379412 7 0
-2.2514946 -8.8458643 -2.1073413 16 1
-2.7416847 -10.748219 -2.1561418 10 2
-3.0367889 -11.879143 -1.9419776 8 3
-2.9718106 -11.591237 -1.469257 13 4
-3.0413828 -11.836832 -1.0692266 15 5
-6.7844138 -26.347187 -1.425841 11 6
-1.9203486 -7.3512883 -2.0358706 9 0
-2.3027701 -8.7964001 -2.0992434 15 1
-2.7947183 -10.645266 -2.1393507 10 2
-4.2922139 -16.314541 -2.6719007 2 3
-3.0536773 -11.582257 -1.4707193 13 4
-3.137187 -11.865393 -1.0737587 16 5
-7.1083488 -26.828176 -1.4545211 11 6
-1.9686159 -7.32651 -2.0327649 9 0
-2.3671646 -8.7914009 -2.1019428 15 1
-2.9053037 -10.760067 -2.1664453 7 2
-4.3853693 -16.207907 -2.6593862 5 3
-3.1313441 -11.549161 -1.469257 14 4
-3.2105374 -11.808594 -1.0706211 15 5
-7.2587204 -26.643003 -1.447194 23 6
-2.0207434 -7.3163118 -2.0338001 7 0
-2.4295211 -8.7784166 -2.1028426 15 1
-2.9210277 -10.525754 -2.1233225 10 2
-3.3124216 -11.911905 -1.9582468 8 3
-3.2182899 -11.549966 -1.4721818 12 4
-3.3068378 -11.835784 -1.0751532 16 5
-7.5748506 -27.057121 -1.4725246 11 6
-2.0770447 -7.320611 -2.0389764 9 0
-2.4907455 -8.761241 -2.1028426 14 1
-3.0783963 -10.79964 -2.1828551 10 2
-3.2924249 -11.527599 -1.8988018 8 3
-3.3043075 -11.546301 -1.4746192 13 4
-3.3827896 -11.789429 -1.0730615 16 5
-7.5704069 -26.331753 -1.4358894 22 6
-2.12486 -7.2948031 -2.0358706 7 0
-2.5562177 -8.758605 -2.1064417 15 1
-3.2639852 -11.154736 -2.2591786 12 2
-3.3705981 -11.496751 -1.8975502 14 3
-3.3848321 -11.522951 -1.4746192 12 4
-3.4773962 -11.807572 -1.0768963 16 5
-7.5675182 -25.646112 -1.4013476 22 6
-2.179054 -7.2908974 -2.0389764 9 0
-2.6128297 -8.7256107 -2.1028426 15 1
-3.3067825 -11.015095 -2.2355182 12 2
-3.3455198 -11.122981 -1.8396695 2 3
-3.4766507 -11.537054 -1.479494 13 4
-3.5493724 -11.748677 -1.0737587 16 5
-7.7949805 -25.753233 -1.4101402 11 6
-2.2265043 -7.2644243 -2.0358706 9 0
-2.6725376 -8.703433 -2.1019428 15 1
-3.4015074 -11.049908 -2.2473485 9 2
-3.5617974 -11.527673 -1.4814438 14 4
-3.6313059 -11.723613 -1.0737587 16 5
-8.0539017 -25.953794 -1.4241662 22 6
-2.2806385 -7.2597623 -2.0389764 9 0
-2.7367437 -8.6957159 -2.1046422 14 1
-3.363971 -10.662668 -2.1733146 9 2
-3.4748974 -10.994195 -1.8262162 7 3
-3.6529756 -11.536592 -1.4858311 13 4
-3.7251189 -11.735955 -1.077245 16 5
-8.3232594 -26.174824 -1.4394484 11 6
-2.328898 -7.2363081 -2.036906 9 0
-2.8009713 -8.6875257 -2.1073413 14 1
-3.3960667 -10.508156 -2.1466014 10 2
-3.5813782 -11.061755 -1.8415467 10 3
-3.7419996 -11.537244 -1.4892435 12 4
-3.8094232 -11.717243 -1.0779423 16 5
-8.5899076 -26.374352 -1.4536836 11 6
-2.385406 -7.2382207 -2.0420823 9 0
-2.8517778 -8.6381521 -2.100143 15 1
-3.5680277 -10.782408 -2.2076602 18 2
-3.6510577 -11.013983 -1.8377923 9 3
-3.8287086 -11.529679 -1.4916809 11 4
-3.8848398 -11.671458 -1.0761991 16 5
-8.9014387 -26.696474 -1.4748274 11 6
-2.4358802 -7.2213912 -2.0420823 9 0
-2.9226191 -8.6494179 -2.1077914 13 1
-3.6633687 -10.816739 -2.219872 18 2
-3.7430923 -11.03312 -1.8453012 10 3
-3.919966 -11.534619 -1.4958245 9 4
-3.9893527 -11.711949 -1.0824744 16 5
-9.1327429 -26.765997 -1.4821545 11 6
-2.4767823 -7.1768174 -2.0343177 6 0
-2.9803853 -8.6214361 -2.1059918 13 1
-3.7336519 -10.776062 -2.216819 9 2
-3.8057778 -10.965664 -1.8384181 9 3
-4.0101757 -11.535098 -1.4994806 10 4
-4.0500422 -11.623606 -1.0768963 16 5
-9.7208519 -27.851868 -1.5460043 11 6
-2.5351832 -7.1830335 -2.0410471 9 0
-3.0353053 -8.585721 -2.1023927 13 1
-3.7353554 -10.542474 -2.174078 7 2
-3.8769531 -10.923936 -1.8359152 7 3
-4.093266 -11.514302 -1.5004555 11 4
-4.158474 -11.678354 -1.084566 16 5
-12.17733 -34.122513 -1.8987488 4 6
-2.5813336 -7.1542573 -2.0379412 9 0
-3.0898702 -8.5496607 -2.0987935 14 1
-3.9119432 -10.80663 -2.2339919 10 2
-3.9754605 -10.964148 -1.8471783 4 3
-4.1830425 -11.511565 -1.5038677 11 4
-4.2276373 -11.615339 -1.0814284 16 5
-12.376472 -33.948765 -1.8937244 4 6
-2.6313074 -7.1401458 -2.0389764 9 0
-3.1412461 -8.5101471 -2.0942943 13 1
-4.0193057 -10.865599 -2.2519279 18 2
-4.1397519 -11.173224 -1.8872255 9 3
-4.2585392 -11.475383 -1.5028929 7 4
-4.318346 -11.611686 -1.0838689 16 5
-12.701021 -34.097359 -1.906913 4 6
-2.6810901 -7.1216025 -2.0389764 9 0
-3.1923299 -8.4661293 -2.0888956 13 1
-4.0090127 -10.609546 -2.2046072 21 2
-4.0302653 -10.648925 -1.8033768 24 3
-4.0373955 -10.650916 -1.3985727 19 4
-4.3794947 -11.529102 -1.0789881 16 5
-4.3550572 -11.446712 -0.64184827 17 6
-2.7196507 -7.0738602 -2.0306942 7 0
-3.2429533 -8.421813 -2.0834966 15 1
-4.1670885 -10.799262 -2.2500198 10 2
-4.1166162 -10.651852 -1.8086954 3 3
-4.457756 -11.516623 -1.5162985 10 4
-4.4382606 -11.442522 -1.0737587 16 5
-13.300247 -34.236919 -1.9249167 3 6
-2.7633228 -7.0403152 -2.0265532 7 0
-3.2973921 -8.3880863 -2.0807972 14 1
-4.2934661 -10.8996 -2.2771149 10 2
-4.311945 -10.929724 -1.8609446 9 3
-4.5949473 -11.629226 -1.5353101 4 4
-13.432928 -33.875877 -1.9098438 4 6
-2.8210256 -7.0423722 -2.0327649 7 0
-3.3493416 -8.3485851 -2.0767481 16 1
-4.359201 -10.843858 -2.2717719 10 2
-4.6802921 -11.625001 -1.9848408 3 3
-9.4619093 -23.466206 -3.1066935 17 4
-13.685581 -33.822006 -1.9121468 4 6
-2.8730445 -7.0296593 -2.0348353 9 0
-3.4068036 -8.3231955 -2.0762982 15 1
-4.4258604 -10.791365 -2.2671926 9 2
-4.5174131 -10.998188 -1.8831582 13 3
-4.6503887 -11.305084 -1.5009429 13 4
-9.6492434 -23.376068 -1.3253559 10 6
-2.9175909 -6.9987316 -2.0317297 7 0
-3.4573195 -8.2812252 -2.071799 14 1
-4.4594202 -10.660588 -2.2462037 12 2
-4.8009295 -11.460135 -1.9679458 6 3
-4.7507014 -11.323598 -1.5077677 7 4
-4.9084029 -11.682336 -1.108621 17 5
-9.7424536 -23.142464 -1.3159354 21 6
-2.9603341 -6.9639692 -2.0275886 7 0
-3.5219193 -8.2730246 -2.0758483 16 1
-4.521101 -10.604703 -2.2408609 12 2
-4.6259627 -10.834939 -1.8659505 1 3
-4.9077129 -11.472668 -1.5321414 13 4
-10.197412 -23.769423 -1.3555014 22 6
-3.0092025 -6.9472032 -2.0286238 9 0
-3.5734966 -8.2381344 -2.073149 16 1
-4.5496387 -10.468449 -2.2187271 12 2
-5.0199704 -11.53413 -1.9923496 7 3
-4.9769654 -11.418979 -1.5294603 9 4
-5.1774006 -11.86189 -1.1323274 18 5
-10.037401 -22.952871 -1.3128999 21 6
-3.0576296 -6.9260259 -2.0286238 9 0
-3.624619 -8.1987267 -2.0695498 17 1
-4.6239681 -10.44442 -2.2202537 12 2
-4.7621017 -10.741234 -1.8609446 11 3
-5.0364184 -11.338601 -1.5233669 11 4
-10.135705 -22.75448 -1.3054682 21 6
-3.0999489 -6.8944812 -2.0255179 9 0
-3.681941 -8.1774187 -2.0704496 16 1
-4.7355204 -10.497784 -2.2385712 12 2
-4.8613701 -10.761733 -1.8703307 3 3
-5.1740236 -11.437896 -1.5414037 10 4
-10.357869 -22.823208 -1.3135279 21 6
-3.1439834 -6.8638897 -2.0229297 6 0
-3.7291908 -8.1302586 -2.0650506 17 1
-4.7324548 -10.298565 -2.2030807 10 2
-4.8769264 -10.598329 -1.8478041 2 3
-10.008206 -21.719456 -2.9363203 18 4
-5.4781294 -11.866633 -1.1434834 18 5
-10.555504 -22.833733 -1.3183428 21 6
-3.1861072 -6.8295193 -2.0193064 7 0
-3.7924581 -8.1181507 -2.0686498 21 1
-4.7692852 -10.190593 -2.187053 13 2
-5.4302859 -11.587155 -2.0267651 11 3
-10.100559 -21.523262 -2.9192584 18 4
-10.686584 -22.699854 -1.3148887 10 6
-3.2370241 -6.8140893 -2.0213768 9 0
-3.8389943 -8.0703602 -2.0632513 17 1
-4.917902 -10.324503 -2.2229249 9 2
-5.0906239 -10.672714 -1.8728336 7 3
-10.201791 -21.350128 -2.9053655 20 4
-10.556057 -22.032196 -1.280347 10 6
-3.2833314 -6.7918978 -2.0213768 7 0
-3.9006312 -8.058075 -2.0668504 14 1
-4.9256115 -10.157431 -2.1943038 10 2
-6.333303 -13.042928 -2.2964582 3 3
-10.306952 -21.198072 -2.8941534 19 4
-10.650953 -21.837692 -1.273334 21 6
-3.3289616 -6.7653432 -2.0203414 9 0
-3.9499016 -8.0166616 -2.0632513 15 1
-5.0684705 -10.273323 -2.2267411 10 2
-5.2932858 -10.71486 -1.8928572 11 3
-10.488144 -21.193209 -2.9034154 20 4
-10.75369 -21.701191 -2.1189303 29 5
-10.629793 -21.422964 -1.2533417 21 6
-3.3842108 -6.755167 -2.0244827 9 0
-4.0071664 -7.9881921 -2.0632513 15 1
-5.087224 -10.123622 -2.2023175 10 2
-6.5010743 -12.92033 -2.2908266 7 3
-10.600229 -21.03961 -2.8926911 19 4
-11.054987 -21.875675 -1.2845339 21 6
-3.4207585 -6.7107229 -2.018271 9 0
-4.0592928 -7.9530787 -2.0614514 15 1
-5.1390409 -10.055545 -2.1950669 12 2
-6.2910113 -12.293714 -2.1872668 4 3
-10.757722 -20.986292 -2.8956158 19 4
-10.74097 -20.926615 -2.0579214 31 5
-11.095907 -21.590305 -1.2721825 21 6
-3.47347 -6.701004 -2.0224121 9 0
-4.1061502 -7.911428 -2.0578523 15 1
-5.2226977 -10.045552 -2.2007911 7 2
-5.5457358 -10.653258 -1.9022434 3 3
-10.872796 -20.859772 -2.8883038 19 4
-11.352778 -21.715864 -1.2842199 21 6
-3.5273752 -6.6902623 -2.0265532 9 0
-4.1649213 -7.889461 -2.0596519 15 1
-5.312057 -10.049691 -2.2095683 10 2
-6.3545737 -12.006771 -2.1515999 4 3
-11.001424 -20.751787 -2.8839164 21 4
-11.460024 -21.562246 -1.279719 21 6
-3.5637052 -6.6490707 -2.0213768 7 0
-4.2231326 -7.8695154 -2.0619013 14 1
-5.368144 -9.9864216 -2.2038438 10 2
-6.4251351 -11.937763 -2.1472197 4 3
-11.059546 -20.522644 -2.8624673 19 4
-11.5495 -21.369265 -1.2730199 21 6
-3.6081886 -6.6206374 -2.0203414 9 0
-4.2882371 -7.8586578 -2.0668504 11 1
-5.417016 -9.9108009 -2.1954484 9 2
-6.3964181 -11.688139 -2.1103013 8 3
-11.179657 -20.403152 -2.8566177 21 4
-11.862882 -21.587431 -1.2909188 21 6
-3.6505764 -6.5885267 -2.018271 9 0
-4.3288155 -7.8029666 -2.0601017 14 1
-5.4889331 -9.8778915 -2.1965933 10 2
-6.5690951 -11.807189 -2.1400237 9 3
-11.382687 -20.433861 -2.8719733 17 4
-11.860371 -21.230337 -1.2744853 10 6
-3.7002761 -6.569613 -2.0203414 9 0
-4.3831854 -7.7725563 -2.0601017 13 1
-5.5618343 -9.8505583 -2.1988828 10 2
-6.0952034 -10.782018 -1.9616885 3 3
-11.437029 -20.198433 -2.8500369 17 4
-11.551588 -20.375862 -2.0492058 31 5
-11.91291 -20.987579 -1.2647508 21 6
-3.7506654 -6.5543342 -2.0234473 9 0
-4.4224272 -7.7188687 -2.053803 15 1
-5.6138573 -9.7825422 -2.1923954 10 2
-6.1732793 -10.744341 -1.9626271 8 3
-11.697981 -20.335203 -2.8805041 19 4
-12.116029 -21.002512 -1.2707171 10 6
-3.8099284 -6.5513697 -2.0306942 9 0
-4.4840522 -7.7012792 -2.0574024 14 1
-5.6711349 -9.7244558 -2.1881976 10 2
-6.7073112 -11.487391 -2.1068597 6 3
-11.762522 -20.12108 -2.8617361 17 4
-12.007819 -20.483215 -1.2443398 21 6
-3.8614678 -6.5345917 -2.0338001 9 0
-4.5337372 -7.6630793 -2.0556028 15 1
-5.7298765 -9.6694279 -2.1847632 13 2
-6.7873454 -11.440286 -2.1068597 12 3
-12.019291 -20.234745 -2.8897662 21 4
-12.469417 -20.934254 -1.2769974 21 6
-3.9149492 -6.5207248 -2.0379412 9 0
-4.5951562 -7.6446028 -2.059202 14 1
-5.8178325 -9.6672077 -2.1931586 16 2
-6.3961039 -10.615509 -1.9629399 6 3
-6.4083438 -10.619039 -1.5228794 10 4
-6.4498439 -10.67517 -1.0911899 16 5
-12.766683 -21.105228 -1.2926983 21 6
-3.9532082 -6.4840298 -2.0348353 9 0
-4.6430225 -7.6064954 -2.0574024 14 1
-5.903614 -9.6565065 -2.2000279 13 2
-6.4360271 -10.514998 -1.9526151 13 3
-6.4597301 -10.541324 -1.5180047 22 4
-6.4929471 -10.578939 -1.0859606 33 5
-12.541466 -20.409794 -1.255435 21 6
-4.0024476 -6.4628429 -2.036906 9 0
-4.6898508 -7.5639582 -2.054703 13 1
-5.9657068 -9.6067171 -2.1981196 12 2
-6.9504628 -11.17943 -2.0849588 7 3
-12.43798 -19.98245 -2.8900099 19 4
-12.93427 -20.723299 -1.2802423 21 6
-4.0454121 -6.4314713 -2.0358706 7 0
-4.7446198 -7.5343308 -2.0556028 14 1
-6.0462418 -9.5864239 -2.2030807 15 2
-7.0441604 -11.155686 -2.0896518 4 3
-7.940691 -12.56093 -1.824628 13 4
-13.0797 -20.634182 -1.280347 21 6
-4.1026931 -6.4226093 -2.0420823 7 0
-4.7929039 -7.4944558 -2.053803 12 1
-6.1102958 -9.5433922 -2.2026992 10 2
-7.0122614 -10.939514 -2.0580521 9 3
-7.9745641 -12.421665 -1.812441 13 4
-13.394932 -20.816769 -1.2973038 21 6
-4.1421113 -6.388051 -2.0400119 7 0
-4.8353176 -7.4485822 -2.0502038 14 1
-6.1885438 -9.5186081 -2.206897 10 2
-7.3126035 -11.23465 -2.1231289 3 3
-8.0437584 -12.343813 -1.8090287 15 4
-13.570518 -20.769566 -1.3002347 21 6
-4.1802335 -6.3492966 -2.036906 7 0
-4.8872004 -7.4146433 -2.0502038 12 1
-6.2488666 -9.4697094 -2.2053704 10 2
-8.1151667 -12.283957 -2.3318124 13 3
-7.5590582 -11.424824 -1.6820408 4 4
-13.63431 -20.560194 -1.2929076 21 6
-4.2244272 -6.3223028 -2.0374236 6 0
-4.9375558 -7.3812065 -2.0502038 12 1
-6.329031 -9.4470558 -2.2103314 10 2
-7.2467446 -10.804648 -2.060555 12 3
-8.244173 -12.27788 -1.8158534 11 4
-13.906902 -20.656694 -1.3050495 21 6
-4.2695465 -6.2942557 -2.0379412 5 0
-4.9911551 -7.3497801 -2.0511036 10 1
-6.4003477 -9.4107599 -2.2122397 10 2
-7.2186055 -10.60194 -2.0314584 5 3
-8.4180164 -12.349606 -1.8351088 4 4
-13.76763 -20.167463 -2.1363616 29 5
-13.920049 -20.367825 -1.2929076 21 6
-4.2717519 -6.2038321 -2.018271 4 0
-5.0445571 -7.3179655 -2.0520036 10 1
-6.4614296 -9.3593845 -2.2107131 10 2
-7.2374096 -10.471662 -2.0161276 3 3
-13.686182 -19.780109 -2.953382 18 4
-14.11541 -20.347277 -1.2978271 21 6
-4.2441292 -6.0725188 -1.9851422 4 0
-5.0888186 -7.2729902 -2.0493042 10 1
-6.5092158 -9.292676 -2.2053704 10 2
-7.3470817 -10.477144 -2.0267651 9 3
-13.930041 -19.835159 -2.9760497 21 4
-14.24898 -20.244194 -1.2974085 21 6
-4.2607818 -6.0088201 -1.9737542 5 0
-5.1314383 -7.2286491 -2.0466046 11 1
-6.5625567 -9.2310047 -2.2015543 10 2
-7.4326444 -10.443303 -2.0302067 8 3
-9.4997387 -13.33291 -2.0101132 10 4
-14.511864 -20.314871 -1.3083991 21 6
-4.2890868 -5.9601111 -1.9675424 4 0
-5.1703868 -7.1768365 -2.0421057 13 1
-6.6217928 -9.181344 -2.2004094 12 2
-7.5266848 -10.4245 -2.0364642 8 3
-14.323163 -19.808508 -3.0013983 16 4
-14.640429 -20.202682 -1.3075616 21 6
-4.3351483 -5.9362626 -1.969613 5 0
-5.2203646 -7.1405659 -2.0421057 13 1
-6.6734066 -9.1147156 -2.1958301 10 2
-7.6466312 -10.432508 -2.048666 9 3
-14.466975 -19.716034 -3.0026171 9 4
-14.907705 -20.264721 -1.3184476 10 6
-4.3672843 -5.893436 -1.9654719 4 0
-5.2770548 -7.1133375 -2.044805 13 1
-6.6900434 -9.0048676 -2.1805654 10 2
-7.7487493 -10.418497 -2.0564878 8 3
-7.7650743 -10.429039 -1.5964885 7 4
-15.708307 -21.04364 -1.3762264 11 6
-4.392067 -5.841187 -1.958225 4 0
-5.3265848 -7.0763249 -2.044805 13 1
-6.7480173 -8.9516735 -2.1790388 10 2
-7.8605628 -10.416181 -2.0668125 9 3
-7.8664117 -10.412588 -1.6023383 7 4
-15.953718 -21.064018 -1.3848095 11 6
-4.4303951 -5.8073106 -1.9571897 4 0
-5.3805885 -7.0451608 -2.0466046 11 1
-6.8103471 -8.9043446 -2.1790388 10 2
-7.9691138 -10.408104 -2.0761983 9 3
-7.9848008 -10.417288 -1.6116004 10 4
-9.6567993 -12.580439 -1.3875195 27 5
-16.114986 -20.97113 -1.3860656 22 6
-4.4708295 -5.7762389 -1.9571897 4 0
-5.4224801 -6.9981828 -2.0439053 11 1
-6.8771596 -8.8627872 -2.1805654 10 2
-8.0803595 -10.402135 -2.0862103 9 3
-8.0853605 -10.397332 -1.6172063 9 4
-9.6023855 -12.330372 -1.3672993 27 5
-16.42309 -21.06604 -1.3998823 22 6
-4.501502 -5.7327309 -1.9530486 4 0
-5.4712043 -6.960156 -2.0439053 12 1
-6.9315777 -8.8053055 -2.1782756 12 2
-8.1943521 -10.398224 -2.0968478 9 3
-8.193409 -10.385827 -1.6242748 7 4
-9.5993052 -12.150471 -1.3547488 26 5
-16.595776 -20.983768 -1.4020804 11 6
-4.5341911 -5.6920996 -1.9499428 4 0
-5.5196605 -6.9217916 -2.0439053 11 1
-6.9720573 -8.7306185 -2.1717882 10 2
-8.3136196 -10.399392 -2.1087368 9 3
-8.3041639 -10.376421 -1.6318306 9 4
-9.5896063 -11.969786 -1.3418498 26 5
-16.646875 -20.748999 -1.3941253 11 6
-4.5543919 -5.6362643 -1.9416605 4 0
-5.5703006 -6.8861184 -2.044805 12 1
-7.0041394 -8.649394 -2.1633925 10 2
-8.4153128 -10.380926 -2.1165586 8 3
-8.4276972 -10.381385 -1.641824 7 4
-19.338839 -23.771006 -1.6059812 11 6
-4.5804076 -5.5901899 -1.9364842 4 0
-5.6121006 -6.8420172 -2.0430055 12 1
-7.0531378 -8.5866318 -2.1599579 10 2
-8.5339994 -10.378379 -2.1281347 9 3
-8.5435839 -10.378953 -1.6505985 7 4
-19.557718 -23.700113 -1.6103776 11 6
-4.6193218 -5.5580773 -1.9364842 4 0
-5.6497574 -6.7906866 -2.0394061 12 1
-7.0825214 -8.5037279 -2.1511807 10 2
-8.6525145 -10.377702 -2.1400237 9 3
-8.6578188 -10.369339 -1.6586419 9 4
-8.7398138 -10.45641 -1.1922905 20 5
-19.98773 -23.888117 -1.6323586 10 6
-4.6520677 -5.520597 -1.9344137 4 0
-5.6883106 -6.7431355 -2.0367069 14 1
-7.1353841 -8.4465761 -2.1492727 10 2
-8.7630205 -10.362294 -2.1494098 9 3
-8.7782221 -10.369255 -1.6681477 7 4
-8.7997169 -10.379943 -1.1905475 20 5
-4.6879864 -5.4850464 -1.9333783 4 0
-5.7403164 -6.7091804 -2.0385065 14 1
-7.1941767 -8.3965569 -2.1492727 10 2
-8.8428631 -10.309862 -2.1512871 9 3
-8.8917789 -10.355916 -1.6759474 7 4
-8.9109364 -10.363578 -1.1957767 20 5
-20.43137 -23.736895 -1.6413604 20 6
-4.6995907 -5.4215307 -1.922508 18 0
-5.7895684 -6.6718869 -2.0394061 13 1
-7.2745109 -8.3713188 -2.15576 10 2
-9.0105658 -10.358163 -2.1744394 7 3
-9.0160084 -10.353466 -1.685697 7 4
-9.0275917 -10.352172 -1.2017034 20 5
-4.7513552 -5.4045501 -1.9282019 37 0
-5.8308549 -6.6254559 -2.0376067 12 1
-7.3639307 -8.3556795 -2.1649189 10 2
-9.1375456 -10.357221 -2.1875796 3 3
-9.1432562 -10.352763 -1.6959339 7 4
-9.186759 -10.387397 -1.213208 21 5
-9.785285 -11.052475 -0.7736302 17 6
-4.7709732 -5.3510594 -1.9209551 24 0
-5.8769689 -6.5845861 -2.0376067 14 1
-7.4403992 -8.3245602 -2.1702616 10 2
-9.8668938 -11.027775 -2.3437014 8 3
-9.2603378 -10.338957 -1.704221 7 4
-9.3042841 -10.373437 -1.2191346 21 5
-20.363565 -22.679638 -1.5973982 11 6
-4.8211694 -5.3319521 -1.9261314 6 0
-5.9332552 -6.5549564 -2.0412059 13 1
-7.5102029 -8.2855034 -2.173696 10 2
-9.8985119 -10.908881 -2.3330638 8 3
-9.3936911 -10.341646 -1.715433 7 4
-9.4649591 -10.405502 -1.2306391 21 5
-10.048913 -11.035871 -0.78221327 17 6
-4.8243294 -5.2611437 -1.9126729 3 0
-5.9788723 -6.5133748 -2.0412059 11 1
-7.570519 -8.2357635 -2.1744595 10 2
-9.8955088 -10.75375 -2.3146045 11 3
-9.5167646 -10.331298 -1.7246951 7 4
-9.6706305 -10.487309 -1.2480702 22 5
-4.8609414 -5.2273355 -1.9126729 4 0
-6.02951 -6.477181 -2.0430055 12 1
-7.6009727 -8.1567516 -2.1672087 10 2
-9.6235294 -10.316361 -2.2345102 4 3
-9.6591272 -10.340037 -1.7373695 7 4
-9.7436123 -10.419538 -1.2480702 22 5
-4.8911085 -5.1885052 -1.9106023 4 0
-6.0814824 -6.4444947 -2.0457051 13 1
-7.6550326 -8.1006365 -2.1664453 10 2
-9.9179478 -10.48427 -2.2858207 9 3
-9.7784214 -10.325941 -1.7461442 7 4
-4.9192023 -5.145854 -1.9074965 4 0
-6.1209354 -6.3962483 -2.0439053 11 1
-7.7141166 -8.0498323 -2.1672087 10 2
-10.253459 -10.688472 -2.3458915 9 3
-9.9025202 -10.311831 -1.7554061 6 4
-4.9388714 -5.0947404 -1.9012847 4 0
-6.1708694 -6.3589549 -2.0457051 12 1
-7.7701273 -7.9957809 -2.1672087 10 2
-10.287881 -10.575569 -2.3368182 8 3
-10.029664 -10.299337 -1.7651558 6 4
-21.693434 -22.222324 -1.6275437 10 6
-4.9797354 -5.0656486 -1.9033554 4 0
-6.2260466 -6.3268323 -2.0493042 12 1
-7.7940593 -7.9119372 -2.158813 10 2
-10.273634 -10.418093 -2.3174205 8 3
-10.171063 -10.299688 -1.7773427 2 4
-22.435635 -22.671825 -1.6716107 9 6
-5.005919 -5.0234246 -1.9002496 3 0
-6.2882357 -6.3036218 -2.0556028 13 1
-7.7838941 -7.7920494 -2.140877 12 2
-10.434114 -10.434114 -2.3371313 9 3
-14.31793 -14.302945 -2.4849162 6 4
-10.379856 -10.35814 -1.2829325 23 5
-5.0079122 -4.9557405 -1.8878261 3 0
-6.3459496 -6.2732658 -2.0601017 13 1
-7.8213873 -7.7237115 -2.1366794 10 2
-10.468331 -10.32678 -2.3289967 9 3
-12.021832 -11.842732 -2.0720227 6 4
-22.014 -21.640663 -1.6178092 11 6
-5.0451517 -4.9233575 -1.8888614 4 0
-6.3867989 -6.2260909 -2.059202 12 1
-7.8680158 -7.6593285 -2.1343896 10 2
-10.598606 -10.306692 -2.3415112 9 3
-11.996007 -11.65339 -2.0534985 5 4
-22.403521 -21.710522 -1.6349754 10 6
-5.0877514 -4.8960547 -1.8919673 3 0
-6.4315128 -6.182703 -2.0596519 7 1
-7.9057155 -7.5892591 -2.1301918 10 2
-10.547686 -10.114868 -2.3146045 6 3
-12.132974 -11.622917 -2.0630045 8 4
-22.638292 -21.633619 -1.6410464 10 6
-5.1077967 -4.8471169 -1.886791 3 0
-6.2553091 -5.9298444 -1.989917 6 1
-7.954227 -7.5298352 -2.1290469 10 2
-10.580725 -10.0057 -2.3064699 7 3
-12.35812 -11.674249 -2.0873783 8 4
-5.1231728 -4.7941813 -1.8800616 2 0
-6.2680817 -5.8594155 -1.980919 7 1
-7.9938169 -7.464798 -2.125994 10 2
-10.561919 -9.8525991 -2.2876978 9 3
-12.408821 -11.559271 -2.0822597 6 4
-5.1627846 -4.765749 -1.8826498 3 0
-6.2934942 -5.8034039 -1.9764199 7 1
-8.0515137 -7.4141278 -2.1275203 10 2
-10.679875 -9.8240919 -2.2983353 9 3
-11.219932 -10.310028 -1.8709384 19 4
-22.549717 -20.670259 -1.6031551 11 6
-5.1873584 -4.7217879 -1.879544 3 0
-6.3223219 -5.7488375 -1.9728208 7 1
-8.121973 -7.3748946 -2.1324816 10 2
-10.754054 -9.7546024 -2.299587 9 3
-14.685301 -13.306482 -2.4332435 5 4
-23.069824 -20.852499 -1.6297418 10 6
-5.2029428 -4.6699743 -1.8733324 3 0
-6.336184 -5.6811438 -1.9647225 7 1
-8.1469326 -7.2944398 -2.1256123 10 2
-10.810113 -9.6687517 -2.2970841 10 3
-22.648258 -20.185957 -1.5899665 11 6
-5.2325249 -4.6309762 -1.872297 3 0
-6.3698535 -5.6316061 -1.9629229 7 1
-8.1858854 -7.2269912 -2.1225593 10 2
-10.917351 -9.6283255 -2.3055315 8 3
-14.126399 -12.445334 -2.3116179 1 4
-5.2385283 -4.5714698 -1.8629795 4 0
-6.4001994 -5.5793176 -1.9602236 7 1
-8.2391005 -7.1722465 -2.1233225 10 2
-10.854618 -9.439105 -2.278312 11 3
-12.720311 -11.049803 -2.0688543 3 4
-5.2703142 -4.5347881 -1.8629795 3 0
-6.4212589 -5.519258 -1.9548247 6 1
-8.2832613 -7.1121616 -2.1221778 10 2
-10.870636 -9.3238468 -2.2683001 9 3
-14.368137 -12.306289 -2.32283 4 4
-5.3187346 -4.5138092 -1.8691912 3 0
-6.4289494 -5.4502187 -1.9458266 7 1
-8.3117332 -7.0364017 -2.1168351 10 2
-10.935464 -9.2477293 -2.2683001 10 3
-12.944239 -10.934859 -2.0805535 2 4
-24.314568 -20.489283 -1.6663771 9 6
-5.3190045 -4.450532 -1.8583208 2 0
-6.4309578 -5.3752074 -1.9350289 7 1
-8.3817539 -6.9958172 -2.1221778 10 2
-10.999757 -9.1711626 -2.2683001 9 3
-16.571241 -13.801745 -2.6479774 5 4
-23.900896 -19.857006 -1.6284858 10 6
-5.3514342 -4.4145207 -1.8588384 2 0
-8.3788471 -6.8947158 -2.1092029 9 2
-11.06962 -9.0991592 -2.2695515 9 3
-13.908762 -11.420719 -2.2097349 9 4
-23.646481 -19.36821 -1.6018991 11 6
-5.3341618 -4.3380499 -1.8422741 1 0
-6.4902549 -5.2726064 -1.9305301 42 1
-8.3950939 -6.8127828 -2.1015704 9 2
-11.119022 -9.0136528 -2.2670486 10 3
-15.481704 -12.532366 -2.4456742 1 4
-23.911383 -19.314741 -1.6109009 22 6
-5.37713 -4.3125172 -1.8469328 2 0
-6.5351195 -5.2356172 -1.9332294 12 1
