# .PCD v0.7 - Point Cloud Data file format
VERSION 0.7
FIELDS x y z intensity ring
SIZE 4 4 4 4 2
TYPE F F F F U
COUNT 1 1 1 1 1
WIDTH 1318
HEIGHT 1
VIEWPOINT 0 0 0 1 0 0 0
POINTS 1318
DATA ascii
39.005901 -27.505442 -2.5013449 0 6
5.3688383 -3.8140247 -1.7646283 4 0
6.336432 -4.5063972 -1.7951094 3 1
34.021118 -24.20437 2.1881666 1 9
7.7710485 -5.5328097 -1.8542819 4 2
10.336769 -7.3677025 -2.0104959 2 3
15.689984 -11.199822 -2.3669467 5 4
38.963974 -27.874897 -2.5107656 0 6
5.3646946 -3.8662934 -1.7718753 3 0
6.3150935 -4.5562649 -1.7978089 3 1
33.980858 -24.534822 2.1965404 2 9
7.7958851 -5.6329179 -1.8695467 4 2
10.336298 -7.4767351 -2.0205078 3 3
15.594093 -11.292389 -2.3640218 5 4
38.891254 -28.235411 -2.5187206 0 6
5.3313351 -3.8990905 -1.7698047 4 0
6.2894201 -4.6048455 -1.7996083 2 1
33.926353 -24.857626 2.2041812 2 9
7.7674537 -5.695333 -1.8722179 6 2
10.328438 -7.5814424 -2.0292683 3 3
15.514879 -11.40098 -2.3640218 6 4
38.815392 -28.59627 -2.5266757 0 6
5.3194981 -3.9477274 -1.774981 4 0
6.2665048 -4.6556149 -1.8023077 1 1
33.86739 -25.17967 2.2117178 2 9
7.7448301 -5.7623119 -1.8764157 4 2
10.335457 -7.6982017 -2.041157 4 3
15.444456 -11.516137 -2.3654842 5 4
5.3010674 -3.9917405 -1.7780869 3 0
6.2494121 -4.7109799 -1.8068069 2 1
33.791229 -25.49127 2.218312 1 9
7.7122474 -5.822154 -1.8783239 6 2
10.358685 -7.8285284 -2.0564878 4 3
15.370015 -11.628469 -2.3664591 5 4
30.529053 -23.156023 -2.0081308 4 6
5.2737737 -4.0277309 -1.7780869 3 0
6.223393 -4.7581425 -1.8086064 2 1
31.910154 -24.414808 2.105685 1 9
7.6911449 -5.8888369 -1.8829032 4 2
10.372573 -7.9505291 -2.069941 3 3
15.303105 -11.742486 -2.3684089 5 4
39.197792 -30.153681 -2.5917816 0 6
5.2470541 -4.0656338 -1.7786045 2 0
6.1900234 -4.8014741 -1.8086064 2 1
7.6669002 -5.9556351 -1.8871011 4 2
10.388547 -8.0785303 -2.0843329 3 3
15.230154 -11.856351 -2.3698714 5 4
29.520397 -23.038979 -1.9624939 3 6
5.2261372 -4.1081352 -1.7811928 3 0
6.1716666 -4.8566232 -1.8131055 2 1
7.6390142 -6.0199513 -1.8905357 4 2
10.434252 -8.2316093 -2.1049824 3 3
15.156358 -11.969769 -2.3713338 5 4
5.1912885 -4.1397023 -1.7791222 3 0
6.1254272 -4.889864 -1.8095063 2 1
7.6162648 -6.0865159 -1.895115 4 2
10.42734 -8.3419304 -2.1149943 3 3
15.069324 -12.072806 -2.3708463 5 4
5.1885271 -4.1955919 -1.787922 2 0
6.0980601 -4.9363489 -1.8113058 2 1
7.5751123 -6.1407747 -1.8954966 4 2
10.479287 -8.5041437 -2.1375208 4 3
14.990837 -12.182723 -2.3718214 5 4
5.1628513 -4.2362885 -1.789475 1 0
6.0565577 -4.9749117 -1.8095063 1 1
7.5563211 -6.2134604 -1.9016025 4 2
26.492662 -21.800066 3.0016439 3 10
10.588955 -8.7195511 -2.1725621 3 3
14.908484 -12.289606 -2.372309 5 4
5.1272116 -4.2672853 -1.7874043 3 0
6.0546165 -5.0445161 -1.8194041 2 1
29.746082 -24.801098 2.0296931 2 9
7.5463362 -6.2963014 -1.9103796 3 2
26.029314 -21.725315 2.9662583 10 10
10.797689 -9.0186672 -2.2282526 7 3
14.81928 -12.390841 -2.3718214 5 4
5.1076288 -4.3116989 -1.7910279 2 0
6.0222282 -5.0891771 -1.8203038 2 1
29.678772 -25.089386 2.0367062 4 9
7.4973092 -6.3424492 -1.9088533 3 2
25.924149 -21.946413 2.971662 16 10
10.739067 -9.0945091 -2.2288785 6 3
14.733928 -12.495278 -2.3720651 4 4
38.18581 -32.452728 -2.6263232 0 6
5.1001773 -4.3652081 -1.7987925 3 0
5.9696903 -5.1148362 -1.8149052 2 1
29.648453 -25.420776 2.0467548 3 9
7.4528484 -6.3946357 -1.9088533 3 2
25.863365 -22.198923 2.9819465 3 10
10.717272 -9.2052975 -2.237639 7 3
14.631977 -12.581042 -2.3693841 5 4
17.900408 -15.413094 -2.066637 31 5
38.1096 -32.848923 -2.6367905 0 6
5.0724964 -4.4032397 -1.7998277 3 0
5.980907 -5.1972904 -1.8293018 2 1
29.56069 -25.705774 2.053035 3 9
7.4850364 -6.5135264 -1.9286975 3 2
10.661683 -9.2876787 -2.239516 6 3
14.552764 -12.690714 -2.3708463 5 4
29.723352 -25.984198 -2.0690498 0 6
5.0532322 -4.4487576 -1.8039688 3 0
5.9532499 -5.2466488 -1.8320013 2 1
29.503342 -26.019846 2.0616181 2 9
10.605466 -9.3697319 -2.2413933 6 3
14.440022 -12.770959 -2.3669467 5 4
29.460527 -26.11952 -2.0633976 2 6
4.9932303 -4.4581943 -1.7936161 3 0
29.485424 -26.335245 0.69006813 3 8
5.9179296 -5.2893815 -1.8324513 6 1
29.370214 -26.260002 2.0647585 2 9
7.4384112 -6.6553807 -1.940146 3 2
10.544385 -9.4443388 -2.2420189 7 3
14.368247 -12.887365 -2.3698714 5 4
5.0086012 -4.5335636 -1.8101805 3 0
5.878901 -5.3269234 -1.8315514 6 1
29.396269 -26.654907 2.0796216 1 9
7.432478 -6.7440877 -1.9508314 3 2
10.47527 -9.5150661 -2.2413933 6 3
14.27285 -12.978189 -2.3686528 4 4
4.9512119 -4.5449047 -1.8008629 3 0
5.8501787 -5.3757467 -1.8342509 7 1
29.359428 -26.997377 2.0902984 0 9
7.4227757 -6.8303752 -1.9607532 3 2
10.423118 -9.601347 -2.2445219 7 3
14.199409 -13.093664 -2.3715777 4 4
4.9476423 -4.6056857 -1.8112158 3 0
5.8381686 -5.4403715 -1.8423492 7 1
29.279787 -27.303844 2.0981486 1 9
7.3749099 -6.8820291 -1.9607532 3 2
10.361608 -9.6792746 -2.2457736 7 3
14.117802 -13.201964 -2.3732839 5 4
17.574469 -16.474686 -1.2624481 31 6
4.8957009 -4.6215482 -1.8039688 4 0
5.8057113 -5.4863501 -1.8441486 8 1
7.3564196 -6.959053 -1.9683858 3 2
10.301221 -9.7550116 -2.2470248 6 3
14.01665 -13.292008 -2.3718214 5 4
17.528519 -16.657217 -1.2672629 31 6
4.8445897 -4.6360655 -1.7967219 4 0
5.7823052 -5.5392222 -1.8486477 7 1
7.3614945 -7.0618854 -1.9828871 3 2
10.241416 -9.834898 -2.2489021 7 3
13.928713 -13.389857 -2.372309 5 4
17.528296 -16.891441 -1.2757415 21 6
4.8426065 -4.6993723 -1.80811 3 0
5.7574706 -5.5930324 -1.8531467 7 1
7.3204579 -7.1213198 -1.9851768 3 2
10.161185 -9.8951321 -2.2463992 7 3
13.856215 -13.507558 -2.3759649 4 4
17.512793 -17.113905 -1.2832778 21 6
4.8096814 -4.7330651 -1.80811 4 0
5.7182837 -5.633091 -1.8531467 7 1
27.427086 -27.037338 2.0183887 2 9
7.3041067 -7.2053423 -1.9943358 3 2
10.091857 -9.9658289 -2.2463992 6 3
13.765814 -13.60815 -2.3766961 5 4
17.479429 -17.321507 -1.2896628 21 6
4.7710514 -4.7610688 -1.8060393 4 0
5.6843338 -5.6783834 -1.8549464 7 1
27.17127 -27.161785 2.013469 6 9
7.2619548 -7.2644897 -1.9966254 3 2
10.01785 -10.031845 -2.2454607 5 3
13.65926 -13.692676 -2.3747461 5 4
4.7458434 -4.8025055 -1.8091452 4 0
5.6637197 -5.7373452 -1.8612449 7 1
7.2427621 -7.3471675 -2.0054026 4 2
9.9572735 -10.111392 -2.2476506 7 3
13.561944 -13.786286 -2.3745024 4 4
4.7175941 -4.8410549 -1.8112158 4 0
5.6344023 -5.7879162 -1.8648442 7 1
7.2350845 -7.4425988 -2.0176144 4 2
9.8809347 -10.174992 -2.2463992 7 3
13.477807 -13.893455 -2.3766961 5 4
4.678328 -4.8682995 -1.8091452 5 0
5.6073532 -5.8411684 -1.8693433 7 1
7.2277827 -7.5396962 -2.0302079 3 2
9.7877998 -10.220898 -2.2413933 7 3
13.37088 -13.977167 -2.37499 4 4
4.6601729 -4.9176683 -1.8153569 3 0
5.5664377 -5.8801727 -1.8693433 7 1
25.169733 -26.606943 1.9194738 12 9
7.1911545 -7.6070919 -2.0347872 3 2
9.7107821 -10.283234 -2.2401419 7 3
13.267527 -14.064396 -2.3740151 4 4
4.6318688 -4.9549208 -1.8174274 3 0
5.5395842 -5.9321685 -1.8738421 7 1
25.097055 -26.894466 1.9278475 14 9
7.1740208 -7.6931953 -2.0447092 3 2
9.6432543 -10.351986 -2.2407675 6 3
13.160668 -14.142752 -2.3720651 4 4
4.6154952 -5.0070219 -1.8246742 3 0
5.4980354 -5.9706974 -1.8738421 7 1
25.041222 -27.213051 1.9381053 13 9
7.1546888 -7.7806649 -2.0546315 3 2
9.5734215 -10.421966 -2.2413933 6 3
13.061613 -14.234285 -2.3720651 4 4
4.5596366 -5.0162492 -1.8163921 3 0
5.4745593 -6.0291333 -1.880141 6 1
25.000946 -27.552866 1.9498285 10 9
7.1661334 -7.9031448 -2.0737123 3 2
9.4924746 -10.479761 -2.239516 6 3
12.991223 -14.357508 -2.3774273 4 4
28.844416 -31.956367 -2.2560985 1 6
4.5270853 -5.0508361 -1.8174274 5 0
5.4414339 -6.0773687 -1.8832903 5 1
24.939365 -27.863785 1.9597725 9 9
7.1658349 -8.0117359 -2.0893586 4 2
9.432766 -10.557388 -2.242332 5 3
12.852347 -14.404898 -2.3703589 5 4
28.502714 -32.013237 -2.2463641 1 6
4.5194712 -5.1119275 -1.8282977 6 0
28.555872 -32.321976 0.75282699 0 8
5.3973608 -6.1113443 -1.8823904 4 1
24.884321 -28.195946 1.9708676 8 9
7.1980314 -8.1616926 -2.1153085 4 2
9.3549156 -10.618537 -2.2413933 6 3
12.730394 -14.465223 -2.3659718 6 4
28.428741 -32.382549 -2.2582967 1 6
4.4849429 -5.1448107 -1.8288155 5 0
5.3737607 -6.1709208 -1.8891391 6 1
24.841581 -28.546766 1.9832189 7 9
7.2967587 -8.3910007 -2.1614842 6 2
9.2999878 -10.705957 -2.2460864 5 3
12.622592 -14.546249 -2.364753 4 4
42.646095 -49.266735 -3.4149213 16 6
4.4552126 -5.1833215 -1.8314036 6 0
5.3394356 -6.2186356 -1.8922883 5 1
24.779547 -28.880173 1.9943142 5 9
7.2763376 -8.4864502 -2.1729329 6 2
9.2327309 -10.779624 -2.2479637 5 3
12.595583 -14.721499 -2.3788898 4 4
4.4151711 -5.2098765 -1.8298507 7 0
5.3361835 -6.3033547 -1.9066852 5 1
24.729532 -29.232389 2.0066655 4 9
7.2308564 -8.5535336 -2.1771307 7 2
9.1521511 -10.83778 -2.246712 5 3
12.528341 -14.85156 -2.3857143 4 4
4.3886013 -5.2524328 -1.8339919 5 0
5.2945461 -6.3434467 -1.9075849 4 1
24.670691 -29.579172 2.0185981 3 9
7.1697078 -8.6022978 -2.1767492 4 2
9.0724764 -10.896855 -2.2457736 6 3
12.496707 -15.025655 -2.3996074 2 4
28.069494 -33.833889 -2.3039339 1 6
4.3616519 -5.2948718 -1.8381329 5 0
5.25137 -6.3817592 -1.9080348 3 1
24.613274 -29.93272 2.0309494 3 9
7.1306672 -8.677927 -2.1832366 7 2
9.0049543 -10.970616 -2.2479637 5 3
12.595408 -15.361211 -2.4390934 3 4
28.014692 -34.251648 -2.3190064 1 6
4.3416305 -5.3461871 -1.8453798 7 0
5.2398367 -6.4591265 -1.9201821 2 1
24.542055 -30.274485 2.0424633 2 9
7.0600247 -8.7152929 -2.1801836 7 2
8.9356012 -11.042427 -2.2498407 5 3
12.560239 -15.538308 -2.4532301 3 4
38.995167 -48.361771 -3.2558203 7 6
4.2957506 -5.3658104 -1.8417563 6 0
5.2043538 -6.5077248 -1.9237814 3 1
24.487568 -30.631161 2.0552332 1 9
7.0005393 -8.7631474 -2.1801836 7 2
8.8503742 -11.090642 -2.2473378 5 3
12.517021 -15.707895 -2.4661481 4 4
38.279732 -48.14146 -3.223372 5 6
4.2675066 -5.4055395 -1.8453798 4 0
5.1888981 -6.5797229 -1.934579 3 1
24.441252 -31.014713 2.0694687 1 9
6.9440484 -8.817976 -2.1817102 7 2
8.7825031 -11.164578 -2.2498407 5 3
12.466232 -15.864532 -2.4773602 4 4
37.580467 -47.945385 -3.1925983 3 6
4.2427163 -5.4519715 -1.8510739 6 0
5.1595802 -6.6373272 -1.9408777 3 1
24.373611 -31.377016 2.0822387 0 9
6.87991 -8.8631372 -2.1809468 7 2
8.7103977 -11.233426 -2.2514052 6 3
12.45242 -16.076727 -2.4968593 4 4
36.927353 -47.795643 -3.1653836 1 6
4.2104297 -5.4891224 -1.853662 5 0
5.1036363 -6.6608109 -1.9372785 4 1
24.311815 -31.752563 2.0958459 1 9
6.8238325 -8.9187479 -2.1828551 6 2
8.6233654 -11.282974 -2.2492149 5 3
12.407338 -16.251625 -2.5105085 4 4
36.249126 -47.601009 -3.1356568 0 6
4.1755013 -5.523006 -1.855215 6 0
5.0781507 -6.7242703 -1.9453768 2 1
24.224295 -32.100071 2.107569 1 9
6.7602201 -8.9646015 -2.1824734 7 2
8.5634022 -11.368146 -2.254221 5 3
12.331773 -16.388607 -2.5183084 4 4
35.604206 -47.437592 -3.1084421 0 6
4.1460762 -5.5644145 -1.8593562 6 0
5.0427175 -6.7751908 -1.9498757 1 1
24.187931 -32.521618 2.1241074 1 9
6.7068396 -9.0241842 -2.1855264 9 2
8.4673452 -11.405448 -2.2498407 5 3
12.247804 -16.515757 -2.5246456 4 4
34.98711 -47.299625 -3.0833209 0 6
4.1071286 -5.5932236 -1.8593562 6 0
5.0160427 -6.8385148 -1.957974 3 1
24.124258 -32.901337 2.1381333 1 9
6.6475792 -9.072794 -2.1862895 7 2
8.4035149 -11.481947 -2.2535954 5 3
12.204823 -16.700226 -2.5397573 4 4
34.374855 -47.13969 -3.0575714 1 6
4.0723605 -5.6257448 -1.8609091 5 0
4.9922156 -6.9040823 -1.966972 4 1
24.055397 -33.292355 2.1525781 1 9
6.5633922 -9.0903311 -2.1794205 7 2
8.3300848 -11.549946 -2.2554724 5 3
12.118715 -16.821568 -2.5456071 4 4
33.74889 -46.966549 -3.0309849 0 6
4.0307422 -5.6508923 -1.8598738 4 0
4.9484177 -6.9451151 -1.9687717 5 1
23.998466 -33.706791 2.1684883 1 9
6.5179791 -9.1615257 -2.1855264 7 2
8.242383 -11.59816 -2.2535954 5 3
12.079122 -17.015835 -2.5621812 4 4
33.15012 -46.819588 -3.0064917 0 6
4.0023022 -5.6946993 -1.8650501 4 0
4.9098887 -6.9938464 -1.9728208 6 1
23.925444 -34.105682 2.1833518 1 9
6.4223084 -9.1617928 -2.1748412 9 2
8.1736755 -11.673219 -2.2570367 6 3
12.019197 -17.184334 -2.5748556 4 4
32.566479 -46.682953 -2.9830451 0 6
3.9690473 -5.7320318 -1.868156 4 0
4.873138 -7.0455832 -1.9777697 5 1
23.852549 -34.511765 2.1986337 1 9
6.3604221 -9.2096357 -2.1756043 7 2
8.1020784 -11.744631 -2.2598526 5 3
11.937233 -17.323404 -2.5831428 4 4
31.98864 -46.543758 -2.9598079 0 6
3.9311109 -5.7627926 -1.8691912 4 0
4.8501668 -7.118082 -1.9885672 5 1
23.786388 -34.93499 2.2149625 1 9
6.2937632 -9.2505693 -2.1748412 7 2
8.0254402 -11.809075 -2.2614169 6 3
11.869521 -17.485155 -2.5948424 5 4
31.409864 -46.39217 -2.936152 0 6
3.8994036 -5.8029242 -1.8733324 3 0
4.829679 -7.1954546 -2.0007145 6 1
23.726597 -35.375546 2.2323382 1 9
6.2366805 -9.3056974 -2.1775124 6 2
7.9471974 -11.871382 -2.2626684 6 3
11.790196 -17.631948 -2.6043482 3 4
30.86359 -46.278 -2.9152179 0 6
3.8683462 -5.8422174 -1.8774734 4 0
4.7934895 -7.2476678 -2.0061135 6 1
6.1829314 -9.3626766 -2.1809468 7 2
7.8607697 -11.916956 -2.2611041 5 3
11.747451 -17.829485 -2.6216536 5 4
30.30657 -46.119797 -2.8921897 0 6
3.8401294 -5.8884993 -1.8836851 3 0
4.7576656 -7.3038163 -2.0124121 6 1
6.1109943 -9.3957405 -2.1786571 7 2
7.7859921 -11.984796 -2.263607 5 3
11.687529 -18.010975 -2.6362779 5 4
30.012074 -46.373852 -2.8949113 1 6
3.8093662 -5.9314198 -1.8888614 4 0
4.7128735 -7.346694 -2.0151114 3 1
6.0410156 -9.4315615 -2.1771307 7 2
7.7159719 -12.060492 -2.2676742 6 3
11.610674 -18.169073 -2.6474898 5 4
29.893692 -46.905621 -2.9150083 1 6
3.7616692 -5.9480729 -1.8857557 3 0
4.6999774 -7.4403768 -2.0317578 5 1
5.9798207 -9.4774418 -2.1782756 6 2
7.6315956 -12.109391 -2.2670486 6 3
11.508923 -18.290012 -2.6533396 5 4
29.779736 -47.436172 -2.9353147 1 6
3.7353947 -5.9964962 -1.8930025 3 0
4.6656952 -7.4986696 -2.0389564 5 1
5.9290514 -9.543972 -2.1839998 7 2
7.5572848 -12.17916 -2.2701774 6 3
11.434356 -18.448917 -2.6650391 5 4
29.643167 -47.95892 -2.9547837 1 6
3.7035408 -6.0388956 -1.8981789 3 0
4.6458054 -7.5842352 -2.0533531 5 1
5.8567786 -9.5723858 -2.1813285 6 2
7.4742103 -12.230317 -2.2701774 6 3
11.337333 -18.580824 -2.6725948 3 4
29.494656 -48.453018 -2.9727871 1 6
3.6883166 -6.1069603 -1.9116375 2 0
4.6584954 -7.722476 -2.0821469 5 1
5.7877827 -9.6096773 -2.1805654 4 2
7.3957744 -12.294047 -2.2723672 5 3
11.246179 -18.724186 -2.6818569 3 4
29.28092 -48.86676 -2.9855571 1 6
3.6346536 -6.1165886 -1.9064611 2 0
4.7274442 -7.9650879 -2.1383848 7 1
5.7215538 -9.6515379 -2.1809468 7 2
7.3146539 -12.358555 -2.2745574 6 3
11.133369 -18.833004 -2.6862445 3 4
28.74589 -48.761902 -2.966507 0 6
7.1952891 -12.229813 3.8020518 4 15
3.5996652 -6.1551552 -1.9106023 2 0
4.689414 -8.0281868 -2.1464829 7 1
5.6503654 -9.6888418 -2.1801836 7 2
7.232173 -12.416146 -2.2758088 6 3
11.045545 -18.985765 -2.6969688 3 4
28.224363 -48.650429 -2.9476659 1 6
3.556607 -6.1801353 -1.9106023 2 0
4.6507335 -8.0911398 -2.1545811 8 1
5.5872173 -9.7321854 -2.1813285 6 2
39.980072 -69.696274 7.0296335 49 10
7.1455269 -12.461658 -2.2751832 6 3
10.936401 -19.10376 -2.7028186 3 4
27.70635 -48.515362 -2.9279878 1 6
3.5182664 -6.2109251 -1.9126729 2 0
4.5974703 -8.1260014 -2.1554811 8 1
5.5365191 -9.8017225 -2.1881976 6 2
7.0661197 -12.525003 -2.2776861 6 3
10.819756 -19.201971 -2.7062309 3 4
27.230015 -48.463829 -2.9133337 1 6
3.4898674 -6.2623353 -1.9209551 1 0
4.538734 -8.1544933 -2.1545811 9 1
5.4696727 -9.8391819 -2.1881976 6 2
38.463875 -69.248085 6.9302759 46 10
6.9826202 -12.576265 -2.278312 7 3
10.689285 -19.283983 -2.7072058 3 4
26.733267 -48.347424 -2.89533 1 6
3.4555206 -6.3011899 -1.9256139 2 0
4.4924841 -8.2022905 -2.1590803 9 1
5.3999085 -9.8754053 -2.1878161 7 2
37.938118 -69.410393 6.9205146 46 10
6.9041204 -12.642042 -2.2814405 7 3
10.555877 -19.35281 -2.7067184 3 4
26.286306 -48.332859 -2.8833973 0 6
3.4297876 -6.3591666 -1.9359666 2 0
4.4462028 -8.2540417 -2.164479 9 1
5.3307033 -9.908474 -2.187053 9 2
37.879017 -70.466774 6.9993033 48 10
6.8291283 -12.709625 -2.2851949 6 3
10.433651 -19.450521 -2.7101307 3 4
25.798409 -48.214809 -2.8658125 0 6
3.3818951 -6.3738317 -1.9333783 3 0
4.3972158 -8.2978897 -2.1680782 8 1
5.2650723 -9.9523888 -2.1885793 7 2
6.7402339 -12.75699 -2.2851949 6 3
10.319543 -19.556204 -2.7150056 3 4
25.339352 -48.162189 -2.8521006 1 6
3.3391027 -6.400712 -1.9344137 2 0
4.3301744 -8.3111038 -2.1635792 9 1
5.2053623 -10.003671 -2.192014 4 2
6.6605306 -12.816598 -2.2876978 6 3
10.190079 -19.641867 -2.7169554 3 4
24.844801 -48.012493 -2.8331549 1 6
7.1206012 -13.77231 3.579421 4 14
3.3219125 -6.4748578 -1.9499428 1 0
4.2752805 -8.343854 -2.164479 9 1
5.1371861 -10.043262 -2.1927772 6 2
6.5780802 -12.876858 -2.2902007 7 3
10.057948 -19.71431 -2.7174428 3 4
23.326437 -45.859821 -2.6964533 0 6
3.2696705 -6.4840908 -1.9458016 2 0
4.2116661 -8.3630552 -2.1617796 9 1
5.072237 -10.089407 -2.1950669 6 2
6.4897976 -12.925999 -2.2908266 7 3
9.918294 -19.780497 -2.7169554 3 4
23.018209 -46.046562 -2.6979189 0 6
3.2329011 -6.5240698 -1.9509782 3 0
4.1583652 -8.4027328 -2.164479 9 1
5.0060248 -10.133371 -2.196975 7 2
6.4081402 -12.988704 -2.2939553 7 3
9.7975054 -19.884871 -2.7218301 3 4
23.453457 -47.747837 -2.7879367 1 6
3.1923497 -6.5569015 -1.9540838 3 0
4.0978975 -8.4280539 -2.1635792 9 1
4.9343009 -10.166307 -2.1965933 6 2
6.3233371 -13.045568 -2.2961452 8 3
9.6653662 -19.967079 -2.7237799 3 4
22.980663 -47.622601 -2.771189 1 6
3.1564996 -6.5999413 -1.9602956 3 0
4.0439987 -8.4670067 -2.1662786 9 1
4.861517 -10.196963 -2.1958301 4 2
6.2253141 -13.075127 -2.2936423 8 3
6.6369004 -13.958412 -1.8977495 14 4
22.528728 -47.53101 -2.7566397 1 6
3.1103466 -6.6218171 -1.9602956 4 0
3.9881008 -8.5020895 -2.1680782 9 1
4.7835517 -10.21643 -2.1927772 6 2
6.1422496 -13.136163 -2.296771 8 3
6.4023905 -13.711224 -1.8580201 16 4
22.067408 -47.410091 -2.7406249 1 6
3.0705144 -6.6574039 -1.9644365 4 0
3.9302783 -8.5332651 -2.168978 9 1
4.7186723 -10.263846 -2.1958301 6 2
6.0462728 -13.169747 -2.2952068 9 3
6.2361951 -13.602206 -1.8373024 19 4
21.63129 -47.334103 -2.7274363 0 6
3.0207758 -6.6716385 -1.9623661 4 0
3.871412 -8.5622711 -2.1694279 10 1
4.6622467 -10.330538 -2.2030807 7 2
5.937139 -13.173817 -2.2886364 8 3
6.1704102 -13.710579 -1.846077 16 4
6.9913502 -15.570993 3.3177869 3 13
21.184231 -47.225197 -2.7125728 1 6
2.9992299 -6.7490573 -1.9789305 3 0
3.8075907 -8.5801849 -2.1671786 9 1
4.5844464 -10.350269 -2.2004094 6 2
5.8450236 -13.214946 -2.2886364 8 3
6.013588 -13.615316 -1.8275528 18 4
20.751019 -47.137959 -2.6991749 0 6
2.9582176 -6.7839971 -1.9830716 3 0
3.7491527 -8.6101303 -2.1680782 8 1
4.521718 -10.39924 -2.2042258 6 2
5.7557249 -13.256236 -2.2889495 9 3
5.9475937 -13.72436 -1.8365711 10 4
20.320354 -47.025105 -2.6847303 1 6
2.9089315 -6.7968726 -1.981001 3 0
3.6828012 -8.6175308 -2.1635792 9 1
4.453629 -10.441387 -2.2065153 6 2
5.6583943 -13.285191 -2.2870722 11 3
5.7833395 -13.59829 -1.8143909 14 4
19.907383 -46.967216 -2.6734254 1 6
2.8763642 -6.8526402 -1.9913538 3 0
3.6255631 -8.6502199 -2.1653788 9 1
4.3806272 -10.472225 -2.2065153 6 2
5.54952 -13.286093 -2.2805018 17 3
5.6729822 -13.601693 -1.8095162 14 4
19.474758 -46.854229 -2.6591902 0 6
2.8269832 -6.8689814 -1.9903185 3 0
3.5636046 -8.6717157 -2.164479 9 1
4.3111362 -10.511634 -2.2084234 7 2
5.4326782 -13.266014 -2.2704902 20 3
19.062767 -46.781891 -2.6474669 1 6
2.7804058 -6.8921323 -1.9913538 3 0
3.5029776 -8.6963825 -2.164479 9 1
4.2394857 -10.540735 -2.2084234 7 2
5.321641 -13.251359 -2.26173 20 3
5.4987683 -13.720111 -1.8148785 18 4
18.806139 -47.066357 -2.6562593 1 6
2.7419548 -6.932456 -1.9975655 3 0
3.4394083 -8.7091494 -2.1617796 9 1
4.1729946 -10.588342 -2.2122397 9 2
5.2101941 -13.240395 -2.2535954 30 3
5.3863764 -13.709185 -1.8085413 18 4
18.663504 -47.672611 -2.6830554 1 6
2.704658 -6.9802513 -2.0058477 4 0
3.3714917 -8.7147732 -2.1572804 9 1
4.0975575 -10.613552 -2.2114763 7 2
5.0885015 -13.200875 -2.2407675 22 3
5.1978478 -13.505613 -1.7768552 18 4
6.8612227 -17.846163 3.0282588 1 12
18.511866 -48.275414 -2.7096419 1 6
2.6640861 -7.020637 -2.0120592 3 0
3.3188548 -8.7599669 -2.1626794 9 1
4.025444 -10.647409 -2.2126212 6 2
4.9808707 -13.195421 -2.2338843 23 3
5.0978336 -13.526712 -1.7749053 15 4
18.361139 -48.900845 -2.7374849 1 6
2.6230819 -7.0607953 -2.018271 3 0
3.253552 -8.7719612 -2.1599801 9 1
3.9530587 -10.680776 -2.2137661 7 2
4.8742499 -13.19096 -2.2273142 25 3
5.0376287 -13.655091 -1.7870922 10 4
18.223249 -49.582733 -2.7684677 1 6
2.5763645 -7.0861983 -2.0203414 3 0
3.1882443 -8.7834692 -2.1572804 9 1
3.8817406 -10.717342 -2.2156742 6 2
4.7531595 -13.144787 -2.2138608 23 3
4.9003839 -13.574164 -1.7719804 5 4
6.3459444 -17.645863 -0.98276472 18 6
2.5371902 -7.1331334 -2.0286238 3 0
3.1294551 -8.8128595 -2.1590803 9 1
3.7996125 -10.723825 -2.2114763 9 2
4.6481004 -13.140403 -2.2076035 21 3
4.8134346 -13.630507 -1.7749053 19 4
6.2504363 -17.768867 -0.98716092 18 6
2.4936764 -7.1689191 -2.0338001 3 0
3.0678544 -8.8344917 -2.1590803 9 1
3.7387938 -10.790901 -2.219872 7 2
4.5452728 -13.140797 -2.2022848 25 3
4.7207494 -13.671282 -1.7758802 19 4
8.1438437 -23.678288 -1.312272 10 6
2.4584935 -7.2300496 -2.0462234 3 0
3.0136201 -8.8778381 -2.164479 9 1
3.6539154 -10.782632 -2.2130029 7 2
4.4342003 -13.107809 -2.1916471 26 3
4.5959902 -13.617387 -1.7646682 6 4
6.0214057 -17.902576 -0.98988241 28 6
2.4019105 -7.2246184 -2.0400119 3 0
2.956805 -8.9092436 -2.1671786 9 1
3.5908914 -10.845153 -2.2206352 7 2
4.322125 -13.076551 -2.1813223 24 3
5.8769422 -17.853815 -1.6444545 35 5
5.832056 -17.748739 -0.97910112 18 6
2.3693142 -7.2963328 -2.055541 3 0
2.8921311 -8.9222527 -2.1653788 9 1
3.5126739 -10.862484 -2.2191086 7 2
4.2149506 -13.057532 -2.1731877 23 3
6.6804643 -20.720196 2.6730826 3 11
5.5548038 -17.239143 -2.2238719 6 4
5.7814255 -17.985456 -1.6528214 36 5
5.6652908 -17.655899 -0.9717741 18 6
2.3440073 -7.393723 -2.0783172 3 0
2.8332999 -8.953373 -2.1680782 8 1
3.4332108 -10.87551 -2.216819 7 2
4.1124096 -13.050842 -2.1672435 27 3
4.2752657 -13.592495 -1.7495564 6 4
5.7794218 -18.408375 -1.6880323 37 5
5.5872588 -17.839872 -0.97972924 18 6
2.3380075 -7.5575514 -2.1197281 4 0
2.7718744 -8.9766598 -2.168978 8 1
3.3585253 -10.89675 -2.2164373 4 2
4.0130262 -13.044547 -2.1616118 25 3
4.1616354 -13.561281 -1.7417568 13 4
5.5188937 -18.017738 -1.648638 36 5
5.492558 -17.965351 -0.9845441 18 6
2.308846 -7.6472664 -2.1404335 4 0
2.7152071 -9.0102453 -2.1725771 8 1
3.2851965 -10.929332 -2.2183454 7 2
3.905968 -13.019268 -2.1528513 25 3
4.1466727 -13.847922 -1.7749053 7 4
5.4499936 -18.246733 -1.6660691 36 5
5.3207865 -17.848223 -0.9760657 27 6
2.2412205 -7.6150141 -2.1269751 4 0
2.651139 -9.0252419 -2.1716774 8 1
3.2088153 -10.952001 -2.2183454 7 2
3.8083296 -13.023467 -2.149097 17 3
4.0276523 -13.800308 -1.7651558 19 4
6.5464554 -22.489084 -2.0492058 31 5
5.3008113 -18.245508 -0.99574399 18 6
2.1762891 -7.5896206 -2.115587 4 0
2.5923569 -9.0585184 -2.1752765 8 1
3.1301231 -10.966585 -2.216819 7 2
3.7048688 -13.006042 -2.141901 12 3
3.8421848 -13.514945 -1.7251827 5 4
6.3555956 -22.415394 -2.0383985 31 5
6.3343487 -22.385111 -1.2192186 20 6
2.1211722 -7.5971861 -2.1135163 4 0
2.5269611 -9.0688868 -2.1734772 8 1
3.056639 -10.999518 -2.2191086 9 2
3.619786 -13.052527 -2.1453426 9 3
5.2896175 -19.112598 -2.4349496 9 4
6.1593552 -22.361391 -1.2155551 31 6
2.0680833 -7.6118093 -2.1135163 5 0
2.4625669 -9.0825453 -2.1725771 8 1
6.4667797 -23.884064 1.2967805 5 9
2.9818258 -11.028171 -2.2206352 7 2
3.533205 -13.094645 -2.1481583 9 3
3.6784008 -13.661197 -1.7371258 9 4
5.9965415 -22.332617 -2.0230591 32 5
5.985518 -22.338255 -1.2119962 31 6
2.0153859 -7.6279297 -2.1140339 6 0
2.4020805 -9.1108217 -2.1752765 8 1
2.9027653 -11.041123 -2.2191086 9 2
3.4782968 -13.258473 -2.1709976 14 3
5.1046953 -19.499531 -2.4749229 1 4
5.8022356 -22.275127 -1.2063439 31 6
1.9619761 -7.6358581 -2.1124811 5 0
2.3409786 -9.1307373 -2.1761765 9 1
2.8285172 -11.06443 -2.219872 7 2
3.3747857 -13.230162 -2.1625502 19 3
3.5190732 -13.82604 -1.7517501 5 4
5.6436176 -22.286999 -1.2048786 30 6
1.9067491 -7.641871 -2.1104105 5 0
2.2771771 -9.1468582 -2.1761765 8 1
7.9940009 -32.157822 1.736612 6 9
2.751204 -11.083907 -2.219872 7 2
3.2923138 -13.293667 -2.1691206 19 3
4.9029803 -19.841711 -2.5095336 9 4
5.4678664 -22.244396 -1.2004824 30 6
1.8488075 -7.6362205 -2.1052344 5 0
2.2141805 -9.1663198 -2.1770763 7 1
2.6811109 -11.133384 -2.2259779 7 2
3.1772752 -13.224133 -2.1541028 21 3
3.2854323 -13.705881 -1.7305448 7 4
5.299005 -22.225685 -1.1974468 41 6
5.3072376 -22.311991 -0.4003233 35 7
1.7972172 -7.6564641 -2.1073048 4 0
2.1474676 -9.1701708 -2.174377 8 1
7.2450271 -30.986612 1.6677377 14 9
2.6068904 -11.167125 -2.2290308 9 2
3.0669537 -13.169036 -2.141588 19 3
4.7615891 -20.494112 -2.5833867 6 4
5.1306753 -22.205704 -1.1944113 30 6
1.7437223 -7.6688242 -2.1073048 4 0
2.0833955 -9.1849394 -2.174377 8 1
2.5340636 -11.20803 -2.2336102 7 2
2.9375646 -13.024407 -2.1146812 21 3
4.6907296 -20.848341 -2.6238472 14 4
4.2934175 -19.129217 -1.715225 31 5
4.9607005 -22.174713 -1.1908525 30 6
1.6851593 -7.6581702 -2.1010931 4 0
2.0234008 -9.2182941 -2.1788759 7 1
2.4568732 -11.221185 -2.232847 9 2
2.8690753 -13.136735 -2.129699 19 3
4.6151557 -21.202568 -2.6643078 14 4
4.7961183 -22.1455 -1.187503 30 6
1.6346028 -7.6770215 -2.1031637 4 0
1.9622271 -9.2394781 -2.1806755 7 1
2.3841684 -11.264953 -2.2381897 7 2
2.7675014 -13.110058 -2.1221902 31 3
2.9050932 -13.797592 -1.731276 5 4
4.6323986 -22.135437 -1.1852002 30 6
4.6452408 -22.25491 -0.39683282 35 7
1.5801891 -7.6844616 -2.1021285 4 0
1.8945436 -9.2376795 -2.1770763 8 1
2.3074348 -11.28092 -2.2381897 9 2
2.654511 -13.012462 -2.1034181 17 3
2.7715304 -13.634678 -1.7083646 9 4
4.4673715 -22.09598 -1.181432 30 6
4.489759 -22.286798 -0.39683282 35 7
1.5285993 -7.6988292 -2.1031637 5 0
1.8278366 -9.231245 -2.1725771 8 1
2.2362227 -11.335276 -2.245822 9 2
2.5453005 -12.937641 -2.0884004 17 3
3.7213547 -18.985434 -2.3754773 9 4
4.3026891 -22.0737 -1.1786058 40 6
1.4720179 -7.7019801 -2.1010931 4 0
1.7558955 -9.2134609 -2.1653788 8 1
6.3570881 -33.420071 1.7828768 10 9
2.1526361 -11.327467 -2.2412426 7 2
2.4449394 -12.914764 -2.08183 18 3
3.5791469 -18.960234 -2.3691401 4 4
4.1317425 -22.035215 -1.1749424 40 6
1.4175134 -7.7082691 -2.1000578 5 0
1.6908276 -9.2216606 -2.164479 7 1
2.077167 -11.373483 -2.2473485 7 2
2.366396 -12.995652 -2.0921547 16 3
3.4388914 -18.941792 -2.3637781 2 4
3.4273829 -18.934801 -1.6835002 37 5
3.9877293 -22.118559 -1.1778731 20 6
1.3629936 -7.7141724 -2.0990226 4 0
1.6250559 -9.2255621 -2.1626794 7 1
2.0010602 -11.395092 -2.2488749 7 2
2.2632363 -12.927789 -2.0787015 20 3
3.5650144 -20.447676 -2.5485318 4 4
3.2780533 -18.860121 -1.6747848 36 5
3.8401494 -22.162903 -1.1788151 41 6
1.3117467 -7.7308893 -2.1010931 5 0
1.5609219 -9.2287254 -2.1608799 8 1
1.9201571 -11.40104 -2.2473485 9 2
2.1781609 -12.974444 -2.0837073 19 3
3.4244378 -20.463638 -2.5475571 9 4
3.143044 -18.842693 -1.6712985 36 5
3.6722426 -22.110359 -1.1746283 40 6
2.1388197 -12.947601 3.5163157 0 15
1.2571234 -7.7360458 -2.1000578 4 0
1.4970795 -9.2432451 -2.1617796 7 1
1.8481385 -11.448733 -2.2542176 9 2
2.0828943 -12.946063 -2.0768242 19 3
3.2727005 -20.432163 -2.5407324 3 4
3.0019979 -18.805151 -1.6660691 36 5
3.5147529 -22.091452 -1.1723256 40 6
1.205031 -7.7482405 -2.1010931 5 0
1.434129 -9.2532215 -2.1617796 8 1
1.7693647 -11.469117 -2.255744 7 2
1.9852607 -12.913431 -2.0693154 21 3
2.8667114 -18.77788 -1.6618856 36 5
3.3538415 -22.07201 -1.1700227 40 6
1.1475064 -7.7335343 -2.0948815 4 0
1.3706343 -9.2707176 -2.1635792 8 1
1.6924016 -11.488665 -2.2572706 9 2
1.8944467 -12.9071 -2.0661867 22 3
2.7212009 -18.698854 -1.6531701 36 5
3.1977923 -22.054794 -1.1679294 40 6
3.1894188 -22.1057 -0.38985187 36 7
1.0986276 -7.7679448 -2.1021285 5 0
1.3085873 -9.2875519 -2.1653788 8 1
1.6162428 -11.529363 -2.2629948 6 2
1.8357131 -13.144996 -2.1021667 17 3
2.5834944 -18.666082 -1.648638 36 5
1.0448847 -7.7792544 -2.1031637 4 0
1.2437161 -9.2964611 -2.1653788 7 1
1.5367507 -11.548151 -2.2645214 4 2
1.7065241 -12.875504 -2.0571134 17 3
2.4453368 -18.624401 -1.6434087 35 5
0.99152482 -7.7940249 -2.1052344 5 0
1.1782944 -9.3010511 -2.164479 8 1
1.4565825 -11.562493 -2.2652845 6 2
1.6129081 -12.857703 -2.0524204 19 3
2.3170345 -18.628752 -1.6423628 35 5
2.7052031 -21.968697 -0.38636136 36 7
0.93754995 -7.8045936 -2.1062696 4 0
1.1142589 -9.3167887 -2.1662786 8 1
5.6329937 -47.169655 2.4896216 0 9
1.3803986 -11.593584 -2.2694824 7 2
1.525816 -12.872307 -2.0530462 18 3
2.1807427 -18.508015 -2.288219 2 4
2.1674275 -18.478252 -1.6277206 35 5
0.88483864 -7.8146334 -2.1073048 5 0
1.0503792 -9.3202858 -2.1653788 7 1
5.1639652 -45.965363 2.4240971 0 9
1.3003019 -11.610743 -2.2710087 7 2
1.4374465 -12.896388 -2.0552363 17 3
2.0474916 -18.457321 -2.2801757 2 4
2.042738 -18.532541 -1.6312069 35 5
0.83107829 -7.8283048 -2.1093752 5 0
0.98651397 -9.3390188 -2.1680782 8 1
4.8605123 -46.167141 2.4328897 0 9
1.2208523 -11.635158 -2.2740617 7 2
1.3564025 -12.992556 -2.0690024 15 3
1.9150987 -18.437599 -2.276032 1 4
1.9030838 -18.447258 -1.6224912 35 5
2.2382178 -21.920671 -0.38461611 36 7
0.77678716 -7.83776 -2.1104105 4 0
0.91938168 -9.3262844 -2.1635792 8 1
4.5255904 -46.072735 2.4261904 0 9
1.1426537 -11.674661 -2.2801676 7 2
1.2645175 -12.989912 -2.0671253 18 3
1.7719684 -18.436295 -1.6203996 35 5
2.0756669 -21.836229 -0.38287091 37 7
0.72240454 -7.8468399 -2.1114457 4 0
0.85460484 -9.3363571 -2.164479 7 1
4.1878715 -45.928173 2.4169793 1 9
1.0613003 -11.684308 -2.2805493 6 2
4.1328063 -45.5882 4.004806 1 10
1.1784192 -13.049575 -2.0752599 18 3
1.652868 -18.411135 -2.2696948 1 4
1.6407409 -18.420433 -1.6179591 35 5
0.66891509 -7.8670917 -2.115587 5 0
0.7897321 -9.3459806 -2.1653788 8 1
3.8671415 -45.956287 2.4169793 1 9
0.97937471 -11.68752 -2.2797861 6 2
3.8117836 -45.584175 4.0020175 2 10
1.1023697 -13.238592 -2.1040437 10 3
1.5378824 -18.586426 -2.2899251 5 4
1.5029792 -18.320238 -1.6081978 34 5
0.61367655 -7.8677168 -2.1145515 4 0
0.72536987 -9.3629227 -2.1680782 8 1
3.4516094 -44.755497 2.3525014 0 9
0.8998605 -11.721478 -2.2851286 5 2
3.4784002 -45.413006 3.9847603 1 10
1.1815689 -15.497287 -2.461653 6 3
1.3823086 -18.25625 -2.2480021 2 4
1.3723605 -18.294521 -1.6050601 34 5
0.56010336 -7.8910804 -2.1197281 5 0
0.65889102 -9.3522072 -2.164479 7 1
3.1996894 -45.643192 2.397929 0 9
0.81937462 -11.747058 -2.2889447 5 2
3.1446781 -45.197674 3.9638431 1 10
1.0732121 -15.503188 -2.4613402 5 3
1.2523733 -18.229809 -2.2436149 20 4
1.2467197 -18.287539 -1.6036657 34 5
0.50475293 -7.8909426 -2.1186929 5 0
0.5940789 -9.3643579 -2.1662786 8 1
2.802681 -44.300514 2.3263335 0 9
0.74062854 -11.771957 -2.2927611 6 2
2.8423743 -45.431297 3.9824946 2 10
0.96766216 -15.510133 -2.4613402 5 3
1.1270303 -18.269808 -2.2475147 11 4
1.1163423 -18.252045 -1.5998307 34 5
0.45080972 -7.8903375 -2.1176574 4 0
0.53032494 -9.368185 -2.1662786 7 1
2.5474105 -45.280159 2.3767853 1 9
0.65667462 -11.745477 -2.2866549 5 2
2.533072 -45.449593 3.9824946 1 10
0.8589204 -15.50862 -2.4600887 5 3
0.99786299 -18.189842 -2.2367899 11 4
0.98673892 -18.219601 -1.5963445 34 5
0.39706799 -7.9203038 -2.1249044 4 0
0.46471664 -9.3677673 -2.1653788 8 1
2.2514756 -45.707779 2.3983479 1 9
0.57638747 -11.785072 -2.2935243 6 2
0.74986708 -15.498455 -2.4575858 4 3
0.8669613 -18.11507 -2.2267969 4 4
0.85689235 -18.170322 -1.5914638 34 5
0.34143114 -7.9151635 -2.122834 5 0
0.39947188 -9.3746767 -2.1662786 7 1
1.9073576 -45.131721 2.3673649 1 9
0.49393368 -11.784886 -2.2927611 6 2
0.6414876 -15.499364 -2.45696 4 3
0.7397458 -18.102831 -2.2246032 2 4
0.72777987 -18.120119 -1.586583 34 5
0.84654158 -21.642151 -0.37805402 37 7
0.2868633 -7.9366598 -2.1280103 4 0
0.33415449 -9.3811331 -2.1671786 8 1
1.5973119 -45.287651 2.3749013 0 9
0.41233283 -11.807668 -2.2965772 4 2
1.6525797 -47.561516 4.1636043 1 10
0.53408092 -15.527156 -2.4607143 4 3
0.61180055 -18.061922 -2.218997 2 4
0.60073149 -18.108829 -1.5851886 34 5
0.69787014 -21.723482 -0.3793804 37 7
0.23133539 -7.934607 -2.1269751 5 0
0.26921138 -9.4027157 -2.1716774 7 1
1.3838695 -48.931259 2.5654042 0 9
0.33142459 -11.865209 -2.3072627 6 2
1.3172357 -47.454388 4.1533198 2 10
0.42821163 -15.623314 -2.4754193 7 3
0.49753311 -18.506285 -2.2731071 9 4
0.47535643 -18.032831 -1.5782162 50 5
0.54418457 -21.647865 -0.37798423 37 7
0.17636487 -7.9553423 -2.1321514 5 0
0.20373131 -9.412159 -2.1734772 7 1
0.25057134 -11.863264 -2.3064992 6 2
0.98578537 -47.456455 4.1527967 1 10
0.32222497 -15.643642 -2.478235 5 3
0.36690101 -18.437859 -2.2643328 12 4
0.34945196 -18.035709 -1.5782162 50 5
0.34294814 -18.191799 -0.95356125 18 6
0.39268029 -21.63114 -0.37763515 37 7
0.12227067 -7.9602222 -2.1331868 5 0
0.13983339 -9.4250193 -2.1761765 7 1
0.69103652 -47.699528 2.5000887 0 9
0.16805074 -11.886317 -2.3106971 7 2
0.66872263 -47.890385 4.1902738 1 10
0.21372998 -15.69884 -2.4866827 6 3
0.24108012 -18.416111 -2.2614079 9 4
0.22323634 -18.013803 -1.5761244 33 5
0.24429813 -21.533333 -0.37588993 37 7
0.066694863 -7.9608817 -2.1331868 5 0
0.074185103 -9.4452524 -2.1806755 7 1
0.08503782 -11.883275 -2.3099339 7 2
0.33749804 -48.342163 4.2294941 1 10
0.10425907 -15.719702 -2.4898112 6 3
0.11271169 -18.45109 -2.2655511 5 4
0.093963727 -21.534513 -0.37588993 37 7
0.011088831 -7.9418344 -2.1280103 5 0
0.0082430067 -9.4455395 -2.1806755 7 1
0.0020789611 -11.907138 -2.3145132 7 2
-2.0957366e-06 -47.944862 4.1946316 1 10
-0.0054996014 -15.759555 -2.4960685 6 3
-0.016201738 -18.568548 -2.2799318 8 4
-0.056377809 -21.534647 -0.37588993 37 7
-0.044527583 -7.9726276 -2.1362925 5 0
-0.057723306 -9.4492655 -2.1815755 7 1
-0.081195578 -11.928457 -2.318711 6 2
-0.33486763 -47.965607 4.1965489 1 10
-0.11572463 -15.786788 -2.5004489 6 3
-0.14669172 -18.677158 -2.2933376 5 4
-0.16285822 -19.042562 -1.6660691 36 5
-0.19520153 -21.507597 -1.1272119 40 6
-0.20671405 -21.533728 -0.37588993 37 7
-0.10033159 -7.9837132 -2.1393983 5 0
-0.12363806 -9.4447346 -2.1806755 7 1
-0.1647677 -11.949194 -2.3229089 7 2
-0.669689 -47.960114 4.1963744 1 10
-0.22599089 -15.789545 -2.5010746 6 3
-0.31774744 -21.41679 -2.6299407 29 4
-0.34464008 -21.461777 -1.1249092 39 6
-0.15591396 -7.9750919 -2.1373277 5 0
-0.1898846 -9.4592276 -2.1842747 7 1
-0.98111105 -48.453564 2.5398643 0 9
-0.24533002 -11.910501 -2.3156581 4 2
-1.0191013 -48.651451 4.2573838 0 10
-0.33412746 -15.81924 -2.5060804 7 3
-0.46652088 -21.380312 -2.625797 31 4
-0.48022759 -21.492521 -1.880821 35 5
-0.49026144 -21.438965 -1.1238624 49 6
-0.21070333 -7.9931579 -2.1425042 4 0
-0.25426611 -9.457716 -2.1842747 7 1
-1.3190305 -48.433552 2.5392361 0 9
-0.32836533 -11.904573 -2.3148949 6 2
-0.44555745 -15.852066 -2.5117123 6 3
-0.61130041 -21.350845 -2.6226285 24 4
-0.6245349 -21.42104 -1.8748943 35 5
-0.63843173 -21.385113 -1.1212456 39 6
-0.26572827 -7.9683228 -2.1362925 5 0
-0.32094583 -9.4751873 -2.1887739 7 1
-0.41073954 -11.941305 -2.3225272 6 2
-0.55344707 -15.848665 -2.5117123 6 3
-0.75341749 -21.15164 -2.5987422 29 4
-0.76830941 -21.25687 -1.8609494 36 5
-0.77870905 -21.236565 -1.1137092 39 6
-0.79666734 -21.319872 -0.37239945 38 7
-0.32058015 -7.9817715 -2.1404335 5 0
-0.3852745 -9.4688883 -2.1878741 7 1
-0.49409416 -11.938147 -2.3225272 4 2
-0.66399539 -15.842442 -2.5113993 5 3
-0.89787745 -21.157923 -2.6002045 28 4
-0.91737866 -21.266914 -1.8623439 36 5
-0.92616522 -21.212654 -1.1127672 39 6
-0.94176894 -21.313955 -0.37239945 38 7
-0.3762956 -7.9793386 -2.1404335 5 0
-0.45137042 -9.4659681 -2.1878741 7 1
-0.57723629 -11.930484 -2.321764 4 2
-0.77631527 -15.872932 -2.5170307 5 3
-1.044387 -21.127346 -2.5972795 24 4
-1.0622308 -21.188354 -1.8560687 36 5
-1.0788515 -21.444992 4.1737561 7 13
-1.0709988 -21.14184 -1.1094178 29 6
-1.0905995 -21.381063 4.9426246 7 14
-0.43272406 -7.9900208 -2.144057 6 0
-0.51829553 -9.4781532 -2.1914732 7 1
-1.1758602 -21.366302 1.121455 14 9
-0.66203123 -11.953608 -2.3271067 4 2
-1.188242 -21.387196 1.8740227 15 10
-0.88710845 -15.867126 -2.5170307 5 3
-1.2017759 -21.361547 2.6270158 14 11
-1.2034906 -21.325663 -2.6226285 28 4
-1.2122868 -21.349064 3.3868067 19 12
-1.2145888 -21.323853 -1.8686191 35 5
-1.2264028 -21.399696 4.1665053 14 13
-1.2270758 -21.281399 -1.1171634 49 6
-1.2332979 -21.324507 4.9313769 5 14
-0.48766878 -7.9733071 -2.1404335 4 0
-0.58421296 -9.4704142 -2.1905735 7 1
-1.3190467 -21.32192 1.1195709 18 9
-0.74313784 -11.944904 -2.3263433 4 2
-1.3387628 -21.398266 1.8757659 15 10
-0.99484479 -15.856779 -2.5164051 5 3
-1.3501514 -21.400419 2.6328654 21 11
-1.3440447 -21.185986 -2.6065416 26 4
-1.3656037 -21.466484 3.4068303 2 12
-1.3621533 -21.29497 -1.8668759 36 5
-1.3711319 -21.260597 -1.1165354 49 6
-1.3685201 -21.105354 4.8827877 5 14
-1.3944311 -21.389332 -0.3741447 37 7
-0.54376411 -7.9967871 -2.1476805 4 0
-0.64892793 -9.4701061 -2.1914732 7 1
-1.6516252 -23.980204 1.2597266 5 9
-0.82596713 -11.931592 -2.3248169 4 2
-1.6768162 -24.161369 2.1189303 2 10
-1.1057966 -15.853388 -2.5170307 5 3
-1.4940673 -21.259516 -2.6167786 19 4
-1.5181007 -21.230583 -1.1154886 9 6
-0.59871185 -7.9812365 -2.1445746 5 0
-0.71443868 -9.457571 -2.1896734 7 1
-0.90865302 -11.945269 -2.3286331 6 2
-1.2150378 -15.863222 -2.5198469 4 3
-1.6559104 -21.422735 -2.6382277 24 4
-1.6671023 -21.277504 -1.1185242 19 6
-0.65441483 -7.9768624 -2.1445746 5 0
-0.78108788 -9.4601221 -2.1914732 7 1
-0.9924776 -11.918896 -2.3248169 4 2
-1.3280264 -15.848214 -2.518908 4 3
-2.039948 -24.191824 -2.9809244 4 4
-2.7129726 -31.71048 -1.6679471 9 6
-0.7090596 -7.9605541 -2.1414688 4 0
-0.84711188 -9.4544392 -2.1914732 7 1
-1.0791944 -11.950783 -2.3324494 4 2
-1.4364893 -15.81495 -2.5151536 4 3
-1.9191 -21.006111 -2.5899675 3 4
-3.2506382 -35.107449 -1.8477736 5 6
-0.766096 -7.9707932 -2.1456099 5 0
-0.91459531 -9.4638119 -2.1950724 7 1
-1.1614575 -11.931233 -2.3301597 4 2
-1.548016 -15.816331 -2.5170307 4 3
-2.065701 -20.992201 -2.5899675 4 4
-0.82251704 -7.9729385 -2.1476805 5 0
-0.98104483 -9.4610729 -2.1959722 7 1
-1.2451327 -11.92674 -2.3309228 6 2
-1.6561295 -15.783528 -2.5135894 4 3
-2.2105358 -20.961473 -2.5880175 3 4
-5.3364544 -50.017097 -2.6361623 0 6
-0.87858087 -7.9708424 -2.1487157 4 0
-1.0470705 -9.4539938 -2.1959722 7 1
-1.3279318 -11.913855 -2.3301597 4 2
-1.7656194 -15.765692 -2.5126505 4 3
-2.3599284 -20.973148 -2.5914299 1 4
-5.6746731 -49.883366 -2.6311381 0 6
-0.93240499 -7.9491644 -2.1445746 5 0
-1.1139586 -9.454195 -2.1977718 8 1
-1.4076102 -11.892841 -2.3278699 6 2
-1.8719578 -15.745462 -2.5113993 5 3
-2.5051122 -20.946306 -2.5902114 3 4
-6.0006838 -49.732548 -2.6252766 0 6
-0.98911011 -7.9637222 -2.1502688 6 0
-1.1806964 -9.4657316 -2.202271 8 1
-1.4930471 -11.902204 -2.331686 4 2
-1.9823298 -15.73593 -2.5120249 5 3
-2.6438918 -20.899227 -2.5865552 4 4
-6.3963289 -50.069824 -2.6453733 0 6
-1.0434259 -7.9470463 -2.1476805 5 0
-1.2467498 -9.4572582 -2.202271 8 1
-1.5724813 -11.880088 -2.3293962 6 2
-2.086791 -15.70249 -2.5088961 4 3
-2.7892058 -20.876328 -2.5860677 3 4
-6.5434608 -48.588085 -2.5693817 0 6
-1.0985528 -7.9474149 -2.1497512 5 0
-1.3121669 -9.4562731 -2.2040703 7 1
-1.6570073 -11.880487 -2.331686 4 2
-2.1908865 -15.648415 -2.5026388 5 3
-2.9367652 -20.896173 -2.5909424 3 4
-1.154289 -7.9512239 -2.1528571 5 0
-1.3742546 -9.431695 -2.2004712 7 1
-1.736698 -11.861163 -2.3301597 4 2
-2.2962024 -15.62532 -2.5013874 5 3
-3.0786431 -20.873735 -2.5906987 3 4
-7.2356744 -48.647343 -2.5775461 0 6
-1.2054791 -7.9240837 -2.1476805 5 0
-1.4419504 -9.44524 -2.2058702 7 1
-1.8144193 -11.82966 -2.3263433 6 2
-2.3970969 -15.574186 -2.4957557 4 3
-3.2164052 -20.80073 -2.5843616 3 4
-7.675405 -49.238979 -2.6116693 0 6
-1.263976 -7.9267011 -2.1507864 5 0
-1.5070381 -9.4192858 -2.202271 7 1
-1.8983995 -11.812498 -2.3255801 4 2
-2.5128822 -15.583937 -2.5001359 4 3
-3.3642144 -20.771301 -2.5836303 3 4
-1.3206658 -7.9174533 -2.1507864 5 0
-1.5789064 -9.4351692 -2.2085695 7 1
-1.9841807 -11.806355 -2.3271067 6 2
-2.6223638 -15.553869 -2.4982588 4 3
-3.5098054 -20.751223 -2.5841177 1 4
-1.3735888 -7.8947177 -2.1471629 6 0
-1.6447366 -9.4239168 -2.2085695 7 1
-2.0672052 -11.808047 -2.3301597 4 2
-2.7319314 -15.55706 -2.5017002 4 3
-3.6607959 -20.761404 -2.5885053 1 4
-8.6497784 -48.756721 -2.5951309 0 6
-1.4303906 -7.9022932 -2.1518216 5 0
-1.7074528 -9.4048328 -2.2067699 7 1
-2.1495891 -11.793327 -2.3301597 4 2
-2.8372765 -15.520121 -2.4988844 4 3
-3.7941508 -20.693048 -2.5831428 1 4
-9.0508709 -49.025112 -2.6127157 0 6
-1.4855241 -7.8921151 -2.1518216 4 0
-1.774513 -9.4003439 -2.2085695 7 1
-2.227623 -11.766849 -2.3278699 6 2
-2.9421163 -15.496567 -2.4982588 4 3
-3.94224 -20.685556 -2.5855803 1 4
-9.3693199 -48.883907 -2.6085291 0 6
-1.5355072 -7.8628607 -2.1466453 4 0
-1.8407052 -9.3995218 -2.2112689 7 1
-2.3059287 -11.731746 -2.3240535 4 2
-3.0513749 -15.481464 -2.4991972 4 3
-4.0837178 -20.662138 -2.5860677 1 4
-1.5926629 -7.8633099 -2.1497512 5 0
-1.9062803 -9.3864422 -2.2112689 7 1
-2.3919978 -11.74656 -2.3301597 6 2
-3.1574736 -15.464206 -2.4998231 4 3
-4.2509766 -20.745916 -2.6002045 1 4
-9.600769 -46.606102 -2.4938085 0 6
-1.6445645 -7.8447232 -2.1476805 5 0
-1.974136 -9.3923197 -2.2157679 7 1
-2.4788079 -11.752626 -2.334739 6 2
-3.2657623 -15.443719 -2.5001359 4 3
-4.3690357 -20.607752 -2.5865552 3 4
-1.6976515 -7.8254986 -2.1456099 5 0
-2.0371726 -9.3668833 -2.2130685 7 1
-2.5574477 -11.719689 -2.331686 4 2
-3.3794105 -15.44756 -2.5045159 4 3
-4.5242782 -20.629103 -2.5931363 3 4
-1.7581609 -7.8398476 -2.1528571 5 0
-2.1033711 -9.3562355 -2.2139683 8 1
-2.6400683 -11.70538 -2.3324494 4 2
-3.4849942 -15.413957 -2.5029516 4 3
-4.6563387 -20.544741 -2.5865552 3 4
-10.356331 -45.436737 -2.4423099 0 6
-1.8093634 -7.8123255 -2.1487157 5 0
-2.1704016 -9.3489161 -2.2157679 7 1
-2.7217214 -11.686664 -2.3324494 4 2
-3.5992551 -15.418107 -2.5076447 4 3
-4.8087006 -20.550392 -2.5914299 3 4
-1.8602664 -7.784472 -2.1445746 4 0
-2.2347083 -9.3297453 -2.2148681 7 1
-2.8069112 -11.68265 -2.3355021 4 2
-3.7012544 -15.369558 -2.5038903 4 3
-4.9567075 -20.535618 -2.5938673 3 4
-11.87425 -48.932777 -2.6388838 0 6
-1.9164147 -7.7787995 -2.1466453 5 0
-2.3035228 -9.3290529 -2.2184672 7 1
-2.8902907 -11.67039 -2.3370285 4 2
-3.8141727 -15.366351 -2.5076447 4 3
-5.1143289 -20.558304 -2.6011796 1 4
-1.9706743 -7.7652307 -2.1466453 4 0
-2.3657138 -9.3014126 -2.2157679 7 1
-2.9736362 -11.657537 -2.3385551 4 2
-3.9223354 -15.343175 -2.5082705 5 3
-5.2596965 -20.529791 -2.6021545 1 4
-2.0248377 -7.7512832 -2.1466453 5 0
-2.4365144 -9.3072929 -2.2211666 7 1
-3.049962 -11.617506 -2.334739 4 2
-4.0293536 -15.315419 -2.5082705 5 3
-5.4160519 -20.542479 -2.6084917 1 4
-12.831961 -48.430111 -2.6256952 0 6
-2.0778997 -7.7332258 -2.1456099 5 0
-2.5004187 -9.286293 -2.2202671 7 1
-3.1361108 -11.614883 -2.3385551 4 2
-4.1434002 -15.313612 -2.5126505 4 3
-5.5515385 -20.475428 -2.6048355 3 4
-2.1318352 -7.7185311 -2.1456099 5 0
-2.5672665 -9.2761221 -2.2220664 7 1
-3.2140477 -11.589484 -2.3377919 4 2
-4.2544169 -15.309796 -2.5167181 4 3
-5.708735 -20.487804 -2.6114166 1 4
-13.171309 -47.079155 -2.5620546 0 6
-2.1801088 -7.6889734 -2.1414688 4 0
-2.6282175 -9.2509346 -2.2202671 7 1
-3.3024077 -11.593198 -2.3431346 4 2
-4.3677001 -15.302517 -2.5204725 4 3
-5.8655238 -20.509544 -2.6192162 1 4
-13.679458 -47.611843 -2.5961778 1 6
-2.2391336 -7.6921158 -2.1466453 5 0
-2.692735 -9.2323618 -2.2202671 7 1
-3.379957 -11.558554 -2.3408449 4 2
-4.4733124 -15.26786 -2.5198469 4 3
-5.9861984 -20.391909 -2.6094666 3 4
-13.9313 -47.243153 -2.5813143 0 6
-2.2927802 -7.6762962 -2.1466453 5 0
-2.7604754 -9.2245398 -2.2229664 7 1
-3.4616969 -11.538436 -2.341608 4 2
-4.5820675 -15.243826 -2.5210981 4 3
-6.1530261 -20.431353 -2.6199474 3 4
-14.375268 -47.523262 -2.6020393 1 6
-2.3463149 -7.6601028 -2.1466453 4 0
-2.822521 -9.1975908 -2.2211666 7 1
-3.539001 -11.510854 -2.3408449 4 2
-4.6892099 -15.22361 -2.5229752 4 3
-6.3171844 -20.458076 -2.6289656 3 4
-14.704334 -47.44339 -2.603086 1 6
-2.397243 -7.6402664 -2.1456099 5 0
-2.886229 -9.1818838 -2.2220664 7 1
-3.620456 -11.489611 -2.341608 4 2
-4.796566 -15.194269 -2.5236011 4 3
-6.465867 -20.444887 -2.6328654 1 4
-15.13675 -47.659378 -2.6206708 0 6
-2.4517069 -7.6270242 -2.1466453 4 0
-2.9514556 -9.1652212 -2.2229664 7 1
-3.6993725 -11.46032 -2.3408449 4 2
-4.91225 -15.190488 -2.5286071 4 3
-6.6182308 -20.429464 -2.6367655 1 4
-2.5061016 -7.6133919 -2.1476805 5 0
-3.0165892 -9.1480932 -2.2238662 7 1
-3.7780585 -11.430486 -2.3400817 4 2
-5.0268712 -15.182077 -2.5329874 4 3
-6.7569413 -20.371458 -2.6353028 1 4
-2.5554891 -7.5847259 -2.1445746 5 0
-3.079133 -9.1231194 -2.2229664 7 1
-3.8595486 -11.415664 -2.3423715 4 2
-5.1402345 -15.177444 -2.5379932 3 3
-6.9092054 -20.353865 -2.6392026 5 4
-2.6007652 -7.5488915 -2.1393983 4 0
-3.1424332 -9.1056318 -2.2238662 8 1
-3.9327304 -11.369886 -2.3385551 4 2
-5.2486525 -15.148655 -2.5392444 4 3
-7.0615516 -20.33514 -2.6431026 3 4
-15.846124 -45.478313 -2.5239542 0 6
-2.6547172 -7.5300875 -2.1393983 5 0
-3.2088079 -9.0865879 -2.224766 7 1
-4.0172491 -11.356961 -2.341608 4 2
-5.3489971 -15.088367 -2.53549 4 3
-7.2292514 -20.358299 -2.6526084 3 4
-2.7059121 -7.5077353 -2.1383629 5 0
-3.2761362 -9.0749617 -2.2274654 7 1
-4.1131096 -11.368539 -2.3500037 4 2
-5.4676642 -15.087801 -2.5417476 4 3
-7.3684907 -20.299871 -2.6516335 7 4
-2.7622652 -7.4995384 -2.1414688 5 0
-3.3313165 -9.0299301 -2.2220664 7 1
-4.1795096 -11.310814 -2.3438978 4 2
-5.5674944 -15.042823 -2.5404961 4 3
-7.5314317 -20.305632 -2.6591895 5 4
-14.428313 -38.77586 -2.1682787 0 6
-2.8078091 -7.4660974 -2.1373277 4 0
-3.3981996 -9.0216341 -2.2256656 7 1
-4.2583704 -11.281361 -2.3438978 4 2
-5.6779637 -15.018371 -2.542999 4 3
-7.6701736 -20.255753 -2.6594329 7 4
-13.848607 -36.437561 -2.0428817 1 6
-2.8626328 -7.4535279 -2.1393983 4 0
-3.4610996 -8.9976902 -2.2256656 7 1
-4.3313751 -11.236702 -2.3408449 6 2
-5.7926335 -15.004164 -2.547379 3 3
-7.8314438 -20.253553 -2.6662576 7 4
-13.885877 -35.781403 -2.0114803 1 6
-2.9047253 -7.4081807 -2.1321514 5 0
-3.5195553 -8.9624271 -2.2229664 7 1
-4.4269705 -11.250034 -2.3500037 4 2
-5.8972392 -14.963358 -2.547379 3 3
-7.9813967 -20.220545 -2.6691825 7 4
-14.155935 -35.73558 -2.0144112 1 6
-2.957809 -7.3913093 -2.1331868 5 0
-3.5805888 -8.9340181 -2.2220664 7 1
-4.4990559 -11.20871 -2.3477139 6 2
-6.0077949 -14.944865 -2.5511336 3 3
-8.1461 -20.223255 -2.6769822 7 4
-14.42728 -35.708771 -2.0183887 1 6
-3.005131 -7.3638501 -2.1311162 4 0
-3.6413169 -8.9094391 -2.2220664 7 1
-4.583149 -11.191562 -2.3507669 4 2
-6.096993 -14.866008 -2.5448763 3 3
-8.3046827 -20.218752 -2.6838069 7 4
-14.692963 -35.647804 -2.0206914 1 6
-3.0534978 -7.335557 -2.1290457 4 0
-3.6974292 -8.8694124 -2.2184672 7 1
-4.6607327 -11.16373 -2.3515301 4 2
-6.2010875 -14.831451 -2.5461278 4 3
-8.4594393 -20.193239 -2.688194 7 4
-8.5302401 -20.302557 -1.1541127 20 6
-3.1003397 -7.3074894 -2.1269751 4 0
-3.7607632 -8.8512135 -2.2202671 7 1
-4.733943 -11.120081 -2.3492403 4 2
-6.2982812 -14.773261 -2.5436246 4 3
-8.4899063 -19.885075 -2.6548018 29 4
-8.5143309 -19.913404 -1.8947659 35 5
-8.526269 -19.90287 -1.1347483 30 6
-3.1512797 -7.2856665 -2.1269751 5 0
-3.8224647 -8.8247433 -2.2202671 7 1
-4.8063998 -11.080398 -2.3477139 4 2
-6.4034152 -14.740921 -2.5455019 4 3
-8.6411991 -19.854445 -2.6587019 24 4
-8.6818027 -19.919231 -1.9010409 35 5
-8.6815166 -19.890135 -1.1373651 20 6
-3.1958325 -7.2493477 -2.122834 5 0
-3.8855538 -8.8014078 -2.2211666 7 1
-4.8966837 -11.070856 -2.3530567 4 2
-6.5039339 -14.683884 -2.5436246 4 3
-8.8037443 -19.848068 -2.666014 21 4
-8.8807573 -19.984045 -1.9132428 34 5
-8.8358059 -19.854874 -1.1389352 30 6
-3.2447793 -7.2233357 -2.1217985 5 0
-3.9437065 -8.7669573 -2.219367 7 1
-4.972239 -11.032822 -2.3522935 6 2
-6.5973506 -14.618314 -2.5401831 4 3
-8.9600782 -19.825922 -2.6713765 20 4
-9.0036192 -19.885258 -1.9097565 34 5
-8.9857502 -19.818171 -1.1404006 20 6
-3.2935209 -7.1969938 -2.1207633 5 0
-4.0064383 -8.7427559 -2.2202671 7 1
-5.0442262 -10.987135 -2.3500037 6 2
-6.7066689 -14.588054 -2.542999 3 3
-9.1115561 -19.791735 -2.675276 26 4
-9.1422205 -19.821917 -1.9097565 34 5
-9.1439877 -19.798473 -1.1429127 30 6
-3.3518457 -7.1913362 -2.1259398 4 0
-4.0673766 -8.714572 -2.2202671 7 1
-5.1141558 -10.937424 -2.3469508 6 2
-6.8016491 -14.526565 -2.5404961 3 3
-9.2714119 -19.774376 -2.6816134 30 4
