# .PCD v0.7 - Point Cloud Data file format
VERSION 0.7
FIELDS x y z intensity ring
SIZE 4 4 4 4 2
TYPE F F F F U
COUNT 1 1 1 1 1
WIDTH 1299
HEIGHT 1
VIEWPOINT 0 0 0 1 0 0 0
POINTS 1299
DATA ascii
6.9994712 -2.517205 -1.7172763 6 1
8.4239674 -3.0361369 -1.7405598 4 2
10.694702 -3.8608756 -1.8008738 4 3
14.503127 -5.2443333 -1.8936061 3 4
29.417061 -10.677871 -1.6401043 10 6
6.0429516 -2.2173877 -1.7247702 2 0
6.992702 -2.5700424 -1.7199757 7 1
8.4080915 -3.0969081 -1.7417046 3 2
10.645248 -3.9272394 -1.7971194 8 3
14.495954 -5.3564644 -1.8975059 3 4
29.012222 -10.760738 -1.6216822 10 6
6.0327506 -2.2615554 -1.7263231 2 0
6.956346 -2.6119475 -1.7154768 7 1
8.3923311 -3.1561415 -1.7428495 4 2
10.636756 -4.0065708 -1.800248 5 3
14.504636 -5.47506 -1.9035993 2 4
29.248362 -11.075375 -1.6390576 10 6
6.0154123 -2.3018758 -1.7258054 2 0
6.9529634 -2.6648161 -1.7190759 7 1
8.4104118 -3.230139 -1.751245 4 2
10.649087 -4.0963335 -1.8071312 4 3
14.548536 -5.6050634 -1.9143238 2 4
29.099543 -11.251925 -1.6350801 10 6
6.0009956 -2.3445182 -1.7263231 3 0
6.9305606 -2.7118716 -1.7181761 7 1
8.3785181 -3.2851925 -1.749337 3 2
10.618391 -4.1698556 -1.8068182 6 3
14.612503 -5.7471814 -1.9279732 2 4
29.206057 -11.528131 -1.6455473 10 6
5.9790983 -2.3842089 -1.7247702 2 0
6.922318 -2.7645264 -1.7208756 7 1
8.3298607 -3.3333931 -1.7439942 3 2
10.559684 -4.2321262 -1.8018124 4 3
14.653083 -5.8815908 -1.9386977 2 4
5.9730439 -2.4302607 -1.7278759 2 0
6.8920217 -2.8083732 -1.7181761 6 1
8.2918453 -3.3855278 -1.7409414 3 2
10.56645 -4.3206959 -1.8080698 4 3
14.690657 -6.0160933 -1.9491785 3 4
27.287266 -11.213584 -1.546109 11 6
5.9345212 -2.4630141 -1.7216644 2 0
6.8650498 -2.8534279 -1.7163765 7 1
8.3078804 -3.459938 -1.749337 3 2
10.543322 -4.3973994 -1.8093213 4 3
14.695924 -6.1383986 -1.9555157 3 4
27.274628 -11.431604 -1.5498772 24 6
5.9367509 -2.5126672 -1.7273583 3 0
6.8485498 -2.902806 -1.7172763 7 1
8.319664 -3.5332017 -1.7569693 3 2
10.526907 -4.4770823 -1.8118242 4 3
14.736722 -6.2766271 -1.9667276 3 4
27.656973 -11.819527 -1.5762545 11 6
5.9208384 -2.5548174 -1.7278759 2 0
6.8460064 -2.9582767 -1.7217753 8 1
8.3056049 -3.5958776 -1.759259 3 2
10.493583 -4.5496788 -1.8115114 4 3
14.772662 -6.4141402 -1.977452 3 4
27.786188 -12.104851 -1.5883964 11 6
5.8975539 -2.5937569 -1.7263231 3 0
6.8358879 -3.0107112 -1.7244748 7 1
8.2838907 -3.6553586 -1.7600222 3 2
10.45253 -4.6188345 -1.809947 4 3
14.809213 -6.5532646 -1.9884202 5 4
27.967516 -12.416863 -1.6036786 11 6
5.8722506 -2.6317058 -1.7242525 3 0
6.807591 -3.0551696 -1.7226752 7 1
8.2545891 -3.7114911 -1.759259 3 2
10.436241 -4.6989927 -1.8127627 4 3
14.844536 -6.6932092 -1.9993886 8 4
28.713587 -12.988823 -1.6516182 10 6
5.860764 -2.6758468 -1.7263231 3 0
6.7754622 -3.0977588 -1.7199757 7 1
28.41918 -12.999318 1.6378015 7 9
8.2576962 -3.7806685 -1.765365 3 2
10.414788 -4.7748599 -1.81464 4 3
5.8529258 -2.7205634 -1.7294289 4 0
6.7860212 -3.1586075 -1.728074 7 1
27.5746 -12.84653 1.5942581 8 9
8.2061901 -3.8266094 -1.7600222 3 2
10.393729 -4.853302 -1.81683 3 3
14.91268 -6.9729185 -2.0213251 6 4
5.8198209 -2.754746 -1.7252878 3 0
6.7461953 -3.1975591 -1.723575 6 1
27.249657 -12.927434 1.5806507 8 9
8.2271595 -3.9065428 -1.770326 4 2
10.404192 -4.9469514 -1.8246518 4 3
14.93533 -7.1109924 -2.0310745 7 4
25.016979 -11.948569 -1.452951 11 6
5.7830443 -2.7869215 -1.7201115 3 0
6.7412581 -3.2530477 -1.728074 7 1
8.148428 -3.9391038 -1.759259 3 2
10.383628 -5.026351 -1.8271548 4 3
14.979999 -7.2609773 -2.0439928 6 4
25.252676 -12.278384 -1.4715827 11 6
5.7599783 -2.8255248 -1.7190762 4 0
6.7253804 -3.3034675 -1.7298737 6 1
8.1707535 -4.0187378 -1.7699443 4 2
10.375756 -5.1100049 -1.8318479 3 3
15.0678 -7.4338861 -2.0630045 5 4
22.526169 -11.142911 -1.3170868 10 6
5.7578983 -2.873292 -1.7242525 4 0
6.7062254 -3.3509107 -1.7307733 6 1
8.1214323 -4.0651374 -1.765365 3 2
10.375149 -5.2000179 -1.8381052 3 3
15.224431 -7.640451 -2.0915217 8 4
22.351496 -11.251408 -1.3114345 10 6
5.7480335 -2.9186673 -1.7273583 5 0
6.6757197 -3.3941143 -1.7289737 6 1
8.0998516 -4.1252999 -1.7668914 3 2
10.405464 -5.3064237 -1.8499942 3 3
15.218454 -7.770926 -2.0981028 10 4
22.19063 -11.365294 -1.3066196 21 6
5.7206521 -2.9551783 -1.7252878 5 0
6.6622477 -3.4460082 -1.7316732 3 1
8.0569086 -4.174521 -1.7638384 3 2
10.389206 -5.3898544 -1.8537486 2 3
15.296326 -7.9491949 -2.1166267 10 4
22.238276 -11.586381 -1.3141559 10 6
5.7130394 -3.0032294 -1.7294289 5 0
6.635694 -3.4926865 -1.7312233 4 1
8.0588331 -4.2471428 -1.7707076 3 2
10.392298 -5.4861927 -1.8612576 2 3
15.828384 -8.3665552 -2.1982794 15 4
22.31361 -11.829412 -1.3235765 10 6
5.6748967 -3.0339322 -1.7242525 4 0
6.6334839 -3.5508823 -1.7370721 6 1
8.0247736 -4.3028455 -1.7699443 3 2
10.405955 -5.5866413 -1.8706435 3 3
16.091311 -8.6497927 -2.2431273 13 4
22.100389 -11.914764 -1.3158308 10 6
5.6637616 -3.0790122 -1.7273583 4 0
6.6033974 -3.594311 -1.7357224 5 1
8.0211573 -4.3714614 -1.7756686 4 2
10.395432 -5.6724815 -1.8756495 2 3
16.286591 -8.9018745 -2.2789569 11 4
20.719122 -11.352791 -1.2381642 21 6
5.6325264 -3.1118875 -1.7242525 4 0
6.5821891 -3.6410615 -1.7366221 4 1
7.9904442 -4.4273524 -1.7756686 4 2
10.379761 -5.7583323 -1.8800297 3 3
16.369654 -9.0925312 -2.2991872 9 4
20.632383 -11.493272 -1.2377455 21 6
5.6140332 -3.1530259 -1.7252878 4 0
6.5430212 -3.6792836 -1.7330229 5 1
7.9395933 -4.4700809 -1.7710892 4 2
10.398833 -5.8618321 -1.8906672 3 3
16.590996 -9.367631 -2.3394041 11 4
20.654484 -11.690505 -1.2438165 21 6
5.6125765 -3.2026553 -1.7314996 4 0
6.5601268 -3.7479024 -1.7442704 6 1
7.9593124 -4.5546522 -1.7825377 4 2
10.364512 -5.9382143 -1.8919187 4 3
16.993486 -9.7480221 -2.4054573 9 4
20.561981 -11.828439 -1.2431885 21 6
5.5833964 -3.2378836 -1.7294289 4 0
6.5118937 -3.7808888 -1.7384217 5 1
7.9205341 -4.6061597 -1.7810113 4 2
10.387673 -6.0481977 -1.9038078 4 3
17.094799 -9.965394 -2.4295874 11 4
20.465109 -11.963636 -1.2423511 10 6
5.5673132 -3.2807071 -1.7314996 3 0
6.5105157 -3.8411112 -1.7451702 7 1
7.9050851 -4.6713305 -1.7848274 4 2
10.357097 -6.1276097 -1.9059978 5 3
17.105083 -10.132043 -2.4410431 10 4
19.229349 -11.40394 -1.9559492 33 5
20.477249 -12.163335 -1.2482127 10 6
5.5509038 -3.3234634 -1.7335701 3 0
6.4801979 -3.8844652 -1.7442704 9 1
7.8983564 -4.7401843 -1.7905518 3 2
10.355785 -6.2223835 -1.9135066 5 3
17.636032 -10.613563 -2.5273266 11 4
20.428186 -12.32307 -1.2503061 21 6
5.5347567 -3.3651843 -1.7356406 3 0
6.4602661 -3.9325376 -1.7460701 7 1
7.8701005 -4.7982755 -1.7916965 4 2
10.349187 -6.3171706 -1.9203898 5 3
17.722599 -10.830663 -2.5502381 11 4
20.317816 -12.450773 -1.2488407 10 6
5.5177026 -3.4078023 -1.7377111 3 0
6.4326544 -3.9775426 -1.7460701 7 1
7.8105493 -4.8352003 -1.7855908 4 2
10.364714 -6.4238906 -1.9313401 7 3
17.75281 -11.020082 -2.5655937 13 4
20.402178 -12.694297 -1.2593079 21 6
5.4905047 -3.4441867 -1.7366759 3 0
6.4113302 -4.0264997 -1.7478697 6 1
7.8206196 -4.9191904 -1.7958944 3 2
10.295078 -6.4831572 -1.92696 24 3
17.843081 -11.253792 -2.5902114 16 4
18.519337 -11.693871 -1.9162062 34 5
5.468976 -3.4854641 -1.7377111 3 0
6.3889246 -4.0764675 -1.7496693 6 1
7.8059406 -4.9863501 -1.8004738 3 2
10.31831 -6.6013722 -1.9401004 7 3
17.772438 -11.383439 -2.5914299 14 4
5.4509969 -3.5277576 -1.7397816 3 0
6.3554039 -4.1177917 -1.7483196 5 1
7.7733526 -5.0442171 -1.801237 3 2
10.328294 -6.7098351 -1.950738 7 3
17.667572 -11.491 -2.5877738 11 4
5.4423809 -3.5763354 -1.744958 3 0
6.3297582 -4.1642027 -1.7492194 5 1
7.7552338 -5.10781 -1.8050531 3 2
10.328559 -6.8104291 -1.9594984 7 3
17.512379 -11.564836 -2.5768056 13 4
5.4179115 -3.6132979 -1.744958 3 0
6.3126111 -4.2147651 -1.7523687 6 1
7.7324429 -5.170558 -1.8081062 3 2
10.325082 -6.9120402 -1.9679458 5 3
17.395329 -11.658352 -2.5711997 14 4
5.3861556 -3.6467013 -1.7428875 3 0
6.2927117 -4.2652931 -1.7550682 6 1
7.7416387 -5.2552886 -1.8187915 3 2
10.327223 -7.0183735 -1.9776447 6 3
17.277407 -11.754942 -2.5658374 16 4
17.87602 -12.180484 -1.8924997 35 5
5.3510127 -3.6776493 -1.7397816 4 0
6.2531486 -4.3024917 -1.7523687 6 1
7.6918287 -5.3002954 -1.8157386 3 2
10.336511 -7.130681 -1.9889081 6 3
17.163885 -11.853841 -2.5612063 13 4
17.956579 -12.415188 -1.9099309 34 5
5.3505588 -3.7326014 -1.7480639 3 0
6.2389359 -4.3572001 -1.7568678 7 1
7.7360225 -5.4087763 -1.8348193 3 2
10.481935 -7.3368025 -2.0264523 7 3
17.010817 -11.924379 -2.5507255 17 4
5.3218741 -3.7667027 -1.7470287 3 0
6.2154932 -4.4040728 -1.7586673 7 1
7.7012758 -5.4649243 -1.8355827 3 2
10.475549 -7.4418335 -2.0352125 9 3
16.990728 -12.083611 -2.5599875 11 4
5.3023887 -3.8073471 -1.7490991 3 0
6.2011957 -4.4576521 -1.7631663 7 1
7.6607122 -5.514924 -1.8348193 3 2
10.450294 -7.531445 -2.0402186 9 3
16.859791 -12.164139 -2.5526755 11 4
17.858614 -12.899001 -1.927362 34 5
5.2576122 -3.8297017 -1.7428875 4 0
6.1675611 -4.4974623 -1.7622666 7 1
7.6642189 -5.5970445 -1.8447415 3 2
10.427491 -7.6233878 -2.0458503 9 3
16.697578 -12.225254 -2.540976 11 4
5.2456064 -3.8787117 -1.7480639 4 0
6.144618 -4.5484371 -1.7649659 7 1
7.6176634 -5.647068 -1.8432151 3 2
10.497989 -7.7908096 -2.0705669 8 3
16.533194 -12.287589 -2.5292766 11 4
5.2177167 -3.9161489 -1.7480639 3 0
6.118145 -4.5969734 -1.7667656 7 1
7.6272588 -5.7392073 -1.8554269 3 2
10.962649 -8.2579489 -2.1738136 17 3
16.37093 -12.345342 -2.5175772 11 4
5.1963973 -3.9571612 -1.7501343 3 0
6.0890026 -4.6419363 -1.7676654 6 1
7.5682797 -5.7780194 -1.8508474 3 2
11.0554 -8.4494343 -2.2038488 15 3
16.311146 -12.479836 -2.5217206 13 4
5.1564155 -3.9838932 -1.7459934 3 0
6.0718627 -4.6962543 -1.7721643 6 1
7.5572481 -5.8535562 -1.8580981 4 2
11.008632 -8.5360937 -2.206352 15 3
16.217352 -12.588538 -2.5207458 13 4
5.1436815 -4.0317121 -1.7511697 4 0
6.0389285 -4.7385297 -1.7721643 7 1
7.5748582 -5.9522672 -1.8725995 4 2
10.948771 -8.6127396 -2.206352 14 3
16.043297 -12.633898 -2.5073402 10 4
5.1305308 -4.0795465 -1.7563461 3 0
6.0026512 -4.7781463 -1.7712647 6 1
7.5423307 -6.0123467 -1.8748893 4 2
10.919257 -8.7136078 -2.2126093 8 3
15.932991 -12.728249 -2.5039277 10 4
5.1199694 -4.1298194 -1.7625577 3 0
5.9812765 -4.82973 -1.7748638 6 1
7.5424552 -6.0968695 -1.8851929 4 2
10.977933 -8.8834105 -2.2367003 10 3
15.885384 -12.872915 -2.5105085 12 4
5.0648232 -4.1425581 -1.7532402 4 0
5.9603257 -4.8802071 -1.778463 6 1
7.4814906 -6.134439 -1.8806137 3 2
11.141626 -9.1453228 -2.2830048 9 3
15.775921 -12.9631 -2.5070963 12 4
5.0328059 -4.1753492 -1.752205 4 0
5.9246116 -4.920454 -1.7780131 4 1
7.4867826 -6.2266917 -1.8928252 4 2
11.321921 -9.4263744 -2.3333766 13 3
15.61032 -13.010642 -2.4951532 10 4
4.9917092 -4.2004318 -1.7480639 4 0
5.9065104 -4.9755058 -1.7829621 3 1
7.4596381 -6.2927318 -1.8970231 19 2
11.301114 -9.5434227 -2.3427629 13 3
15.440278 -13.052666 -2.4824786 10 4
4.9887133 -4.2577524 -1.7573814 4 0
5.8671865 -5.0128217 -1.7816124 4 1
7.4017124 -6.3306022 -1.8932071 25 2
11.277907 -9.6560965 -2.3515232 13 3
17.291298 -14.825671 -2.796658 10 4
4.9450073 -4.2789698 -1.752205 4 0
5.850605 -5.0679531 -1.7870111 3 1
7.3899632 -6.4104228 -1.9016025 9 2
11.453338 -9.9457102 -2.4025209 9 3
17.213953 -14.963861 -2.8005579 10 4
4.9353423 -4.3312278 -1.759452 4 0
5.8414345 -5.1318254 -1.7951094 3 1
7.3550038 -6.4683547 -1.9038923 7 2
11.489161 -10.114812 -2.4244218 9 3
17.234146 -15.193942 -2.8210318 10 4
4.8934407 -4.3553019 -1.7553109 4 0
5.8171053 -5.1828523 -1.7987086 3 1
7.3422227 -6.5508814 -1.9126694 6 2
11.493098 -10.265192 -2.440691 10 3
17.090658 -15.280811 -2.8149383 12 4
4.894465 -4.4178357 -1.7666988 3 0
5.7721052 -5.215497 -1.7960092 3 1
7.3254247 -6.6283245 -1.9203018 4 2
11.535351 -10.448616 -2.4650946 12 3
16.952681 -15.371751 -2.8098199 10 4
4.8549538 -4.4440703 -1.763593 4 0
5.7527947 -5.2714648 -1.8014081 3 1
7.3021169 -6.7005415 -1.9264078 4 2
11.543591 -10.603728 -2.4826152 9 3
16.891712 -15.532724 -2.8176193 10 4
4.8124833 -4.4673414 -1.759452 4 0
5.7258463 -5.3207846 -1.8045573 3 1
7.2793384 -6.7714849 -1.9325136 6 2
11.650407 -10.848983 -2.5214109 10 3
16.673977 -15.548735 -2.7993391 12 4
4.8044739 -4.5211782 -1.7677342 4 0
5.7022619 -5.3716617 -1.8086064 4 1
7.2490253 -6.8383055 -1.937093 6 2
11.653376 -11.004649 -2.5386188 9 3
16.599491 -15.691872 -2.8047013 12 4
4.756022 -4.5386052 -1.7615224 4 0
5.6871686 -5.4328775 -1.815805 5 1
7.2323184 -6.9186025 -1.9454886 4 2
11.502077 -11.014689 -2.5223496 9 3
16.412153 -15.733192 -2.7915392 12 4
4.7547626 -4.601253 -1.7729106 4 0
5.6546998 -5.4778724 -1.8176044 5 1
7.2627549 -7.0454755 -1.9668592 4 2
11.389472 -11.060318 -2.514528 10 3
16.225056 -15.772667 -2.7783775 14 4
4.7197661 -4.6316285 -1.7718753 4 0
5.6274414 -5.528141 -1.8212038 5 1
7.2664227 -7.1456814 -1.9809792 7 2
11.427949 -11.249833 -2.5398703 9 3
16.168266 -15.93851 -2.7876396 14 4
4.6771741 -4.6527486 -1.7677342 4 0
5.5952058 -5.5718169 -1.8230033 5 1
7.2107992 -7.1906905 -1.9794526 9 2
11.038772 -11.019523 -2.4704134 14 3
15.955495 -15.944359 -2.769603 12 4
4.6581783 -4.699007 -1.7729106 5 0
5.5767398 -5.6315136 -1.829752 7 1
7.1493797 -7.2296882 -1.9763998 9 2
11.12955 -11.26636 -2.5082705 7 3
15.782443 -15.99319 -2.7588785 14 4
4.6333628 -4.7397008 -1.7760164 3 0
5.5304809 -5.6633382 -1.8275024 5 1
7.1069574 -7.2878575 -1.9786894 9 2
11.120924 -11.415949 -2.5242269 9 3
15.615029 -16.046076 -2.7491288 12 4
4.5974789 -4.7691507 -1.774981 4 0
5.5137887 -5.7256722 -1.8351506 6 1
7.0599079 -7.3388934 -1.9794526 10 2
11.014216 -11.461469 -2.5176563 10 3
15.604337 -16.260687 -2.7671657 14 4
4.5728974 -4.8087335 -1.7780869 3 0
5.4773722 -5.7658968 -1.8360505 6 1
6.9922872 -7.3709092 -1.9748732 10 2
10.825233 -11.423376 -2.4926271 9 3
15.467365 -16.339134 -2.7625346 10 4
4.5524297 -4.8546324 -1.7832633 3 0
5.4503083 -5.8182168 -1.8405495 7 1
6.9352942 -7.4138103 -1.9733468 10 2
10.583374 -11.325478 -2.4550829 9 3
15.447741 -16.548294 -2.7795961 10 4
4.523674 -4.8919692 -1.7853339 3 0
5.4280686 -5.8761659 -1.8468481 7 1
6.9765472 -7.5630598 -2.0000601 10 2
10.663344 -11.571955 -2.4923143 8 3
15.331837 -16.655735 -2.7795961 10 4
4.5102382 -4.9462709 -1.7936161 3 0
5.4105349 -5.9398484 -1.8549464 6 1
7.0041614 -7.7001719 -2.0233386 10 2
10.52916 -11.587637 -2.4797995 8 3
15.211182 -16.757957 -2.7788651 12 4
4.4678473 -4.969018 -1.7905102 3 0
5.3689351 -5.9774766 -1.8549464 7 1
6.9620314 -7.7620363 -2.0267732 10 2
10.412416 -11.621139 -2.4713519 9 3
15.084554 -16.853388 -2.777159 10 4
4.4484272 -5.0174346 -1.7967219 3 0
5.3348269 -6.0235662 -1.8576458 7 1
6.9961166 -7.9104524 -2.0527232 10 2
10.351959 -11.717233 -2.4763579 9 3
14.907418 -16.89131 -2.7661908 12 4
4.408205 -5.0425506 -1.7946514 3 0
5.2977719 -6.066535 -1.8594455 7 1
6.9833016 -8.0079298 -2.0653167 10 2
10.225789 -11.738575 -2.4657204 9 3
14.764374 -16.966516 -2.7615597 10 4
4.3842459 -5.0863719 -1.79931 2 0
5.2654629 -6.1151857 -1.8630446 8 1
6.9771457 -8.1145439 -2.0801997 10 2
10.107552 -11.767719 -2.45696 11 3
14.610664 -17.0285 -2.7549787 14 4
4.359889 -5.1301036 -1.8039688 3 0
5.2125535 -6.1399121 -1.8594455 15 1
6.9990377 -8.2559032 -2.1038601 10 2
9.9817467 -11.786743 -2.4463224 12 3
14.502966 -17.143726 -2.7571721 10 4
4.3276906 -5.1648588 -1.8055217 2 0
5.1658096 -6.171669 -1.8580956 28 1
6.95508 -8.3211336 -2.108058 10 2
9.8333826 -11.777291 -2.4300532 10 3
14.27231 -17.111931 -2.7359669 5 4
4.2890668 -5.1919665 -1.8044864 2 0
5.1424437 -6.2316313 -1.8652942 20 1
6.8805885 -8.3497887 -2.1030967 10 2
9.7283258 -11.818203 -2.4244218 10 3
14.070548 -17.111488 -2.720124 7 4
4.2563758 -5.2262774 -1.8060393 3 0
5.1381669 -6.315753 -1.8796909 11 1
6.8047976 -8.3762884 -2.0977542 10 2
9.6480713 -11.888898 -2.4250474 9 3
13.820738 -17.048929 -2.6947751 7 4
4.2436876 -5.2837458 -1.8158745 2 0
5.1011558 -6.358181 -1.8819405 14 1
6.7439427 -8.4178171 -2.0966094 10 2
9.5397692 -11.920364 -2.4181643 10 3
14.231175 -17.80158 -2.7983642 12 4
4.2078962 -5.3147578 -1.8163921 3 0
5.0687323 -6.4089241 -1.8864396 10 1
6.6923122 -8.4739361 -2.0988991 10 2
9.4294014 -11.952554 -2.4112811 11 3
14.144639 -17.948832 -2.8059199 10 4
4.1706901 -5.3440046 -1.8163921 4 0
5.0346498 -6.4579854 -1.8904886 8 1
6.6305776 -8.5173521 -2.0981357 10 2
9.2365913 -11.877748 -2.3831229 11 3
14.013405 -18.046453 -2.8054326 10 4
4.1488299 -5.395153 -1.8236392 3 0
4.9989924 -6.5077558 -1.8945377 7 1
6.5733452 -8.5665503 -2.0988991 10 2
9.129735 -11.915316 -2.3774912 12 3
13.917239 -18.183254 -2.8115261 12 4
4.1040621 -5.4147477 -1.8205333 4 0
4.9652019 -6.5580335 -1.8990368 7 1
6.5355558 -8.6446896 -2.1065314 10 2
8.9844236 -11.896791 -2.361222 10 3
13.742139 -18.216581 -2.8017764 12 4
4.0800343 -5.4618397 -1.8267449 3 0
4.9332829 -6.6112795 -1.9044356 8 1
6.4988542 -8.7188816 -2.1137822 13 2
8.9079561 -11.964008 -2.3624737 10 3
13.729517 -18.466602 -2.8254192 10 4
4.029016 -5.4708185 -1.8205333 3 0
4.8974051 -6.6572638 -1.9080348 8 1
6.4157453 -8.7339773 -2.1065314 10 2
8.8499241 -12.060944 -2.3693566 11 3
13.609367 -18.567629 -2.8266377 12 4
3.9998014 -5.5113206 -1.8246742 3 0
4.8599606 -6.7039132 -1.911634 8 1
6.3722672 -8.7997074 -2.1118741 12 2
8.8255119 -12.200929 -2.385 11 3
13.439892 -18.607475 -2.8183508 14 4
3.9734352 -5.5541301 -1.8298507 3 0
4.8232799 -6.7495217 -1.9152331 7 1
6.3026958 -8.8327923 -2.1092029 10 2
8.657567 -12.146428 -2.3624737 10 3
13.320985 -18.709846 -2.8200569 10 4
3.9390154 -5.5880504 -1.8319213 3 0
4.7939939 -6.8085246 -1.9224317 8 1
6.2254858 -8.8514004 -2.1034784 10 2
8.5690107 -12.196994 -2.3609092 8 3
13.250463 -18.888514 -2.8329749 12 4
3.9075012 -5.6242518 -1.8350271 4 0
4.7742043 -6.8794227 -1.9332294 7 1
6.2127409 -8.9656487 -2.1202698 10 2
8.3678541 -12.089222 -2.3286836 9 3
13.119328 -18.975004 -2.8324873 12 4
3.8725066 -5.6577716 -1.8370978 3 0
4.7524567 -6.9511929 -1.9440269 9 1
7.2735124 -10.654579 -2.5076118 4 2
8.688344 -12.741411 -2.4425681 9 3
13.020065 -19.115353 -2.8397999 12 4
3.8501933 -5.7102962 -1.8453798 3 0
4.7353826 -7.0310755 -1.9570743 10 1
7.1956668 -10.700211 -2.5064671 6 2
8.6344271 -12.854229 -2.4525797 1 3
12.865283 -19.174465 -2.8351688 8 4
3.8038225 -5.7273812 -1.8422741 4 0
4.6807947 -7.0558443 -1.9548247 9 1
7.2224364 -10.899505 -2.5415759 10 2
9.3208342 -14.082245 -2.6747169 8 3
12.73877 -19.275406 -2.836875 14 4
3.7668645 -5.7563729 -1.8433093 4 0
4.6422544 -7.1022215 -1.9588737 11 1
7.0925174 -10.867457 -2.522495 12 2
9.2525015 -14.193307 -2.6834772 8 3
12.633268 -19.401592 -2.8427243 12 4
3.724494 -5.7792826 -1.8422741 4 0
4.5967784 -7.1410122 -1.9606735 10 1
7.001615 -10.893585 -2.5171523 10 2
9.1766644 -14.294126 -2.6903601 8 3
12.443935 -19.405766 -2.8305378 12 4
3.6964779 -5.8247161 -1.8484857 3 0
4.5489001 -7.1762209 -1.9615731 11 1
6.9169941 -10.928928 -2.5140994 10 2
9.0893183 -14.377878 -2.6941147 8 3
12.231844 -19.371315 -2.8129883 14 4
3.6475339 -5.8372741 -1.8443446 4 0
4.4986901 -7.2078037 -1.9615731 10 1
6.8279037 -10.952434 -2.5087569 10 2
8.9975052 -14.449475 -2.695992 7 3
12.115178 -19.486582 -2.8173759 14 4
3.6158175 -5.8751287 -1.8484857 4 0
4.4515643 -7.2415781 -1.9624729 12 1
6.7286816 -10.963023 -2.5003612 12 2
8.9057035 -14.527094 -2.6988077 6 3
11.941827 -19.502571 -2.8078699 10 4
3.5827215 -5.9134464 -1.8526268 4 0
4.3998923 -7.2708116 -1.962023 15 1
6.6316781 -10.976123 -2.4927289 10 2
8.805088 -14.590604 -2.6991208 7 3
11.758245 -19.507259 -2.796658 10 4
3.5413511 -5.9383144 -1.8526268 5 0
4.3849273 -7.3616242 -1.9782196 14 1
6.5267897 -10.974906 -2.4820435 12 2
8.7050314 -14.655115 -2.6997464 8 3
11.840554 -19.957636 -2.8493054 10 4
3.4998074 -5.9628925 -1.8526268 4 0
4.3629928 -7.4424911 -1.9917165 14 1
6.434144 -10.993093 -2.4759376 10 2
8.6005144 -14.71212 -2.6991208 8 3
11.740976 -20.108379 -2.859055 10 4
3.471621 -6.0106001 -1.8598738 4 0
4.3284564 -7.5031538 -1.9998149 13 1
6.37292 -11.064964 -2.4820435 12 2
8.4936543 -14.764956 -2.6978691 8 3
11.674478 -20.318949 -2.8773353 12 4
3.4410288 -6.0548449 -1.8660854 7 0
4.27597 -7.5331888 -1.9998149 13 1
6.2054977 -10.950336 -2.446553 13 2
8.3981543 -14.837644 -2.700372 8 3
11.601702 -20.522648 -2.8946409 10 4
3.3950205 -6.0696969 -1.8634971 19 0
4.2264943 -7.5655217 -2.0007145 14 1
6.1308188 -10.992321 -2.446553 10 2
8.3334942 -14.960041 -2.7122612 7 3
11.414449 -20.516144 -2.8826978 14 4
3.359082 -6.1050987 -1.8671206 37 0
4.1820221 -7.6102147 -2.0047638 17 1
6.0379081 -11.001097 -2.4393022 10 2
8.2409668 -15.033741 -2.71539 8 3
11.331935 -20.706779 -2.8982971 13 4
3.3064115 -6.1074352 -1.8609091 28 0
4.1319776 -7.6419325 -2.0056636 23 1
5.9451051 -11.013612 -2.4328148 10 2
8.1451855 -15.108294 -2.7185183 8 3
11.19261 -20.786928 -2.8987844 13 4
3.2682331 -6.138895 -1.8634971 19 0
4.1132927 -7.7359772 -2.0227599 16 1
5.8561058 -11.032305 -2.4278538 12 2
8.0561666 -15.196204 -2.7241502 7 3
11.023994 -20.820702 -2.8926911 10 4
3.2369425 -6.1838121 -1.8702265 6 0
4.0754361 -7.7955904 -2.0308583 15 1
5.7880263 -11.090323 -2.43167 12 2
7.9553604 -15.262587 -2.7260273 7 3
10.912285 -20.962307 -2.9017093 13 4
3.2034166 -6.2251544 -1.8759204 6 0
4.0084434 -7.7995863 -2.0245595 15 1
5.7007499 -11.106757 -2.4267089 13 2
7.8621006 -15.337478 -2.7297816 8 3
10.776528 -21.059181 -2.9046342 15 4
3.1539912 -6.2330256 -1.8717794 6 0
3.9499869 -7.8162551 -2.0218601 15 1
5.5921216 -11.084937 -2.4133523 12 2
7.7512803 -15.384935 -2.7285304 7 3
10.643643 -21.153326 -2.9075592 15 4
3.1147013 -6.2635417 -1.8743677 5 0
3.8883893 -7.8296766 -2.0182607 14 1
5.4901834 -11.074455 -2.402667 12 2
7.6463122 -15.443983 -2.7294688 10 3
10.483388 -21.202206 -2.9041467 15 4
3.0802267 -6.3042269 -1.8800616 6 0
3.8165414 -7.8216047 -2.0092628 15 1
5.3800659 -11.045443 -2.3881655 12 2
7.534853 -15.489883 -2.7282174 10 3
10.348994 -21.303442 -2.9080465 13 4
3.0444996 -6.3429928 -1.8852381 6 0
3.78543 -7.8972626 -2.0218601 16 1
5.2708502 -11.010977 -2.3729007 12 2
7.4403176 -15.563982 -2.7322848 8 3
10.289782 -21.563286 -2.933639 11 4
2.9963095 -6.3530855 -1.8821322 6 0
3.759819 -7.9827881 -2.0371568 17 1
5.1671228 -10.99065 -2.3606889 10 2
7.3348389 -15.622696 -2.7335362 8 3
10.224511 -21.807169 -2.9572816 15 4
2.9567552 -6.3843665 -1.8852381 6 0
3.707269 -8.0159168 -2.0389564 16 1
5.0927358 -11.031802 -2.3618338 7 2
7.2231121 -15.66814 -2.7325976 10 3
10.080321 -21.896051 -2.9597192 13 4
2.9161105 -6.4136457 -1.8878261 7 0
3.6592743 -8.0593462 -2.0434554 16 1
4.9912844 -11.013442 -2.3503854 10 2
7.1192522 -15.730782 -2.7347875 8 3
9.922307 -21.955038 -2.9582567 13 4
2.871264 -6.4338474 -1.8878261 7 0
3.6171999 -8.1167364 -2.0515537 15 1
4.9082203 -11.029224 -2.3465691 9 2
7.0088048 -15.771657 -2.7335362 7 3
9.7897167 -22.070951 -2.9645939 13 4
2.8374827 -6.4762454 -1.8945554 6 0
3.5665543 -8.1518803 -2.0542529 14 1
4.8468175 -11.099205 -2.3542016 10 2
6.9040561 -15.832877 -2.7357264 10 3
9.5742741 -21.987833 -2.9446073 13 4
2.799067 -6.5118704 -1.8992143 7 0
3.5095565 -8.1765814 -2.0542529 14 1
4.7552967 -11.100289 -2.3473325 9 2
6.7708225 -15.82802 -2.7266529 11 3
9.4127417 -22.035883 -2.9421699 13 4
2.7512858 -6.5259123 -1.8976613 6 0
3.4523878 -8.2008829 -2.0542529 15 1
4.675406 -11.127786 -2.3461876 4 2
6.6616874 -15.878547 -2.7272787 11 3
9.0339394 -21.564598 -2.8707545 10 4
2.7086122 -6.5521021 -1.8997319 6 0
3.3950505 -8.2247858 -2.0542529 15 1
4.5759187 -11.107512 -2.3351207 9 2
6.546164 -15.913707 -2.7254016 11 3
9.0845461 -22.117414 -2.9358327 15 4
2.6678836 -6.5833845 -1.9033554 9 0
3.327316 -8.2229967 -2.0479543 15 1
4.5085535 -11.164675 -2.3404634 10 2
6.4304733 -15.948028 -2.7235246 11 3
8.949192 -22.228176 -2.9421699 13 4
2.6218581 -6.6018496 -1.9033554 5 0
3.2655182 -8.2351561 -2.0452549 17 1
4.4153323 -11.157541 -2.3324494 6 2
6.3189802 -15.992532 -2.7235246 11 3
8.6459055 -21.915255 -2.8926911 8 4
2.5792069 -6.6289949 -1.9059435 6 0
3.196656 -8.2286892 -2.0380566 18 1
3.6461389 -9.4051743 -1.9607532 4 2
6.2000484 -16.017834 -2.7203958 11 3
8.6100607 -22.278746 -2.9326642 11 4
2.5314901 -6.6432285 -1.9049082 6 0
3.1252728 -8.2143774 -2.0290585 18 1
4.2276101 -11.129262 -2.3141315 12 2
6.0761642 -16.020878 -2.7138255 10 3
8.4114532 -22.22506 -2.9177961 13 4
2.4943194 -6.6820245 -1.9111199 6 0
3.047509 -8.1770267 -2.0146616 15 1
4.1402311 -11.132744 -2.308789 10 2
5.9428563 -16.005501 -2.7041266 11 3
8.3752098 -22.592638 -2.9585004 11 4
2.4522507 -6.7119765 -1.9147433 5 0
3.0050397 -8.2383795 -2.0245595 17 1
4.0657005 -11.164358 -2.3095522 12 2
5.7946229 -15.937903 -2.6859801 11 3
8.1962919 -22.592709 -2.9509444 13 4
2.4118352 -6.7471242 -1.9199197 4 0
2.9199431 -8.1820717 -2.0056636 14 1
3.9685831 -11.145079 -2.2996302 12 2
5.6453586 -15.880316 -2.6693981 10 3
7.9945455 -22.525909 -2.9348578 13 4
2.3704114 -6.78021 -1.9245785 6 0
2.8511915 -8.1691399 -1.9975653 15 1
3.8822947 -11.14217 -2.2935243 10 2
5.5598497 -15.983673 -2.6803484 11 3
7.8572679 -22.639309 -2.9424136 11 4
2.324831 -6.7980156 -1.9250962 5 0
2.8207057 -8.2621269 -2.0155613 15 1
3.7828918 -11.105816 -2.2805493 12 2
5.4354076 -15.984694 -2.6740909 11 3
7.6544919 -22.549406 -2.9238894 18 4
2.3005843 -6.8837051 -1.9447664 7 0
2.7802262 -8.3333778 -2.0281587 19 1
3.7213869 -11.180387 -2.2904713 12 2
5.304997 -15.966011 -2.664705 11 3
7.6062469 -22.93202 -2.9665437 13 4
2.2800498 -6.984076 -1.9685777 9 0
2.7147346 -8.3303509 -2.0227599 18 1
3.621999 -11.140747 -2.2771149 15 2
5.1616974 -15.904954 -2.6484358 10 3
7.4790077 -23.08654 -2.9797056 14 4
2.2324104 -7.0035043 -1.969613 9 0
2.6470575 -8.3193874 -2.0155613 21 1
3.5007746 -11.02916 -2.2492564 12 2
5.0863328 -16.053591 -2.667208 11 3
7.3248339 -23.160902 -2.9826305 16 4
2.1823149 -7.0152297 -1.9685777 9 0
2.5912254 -8.345109 -2.0173612 20 1
3.4347279 -11.088963 -2.2565072 13 2
4.9904709 -16.14155 -2.6759684 11 3
7.1734977 -23.245619 -2.9870176 14 4
2.1355307 -7.0376878 -1.9706483 9 0
2.5351622 -8.3704557 -2.0191607 21 1
3.3640447 -11.135223 -2.2610867 15 2
4.8753786 -16.168434 -2.6747169 11 3
6.9778566 -23.184883 -2.9728811 15 4
2.0863461 -7.0524254 -1.9706483 9 0
2.4877014 -8.4253302 -2.0281587 18 1
3.263484 -11.081223 -2.2454405 6 2
4.7980394 -16.323368 -2.6947405 11 3
6.8186226 -23.242556 -2.9740996 9 4
2.038131 -7.0705314 -1.9716836 9 0
2.4342093 -8.4612188 -2.0326576 18 1
3.1717265 -11.04657 -2.2339919 12 2
4.5866919 -16.006243 -2.6371727 11 3
6.6960168 -23.428923 -2.9918926 7 4
1.9878665 -7.0768008 -1.969613 9 0
2.3681431 -8.4475698 -2.0254593 21 1
3.1024604 -11.096805 -2.2397161 18 2
4.5672135 -16.368942 -2.6916118 11 3
6.5076337 -23.370693 -2.9787307 7 4
1.9424891 -7.1054144 -1.9737542 9 0
2.2978263 -8.4225359 -2.0155613 19 1
3.0216973 -11.098722 -2.2358999 19 2
4.3531389 -16.022209 -2.6296637 12 3
3.2004514 -11.8122 -1.5026492 3 4
1.892092 -7.1110039 -1.9716836 9 0
2.2374427 -8.4266806 -2.012862 17 1
2.9536889 -11.155605 -2.2431507 12 2
4.2936549 -16.250834 -2.6622021 11 3
6.1771941 -23.429403 -2.9750745 9 4
1.8365972 -7.1015959 -1.9654719 9 0
2.1785588 -8.4420948 -2.012862 19 1
2.876225 -11.177855 -2.2435322 9 2
4.2361035 -16.498529 -2.6978691 7 3
6.0312142 -23.541185 -2.9838493 9 4
1.7926224 -7.1367288 -1.9716836 9 0
2.1243076 -8.4760017 -2.0173612 21 1
2.8100178 -11.24528 -2.2530727 12 2
4.0787649 -16.359034 -2.6703367 11 3
5.8810954 -23.640509 -2.9911613 9 4
1.7400107 -7.1378083 -1.9685777 9 0
2.0623188 -8.4792643 -2.0146616 21 1
2.7306318 -11.252699 -2.250783 10 2
3.9766164 -16.424814 -2.676594 11 3
5.7163763 -23.68292 -2.9914052 14 4
1.6931646 -7.1570063 -1.9706483 9 0
2.0009732 -8.4779329 -2.0110624 15 1
2.6488605 -11.258111 -2.2481117 13 2
3.9024799 -16.625256 -2.7047522 11 3
5.5309987 -23.637205 -2.9806807 14 4
1.6410434 -7.1651726 -1.969613 9 0
1.9402562 -8.492034 -2.0110624 20 1
2.5579834 -11.222733 -2.2374265 18 2
3.7475276 -16.494799 -2.6790969 11 3
5.2864313 -23.324825 -2.936564 11 4
1.5893096 -7.168911 -1.9675424 9 0
1.885974 -8.5282059 -2.0164614 21 1
2.4645095 -11.181315 -2.2255962 12 2
3.6687605 -16.68648 -2.7060037 11 3
5.0941224 -23.227373 -2.9197462 13 4
1.5355778 -7.1628313 -1.9628838 10 0
1.8214999 -8.5182962 -2.0110624 21 1
2.3789263 -11.15367 -2.216819 13 2
3.5707159 -16.784487 -2.7178926 11 3
4.9318404 -23.262371 -2.9197462 15 4
1.4856108 -7.1674423 -1.9613309 9 0
1.7599258 -8.5133228 -2.0070133 24 1
2.3160527 -11.243074 -2.2313204 18 2
3.4566312 -16.824484 -2.7203958 11 3
4.7733865 -23.295401 -2.9197462 13 4
1.4355375 -7.1776395 -1.9613309 9 0
1.7061665 -8.5540676 -2.013762 21 1
2.2352102 -11.247416 -2.2290308 13 2
3.3444664 -16.875336 -2.7247758 11 3
4.63835 -23.46837 -2.9372952 15 4
1.3857586 -7.189383 -1.9618485 10 0
1.657442 -8.6231813 -2.0272589 19 1
2.1529431 -11.243465 -2.2252147 13 2
3.2458422 -16.999168 -2.741045 11 3
4.4840503 -23.550882 -2.9436324 13 4
1.3358858 -7.2007818 -1.9623661 9 0
1.6021631 -8.6613693 -2.0335574 16 1
2.0615892 -11.188714 -2.2114763 18 2
3.1281574 -17.027243 -2.7419839 10 3
4.3324065 -23.651907 -2.9524071 13 4
1.2832094 -7.1966195 -1.9587426 10 0
1.539611 -8.6608315 -2.0308583 18 1
1.9724747 -11.140972 -2.1992648 19 2
3.0236297 -17.130369 -2.7551243 10 3
4.1788764 -23.748047 -2.9606941 13 4
1.2358687 -7.2225399 -1.9634014 9 0
1.47059 -8.6214237 -2.0191607 15 1
1.9091017 -11.227688 -2.2137661 15 2
2.9214833 -17.236248 -2.7688904 10 3
4.0169458 -23.800131 -2.963619 15 4
1.1860528 -7.2269721 -1.9623661 9 0
1.4024349 -8.5735378 -2.0056636 21 1
1.8243595 -11.201987 -2.2061336 18 2
2.8023467 -17.264023 -2.7701418 10 3
3.8370996 -23.717184 -2.9499695 15 4
1.1352707 -7.2331681 -1.9618485 10 0
1.357604 -8.6793871 -2.0281587 21 1
1.7426261 -11.17923 -2.1992648 21 2
2.691139 -17.323689 -2.7767119 11 3
3.6762822 -23.774784 -2.9538693 13 4
1.0848643 -7.2330856 -1.959778 10 0
1.2990696 -8.6922808 -2.0290585 20 1
1.6604942 -11.163936 -2.1939218 15 2
2.5261133 -17.045042 -2.729156 11 3
3.5381486 -23.960285 -2.973856 13 4
1.0327032 -7.2290082 -1.9566721 10 0
1.2383555 -8.7011385 -2.0290585 21 1
1.580608 -11.147767 -2.1885793 15 2
1.6502491 -11.68295 -1.8687663 10 3
1.6438152 -11.696352 -1.4502453 4 4
0.9834736 -7.2358704 -1.9566721 11 0
1.1811913 -8.7248144 -2.0326576 20 1
1.4901658 -11.065137 -2.1702616 16 2
2.3252654 -17.334726 -2.7701418 10 3
1.5920295 -11.915837 -1.4760816 9 4
0.93392092 -7.2502241 -1.9587426 11 0
1.1170306 -8.7077208 -2.026809 24 1
1.4153662 -11.094746 -2.174078 18 2
2.1949804 -17.27803 -2.7585657 11 3
1.5090517 -11.928631 -1.4763253 6 4
0.8879506 -7.2949209 -1.9690953 10 0
1.0564464 -8.7172403 -2.0272589 21 1
1.3355273 -11.084864 -2.1702616 16 2
2.0677164 -17.238018 -2.7498055 11 3
2.8173466 -23.591944 -2.9173086 15 4
1.487204 -12.527844 -1.1037403 17 5
0.83656079 -7.2971044 -1.9680601 10 0
1.0008656 -8.7708721 -2.0380566 20 1
1.2457205 -10.984675 -2.148891 19 2
1.9610608 -17.373734 -2.7692034 11 3
1.3199714 -11.749297 -1.4517077 16 4
1.4058964 -12.593365 -1.108621 17 5
0.78559703 -7.3027668 -1.9680601 10 0
0.94043863 -8.7853966 -2.0398562 21 1
1.1694179 -10.997009 -2.1496544 18 2
1.1903836 -11.25018 -1.7918006 12 3
1.211519 -11.507504 -1.420753 18 4
1.2665523 -12.111441 -1.0653918 15 5
1.2874738 -12.374129 -0.65200138 8 6
0.73169839 -7.2792401 -1.9602956 9 0
0.87675649 -8.7684793 -2.0344574 16 1
1.0999866 -11.079144 -2.1641557 16 2
1.132586 -11.468559 -1.8252774 8 3
1.1589018 -11.79819 -1.4556075 25 4
0.68176091 -7.2937884 -1.9628838 11 0
0.81588131 -8.7782669 -2.0353572 21 1
1.028025 -11.145202 -2.1756043 15 2
1.0454582 -11.399468 -1.8130757 21 3
1.0446008 -11.456083 -1.4124658 16 4
1.1371243 -12.641542 -0.6651901 17 6
0.62616611 -7.2444797 -1.9483899 10 0
0.76058221 -8.8536472 -2.0515537 16 1
0.95013392 -11.128467 -2.1710248 13 2
0.98003209 -11.550008 -1.8359152 10 3
1.0188636 -12.107958 -1.4919246 18 4
1.053365 -12.676855 -0.66665548 26 6
1.0464461 -12.701024 -0.22244836 17 7
0.57500172 -7.2254643 -1.9421781 11 0
1.0106453 -12.756078 0.22335589 16 8
0.69815052 -8.8314199 -2.0452549 15 1
0.86214489 -11.003694 -2.1454566 12 2
0.88757366 -11.404922 -1.8118242 4 3
0.91729891 -11.867214 -1.4614573 9 4
0.88256055 -11.496131 -1.0087405 14 5
0.95996857 -12.707852 -0.22244836 17 7
0.52314639 -7.2100348 -1.9370018 11 0
0.93072492 -12.858397 0.22503133 16 8
0.63479853 -8.8127556 -2.0398562 15 1
0.78904659 -11.034763 -2.1504176 21 2
0.83397925 -11.749612 -1.8656377 9 3
0.82343525 -11.716892 -1.442202 14 4
0.80234277 -11.590319 -0.60887659 18 6
0.87505692 -12.770105 -0.22342572 17 7
0.47355109 -7.2057176 -1.9349313 12 0
0.5735305 -8.7974262 -2.0353572 19 1
0.71350646 -11.063515 -2.1549969 15 2
0.71220976 -11.134173 -1.7670839 13 3
0.7612586 -11.999581 -1.4763253 15 4
0.7154575 -11.499953 -0.60385227 18 6
0.42334738 -7.2107763 -1.9354489 13 0
0.76252043 -13.065776 0.228452 17 8
0.51391006 -8.8323431 -2.0425556 14 1
0.63602716 -11.064306 -2.1542337 13 2
0.63592166 -11.164513 -1.7711512 9 3
0.66896665 -11.853977 -1.4578012 16 4
0.63340658 -11.364884 -0.9958415 14 5
0.6747905 -12.222588 -0.64153421 17 6
0.67401063 -12.325706 -0.21546741 16 7
0.37279686 -7.2096977 -1.9344137 14 0
0.68338978 -13.306434 0.23257077 18 8
0.45363069 -8.8629618 -2.0488544 15 1
0.62226462 -12.241373 0.64237159 4 9
0.56054991 -11.103769 -2.1611028 19 2
0.56092137 -11.227867 -1.7805374 2 3
0.5402289 -10.928484 -1.3434877 7 4
0.56374735 -11.568032 -1.0132726 14 5
0.55626464 -11.538746 -0.60542244 18 6
0.32815132 -7.3395 -1.9685777 9 0
0.5622955 -12.675603 0.22147104 16 8
0.39122945 -8.8542318 -2.0461547 19 1
0.48233628 -11.091721 -2.1580498 19 2
0.50244731 -11.695294 -1.8540615 13 3
0.46821299 -11.033138 -1.3559184 13 4
0.48114562 -11.527891 -1.0094378 14 5
0.48482448 -11.763857 -0.61704099 8 6
0.27828735 -7.3782911 -1.9784129 11 0
0.47662684 -12.755154 0.22279742 16 8
0.32926187 -8.8528519 -2.0452549 18 1
0.40052226 -10.97514 -2.1347711 12 2
0.40225506 -11.183277 -1.7724028 12 3
0.39131638 -11.040106 -1.3564059 12 4
0.40314749 -11.602652 -1.015713 14 5
0.39216712 -11.459556 -0.60092151 18 6
0.41573066 -12.337118 -0.21546741 16 7
0.2267704 -7.380054 -1.9784129 10 0
0.37979847 -12.502327 0.21832959 15 8
0.26721397 -8.8471441 -2.0434554 15 1
0.32493508 -11.012992 -2.1416404 6 2
0.32205534 -11.112756 -1.7608266 14 3
0.31412074 -11.0386 -1.3559184 14 4
0.33540389 -12.083174 -1.0575478 15 5
0.31824595 -11.685625 -0.61264473 9 6
0.33493197 -12.539618 -0.21895789 17 7
0.17574674 -7.4027019 -1.9841069 9 0
0.29063594 -12.424708 0.21693341 15 8
0.20526183 -8.8410006 -2.0416558 15 1
0.25533473 -11.338847 -2.2046072 19 2
0.24598612 -11.183854 -1.7717769 21 3
0.24114119 -11.23105 -1.3793174 19 4
0.25294265 -12.176851 -1.0655661 15 5
0.24134743 -11.919196 -0.62478673 8 6
0.12393328 -7.3960218 -1.9820364 9 0
0.20939942 -12.762339 0.22279742 16 8
0.14366259 -8.8500118 -2.0434554 17 1
0.20792636 -13.090383 0.68612444 6 9
0.17568052 -11.308944 -2.1985013 18 2
0.16069742 -10.705336 -1.6957498 14 3
0.16215271 -11.192762 -1.3744426 16 4
0.16682723 -12.098632 -1.0585936 15 5
0.15558665 -11.72887 -0.61473817 27 6
0.15727127 -12.343118 -0.21546741 16 7
0.072674803 -7.4353428 -1.9923891 9 0
0.11697945 -12.411559 0.21665418 15 8
0.081910402 -8.8546972 -2.0443552 16 1
0.10977765 -12.332585 0.64634913 2 9
0.096659116 -11.302042 -2.196975 13 2
0.088398457 -11.010396 -1.7439317 20 3
0.085408926 -11.380214 -1.397354 19 4
0.082522981 -12.123409 -1.0606854 15 5
0.074604839 -11.87347 -0.62227458 17 6
0.071097694 -12.343916 -0.21546741 16 7
0.020484023 -7.3352122 -1.9654719 13 0
0.030436562 -12.456066 0.21742207 15 8
0.020100867 -8.8589497 -2.0452549 15 1
0.024244782 -12.628647 0.66184056 6 9
0.017505169 -11.143417 -2.1660638 12 2
0.011217409 -10.710487 -1.6963756 11 3
0.0056950487 -10.878305 -1.3356882 21 4
-0.0021198061 -12.151584 -1.0631257 15 5
-0.0083228927 -11.921637 -0.62478673 17 6
-0.015178536 -12.424099 -0.2168636 16 7
-0.031121543 -7.4298363 -1.9908361 11 0
-0.056486133 -12.447976 0.21728246 15 8
-0.041654922 -8.8393879 -2.040756 15 1
-0.060174141 -11.121674 -2.1618662 15 2
-0.062946625 -10.607587 -1.6801064 21 3
-0.069978185 -10.836393 -1.3305696 18 4
-0.088060096 -12.613511 -1.1035661 17 5
-0.091473296 -11.911302 -0.62426335 17 6
-0.083206609 -7.4487553 -1.9960126 10 0
-0.14266905 -12.575275 0.21951638 15 8
-0.10377359 -8.8739567 -2.0488544 16 1
-0.14859711 -12.519936 0.65618831 14 9
-0.13539472 -11.081745 -2.1542337 13 2
-0.14430845 -11.325891 -1.7939906 18 3
-0.14880331 -11.071845 -1.3595744 20 4
-0.15096794 -10.811644 -0.94598836 13 5
-0.16841038 -11.624825 -0.60929525 27 6
-0.18141811 -11.946804 -0.20855626 15 7
-0.1351223 -7.5156207 -2.0141299 9 0
-0.22657026 -12.362041 0.21581645 15 8
-0.16424651 -8.8769417 -2.0497539 14 1
-0.24183109 -12.828114 0.67241246 10 9
-0.21569632 -11.233634 -2.1839998 18 2
-0.21838818 -11.07181 -1.7539434 17 3
-0.2233988 -11.032867 -1.3549435 18 4
-0.2292811 -10.94578 -0.95784163 13 5
-0.24793369 -11.547488 -0.60531777 18 6
-0.18855123 -7.5531192 -2.0244827 9 0
-0.31074283 -12.276198 0.21435046 15 8
-0.23971951 -9.4054632 -2.1721272 21 1
-0.32895783 -12.732273 0.66749287 14 9
-0.295607 -11.28877 -2.1950669 12 2
-0.30907542 -11.571581 -1.8334121 15 3
-0.30009305 -11.019133 -1.3534811 15 4
-0.30524641 -10.927979 -0.95644712 13 5
-0.33797511 -11.876886 -0.6226933 8 6
-0.34449744 -11.887199 -0.20757893 15 7
-0.24047446 -7.5265174 -2.0177534 11 0
-0.29506627 -9.0860834 -2.0987935 14 1
-0.37714413 -11.368842 -2.2110946 12 2
-0.36736637 -10.901843 -1.7276624 18 3
-0.38142684 -11.145723 -1.369324 7 4
-0.378748 -10.845935 -0.94947463 13 5
-0.42342868 -11.946094 -0.62646145 8 6
-0.43380147 -12.060364 -0.21065055 15 7
-0.29241222 -7.5092115 -2.0136123 12 0
-0.47379315 -12.058859 0.21065055 14 8
-0.44688952 -11.126608 -2.1645374 6 2
-0.45534968 -11.191126 -1.773967 12 3
-0.4508099 -10.938498 -1.344219 13 4
-0.51936829 -12.391747 -1.085089 16 5
-0.53696436 -12.653231 -0.66372466 17 6
-0.34642398 -7.5417242 -2.0229297 10 0
-0.62361163 -13.473522 0.23543297 18 8
-0.43302298 -9.3205147 -2.1541312 25 1
-0.51623362 -10.94672 -2.1301918 4 2
-0.54306418 -11.388935 -1.8058797 16 3
-0.52333796 -10.855773 -1.3344694 19 4
-0.53853214 -11.050625 -0.96795171 13 5
-0.62923044 -12.728968 -0.66791159 17 6
-0.63587379 -12.728186 -0.22244836 17 7
-0.39763713 -7.512114 -2.0156829 10 0
-0.4922553 -9.2082911 -2.1289368 23 1
-0.5978229 -11.0743 -2.15576 7 2
-0.62573308 -11.479651 -1.8208973 8 3
-0.60797638 -11.012403 -1.3542123 20 4
-0.62231779 -11.165955 -0.97841036 14 5
-0.70307016 -12.497061 -0.65597892 17 6
-0.7178933 -12.603649 -0.22035408 17 7
-0.44599548 -7.4629512 -2.0032594 10 0
-0.55304652 -9.173604 -2.1217382 19 1
-0.82867259 -13.666111 0.71752608 16 9
-0.67225331 -11.022826 -2.1466014 9 2
-0.72368944 -11.764837 -1.8668892 12 3
-0.70479918 -11.360679 -1.3975978 10 4
-0.71248901 -11.388148 -0.99828184 14 5
-0.79332393 -12.539687 -0.65849108 26 6
-0.77336895 -12.123508 -0.21204674 15 7
-0.49744144 -7.4500184 -2.0006714 9 0
-0.82854855 -12.376408 0.21651454 15 8
-0.62021607 -9.2161837 -2.1325359 15 1
-0.75563598 -11.141397 -2.1706433 3 2
-1.274125 -18.641598 -2.9594276 4 3
-0.7582497 -10.98119 -1.351531 19 4
-0.77316868 -11.112584 -0.97457546 13 5
-0.88117325 -12.56986 -0.66037518 17 6
-0.54771525 -7.44068 -1.9991184 10 0
-0.67371339 -9.0873699 -2.1037421 17 1
-0.92336172 -12.337927 -2.4049568 12 2
-0.88597876 -11.755711 -1.867202 5 3
-0.82516611 -10.872845 -1.3388567 12 4
-0.84525257 -11.0354 -0.96830028 13 5
-1.0122142 -13.124961 -0.68989259 8 6
-0.5946781 -7.3750558 -1.982554 10 0
-0.74123746 -9.132946 -2.1154397 18 1
-1.0080324 -12.313569 -2.4015222 13 2
-0.97273123 -11.806331 -1.8762752 10 3
-0.91433978 -11.027062 -1.3585995 9 4
-0.91859299 -10.916385 -0.57412547 10 6
-1.0617627 -12.539211 -0.21965599 17 7
-0.64750004 -7.3861203 -1.9866952 10 0
-0.80395114 -9.1159019 -2.1127403 16 1
-0.94533867 -10.634241 -2.0752387 4 2
-1.0558351 -11.807122 -1.8775268 7 3
-1.0259804 -11.405947 -1.4061285 2 4
-0.69613487 -7.3506474 -1.9784129 11 0
-0.86757141 -9.1100674 -2.1127403 16 1
-1.0201349 -10.652967 -2.0801997 4 2
-1.1479164 -11.921571 -1.8969245 7 3
-2.4455462 -25.21344 -3.1103497 7 4
-0.74615216 -7.3457389 -1.9784129 10 0
-0.93549907 -9.1621103 -2.1262374 19 1
-1.2565142 -12.221624 -2.3881655 10 2
-1.9316533 -18.692217 -2.9763224 9 3
-1.1698138 -11.262377 -1.3902856 18 4
-1.2916632 -12.28935 -0.64760518 17 6
-0.80263287 -7.3883643 -1.9913538 9 0
-1.0019776 -9.1786032 -2.1316364 15 1
-1.3403159 -12.218643 -2.3893104 9 2
-2.0649004 -18.733614 -2.9850829 10 3
-1.2425005 -11.200665 -1.3837045 13 4
-0.85334802 -7.3865685 -1.9923891 9 0
-1.0590383 -9.1251125 -2.1208386 17 1
-1.39849 -11.976937 -2.3438978 10 2
-2.1993148 -18.75013 -2.9900887 10 3
-3.0662332 -26.023201 -3.217351 11 4
-0.90560043 -7.3861837 -1.993942 11 0
-1.1231942 -9.1213646 -2.1217382 21 1
-1.4837598 -11.98052 -2.3465691 10 2
-2.3340633 -18.765686 -2.9950948 10 3
-3.1511345 -25.227034 -3.1215615 15 4
-0.95341647 -7.350944 -1.9861774 9 0
-1.1762761 -9.0321388 -2.1028426 21 1
-1.5729697 -12.012696 -2.3549647 10 2
-2.4724805 -18.805729 -3.0041678 12 3
-3.2770357 -24.824593 -3.0745199 10 4
-1.0044506 -7.3421946 -1.9856598 10 0
-1.2430158 -9.0507364 -2.1091411 18 1
-1.6680721 -12.083104 -2.3709927 7 2
-2.6077766 -18.817362 -3.0088608 10 3
-3.5115306 -25.241528 -3.1291175 13 4
-1.0529306 -7.3158822 -1.9804834 11 0
-1.3017125 -9.0109787 -2.1019428 15 1
-1.7495655 -12.051736 -2.3671765 9 2
-2.7493365 -18.869068 -3.0201242 9 3
-3.7433901 -25.597454 -3.1764028 13 4
-1.1031137 -7.3026223 -1.9789305 9 0
-1.3645883 -9.0016718 -2.1019428 15 1
-1.8363204 -12.056696 -2.3706112 3 2
-2.8899515 -18.907993 -3.0295103 10 3
-3.983999 -25.974899 -3.226613 13 4
-1.1501445 -7.2699375 -1.9722012 10 0
-1.4286205 -8.9996243 -2.1037421 15 1
-1.5698684 -9.845027 -1.9378562 10 2
-3.031244 -18.945875 -3.0388963 10 3
-4.212431 -26.240452 -3.2631738 11 4
-1.1999236 -7.2560129 -1.9706483 9 0
-1.497156 -9.0240355 -2.1118405 15 1
-1.6213728 -9.7411566 -1.9195386 12 2
-1.6462764 -9.858901 -1.583117 8 3
-4.4145637 -26.323956 -3.2773108 13 4
-1.2492861 -7.2476773 -1.9706483 9 0
-1.5492482 -8.9598684 -2.0992434 17 1
-1.6802703 -9.6773729 -1.9092349 16 2
-1.7113346 -9.8257608 -1.5796754 9 3
-1.7003244 -9.7323914 -1.2130876 7 4
-1.3012197 -7.2463846 -1.9727188 9 0
-1.6103804 -8.9411621 -2.0974436 15 1
-1.7426132 -9.6463919 -1.9054186 16 2
-3.4359071 -18.963013 -3.0523496 12 3
-1.7657398 -9.7066126 -1.2113814 9 4
-1.3512222 -7.2411585 -1.9737542 9 0
-1.6726366 -8.9376564 -2.0992434 15 1
-1.815714 -9.6648636 -1.9115247 13 2
-1.8320178 -9.7235832 -1.5671607 24 3
-5.0611396 -26.785326 -3.3470199 11 4
-1.8410008 -9.7153378 -0.86510789 12 5
-1.3958601 -7.2012033 -1.9654719 9 0
-1.7364798 -8.9334126 -2.1010427 17 1
-1.9047468 -9.7717533 -1.9351848 10 2
-3.7311418 -19.08832 -3.080508 7 3
-1.8864095 -9.6151142 -1.2030942 16 4
-1.8837478 -9.548604 -0.51006627 11 6
-1.4402776 -7.168807 -1.9592602 9 0
-1.8018646 -8.9443102 -2.1064417 18 1
-1.9674733 -9.7312775 -1.9298422 15 2
-3.8933554 -19.205069 -3.1036601 12 3
-5.4774165 -26.946436 -3.3762684 12 4
-1.9430163 -9.524703 -0.85046571 12 5
-1.9288138 -9.4047861 -0.167578 10 7
-1.4855647 -7.1358824 -1.9530486 9 0
-1.9461105 -9.3317814 0.16639124 17 8
-1.8555039 -8.8895464 -2.0965438 15 1
-2.0385799 -9.7326765 -1.9328952 15 2
-4.0545359 -19.306948 -3.1246223 9 3
-5.6932163 -27.039631 -3.392843 12 4
-1.9861162 -9.3519697 -0.16687991 20 7
-1.5386009 -7.1404457 -1.9571897 9 0
-1.9315089 -8.9411383 -2.1118405 15 1
-1.9967368 -9.227478 0.49478418 6 9
-2.1143789 -9.7546635 -1.940146 10 2
-4.2248774 -19.442249 -3.1512163 13 3
-5.938045 -27.257193 -3.4252601 9 4
-1.5867327 -7.1219883 -1.9551191 9 0
-2.0006778 -8.9578657 -2.1190388 16 1
-2.0523875 -9.1743307 0.49269074 2 9
-2.1506617 -9.5979004 -1.9119062 12 2
-2.0456352 -9.1217289 0.81786948 3 10
-4.3817205 -19.50672 -3.1665468 14 3
-6.1779013 -27.435848 -3.4530463 9 4
-1.6346819 -7.1032062 -1.9530486 9 0
-2.0666711 -8.9588718 -2.1226382 15 1
-2.2450576 -9.7012386 -1.9355664 10 2
-2.1200559 -9.1538086 0.8220529 3 10
-4.5499358 -19.614204 -3.1890736 14 3
-2.0800209 -8.9525175 1.1285102 3 11
-2.7159507 -11.680339 -1.4724256 3 4
-1.6869102 -7.1028986 -1.9561545 9 0
-2.1291656 -8.9442253 -2.1226382 18 1
-2.332911 -9.7773962 -1.9538842 12 2
-4.7086086 -19.688444 -3.2062812 14 3
-2.1617198 -9.0250244 1.1394784 0 11
-2.8080778 -11.70549 -1.4780315 2 4
-2.1327844 -8.8836851 1.4470189 10 12
-1.7324631 -7.0799928 -1.9530486 9 0
-2.1649311 -8.827323 -2.0983434 19 1
-2.4236238 -9.8523788 -1.9722018 12 2
-4.3385582 -17.597139 -2.8705728 2 3
-6.2425337 -25.262724 -3.1951706 7 4
-2.19997 -8.8896732 1.4504606 4 12
-2.1788089 -8.7844296 1.759259 4 13
-1.7790141 -7.0564861 -1.9499428 9 0
-2.2561023 -8.9291344 -2.1262374 17 1
-2.4971688 -9.85425 -1.9760182 12 2
-4.3295288 -17.047565 -2.7857852 10 3
-2.9701834 -11.669509 -1.4785191 4 4
-2.236851 -8.7309389 2.0807972 5 14
-1.8282335 -7.0438943 -1.9499428 9 0
-2.3193645 -8.9169378 -2.1271372 14 1
-2.5768042 -9.8783703 -1.9844136 10 2
-4.4074688 -16.86021 -2.7601302 10 3
-6.1916947 -23.634947 -2.9999361 9 4
-2.2951903 -8.6869488 2.4075348 5 15
-1.8803548 -7.0421581 -1.9530486 9 0
-2.3211131 -8.6746273 -2.073149 21 1
-2.634831 -9.8264685 -1.9775445 10 2
-4.0008211 -14.889677 -2.4419422 2 3
-6.0229135 -22.35294 -2.8424809 10 4
-1.9302901 -7.0366478 -1.9551191 9 0
-2.4090307 -8.7638531 -2.0983434 15 1
-2.7064986 -9.81919 -1.9798342 12 2
-4.4969931 -16.281832 -2.6753426 11 3
-5.9340076 -21.440931 -2.7315798 13 4
-1.9814634 -7.0304379 -1.9571897 9 0
-2.463799 -8.7243176 -2.0929446 21 1
-2.7717741 -9.788722 -1.9775445 10 2
-4.5587912 -16.067606 -2.6453073 10 3
-5.9652081 -20.982725 -2.6784446 13 4
-2.029423 -7.012722 -1.9561545 9 0
-2.3542378 -8.1192064 -1.9516754 21 1
-2.3604929 -8.1195793 -1.6436287 18 2
-2.3716109 -8.1419172 -1.3431464 24 3
-2.3775482 -8.1464128 -1.0419829 19 4
-2.0805314 -7.0057907 -1.958225 9 0
-2.4331231 -8.1826134 0.14900865 6 8
-2.4008596 -8.0689526 -1.9435771 21 1
-2.4264545 -8.1445723 0.44537902 4 9
-2.4126301 -8.0878515 -1.6405759 15 2
-2.4097266 -8.062705 -1.3328218 16 3
-2.4144323 -8.0630579 -1.0334522 20 4
-2.4283841 -8.0890961 -0.73890638 30 5
-2.4218812 -8.052124 -0.44066879 26 6
-2.4284794 -8.0587616 -0.14691436 46 7
-2.1271372 -6.9837041 -1.9561545 9 0
-2.4691899 -8.0965691 0.14775208 62 8
-2.4605455 -8.0631771 -1.9462765 17 1
-2.461077 -8.0548506 0.44140148 27 9
-2.4592705 -8.0388956 -1.6340883 10 2
-2.4691975 -8.0663128 0.73803484 16 10
-2.4647987 -8.0419083 -1.3321961 16 3
-2.4729941 -8.0535965 -1.0344272 20 4
-2.4613657 -8.0057678 1.3265644 25 12
-2.4730737 -8.0338602 -0.73542017 30 5
-2.4680307 -8.0025749 -0.43888938 13 6
-2.4751959 -8.015873 1.9368286 19 14
-2.4746454 -8.0091314 -0.14632098 34 7
-2.1746891 -6.9649954 -1.9551191 9 0
-2.5202842 -8.0619564 0.14743793 43 8
-2.5295746 -8.0867214 -1.9561743 17 1
-2.5100877 -8.0146017 0.44014546 29 9
-2.4830246 -7.9184985 -1.6130993 28 2
-2.5182929 -8.0260649 0.73594308 23 10
-2.5007513 -7.9604292 -1.3215585 15 3
-2.5212042 -8.0157461 1.0317459 22 11
-2.5297546 -8.0380297 -1.0346708 18 4
-2.5118537 -7.9714327 1.3237487 21 12
-2.5350931 -8.0354013 -0.73716325 30 5
-2.526 -8.001709 1.6310353 35 13
-2.521431 -7.9775314 -0.43847069 26 6
-2.5263925 -7.9835343 1.9332294 15 14
-2.5443833 -8.0355072 -0.14712378 31 7
-2.5343287 -7.99406 2.247067 37 15
-2.2244384 -6.9533234 -1.9561545 9 0
-2.5795548 -8.0536861 0.14761245 43 8
-2.8024576 -8.7443628 -2.1199389 21 1
-2.5769627 -8.0311136 0.44202951 29 9
-3.1381292 -9.7682695 -1.9943358 12 2
-2.5773129 -8.0177727 0.73681462 29 10
-4.9055586 -15.242459 -2.5361156 6 3
-2.5837994 -8.018734 1.0344272 36 11
-2.5741172 -7.9743805 1.3271902 23 12
-2.5793843 -7.9764071 1.6295089 42 13
-2.5820665 -7.9657021 1.9332294 20 14
-2.6324997 -8.1164598 -0.14893883 8 7
-2.5823195 -7.9522867 2.2403376 26 15
-2.2705214 -6.9302807 -1.9540838 9 0
-2.8755903 -8.7616167 -2.1289368 15 1
-3.2191305 -9.7852869 -2.0023496 13 2
-5.0378184 -15.28664 -2.5492566 9 3
-8.9570074 -27.131142 -3.5081313 6 4
-2.3213246 -6.9256554 -1.9571897 9 0
-2.9246161 -8.710434 -2.1212883 23 1
-3.2956817 -9.7929192 -2.0084558 15 2
-5.0534081 -14.989931 -2.5054548 5 3
-9.1637058 -27.135372 -3.5166621 6 4
-2.3696184 -6.9092813 -1.9571897 9 0
-2.9815564 -8.6787462 -2.1185889 23 1
-3.3633285 -9.7678165 -2.0080738 12 2
-5.0832171 -14.737667 -2.4691617 5 3
