# .PCD v0.7 - Point Cloud Data file format
VERSION 0.7
FIELDS x y z intensity ring
SIZE 4 4 4 4 2
TYPE F F F F U
COUNT 1 1 1 1 1
WIDTH 1307
HEIGHT 1
VIEWPOINT 0 0 0 1 0 0 0
POINTS 1307
DATA ascii
9.249383 -1.9036733 -1.8355827 3 2
11.748907 -2.4245286 -1.9000533 3 3
16.093697 -3.329915 -2.0179126 3 4
6.484302 -1.3735503 -1.7760164 2 0
7.6325297 -1.6209521 -1.8014081 2 1
9.2742701 -1.9763827 -1.8432151 3 2
11.754875 -2.5114443 -1.9038078 3 3
16.101114 -3.4488406 -2.0218124 3 4
6.4915385 -1.4225069 -1.7806751 2 0
7.6058006 -1.6708521 -1.7978089 2 1
9.2257357 -2.0334742 -1.8363459 3 2
11.72934 -2.5917423 -1.9025562 3 3
16.134789 -3.5740421 -2.0291247 3 4
6.4871016 -1.4690714 -1.782228 2 0
7.6091542 -1.7273608 -1.8014081 2 1
9.2649136 -2.1100388 -1.8470311 3 2
11.745626 -2.6814787 -1.9081879 4 3
16.124926 -3.6901388 -2.0310745 3 4
6.5199533 -1.5244398 -1.7941337 2 0
7.5893197 -1.7786614 -1.7996083 2 1
9.1968222 -2.1604822 -1.8363459 3 2
11.746328 -2.7658932 -1.9113165 3 3
16.12775 -3.8094666 -2.0347307 2 4
6.5094261 -1.5687841 -1.7941337 2 0
7.5921917 -1.8339394 -1.8032078 2 1
9.2311249 -2.2366552 -1.8462679 3 2
11.715216 -2.8450329 -1.9094393 4 3
16.153522 -3.9318311 -2.0413115 2 4
6.4589429 -1.6044097 -1.7832633 2 0
7.5678573 -1.8840731 -1.8005083 2 1
9.2152843 -2.3010454 -1.8462679 3 2
11.725729 -2.9344237 -1.9144453 4 3
16.137234 -4.0474048 -2.0427742 2 4
6.499989 -1.6628684 -1.7977571 2 0
7.5922732 -1.9465399 -1.8095063 2 1
9.2027988 -2.3663015 -1.8470311 3 2
11.727912 -3.0221274 -1.9181997 4 3
16.131647 -4.1659203 -2.0456991 2 4
6.4545946 -1.6993529 -1.7884396 2 0
7.5521197 -1.9925362 -1.8032078 2 1
9.2183199 -2.439028 -1.8535187 4 2
11.702709 -3.102917 -1.9175739 4 3
16.203852 -4.3054562 -2.0586171 2 4
6.4407091 -1.7438678 -1.787922 2 0
7.5681167 -2.0533752 -1.8104061 3 1
9.199173 -2.5028083 -1.8531371 3 2
11.718878 -3.1949329 -1.9238312 4 3
16.152338 -4.4127197 -2.0559361 2 4
42.081402 -11.55165 -2.2869768 0 6
6.4469891 -1.7939684 -1.7930984 2 0
7.5517197 -2.1056368 -1.8099562 3 1
9.1928215 -2.5701413 -1.8554269 3 2
11.73433 -3.2873247 -1.9300886 4 3
16.17465 -4.5403972 -2.0627606 2 4
41.357693 -11.664076 -2.2520165 0 6
6.4417377 -1.8410562 -1.795169 2 0
7.5330892 -2.157233 -1.8090565 3 1
9.191637 -2.6391323 -1.8588613 4 2
11.714893 -3.3702576 -1.9307145 3 3
16.182613 -4.664753 -2.0678792 2 4
41.206192 -11.93252 -2.2482481 0 6
6.4046288 -1.8789133 -1.7884396 2 0
7.5365415 -2.2152662 -1.8135554 3 1
9.1955862 -2.7098968 -1.8634408 4 2
11.706234 -3.456435 -1.9332174 3 3
16.183918 -4.7877512 -2.0722666 2 4
6.4117041 -1.9297042 -1.7941337 2 0
7.5190272 -2.2672644 -1.8131055 4 1
9.1764441 -2.7740273 -1.8634408 4 2
64.454521 -19.496798 5.8913794 36 10
11.715849 -3.548382 -1.9388491 3 3
16.123507 -4.8925481 -2.0688543 2 4
40.340149 -12.294737 -2.2101476 0 6
6.4313035 -1.9846723 -1.8034512 2 0
7.4992919 -2.3185503 -1.8122058 4 1
11.720975 -3.6394594 -1.9438549 3 3
16.151508 -5.0244498 -2.0768976 3 4
32.189323 -10.056683 -1.7673854 7 6
6.3826466 -2.0173409 -1.7936161 3 0
7.4907675 -2.3718951 -1.8140053 5 1
9.1017704 -2.8889999 -1.8561901 100 2
11.714756 -3.725143 -1.9469837 2 3
16.147196 -5.1439133 -2.0807974 3 4
32.222851 -10.308414 -1.7730377 7 6
6.3867869 -2.0678012 -1.7987925 3 0
7.485148 -2.4277399 -1.8167046 5 1
11.673438 -3.8019419 -1.9444805 2 3
16.178829 -5.2786818 -2.0895717 3 4
32.002052 -10.484616 -1.7648733 7 6
6.3795304 -2.1147699 -1.8008629 3 0
7.4772644 -2.483007 -1.8189542 6 1
9.0903511 -3.0257196 -1.8622959 3 2
11.624123 -3.8758466 -1.9407262 2 3
16.192421 -5.4084826 -2.0961528 2 4
31.015362 -10.401676 -1.7144215 8 6
6.3829055 -2.165462 -1.8060393 3 0
7.4468322 -2.5307581 -1.815805 5 1
9.1136084 -3.1043003 -1.8714547 3 2
11.671565 -3.9824193 -1.953241 2 3
16.313932 -5.5759659 -2.1168706 2 4
30.832418 -10.58035 -1.7083505 8 6
6.3712826 -2.211237 -1.8070747 3 0
7.4565926 -2.5922835 -1.8225534 6 1
9.0639048 -3.1581597 -1.8657305 4 2
11.624827 -4.0572948 -1.9501122 2 3
16.342068 -5.7133064 -2.1256454 2 4
30.569347 -10.729198 -1.6978832 9 6
6.35569 -2.2556627 -1.8070747 3 0
7.4456582 -2.6468875 -1.8243531 7 1
9.0551443 -3.2243919 -1.8684019 3 2
11.660199 -4.1588907 -1.9607497 2 3
16.421415 -5.8700194 -2.1412446 2 4
30.867846 -11.070527 -1.7186083 8 6
6.3183951 -2.2909696 -1.8008629 3 0
7.4531126 -2.7068198 -1.8306518 7 1
9.0361032 -3.2888725 -1.8691651 3 2
11.623458 -4.2374864 -1.9594984 1 3
16.490044 -6.0247107 -2.1556253 2 4
29.953447 -10.979191 -1.6719246 9 6
6.3018398 -2.3361239 -1.8008629 4 0
7.4152837 -2.7533004 -1.8261526 7 1
9.0534048 -3.366931 -1.8775605 3 2
11.592838 -4.3205528 -1.9594984 2 3
16.585201 -6.1910567 -2.1736617 2 4
29.526241 -11.062909 -1.6524557 10 6
6.2889905 -2.3814299 -1.8018982 4 0
7.3995261 -2.8063836 -1.8270525 6 1
9.0070591 -3.4232597 -1.8729813 3 2
11.603007 -4.4168406 -1.9663814 2 3
16.662142 -6.3526583 -2.1895049 3 4
6.2866263 -2.430851 -1.8060393 4 0
7.3688498 -2.8537507 -1.8243531 7 1
8.9908705 -3.4873285 -1.8745077 3 2
11.59477 -4.5043011 -1.9701359 3 3
16.717279 -6.5077128 -2.2026668 4 4
27.015575 -10.549232 -1.519941 11 6
6.2699347 -2.4735861 -1.8060393 3 0
7.352879 -2.9052742 -1.8252529 7 1
8.9553528 -3.5456748 -1.8722179 3 2
11.592422 -4.596787 -1.9751418 3 3
16.84602 -6.6902261 -2.2255781 4 4
24.681477 -9.8369246 -1.3924506 22 6
6.2560968 -2.5187409 -1.8070747 4 0
7.3324175 -2.9565358 -1.8252529 6 1
8.9303808 -3.608108 -1.8722179 3 2
11.519763 -4.661304 -1.9682587 3 3
16.832018 -6.8210888 -2.2299654 28 4
24.656603 -10.027049 -1.3949627 22 6
6.2669525 -2.5740988 -1.8153569 3 0
7.3260164 -3.0135841 -1.8288521 7 1
8.9630585 -3.6943059 -1.8844297 3 2
11.516155 -4.7536726 -1.9732646 4 3
16.963772 -7.012753 -2.2538519 4 4
24.479004 -10.154554 -1.3888918 22 6
6.2488294 -2.6177871 -1.8153569 4 0
7.3012047 -3.0631478 -1.8279523 6 1
8.9117107 -3.7461381 -1.8790871 3 2
11.511819 -4.8462172 -1.9782705 3 3
17.079027 -7.2004161 -2.2757883 4 4
24.7754 -10.48083 -1.4098262 11 6
6.2161894 -2.655277 -1.8112158 4 0
7.2868094 -3.1171107 -1.829752 7 1
8.8961678 -3.8129025 -1.8813769 3 2
11.488597 -4.9311409 -1.9801477 3 3
17.176064 -7.3829708 -2.295531 5 4
24.778654 -10.686758 -1.4142224 11 6
6.2010431 -2.7001517 -1.812251 4 0
7.2666569 -3.1686847 -1.8302019 5 1
8.8951979 -3.8843677 -1.8867195 3 2
11.476483 -5.0187235 -1.9839021 3 3
17.358656 -7.6054683 -2.3269734 8 4
23.889811 -10.496841 -1.3675387 11 6
6.1860518 -2.7438648 -1.8132863 4 0
7.2520437 -3.2212374 -1.8320013 4 1
8.849925 -3.9383903 -1.8829032 3 2
11.484471 -5.1180196 -1.991411 3 3
17.324612 -7.7315369 -2.3294108 9 4
23.761263 -10.638881 -1.3643985 11 6
6.1597042 -2.7838018 -1.8112158 3 0
7.2151756 -3.2653599 -1.8284022 4 1
8.8365202 -4.0065637 -1.8859563 3 2
11.466447 -5.2062383 -1.9945397 3 3
17.302742 -7.867085 -2.3337982 12 4
24.246088 -11.059801 -1.3966374 11 6
6.1190619 -2.8170424 -1.8050041 4 0
7.1922035 -3.3156512 -1.8284022 4 1
8.8118982 -4.0698023 -1.8867195 3 2
11.487196 -5.312696 -2.0045516 2 3
17.207769 -7.969336 -2.3284359 12 4
24.494324 -11.38028 -1.4154785 11 6
6.1132388 -2.8662529 -1.8091452 4 0
7.1865211 -3.3740633 -1.8329012 4 1
8.7868242 -4.1328926 -1.8874826 3 2
11.485568 -5.4095955 -2.0108089 2 3
17.552094 -8.2781048 -2.3827896 11 4
22.168371 -10.48841 -1.2852665 10 6
6.1035404 -2.9138548 -1.812251 4 0
7.176856 -3.4308758 -1.8365004 4 1
8.8037949 -4.2161827 -1.8974047 3 2
11.518768 -5.5238132 -2.0233238 2 3
17.84461 -8.5688601 -2.4305623 11 4
22.173782 -10.681055 -1.2898722 21 6
6.0795741 -2.9547055 -1.8112158 4 0
7.1544814 -3.4817483 -1.8369503 3 1
8.7212048 -4.2517319 -1.8859563 3 2
11.54028 -5.6335573 -2.0339613 3 3
17.994799 -8.7960978 -2.4593234 12 4
21.926517 -10.751183 -1.2798235 21 6
6.0795774 -3.0073552 -1.8174274 4 0
7.1422238 -3.5376654 -1.8400996 4 1
8.7088957 -4.321239 -1.8897724 3 2
11.560817 -5.7438703 -2.0445988 3 3
18.069805 -8.9895916 -2.4780915 13 4
21.618605 -10.788062 -1.2662162 21 6
6.0653362 -3.0531993 -1.8194979 4 0
7.1260533 -3.5918267 -1.8423492 3 1
8.6855259 -4.3854723 -1.8912989 3 2
11.569797 -5.8493943 -2.053359 3 3
18.380304 -9.3047009 -2.5295203 13 4
6.033556 -3.0901847 -1.8163921 4 0
7.1025381 -3.6423771 -1.8427991 3 1
8.6808929 -4.4594574 -1.8970231 4 2
11.560298 -5.9462881 -2.0589907 4 3
18.500202 -9.5282297 -2.5551128 11 4
21.568792 -11.142021 -1.2722872 10 6
6.0186892 -3.135802 -1.8184627 3 0
7.0769367 -3.6918731 -1.8427991 3 1
8.6391087 -4.5144968 -1.8947334 4 2
11.585014 -6.0616488 -2.0708797 3 3
18.777878 -9.8377123 -2.6028857 12 4
22.141119 -11.634209 -1.3108065 10 6
6.0103064 -3.1849799 -1.8226038 3 0
7.0750909 -3.7539759 -1.8490976 5 1
8.6039143 -4.5728559 -1.8939703 4 2
11.594728 -6.1702185 -2.0802658 4 3
19.223804 -10.243006 -2.6745448 13 4
21.051775 -11.250046 -1.2509341 10 6
5.9879246 -3.2268617 -1.8226038 3 0
7.0692906 -3.8143821 -1.8544965 5 1
8.5846806 -4.6378474 -1.8966415 3 2
11.60806 -6.2790728 -2.0902774 4 3
19.518351 -10.575555 -2.7257299 11 4
20.771124 -11.282495 -1.2387923 21 6
5.9624329 -3.2656891 -1.8215685 4 0
7.0431638 -3.8624125 -1.8544965 5 1
8.5899487 -4.7184606 -1.905037 3 2
11.62279 -6.3923249 -2.100915 4 3
19.703268 -10.849882 -2.7618032 14 4
21.093975 -11.649303 -1.2628667 10 6
5.9664946 -3.3222723 -1.8298507 3 0
6.992198 -3.8982034 -1.8481979 4 1
8.5722265 -4.7869287 -1.9084717 4 2
11.667538 -6.5234394 -2.1171842 9 3
19.845295 -11.109349 -2.7925143 12 4
20.419998 -11.463854 -1.2272782 20 6
5.956605 -3.3714578 -1.8339919 3 0
6.9868546 -3.9594133 -1.8540466 3 1
8.5420132 -4.8485951 -1.9092349 4 2
11.601103 -6.5930214 -2.1134298 24 3
20.081264 -11.426296 -2.836875 12 4
20.238857 -11.548721 -1.2212074 10 6
5.9128284 -3.4014003 -1.8277801 3 0
6.9674859 -4.0129566 -1.8562962 3 1
8.5283632 -4.9198837 -1.9138144 4 2
11.6694 -6.7400475 -2.1343923 5 3
20.172852 -11.665586 -2.8612487 14 4
19.82601 -11.497358 -1.2011102 10 6
5.883935 -3.4396718 -1.8262272 2 0
6.952755 -4.069376 -1.8598953 4 1
8.5056629 -4.9862528 -1.9164857 3 2
11.676577 -6.8533463 -2.1444039 4 3
20.089209 -11.805128 -2.8610051 17 4
19.624807 -11.56451 -1.1937833 20 6
5.8631001 -3.4826381 -1.8272625 2 0
6.9342256 -4.1237922 -1.8625948 5 1
8.4841394 -5.0535483 -1.9195386 3 2
11.696312 -6.9751682 -2.1569188 4 3
19.960285 -11.917613 -2.854424 14 4
19.814344 -11.863338 -1.2103214 10 6
5.8684163 -3.5414519 -1.83658 2 0
6.8919234 -4.1640391 -1.8589954 5 1
8.4856043 -5.1350169 -1.9279342 3 2
11.731805 -7.107832 -2.1725621 4 3
19.873203 -12.05461 -2.8539364 14 4
20.314629 -12.356344 -1.2461193 10 6
5.8402557 -3.5803154 -1.8355448 2 0
6.8909206 -4.2293816 -1.8666438 3 1
8.5097589 -5.2311449 -1.9416724 3 2
11.89555 -7.3210526 -2.2122965 7 3
19.646601 -12.105585 -2.8334625 12 4
20.207479 -12.485268 -1.2448632 21 6
5.813478 -3.6199789 -1.8350271 3 0
6.8562651 -4.2742934 -1.8652942 5 1
8.5129995 -5.3153815 -1.9508314 3 2
11.85085 -7.4081092 -2.2135479 9 3
19.004629 -11.893867 -2.752785 8 4
19.656288 -12.335148 -1.2161831 10 6
5.8011265 -3.6687369 -1.8391682 3 0
6.8344893 -4.3272662 -1.8675436 6 1
8.4865704 -5.3795099 -1.9531209 3 2
11.860194 -7.5267072 -2.2248113 9 3
18.266081 -11.609901 -2.6574831 1 4
20.444427 -13.024537 -1.2704031 10 6
5.7890253 -3.7164884 -1.8433093 3 0
6.7983198 -4.3694725 -1.8657441 7 1
8.4917288 -5.4662552 -1.963043 3 2
11.908646 -7.6745977 -2.2438962 8 3
19.192457 -12.382922 -2.8044577 16 4
5.7661753 -3.7589221 -1.8443446 3 0
6.7741771 -4.4210863 -1.8675436 6 1
8.4697943 -5.5361462 -1.9668592 3 2
11.886183 -7.7780995 -2.2498407 9 3
18.987648 -12.439373 -2.7871521 14 4
5.7430139 -3.8012183 -1.8453798 3 0
6.762641 -4.4811883 -1.8729424 7 1
8.4374819 -5.5994844 -1.9683858 3 2
11.903987 -7.908989 -2.263607 9 3
18.840837 -12.532047 -2.7783775 12 4
5.7163372 -3.8412189 -1.8453798 3 0
6.7311916 -4.5282907 -1.8729424 7 1
8.4405174 -5.6867723 -1.9783077 3 2
11.815728 -7.9698091 -2.2573495 9 3
18.724924 -12.644391 -2.7742341 10 4
5.6845942 -3.8777668 -1.843827 2 0
6.7122884 -4.5839648 -1.8765416 6 1
8.4135752 -5.754427 -1.9813608 3 2
11.846187 -8.1112528 -2.2739315 8 3
13.657045 -9.361681 -2.0330245 12 4
5.6542072 -3.9151587 -1.8427917 2 0
6.6769209 -4.6284928 -1.8756418 6 1
8.4151278 -5.842134 -1.9912828 3 2
11.589756 -8.055089 -2.2354488 2 3
13.606022 -9.4669991 -2.0352182 5 4
5.647284 -3.9689772 -1.849521 3 0
6.6476321 -4.6772366 -1.8765416 6 1
8.4110479 -5.9267488 -2.0000601 4 2
12.359693 -8.7188044 -2.3956378 9 3
13.27205 -9.3728123 -1.9950013 21 4
5.616292 -4.006062 -1.8484857 3 0
6.6338482 -4.7371206 -1.8819405 6 1
8.385437 -5.9967451 -2.0038762 4 2
12.314585 -8.8163767 -2.3987663 12 3
13.072373 -9.369256 -1.974771 26 4
5.5881877 -4.0451732 -1.8484857 3 0
6.600615 -4.783318 -1.8819405 6 1
8.3529015 -6.0620575 -2.006166 4 2
12.225568 -8.8823948 -2.3934476 14 3
12.985777 -9.4451103 -1.9716024 23 4
5.5691528 -4.0909495 -1.8515915 3 0
6.5623522 -4.825819 -1.8805909 5 1
8.3672857 -6.1621351 -2.0199041 4 2
12.086942 -8.9112606 -2.3784299 17 3
13.437005 -9.9174776 -2.0505736 18 4
13.617237 -10.065195 -1.4814733 30 5
5.5411777 -4.1287622 -1.8515915 3 0
6.5418487 -4.8796964 -1.8841901 4 1
8.3377304 -6.2283459 -2.0229571 4 2
11.975381 -8.955471 -2.368418 18 3
12.379171 -9.2675447 -1.8987246 7 4
13.277409 -9.9544735 -1.4518404 29 5
5.5183825 -4.1720061 -1.853662 3 0
6.5293765 -4.9417124 -1.8904886 5 1
8.3175163 -6.3041906 -2.0286815 4 2
11.896833 -9.0269156 -2.3652894 17 3
12.274652 -9.3237209 -1.8926311 7 4
13.28688 -10.107237 -1.4605559 30 5
14.137135 -10.765713 -0.93126607 9 6
5.495254 -4.2151327 -1.8557327 4 0
6.5132651 -5.0014176 -1.8958875 5 1
8.2841959 -6.370481 -2.0313528 28 2
11.792827 -9.0784206 -2.3571548 17 3
12.262721 -9.450386 -1.9009181 11 4
13.487285 -10.409125 -1.4905375 31 5
13.849848 -10.700518 -0.91724008 18 6
5.4687424 -4.2557669 -1.8567679 3 0
6.4781904 -5.0467663 -1.8958875 4 1
8.2302332 -6.4209146 -2.029063 27 2
11.629523 -9.0827103 -2.3371313 19 3
13.708785 -10.745198 -0.91284388 27 6
5.4298 -4.2866592 -1.853662 4 0
6.4504442 -5.0979109 -1.8981371 3 1
8.2298489 -6.5135489 -2.0401299 4 2
11.225204 -8.8937988 -2.2683001 14 3
11.454588 -9.0853062 -1.7951355 15 4
13.351558 -10.605098 -1.4917578 31 5
12.257744 -9.7467566 -0.82073259 8 6
5.4208527 -4.3413687 -1.8609091 3 0
6.4222999 -5.1489134 -1.9003865 4 1
8.236227 -6.6126337 -2.0531049 4 2
11.095094 -8.9174967 -2.2545338 18 3
11.755886 -9.4587326 -1.8526579 19 4
12.752808 -10.275528 -1.4328403 29 5
12.299774 -9.9211226 -0.82816422 35 6
5.3634224 -4.3571806 -1.8515915 4 0
6.4149222 -5.2169847 -1.9089346 3 1
8.1989956 -6.6774106 -2.0553946 4 2
10.949893 -8.9273329 -2.237639 16 3
11.361994 -9.273221 -1.8007416 21 4
12.34446 -10.089439 -1.3948406 28 5
12.244125 -10.018132 -0.82910633 26 6
5.3507638 -4.4092612 -1.8578032 4 0
6.3978877 -5.2777638 -1.9147834 4 1
8.1809368 -6.7582445 -2.0626454 4 2
10.972548 -9.0740566 -2.2551594 20 3
11.618089 -9.6181507 -1.8519267 21 4
12.315284 -10.220715 -0.83873612 26 6
5.3079929 -4.4365969 -1.853662 4 0
6.3713484 -5.3310533 -1.9179326 3 1
8.1681681 -6.8441944 -2.0714226 4 2
10.796938 -9.0564957 -2.2320073 19 3
11.422959 -9.5917978 -1.8314526 20 4
11.781508 -9.9069023 -1.3467305 26 5
11.77607 -9.9128599 -0.80670649 26 6
5.2739434 -4.4710474 -1.8526268 4 0
6.3547773 -5.3930578 -1.9242314 3 1
8.1605787 -6.9353786 -2.0817263 4 2
10.856822 -9.2366123 -2.2576625 18 3
11.271087 -9.5992317 -1.8178033 20 4
11.584721 -9.8803072 -1.3320884 25 5
11.609366 -9.9118309 -0.80000746 26 6
12.648975 -10.810884 -0.29044294 30 7
5.2660389 -4.5279088 -1.8609091 4 0
6.309588 -5.430934 -1.9219818 4 1
8.2160568 -7.0819058 -2.1084394 4 2
10.729259 -9.2579823 -2.2445219 19 3
11.212811 -9.6854706 -1.8192657 21 4
11.449159 -9.9035921 -1.3244187 25 5
11.997375 -10.388788 -0.83172309 17 6
5.2372117 -4.5671015 -1.8619443 4 0
6.3067513 -5.5056081 -1.9327793 4 1
8.20189 -7.170104 -2.1175983 9 2
10.604905 -9.2806244 -2.2320073 18 3
11.032935 -9.6654072 -1.8009853 19 4
11.226973 -9.8492575 -1.3066388 24 5
11.517866 -10.11513 -0.80335701 26 6
12.722075 -11.184488 -0.29567868 31 7
5.2196708 -4.6163507 -1.8671206 3 0
6.2798352 -5.5598378 -1.9363787 5 1
8.1440802 -7.2179523 -2.1153085 9 2
10.380296 -9.2128181 -2.1982174 18 3
10.993384 -9.7672472 -1.8056164 27 4
11.094166 -9.8671875 -1.2989691 24 5
11.329412 -10.087047 -0.79498327 26 6
5.1708679 -4.6362972 -1.8609091 4 0
6.2447453 -5.6050568 -1.9372785 5 1
8.0874586 -7.2666588 -2.1134005 12 2
10.609766 -9.5430212 -2.2601655 19 3
10.292547 -9.2674513 -1.700565 18 4
11.008989 -9.926465 -1.2968775 24 5
11.367239 -10.260283 -0.80251962 17 6
11.930639 -10.780159 -0.2806696 28 7
5.1199884 -4.6523004 -1.853662 4 0
6.2348237 -5.6712646 -1.9458266 7 1
8.0668364 -7.347981 -2.121033 10 2
10.392759 -9.4765959 -2.227627 21 3
10.30969 -9.4140396 -1.7142143 15 4
10.676462 -9.7592049 -1.2655014 23 5
11.262922 -10.309721 -0.80021685 26 6
11.793167 -10.806446 -0.27920359 28 7
5.1036115 -4.7045312 -1.8598738 4 0
6.1940823 -5.715734 -1.9458266 7 1
8.0803766 -7.4668078 -2.1385872 10 2
10.17677 -9.4138994 -2.1957142 19 3
10.38769 -9.6224728 -1.7385882 14 4
10.951133 -10.155071 -1.3066388 24 5
11.428883 -10.612939 -0.81738305 17 6
5.0952144 -4.7646823 -1.8691912 3 0
6.1644039 -5.7705655 -1.9494258 6 1
8.104085 -7.5969443 -2.1591947 10 2
10.135074 -9.5108128 -2.2013459 18 3
10.334727 -9.7083502 -1.7410256 18 4
10.569336 -9.9530745 -0.7608602 8 6
11.554827 -10.892526 -0.27717912 28 7
5.0702372 -4.8081131 -1.872297 3 0
11.508945 -10.917762 0.2768999 24 8
6.1296215 -5.8188272 -1.9512255 6 1
8.1034203 -7.7006173 -2.1729329 12 2
9.8640051 -9.383522 -2.1562929 19 3
10.340001 -9.8500919 -1.7534562 28 4
10.052738 -9.586484 -1.2152996 21 5
10.388658 -9.9172153 -0.7526958 17 6
11.813851 -11.293507 -0.28527704 29 7
5.0401788 -4.845191 -1.8733324 3 0
11.533321 -11.094887 0.27934322 25 8
6.0912766 -5.8617659 -1.9516754 5 1
8.1696253 -7.8727984 -2.2053704 10 2
9.2864504 -8.9584284 -2.0436602 18 3
10.436931 -10.078827 -1.7814863 20 4
9.8394785 -9.5151587 -1.1975199 20 5
10.311996 -9.9825544 -0.75217241 35 6
11.21399 -10.867111 -0.27257168 27 7
5.0200624 -4.8937454 -1.8785087 3 0
6.0906515 -5.9436173 -1.9647225 7 1
8.3700151 -8.1793718 -2.2748251 10 2
9.2547483 -9.0534306 -2.0505433 6 3
9.4812975 -9.2847719 -1.6293933 5 4
9.9492054 -9.7565975 -1.2191346 21 5
10.368904 -10.178826 -0.76148826 26 6
10.972401 -10.782548 -0.26852274 26 7
4.9912715 -4.9341049 -1.8805792 3 0
11.388662 -11.266087 0.27962247 25 8
6.0490084 -5.9859929 -1.9647225 7 1
8.4912071 -8.4144897 -2.3236721 9 2
9.3161306 -9.2416353 -2.0783885 24 3
9.2260904 -9.1619034 -1.5964885 16 4
10.010823 -9.9550686 -1.2351712 22 5
10.011663 -9.9663343 -0.74034452 26 6
4.9594326 -4.9715652 -1.8816146 3 0
11.208085 -11.243351 0.27710932 24 8
6.0208278 -6.0418811 -1.9692216 7 1
8.4682608 -8.5097466 -2.3335941 7 2
9.3641911 -9.4199247 -2.1037309 19 3
9.2094622 -9.2739811 -1.6047755 20 4
9.4837294 -9.5635138 -1.1783456 19 5
9.8476658 -9.9409189 -0.7333315 35 6
10.190638 -10.297916 -0.25288537 23 7
4.9435711 -5.0253472 -1.8888614 3 0
5.9921594 -6.0976658 -1.9737206 7 1
8.4347734 -8.5952816 -2.3408449 10 2
8.8252687 -9.002634 -1.9967299 20 3
9.1667166 -9.3607426 -1.6086755 21 4
9.2551441 -9.4642506 -1.1581255 19 5
9.7110338 -9.9408474 -0.72830725 35 6
10.157601 -10.408882 -0.25386271 23 7
4.9177828 -5.0694442 -1.8924849 2 0
5.9657183 -6.1561432 -1.9791193 7 1
8.3936758 -8.6737099 -2.3461876 10 2
8.8363447 -9.1407185 -2.0136247 18 3
9.3465986 -9.6786852 -1.652061 25 4
9.5484333 -9.901516 -1.2034465 20 5
9.6677256 -10.035729 -0.73029602 17 6
4.8662472 -5.0869012 -1.8862734 2 0
5.9414444 -6.2173662 -1.985418 9 1
8.4088192 -8.811635 -2.3675582 10 2
9.1621342 -9.6111069 -2.1031051 13 3
9.1309528 -9.5884447 -1.6257372 7 4
9.5944061 -10.089213 -1.2180886 21 5
9.5424042 -10.045057 -0.72610915 26 6
9.9754915 -10.511974 -0.25295517 23 7
4.8518252 -5.1432333 -1.8945554 2 0
8.3914976 -8.917305 -2.3801515 15 2
8.7186823 -9.2747173 -2.0161276 17 3
9.1956034 -9.7923231 -1.6493798 19 4
9.3929014 -10.016428 -1.2013547 20 5
9.4529285 -10.091023 -0.72464371 17 6
10.210655 -10.911344 -0.26084366 25 7
4.8026428 -5.1628356 -1.889379 2 0
5.8434453 -6.2882953 -1.9818188 46 1
8.3637609 -9.0130882 -2.3900738 13 2
9.1049395 -9.8221188 -2.1212516 19 3
8.7534113 -9.4528255 -1.5818642 23 4
9.2893276 -10.042104 -1.1968226 20 5
9.391736 -10.167041 -0.72537643 17 6
9.6948509 -10.506209 -0.2495345 22 7
4.8043537 -5.2375231 -1.9043906 3 0
10.586215 -11.544733 0.2734094 24 8
5.8388987 -6.3720393 -1.9953159 7 1
8.2677507 -9.0321569 -2.3801515 19 2
8.7606039 -9.5806437 -2.056175 19 3
9.0419226 -9.9021673 -1.6464549 15 4
8.9987917 -9.8653021 -1.1682355 19 5
9.4205151 -10.338503 -0.73301744 26 6
4.7789612 -5.2815638 -1.9085318 3 0
10.955994 -12.116734 0.28513741 25 8
5.8280592 -6.4477777 -2.0065634 6 1
8.3294621 -9.2281065 -2.4164052 10 2
8.6855679 -9.6327686 -2.0542977 20 3
8.8613853 -9.8381109 -1.6257372 9 4
9.1668663 -10.191563 -1.199263 20 5
9.0704575 -10.095001 -0.71124572 26 6
9.91506 -11.046637 -0.25909844 24 7
4.7419729 -5.3147984 -1.9085318 3 0
10.756689 -12.06456 0.28213561 25 8
5.7945733 -6.5014009 -2.0106125 7 1
8.3092136 -9.3358936 -2.4293802 12 2
8.5997314 -9.6725016 -2.0499175 18 3
9.0416288 -10.180252 -1.6718037 14 4
8.8866138 -10.019796 -1.1717217 19 5
9.2871704 -10.48248 -0.73395956 17 6
9.9702301 -11.265331 -0.26258892 25 7
4.7226176 -5.3680797 -1.9157786 4 0
9.6502676 -10.97694 0.25511929 21 8
5.7541895 -6.5475507 -2.0124121 7 1
8.2982244 -9.4556503 -2.4454083 12 2
8.3288527 -9.5005808 -2.0011098 17 3
8.9114857 -10.175923 -1.6608355 16 4
8.8129587 -10.074055 -1.1710246 19 5
9.2137623 -10.547061 -0.73395956 17 6
9.7940445 -11.223168 -0.26000595 24 7
4.6850266 -5.400919 -1.9157786 3 0
9.8923655 -11.407983 0.26356626 22 8
5.7211003 -6.6022906 -2.0169113 7 1
8.2889204 -9.5757427 -2.4618177 15 2
8.2665768 -9.5600414 -2.0017357 18 3
8.844121 -10.242397 -1.6615667 13 4
8.8621387 -10.274133 -1.1870612 20 5
9.019206 -10.467305 -0.72412038 35 6
4.6481552 -5.4326835 -1.9157786 4 0
10.301092 -12.048248 0.27669045 24 8
5.6962857 -6.6647816 -2.0241096 7 1
8.170887 -9.5736446 -2.446553 18 2
8.2739668 -9.7047062 -2.019882 24 3
8.7247868 -10.247966 -1.6525484 20 4
9.0354433 -10.624121 -1.2201804 21 5
9.0118618 -10.607642 -0.72945863 26 6
9.3621368 -11.035547 -0.25260612 23 7
4.631578 -5.4923887 -1.9250962 3 0
10.170331 -12.064828 0.27543387 24 8
5.6635141 -6.7232571 -2.0295084 7 1
8.0634022 -9.5823851 -2.4343412 21 2
8.0975628 -9.6366282 -1.9936011 16 3
8.6083622 -10.255409 -1.6440176 18 4
8.5164433 -10.171112 -0.6952309 17 6
4.5931215 -5.5245891 -1.9250962 3 0
9.4269066 -11.346703 0.25749281 21 8
5.6338706 -6.7836194 -2.0358069 7 1
8.1349936 -9.8090925 -2.4770825 15 2
8.0401707 -9.7050934 -1.996104 17 3
8.3694944 -10.113387 -1.6118441 19 4
8.7371244 -10.572635 -1.1999602 20 5
8.8050585 -10.66621 -0.72485304 26 6
9.1715212 -11.121988 -0.25162879 23 7
4.5617886 -5.565485 -1.9282019 4 0
9.5628719 -11.675229 0.26342663 22 8
5.6135354 -6.8559575 -2.0457051 7 1
8.1495743 -9.9674788 -2.5026507 12 2
8.0309515 -9.8328953 -2.0108089 21 3
8.3338251 -10.214638 -1.6186688 15 4
8.6014385 -10.557686 -1.191419 20 5
8.725338 -10.721224 -0.72443438 26 6
9.1743832 -11.285051 -0.25386271 23 7
4.5252519 -5.6002016 -1.9292372 3 0
9.2248507 -11.424319 0.25630605 21 8
5.5924635 -6.9283409 -2.0556028 7 1
7.9713712 -9.8896179 -2.4690685 10 2
8.0451126 -9.9918089 -2.0317712 14 3
8.425292 -10.475205 -1.6505985 7 4
8.4919376 -10.569393 -1.1861897 20 5
8.7002726 -10.844191 -0.72862124 26 6
9.4080181 -11.738926 -0.26258892 25 7
4.5053043 -5.6558337 -1.9375196 3 0
8.8578825 -11.123922 0.24820814 20 8
5.5815735 -7.0144863 -2.0695498 10 1
7.5996861 -9.5609646 -2.3740456 15 2
7.9154968 -9.9689875 -2.0161276 17 3
7.912899 -9.9800148 -1.5638275 18 4
8.610919 -10.872069 -1.2133822 21 5
9.0909672 -11.49053 -0.76787323 17 6
9.2192268 -11.669377 -0.25958708 24 7
4.4404483 -5.6529465 -1.9261314 3 0
8.7997618 -11.210658 0.2487666 20 8
5.5433226 -7.0645809 -2.073149 11 1
7.9178081 -10.105216 -2.4954002 18 2
7.887104 -10.076893 -2.0267651 17 3
8.1871376 -10.471522 -1.6320744 9 4
7.9438329 -10.174962 -1.129364 18 5
8.4627228 -10.851295 -0.72118956 17 6
8.999485 -11.552025 -0.25560796 24 7
4.4245291 -5.7143593 -1.9364842 3 0
8.721282 -11.271818 0.2487666 20 8
5.4843297 -7.0907764 -2.0695498 12 1
7.8602672 -10.177338 -2.499598 12 2
7.8346615 -10.15517 -2.0314584 34 3
7.7890873 -10.107035 -1.5667524 16 4
8.1399269 -10.577545 -1.1677126 19 5
8.3392878 -10.848356 -0.71710736 26 6
8.935667 -11.636777 -0.2560966 24 7
4.3845282 -5.7451086 -1.9364842 4 0
8.7709169 -11.500977 0.2524665 21 8
5.4311485 -7.1242414 -2.0681999 14 1
7.0481768 -9.2587557 -2.2618499 13 2
7.7002034 -10.126281 -2.0148761 17 3
8.4319115 -11.116691 -1.2207032 21 5
8.0727768 -10.654786 -0.70056915 26 6
8.7045698 -11.501156 -0.25176841 23 7
4.3745065 -5.8157187 -1.9499428 3 0
5.3789392 -7.1588678 -2.0673003 14 1
6.9833665 -9.3077354 -2.2618499 15 2
6.9291768 -9.2455893 -1.8299706 12 3
6.934598 -9.2629261 -1.420753 11 4
8.3770142 -11.218183 -0.73375016 17 6
8.8512344 -11.866194 -0.25840032 24 7
4.3153911 -5.8212848 -1.9416605 3 0
5.3381076 -7.2087741 -2.0708995 15 1
6.8972068 -9.3278484 -2.2549808 16 2
6.8468585 -9.2699041 -1.8252774 19 3
6.8732977 -9.3159046 -1.4214841 18 4
7.932682 -10.763561 -1.1698043 19 5
8.3730736 -11.377735 -0.74034452 26 6
8.5905151 -11.686018 -0.25316462 23 7
4.2700877 -5.8450303 -1.93959 4 0
9.1104097 -12.475185 0.26963967 23 8
5.3244109 -7.2962379 -2.0852964 14 1
6.6832142 -9.168335 -2.2053704 18 2
6.8370895 -9.3897514 -1.8396695 18 3
6.847784 -9.4182501 -1.4297712 9 4
6.7520957 -9.2968731 -1.0052543 28 5
8.173461 -11.266334 -0.72945863 17 6
4.2595563 -5.9147191 -1.9530486 4 0
5.2928319 -7.3576221 -2.0924947 14 1
6.7874136 -9.4491644 -2.2614682 12 2
6.5525675 -9.1323099 -1.7802243 27 3
6.7939258 -9.4791651 -1.431965 1 4
6.733408 -9.4085941 -1.0122267 14 5
8.1178379 -11.355617 -0.73155206 8 6
8.8004427 -12.324109 -0.26433414 25 7
4.231576 -5.9632177 -1.9592602 3 0
5.2819071 -7.4516277 -2.1086912 14 1
6.704267 -9.4722805 -2.255744 19 2
6.5251446 -9.2294474 -1.7902362 17 3
7.0264602 -9.9495773 -1.4955807 16 4
6.6790423 -9.4716549 -1.0139699 14 5
7.9923577 -11.346699 -0.7273652 26 6
8.5991201 -12.221704 -0.26084366 25 7
4.1920562 -5.9957805 -1.9602956 3 0
5.2420306 -7.5058956 -2.1136403 17 1
6.5616126 -9.4093504 -2.229794 19 2
6.7270126 -9.6573076 -1.8640733 17 3
6.5180578 -9.3677855 -1.4012538 14 4
6.6536798 -9.5769567 -1.0202451 29 5
7.2843771 -10.496473 -0.6695863 26 6
4.1588626 -6.0376277 -1.9644365 4 0
5.2005482 -7.558363 -2.118139 16 1
6.4557419 -9.3966751 -2.2160556 24 2
6.4582381 -9.410862 -1.8077569 17 3
6.6511602 -9.7028713 -1.4443955 24 4
6.6091652 -9.6560574 -1.0237314 29 5
7.1928849 -10.520692 -0.66791159 26 6
7.1149454 -10.418398 -0.22021447 17 7
4.1144419 -6.0633183 -1.9634014 4 0
5.201231 -7.6735277 -2.1401844 14 1
6.3657751 -9.4057455 -2.2076602 19 2
6.4897385 -9.5997324 -1.8352894 14 3
6.4199553 -9.5072327 -1.408566 19 4
6.552731 -9.718482 -1.0254744 14 5
7.1728153 -10.650167 -0.67293578 17 6
7.0018554 -10.408084 -0.21895789 25 7
4.0698647 -6.0886822 -1.9623661 4 0
5.3401456 -7.9981351 -2.2202671 14 1
6.3424277 -9.5136652 -2.2225432 12 2
6.5035825 -9.7664738 -1.8584416 15 3
6.3006554 -9.4724846 -1.3968666 21 4
6.5155888 -9.810463 -1.0303552 29 5
6.5109053 -9.814558 -0.61725032 26 6
6.9599524 -10.503386 -0.21993522 17 7
4.041069 -6.1379223 -1.9690953 12 0
5.3505659 -8.1361704 -2.2481608 16 1
6.3254242 -9.6332016 -2.2400978 12 2
6.2077336 -9.4647636 -1.7927393 24 3
6.2648306 -9.5627337 -1.4036912 20 4
6.4120393 -9.8023548 -1.0247772 21 5
6.3974376 -9.7912216 -0.61295879 18 6
6.8230658 -10.454593 -0.21791075 16 7
3.9949672 -6.1611214 -1.9675424 22 0
5.3338895 -8.2354803 -2.2652571 15 1
6.1055655 -9.4413805 -2.1855264 19 2
5.9753747 -9.2506771 -1.7442445 18 3
6.1613278 -9.5495243 -1.3954041 19 4
6.024065 -9.3511028 -0.97318101 20 5
6.1116948 -9.4980478 -0.59191972 19 6
6.2763495 -9.7651672 -0.20262244 14 7
3.9622538 -6.2051439 -1.9727188 37 0
5.2909374 -8.2955189 -2.2715557 13 1
5.9414287 -9.3297691 -2.1500359 10 2
5.6169705 -8.8304758 -1.6575798 7 3
5.787921 -9.1097574 -1.3252074 6 4
6.3659549 -10.031137 -1.0394194 14 5
6.3680768 -10.049986 -0.62353063 26 6
6.2016068 -9.7986078 -0.20241301 14 7
3.9157524 -6.2277479 -1.9711659 16 0
5.2349672 -8.3355541 -2.2724555 15 1
6.1490369 -9.8024035 -2.2492564 10 2
5.6374936 -8.9973984 -1.6816708 1 3
5.8168316 -9.2980366 -1.3466563 14 4
5.8755579 -9.4028578 -0.97004336 13 5
5.9939051 -9.6034374 -0.59328043 19 6
3.8966656 -6.2920318 -1.9830716 4 0
5.1760583 -8.3676796 -2.2715557 15 1
5.8215137 -9.4258347 -2.1534703 21 2
5.7923393 -9.3895903 -1.7473731 19 3
5.9616752 -9.6754227 -1.3954041 13 4
5.9597082 -9.6835785 -0.99479562 14 5
5.9580836 -9.6960993 -0.59642065 18 6
6.4947886 -10.581942 -0.21672398 16 7
3.8506339 -6.3157835 -1.9820364 4 0
5.1428542 -8.4452219 -2.2828033 17 1
5.8204756 -9.5692368 -2.1771307 16 2
5.786756 -9.5250282 -1.7652067 14 3
5.6999307 -9.4079971 -0.96237373 13 5
5.7513185 -9.5040398 -0.58218521 19 6
6.0753655 -10.055367 -0.20506579 14 7
3.8294311 -6.3782854 -1.9934243 3 0
5.0812421 -8.4733467 -2.2810037 18 1
5.5114851 -9.2053757 -2.0855424 16 2
5.705924 -9.541461 -1.7608266 16 3
5.6139393 -9.3988123 -1.344219 18 4
5.6626863 -9.4954748 -0.9672544 20 5
5.7267337 -9.6143122 -0.58647674 28 6
5.9781513 -10.048368 -0.20408843 14 7
3.7907066 -6.4148431 -1.9965302 4 0
5.0516806 -8.5589609 -2.2945008 22 1
5.2597032 -8.9256411 -2.0137982 19 2
5.5830612 -9.4857283 -1.7433058 15 3
5.5693126 -9.4737129 -1.3493375 11 4
5.5962567 -9.5347757 -0.9672544 27 5
5.5402846 -9.4507418 -0.57412547 30 6
5.758316 -9.8344631 -0.19892253 14 7
3.738061 -6.4277911 -1.9923891 4 0
6.1536651 -10.590054 0.21379198 15 8
5.0074649 -8.6209812 -2.3016992 21 1
5.2494617 -9.0521555 -2.034024 12 2
5.475121 -9.4526815 -1.7301654 19 3
5.5467777 -9.5879669 -1.360062 10 4
5.5893464 -9.6771288 -0.97771311 28 5
5.7496257 -9.9666777 -0.60301495 18 6
6.2306161 -10.813524 -0.21784094 25 7
3.7065289 -6.4772048 -1.9996361 4 0
4.9819694 -8.7166386 -2.3178957 16 1
5.1520829 -9.0289001 -2.0206673 16 2
5.4305139 -9.5284319 -1.7370484 15 3
5.4963994 -9.6557837 -1.3642055 19 4
5.4212399 -9.5392303 -0.95993334 20 5
5.5458212 -9.7703495 -0.58877957 28 6
5.7664037 -10.171362 -0.20408843 14 7
3.6593235 -6.4995565 -1.9986008 4 0
4.922905 -8.7546024 -2.3187954 16 1
5.261919 -9.3727961 -2.0893586 21 2
5.1764355 -9.2318497 -1.6763519 18 3
5.7033553 -10.184072 -1.4331836 20 4
5.2631149 -9.4133749 -0.94354802 19 5
5.4628692 -9.78267 -0.58720946 19 6
3.6250908 -6.5452247 -2.0048125 3 0
4.8673263 -8.7989893 -2.3214948 21 1
5.1147337 -9.2615032 -2.0565395 18 2
5.0355349 -9.129385 -1.6513225 20 3
5.1886368 -9.4186163 -1.3203326 19 4
5.2203126 -9.491787 -0.94773155 20 5
5.6011806 -10.196937 -0.60971397 27 6
5.7334747 -10.450745 -0.2080676 15 7
3.5848541 -6.5805511 -2.0079181 4 0
4.8169565 -8.8532963 -2.3268938 19 1
5.0274615 -9.2555799 -2.0473807 22 2
5.1902122 -9.5671444 -1.7239079 19 3
5.1407247 -9.487772 -1.3249637 20 4
5.1897206 -9.5901823 -0.95400673 13 5
5.3798614 -9.9581518 -0.59317577 19 6
5.6869645 -10.539793 -0.20904493 22 7
3.5424747 -6.6122289 -2.0099888 5 0
4.6649323 -8.7183218 -2.2828033 18 1
4.9921055 -9.3415318 -2.0588293 19 2
5.085906 -9.5290585 -1.7107675 16 3
5.240521 -9.8352709 -1.3683491 10 4
5.732904 -10.77295 -1.0676578 15 5
5.240716 -9.8605032 -0.58522069 28 6
5.1839795 -9.7702065 -0.19305852 19 7
3.5009882 -6.6430244 -2.0120592 4 0
6.6179004 -12.56791 0.24792889 20 8
4.741631 -9.0085411 -2.3502886 16 1
4.8646688 -9.2579756 -2.0328791 22 2
4.7842665 -9.1165504 -1.6306731 18 3
5.1872768 -9.8970871 -1.3720052 7 4
5.2879972 -10.10212 -0.99758458 14 5
5.2161503 -9.9818182 -0.59024501 28 6
5.2875962 -10.131458 -0.19948101 21 7
3.4509718 -6.6604428 -2.0099888 4 0
4.714448 -9.1106539 -2.3682847 15 1
4.7654862 -9.2211094 -2.0176144 19 2
4.7438464 -9.1910324 -1.6381818 18 3
4.8425589 -9.3983803 -1.2981523 16 4
4.8964448 -9.515192 -0.93622696 13 5
5.1599545 -10.040184 -0.59160572 19 6
5.2715054 -10.274878 -0.20157529 14 7
3.4230962 -6.7182045 -2.0203414 5 0
5.4124799 -10.631761 0.2082421 42 8
4.6470227 -9.1321106 -2.3655853 17 1
4.7223344 -9.2961626 -2.0267732 19 2
4.6277289 -9.1217527 -1.6200355 21 3
4.9354849 -9.7410088 -1.3408067 14 4
4.8388901 -9.5669222 -0.93797004 13 5
5.0942373 -10.084876 -0.59212905 19 6
5.547308 -10.996104 -0.21497875 16 7
3.3838971 -6.7574844 -2.0250003 6 0
5.9975605 -11.987301 0.23396698 18 8
4.5360861 -9.0702133 -2.3412907 19 1
4.6327677 -9.2797213 -2.016088 19 2
4.581563 -9.1891937 -1.6262929 18 3
4.6948209 -9.4287138 -1.2932776 21 4
5.0398026 -10.139281 -0.99061215 14 5
5.0894246 -10.252578 -0.59987479 28 6
5.4224439 -10.937816 -0.21309389 15 7
3.3315206 -6.7705431 -2.0218945 6 0
5.2255726 -10.629128 0.20674121 28 8
4.4313998 -9.0177078 -2.3196952 20 1
4.6439571 -9.4669466 -2.0496705 18 2
4.6320138 -9.4551153 -1.6675917 19 3
4.6463304 -9.4969225 -1.2981523 21 4
4.6592922 -9.5360632 -0.92855722 13 5
5.0527458 -10.359664 -0.60406166 27 6
5.2671413 -10.813605 -0.20995246 22 7
3.2917402 -6.8092904 -2.0265532 5 0
5.1252608 -10.606836 0.20562425 27 8
4.3361425 -8.9817371 -2.302599 24 1
4.5521264 -9.4417477 -2.0374587 13 2
4.4904213 -9.3262415 -1.6394334 18 3
4.4552279 -9.2696981 -1.2628102 11 4
4.7667575 -9.9311905 -0.96376818 13 5
4.6765051 -9.7562475 -0.56700778 20 6
5.2364006 -10.943913 -0.21176751 23 7
3.2502882 -6.8420081 -2.029659 5 0
5.1316843 -10.812174 0.20890529 28 8
4.2381535 -8.9335756 -2.2828033 23 1
4.4508114 -9.3987732 -2.0214307 16 2
4.3458214 -9.1895018 -1.6100237 16 3
4.5140991 -9.5582867 -1.2979087 18 4
4.7483411 -10.067925 -0.97387826 13 5
4.8345675 -10.269326 -0.59485054 28 6
5.2519722 -11.171127 -0.21546741 16 7
3.2081599 -6.8767881 -2.0332825 6 0
5.0224757 -10.770735 0.2074393 42 8
4.2513943 -9.1254597 -2.3241944 15 1
4.2674785 -9.1725264 -1.9664776 18 2
4.4562931 -9.5914946 -1.6751004 18 3
4.7312188 -10.201859 -1.3807799 19 4
4.5222034 -9.7645559 -0.94145626 13 5
4.3604522 -9.4282398 -0.54439867 21 6
4.7095237 -10.201694 -0.19613016 20 7
3.155652 -6.8925433 -2.0312121 6 0
4.9367347 -10.792714 0.20716007 28 8
4.2021909 -9.1910934 -2.3331923 18 1
4.2800045 -9.3785963 -2.0038762 22 2
4.3743973 -9.5987377 -1.6707202 17 3
4.3900385 -9.6464405 -1.3013209 19 4
4.3615384 -9.5971403 -0.9222821 19 5
4.1938643 -9.2453222 -0.53204739 33 6
4.6463041 -10.256992 -0.196549 20 7
3.1145847 -6.930263 -2.0358706 9 0
4.8500457 -10.796881 0.20660159 14 8
4.1586695 -9.2664318 -2.3448899 21 1
4.2401543 -9.4612579 -2.0153246 16 2
4.3057313 -9.6210785 -1.6694689 18 3
4.3063946 -9.640604 -1.2964462 18 4
4.2294998 -9.4817905 -0.90833718 25 5
4.6802073 -10.50698 -0.60280561 18 6
3.0642202 -6.9442334 -2.0338001 7 0
4.7971392 -10.881711 0.20757893 42 8
3.9823458 -9.0377302 -2.2801039 37 1
4.1178827 -9.3630323 -1.9882298 12 2
4.2241626 -9.6183481 -1.6638372 19 3
4.3323588 -9.8787575 -1.3244762 25 4
4.1711907 -9.5293388 -0.91008025 19 5
4.6851325 -10.718744 -0.61306345 9 6
4.5396399 -10.400719 -0.19808482 27 7
3.0172017 -6.9690022 -2.0348353 9 0
4.7004128 -10.867216 0.2066714 42 8
3.9756072 -9.1958885 -2.3129468 15 1
3.8338513 -8.8850222 -1.8809953 21 2
4.0037045 -9.2920313 -1.6025149 18 3
4.2483811 -9.8741169 -1.3198452 18 4
4.0526748 -9.4373999 -0.89857566 19 5
4.4826736 -10.453822 -0.59610659 28 6
4.6636996 -10.891724 -0.20681101 14 7
2.9865985 -7.0325713 -2.0472586 9 0
4.6462994 -10.951311 0.20764874 28 8
3.7599101 -8.866395 -2.2234163 20 1
3.9714487 -9.3834553 -1.9805974 10 2
3.8264649 -9.0541019 -1.556836 19 3
3.9084394 -9.2615881 -1.2342927 7 4
3.9263704 -9.3222399 -0.88497937 25 5
4.4033914 -10.470133 -0.5952692 28 6
4.6696196 -11.119452 -0.21051092 15 7
2.9359438 -7.0496836 -2.0462234 9 0
4.7064638 -11.312117 0.21386179 30 8
3.685199 -8.8618393 -2.2157679 24 1
3.8779995 -9.3438606 -1.9664776 18 2
3.9325647 -9.4893665 -1.6269187 18 3
4.1404638 -10.005841 -1.3295947 19 4
4.0756621 -9.8687344 -0.9341352 26 5
4.1870413 -10.153491 -0.57559091 19 6
4.4883323 -10.900305 -0.20576388 14 7
2.8793535 -7.0521235 -2.0410471 9 0
4.5578947 -11.174352 0.21065055 14 8
3.6710613 -9.0046453 -2.2450116 21 1
3.7786372 -9.287055 -1.9489232 21 2
3.8677089 -9.5202503 -1.6275443 19 3
3.9772353 -9.8045645 -1.2991273 20 4
3.9844575 -9.8371544 -0.92855722 19 5
4.3428531 -10.743538 -0.60730648 18 6
4.1875892 -10.37507 -0.19529243 20 7
2.8372295 -7.0899882 -2.0462234 9 0
4.4921241 -11.231112 0.21113922 14 8
3.571954 -8.9395733 -2.2225163 21 1
3.6767771 -9.2159157 -1.9286975 12 2
3.6697698 -9.2123632 -1.5706023 30 3
3.9042897 -9.8210239 -1.2976649 24 4
4.0009527 -10.079544 -0.94877744 13 5
4.0186868 -10.1397 -0.57161337 10 6
4.063571 -10.273885 -0.19284908 26 7
2.8164179 -7.179275 -2.0664113 11 0
4.3946376 -11.21379 0.21023169 29 8
3.5394521 -9.0362597 -2.2405124 22 1
3.5944805 -9.1956463 -1.919157 18 2
3.5105641 -8.9948511 -1.5293034 13 3
3.9288867 -10.082273 -1.3286197 22 4
3.9897006 -10.259498 -0.96307093 13 5
3.8718951 -9.9720154 -0.56062281 20 6
3.9978828 -10.312493 -0.19305852 13 7
2.7558362 -7.1717124 -2.0586467 9 0
3.5432935 -9.2354145 -2.2837031 24 1
3.5021179 -9.1471777 -1.9038923 15 2
3.4730747 -9.0855665 -1.5405668 21 3
3.8138108 -9.9926157 -1.3132643 7 4
3.8598294 -10.134424 -0.94877744 13 5
3.8582644 -10.146283 -0.56889194 20 6
3.9854124 -10.49719 -0.19599053 13 7
2.7186277 -7.225131 -2.0684819 10 0
3.4650276 -9.2234402 -2.2747052 16 1
3.66766 -9.7835655 -2.0309711 12 2
3.4331052 -9.172493 -1.5512043 19 3
3.58038 -9.5863581 -1.2564731 19 4
3.6525466 -9.7952251 -0.91461235 19 5
3.8138158 -10.244099 -0.57286942 30 6
4.0606141 -10.930336 -0.20352997 14 7
2.6668563 -7.2444005 -2.0684819 10 0
3.4090209 -9.2754354 -2.2814536 51 1
3.5201418 -9.5932913 -1.9863218 16 2
3.3483632 -9.144886 -1.542444 17 3
3.4309003 -9.3855247 -1.2269807 20 4
3.6168611 -9.9103251 -0.9229793 26 5
3.7424645 -10.276756 -0.57318348 20 6
3.672631 -10.10144 -0.18761338 18 7
2.6162164 -7.2628412 -2.0684819 11 0
4.217309 -11.720445 0.21742207 15 8
3.3316534 -9.2641687 -2.2729053 21 1
3.2670634 -9.1045237 -1.8802319 19 2
3.4736433 -9.6961784 -1.6312988 20 3
3.3719785 -9.4279394 -1.229418 20 4
3.642724 -10.201777 -0.94773155 13 5
3.7436936 -10.507708 -0.58459264 9 6
3.7936826 -10.665675 -0.19759615 13 7
2.5635226 -7.2754626 -2.0669291 9 0
3.3238029 -9.4489737 -2.3124969 22 1
3.2570562 -9.2747393 -1.9107615 25 2
3.2520213 -9.2759333 -1.556836 18 3
3.3303282 -9.5205793 -1.2384363 19 4
3.4702554 -9.9372873 -0.92088759 13 5
3.4248667 -9.8238344 -0.54523605 31 6
3.6823394 -10.586134 -0.19564149 13 7
2.5271628 -7.3310976 -2.0777996 11 0
3.8560929 -11.198907 0.20674121 14 8
3.226434 -9.3755598 -2.2891018 24 1
3.1641755 -9.2155495 -1.8939703 18 2
3.2025557 -9.3432579 -1.5643448 24 3
3.4820302 -10.175974 -1.3205763 9 4
3.3042381 -9.678441 -0.89474088 18 5
3.4309397 -10.066801 -0.55737799 31 6
3.5148687 -10.33077 -0.19047557 19 7
2.5012102 -7.4236212 -2.0990226 9 0
3.6425979 -10.823764 0.1993414 13 8
3.0807617 -9.159584 -2.2310646 26 1
3.0910189 -9.2113571 -1.8886275 9 2
3.1322324 -9.3504038 -1.5618418 16 3
3.1496403 -9.4187479 -1.2194247 14 4
3.2088466 -9.6181145 -0.88707113 18 5
3.3738306 -10.130301 -0.55957609 20 6
3.3808367 -10.169095 -0.18705489 12 7
2.4547586 -7.457417 -2.1036813 10 0
3.5694456 -10.856527 0.19948101 26 8
3.0234323 -9.2012339 -2.2360134 20 1
3.0474293 -9.2961416 -1.9016025 22 2
3.1258562 -9.5522738 -1.5918773 16 3
3.0036798 -9.1952009 -1.1877387 19 4
3.1729524 -9.7306547 -0.89543808 19 5
3.4476039 -10.598042 -0.58406937 19 6
3.682796 -11.341216 -0.20813741 22 7
2.4233291 -7.538743 -2.1217985 9 0
3.5664144 -11.10142 0.20352997 27 8
2.978771 -9.28335 -2.2508602 14 1
2.9984543 -9.3615417 -1.9107615 24 2
3.1179121 -9.7520761 -1.6215998 23 3
2.9376023 -9.2102728 -1.1870075 20 4
3.0378509 -9.5418358 -0.87608945 30 5
3.0711176 -9.6638269 -0.53141934 11 6
3.6240778 -11.431461 -0.20932417 15 7
2.3719583 -7.5550637 -2.1217985 9 0
3.6766996 -11.725186 0.21449009 15 8
2.8881233 -9.216012 -2.2297149 17 1
2.9388843 -9.4009848 -1.9145776 18 2
2.9679651 -9.5114927 -1.5781111 17 3
3.0371799 -9.7512589 -1.2540357 19 4
2.9788475 -9.5875473 -0.8783555 24 5
3.1922987 -10.293566 -0.56480968 20 6
3.4007173 -10.985939 -0.20073758 14 7
2.2829471 -7.4532223 -2.0886698 9 0
3.3677776 -11.008629 0.20094702 26 8
2.8966417 -9.4744892 -2.2873023 23 1
2.8915076 -9.4813652 -1.9267894 16 2
2.9728196 -9.7663126 -1.6169068 17 3
2.9655671 -9.760829 -1.2525733 19 4
2.8945055 -9.5509071 -0.87312621 12 5
3.0631094 -10.126342 -0.55444717 20 6
3.3378096 -11.055357 -0.20157529 14 7
2.2137194 -7.4115953 -2.072623 10 0
3.2496836 -10.893902 0.19843386 12 8
2.7959101 -9.3786945 -2.2594085 9 1
2.8341987 -9.5314283 -1.9328952 9 2
2.8438663 -9.5823059 -1.583117 14 3
2.9187753 -9.8536205 -1.2618352 31 4
3.0343783 -10.270211 -0.93692428 13 5
2.9375432 -9.9616566 -0.544294 21 6
3.0493879 -10.360931 -0.18852089 12 7
2.1862204 -7.5103383 -2.0959167 9 0
2.7455904 -9.4503822 -2.2720056 17 1
2.7457323 -9.4755554 -1.9176304 24 2
2.7648273 -9.5601778 -1.5762339 17 3
2.8113785 -9.7402515 -1.2447736 18 4
2.8832355 -10.015437 -0.91182339 13 5
3.1276951 -10.886053 -0.59359449 19 6
2.9846988 -10.40888 -0.18900958 25 7
2.2011883 -7.7633171 -2.1621742 9 0
3.3119223 -11.696288 0.21218637 29 8
2.7320776 -9.6549559 -2.316546 14 1
3.356626 -11.877889 0.64687246 10 9
2.7253718 -9.6569862 -1.9504496 22 2
2.720511 -9.6591063 -1.5893744 15 3
2.5767908 -9.1672211 -1.1692146 23 4
2.7696824 -9.8799295 -0.89770412 31 5
2.998348 -10.717205 -0.58323193 19 6
2.1608148 -7.8287745 -2.1761506 10 0
3.2142448 -11.661289 0.21113922 14 8
2.6340749 -9.5629463 -2.2900016 17 1
2.5455601 -9.2668629 -1.8680203 18 2
2.6112318 -9.5254555 -1.5643448 19 3
2.5462523 -9.3075285 -1.1848139 20 4
2.6833348 -9.8355932 -0.89195186 25 5
2.8904009 -10.616468 -0.57663763 29 6
3.2364955 -11.912279 -0.21546741 16 7
2.1166279 -7.8828506 -2.187021 9 0
3.1275766 -11.66413 0.21079017 14 8
2.4431739 -9.1180477 -2.1793258 6 1
2.5436468 -9.5195999 -1.9153408 13 2
2.5762217 -9.6617918 -1.5837427 19 3
2.7251983 -10.242047 -1.3013209 15 4
2.6572292 -10.007684 -0.90589672 19 5
2.8412635 -10.730994 -0.58176655 19 6
2.9540358 -11.180577 -0.20185454 14 7
2.0869176 -7.9946346 -2.2139382 9 0
3.1258395 -11.98313 0.21616551 30 8
2.4212117 -9.2951765 -2.2175674 19 1
2.4738522 -9.5176916 -1.9115247 13 2
2.5282507 -9.7479391 -1.595006 27 3
2.6506467 -10.249292 -1.2998585 15 4
2.653013 -10.280643 -0.9289059 26 5
2.6989253 -10.481236 -0.56721711 20 6
2.6153226 -10.186007 -0.18356441 12 7
2.0429065 -8.0498486 -2.2253263 9 0
3.0028081 -11.849587 0.21337312 14 8
2.3602781 -9.3208857 -2.2198169 23 1
2.3539989 -9.3234396 -1.8691651 12 2
2.4519322 -9.732789 -1.5896872 19 3
2.5387197 -10.099606 -1.2786533 20 4
2.5269284 -10.082462 -0.90938306 19 5
2.4905019 -9.9592342 -0.5380137 21 6
2.5488327 -10.215214 -0.18377385 18 7
1.9885066 -8.0714178 -2.2273967 9 0
2.2560754 -9.1781759 -2.1820252 18 1
2.3519399 -9.5970678 -1.9206835 22 2
2.4266217 -9.924284 -1.6181583 15 3
2.4723833 -10.134439 -1.2808468 31 4
2.5035639 -10.293452 -0.9268142 19 5
2.5278296 -10.416969 -0.56177419 20 6
2.5913298 -10.703096 -0.19222081 26 7
1.9357013 -8.1001348 -2.2315381 9 0
2.2281005 -9.3453503 -2.2180173 18 1
2.2948699 -9.6552753 -1.9290791 16 2
2.3180826 -9.7756853 -1.5912516 14 3
2.3522172 -9.9428215 -1.2545232 19 4
2.490181 -10.558896 -0.94912601 13 5
2.5039907 -10.642389 -0.57297415 20 6
2.5448768 -10.841627 -0.1943849 20 7
1.8782336 -8.1096869 -2.2305026 9 0
2.1900041 -9.4783983 -2.2459114 18 1
2.1833441 -9.4797449 -1.8909173 21 2
2.355942 -10.25368 -1.6663401 20 3
2.2783108 -9.9396505 -1.2520857 18 4
2.2664063 -9.9195137 -0.89020878 12 5
2.3501825 -10.311041 -0.55423784 31 6
2.7289424 -12.001784 -0.21483912 16 7
1.820726 -8.1188316 -2.2294674 9 0
2.8603928 -12.775711 0.22852181 17 8
2.0999546 -9.3869591 -2.220717 19 1
2.2187991 -9.9508104 -1.9817424 19 2
2.2456999 -10.096335 -1.6381818 31 3
2.0970657 -9.4514446 -1.1887137 18 4
2.1893623 -9.8919125 -0.88637388 18 5
2.2592113 -10.241381 -0.54963231 21 6
2.5591383 -11.62995 -0.20785816 15 7
1.7656409 -8.1388969 -2.2315381 9 0
2.6403532 -12.181231 0.21756171 15 8
1.920617 -8.8757057 -2.0965438 22 1
2.0520189 -9.5070276 -1.8905357 10 2
1.9931588 -9.2578287 -1.4998938 14 3
2.1493032 -10.017076 -1.2579355 23 4
2.2661874 -10.588851 -0.94738293 27 5
2.1836104 -10.229176 -0.54816687 21 6
2.4262886 -11.404998 -0.20352997 21 7
1.6994891 -8.099679 -2.2175617 10 0
1.9128494 -9.1403522 -2.155931 37 1
2.0300865 -9.7344522 -1.9328952 18 2
1.9260648 -9.2599134 -1.4980166 18 3
2.087522 -10.062572 -1.2618352 20 4
2.2053633 -10.658662 -0.95226365 13 5
2.2383807 -10.856435 -0.58092916 39 6
2.3308785 -11.335065 -0.20199415 21 7
1.6448196 -8.1208115 -2.2201498 9 0
2.3777552 -11.750005 0.20925435 14 8
1.8578655 -9.1974163 -2.1662786 14 1
1.9335387 -9.597928 -1.9031291 22 2
1.884002 -9.3773899 -1.5149114 16 3
2.0070901 -10.026291 -1.2554981 21 4
2.1504011 -10.77149 -0.96097922 13 5
2.0977447 -10.536462 -0.56303024 20 6
1.590247 -8.1356115 -2.2211852 9 0
2.3737845 -12.166706 0.21637493 30 8
1.7952187 -9.2098494 -2.1662786 25 1
1.7519597 -9.0214539 -1.7863539 19 2
1.8462816 -9.5338268 -1.5380639 20 3
1.7618935 -9.1236525 -1.1409409 10 4
2.0337443 -10.571024 -0.94180495 13 5
2.096009 -10.925494 -0.58302259 39 6
2.3381929 -12.222465 -0.21721266 16 7
1.3568774 -7.2086506 -1.9654719 1 0
1.7078727 -9.0995789 -2.137485 26 1
1.6889353 -9.0334644 -1.7863539 18 2
1.7847472 -9.5736694 -1.542444 17 3
1.7728872 -9.5377722 -1.191151 31 4
1.8837217 -10.173555 -0.90519953 19 5
2.0040934 -10.855407 -0.57852173 19 6
2.1992304 -11.947424 -0.21204674 15 7
1.3044541 -7.206542 -1.9623661 1 0
1.6256148 -9.0077209 -2.1131902 23 1
1.6098529 -8.9561501 -1.7687995 21 2
1.6258769 -9.0725746 -1.4598466 21 3
1.6336385 -9.1434546 -1.1404535 16 4
1.855934 -10.429693 -0.9268142 13 5
1.8870929 -10.63708 -0.56617045 30 6
2.1986575 -12.43114 -0.22035408 43 7
1.4314277 -8.2356501 -2.23982 9 0
1.5626894 -9.0188513 -2.1131902 42 1
1.6197283 -9.3869925 -1.8516105 12 2
1.5551316 -9.0408754 -1.4529635 16 3
1.6630322 -9.698554 -1.2082127 21 4
1.8094347 -10.630305 -0.56512368 30 6
1.9070938 -11.239617 -0.19899234 14 7
1.3815176 -8.2911777 -2.2522435 9 0
2.0770941 -12.492573 0.22105218 16 8
1.4942613 -8.9968605 -2.1055419 21 1
1.5871475 -9.597578 -1.8909173 18 2
1.6288372 -9.8818178 -1.5862457 18 3
1.5811226 -9.6237392 -1.1974882 20 4
1.7783184 -10.871435 -0.96376818 13 5
1.6628644 -10.199151 -0.54157251 21 6
1.3217765 -8.2891741 -2.2491376 9 0
1.4650593 -9.2187777 -2.1550312 28 1
1.5090632 -9.5386152 -1.8771789 19 2
1.5438114 -9.791482 -1.5699764 18 3
1.4972581 -9.5286474 -1.1843264 20 4
1.5872238 -10.147384 -0.89857566 12 5
1.5848541 -10.167097 -0.53926975 21 6
1.7266496 -11.114975 -0.19633958 20 7
1.2653292 -8.3077478 -2.2517259 10 0
1.3714238 -9.0361118 -2.1100409 19 1
1.4987358 -9.9216337 -1.9504496 16 2
1.4448401 -9.5988703 -1.537438 19 3
1.4327613 -9.5526094 -1.1860325 13 4
1.5945882 -10.682385 -0.94494259 13 5
1.5200063 -10.219399 -0.54146785 32 6
1.6601503 -11.201924 -0.19766594 13 7
1.2064677 -8.3106432 -2.2501729 9 0
1.3060759 -9.0300369 -2.1064417 34 1
1.3505641 -9.3838644 -1.8428333 15 2
1.3766706 -9.6009026 -1.5361867 21 3
1.3823203 -9.6763573 -1.2001694 23 4
1.5412813 -10.843172 -0.9581902 20 5
1.5696013 -11.084055 -0.58668613 19 6
1.5958725 -11.312246 -0.1994112 14 7
1.1510609 -8.3380013 -2.2553494 9 0
1.2565424 -9.1373949 -2.1293867 14 1
1.3382404 -9.7820911 -1.919157 25 2
1.3629547 -10.001737 -1.5987604 27 3
1.4554445 -10.72241 -1.3286197 21 4
1.4850585 -10.983724 -0.96969479 13 5
1.5283892 -11.363945 -0.60092151 27 6
1.5959828 -11.913744 -0.20981283 15 7
1.0948292 -8.3611584 -2.2594905 9 0
1.2083447 -9.2657509 -2.1572804 25 1
1.2812346 -9.8649559 -1.9336585 18 2
1.293831 -10.002946 -1.597509 14 3
1.3562388 -10.543297 -1.3052207 20 4
1.5177076 -11.847559 -1.0449973 15 5
1.4540347 -11.39786 -0.60217756 9 6
1.0416965 -8.3990908 -2.2677724 9 0
1.1727146 -9.4961777 -2.2090194 16 1
1.1869714 -9.6671076 -1.8932071 18 2
1.1860914 -9.701932 -1.5480757 16 3
1.3036313 -10.709929 -1.3247199 23 4
1.302834 -10.766032 -0.94877744 13 5
1.3691713 -11.364108 -0.59987479 18 6
