# .PCD v0.7 - Point Cloud Data file format
VERSION 0.7
FIELDS x y z intensity ring
SIZE 4 4 4 4 2
TYPE F F F F U
COUNT 1 1 1 1 1
WIDTH 1333
HEIGHT 1
VIEWPOINT 0 0 0 1 0 0 0
POINTS 1333
DATA ascii
0.42800665 4.8921385 -1.1337533 20 1
0.46475869 5.2803736 -1.0303686 12 2
0.51344389 5.7987485 -0.92202479 15 3
0.57103485 6.3983278 -0.78873843 10 4
0.71100003 7.9197755 -0.6956771 23 5
1.364632 15.111688 -0.7951926 8 6
0.44050243 4.6950307 -1.2635547 11 0
0.45946366 4.8697109 -1.1292543 14 1
0.50291175 5.2906809 -1.0330399 13 2
0.5531624 5.7871571 -0.92077333 9 3
0.6136241 6.3844128 -0.78751975 12 4
0.76473719 7.8987541 -0.69428265 23 5
1.4755166 15.157453 -0.79812342 17 6
0.47501409 4.7091398 -1.2682134 10 0
0.4950245 4.8818946 -1.1328535 18 1
0.54142833 5.3026662 -1.0360929 11 2
0.59334648 5.7811899 -0.92046052 11 3
0.6453442 6.2555728 -0.77216423 15 4
0.81821549 7.8773689 -0.69288814 23 5
1.5773592 15.109038 -0.79613465 17 6
0.50850266 4.7114706 -1.2697662 12 0
0.52783376 4.8666954 -1.1301541 17 1
0.57715636 5.2870469 -1.0338032 9 2
0.63412315 5.7808342 -0.92108625 11 3
0.68574125 6.2213178 -0.76850814 12 4
0.88153356 7.9467139 -0.69951195 24 5
1.6843432 15.111554 -0.79686737 17 6
0.54138029 4.7078056 -1.2697662 11 0
0.55955803 4.843533 -1.1256551 20 1
0.60861528 5.2360859 -1.0246444 12 2
0.67263544 5.7605691 -0.91858327 11 3
0.72522616 6.1828623 -0.7643646 13 4
0.93769115 7.9463019 -0.70003492 14 5
1.783218 15.043893 -0.79393655 17 6
0.57236111 4.6885715 -1.2656252 12 0
0.753326 6.1531129 0.10820492 30 8
0.59525591 4.8549829 -1.1292543 20 1
0.7524569 6.119451 0.32312223 28 9
0.64226931 5.2083273 -1.0200649 10 2
0.70700568 5.7086835 -0.91107446 11 3
0.76444978 6.1461301 -0.76046479 19 4
0.77280545 6.1780705 -0.54472339 36 5
0.77071738 6.1352944 -0.32406428 22 6
0.77412277 6.1364222 -0.10796059 42 7
0.6035946 4.672965 -1.2625194 12 0
0.79831934 6.1635685 0.10848416 50 8
0.62662899 4.8313832 -1.1247553 14 1
0.79619074 6.1219707 0.3235409 30 9
0.68191504 5.2290244 -1.025026 14 2
0.74581671 5.6957746 -0.909823 13 3
0.81277323 6.1819744 -0.76558328 22 4
0.81487328 6.1646233 -0.54402614 42 5
0.81826085 6.1654029 -0.32594836 22 6
0.81694424 6.1308684 -0.10796059 42 7
0.63463604 4.6571527 -1.2594135 11 0
0.84241247 6.1657701 0.10862378 20 8
0.65981489 4.8230295 -1.1238555 18 1
0.85248095 6.2151999 0.32877451 28 9
0.71893883 5.2280264 -1.0257893 14 2
0.78502226 5.6865149 -0.90919721 11 3
0.84392184 6.0896325 -0.75485879 13 4
0.86504871 6.2181363 -0.54925549 43 5
2.0934596 14.9716 -0.79226178 17 6
0.66932952 4.6679068 -1.2635547 12 0
0.69235951 4.8105903 -1.1220559 15 1
0.89362442 6.2013464 0.32835582 33 9
0.75142062 5.2016373 -1.0215914 12 2
0.82314408 5.6771293 -0.90857148 13 3
0.8821246 6.0541272 -0.7512027 15 4
0.91190106 6.2356024 -0.5513472 43 5
2.2011278 14.996523 -0.79435521 17 6
0.69878757 4.6479597 -1.2594135 12 0
0.72275996 4.7903504 -1.1184566 18 1
0.93749642 6.1989055 0.32856518 30 9
0.78683382 5.1904416 -1.0204465 12 2
0.86097533 5.6595273 -0.90669429 13 3
0.89604855 5.8694077 -0.7290225 7 4
0.91312051 5.9533739 -0.52694362 14 5
0.73061842 4.6391521 -1.2583783 11 0
0.7543602 4.7736392 -1.1157572 15 1
0.98137498 6.1961546 0.32877451 30 9
0.82612634 5.2042127 -1.0242627 14 2
0.89735806 5.6338706 -0.90356559 13 3
0.93449664 5.8473272 -0.72707254 3 4
0.94739723 5.9016085 -0.52293444 5 5
0.95249242 5.9135623 -0.31391108 10 6
0.95037371 5.8807945 -0.10398144 22 7
0.76142085 4.6244063 -1.2557901 13 0
0.97149658 5.8874764 0.10415597 23 8
0.78767037 4.7682557 -1.1157572 21 1
0.97893989 5.9132915 0.31412044 16 9
0.86147451 5.1925082 -1.0231179 12 2
0.97702974 5.8826375 0.52171427 13 10
0.93698972 5.6294179 -0.90387845 15 3
0.98080885 5.879992 0.73194736 10 11
0.97431242 5.8347878 -0.72634137 4 4
0.99113506 5.9227886 0.95112169 10 12
0.97803032 5.8319721 -0.51735646 8 5
0.97254664 5.7807159 -0.30721208 20 6
0.98208785 5.8188057 -0.10300411 16 7
0.7949931 4.6265941 -1.2578605 13 0
1.0098605 5.8647847 0.10387672 19 8
0.82689846 4.7972083 -1.1238555 15 1
1.0096571 5.8453016 0.31087559 23 9
0.89737159 5.184432 -1.0227362 12 2
1.0075271 5.814817 0.51631063 18 10
0.97458071 5.6130071 -0.90231407 11 3
1.009245 5.8006401 0.722929 13 11
1.0177507 5.8434882 -0.72829127 4 4
1.0175163 5.8301024 0.9373554 16 12
1.0152862 5.8053765 -0.51561338 8 5
1.0210766 5.8324709 1.1509598 15 13
1.0094261 5.7541137 -0.30616537 38 6
1.0270162 5.8423843 1.3695021 7 14
1.0275358 5.8393803 -0.10349277 8 7
1.0288634 5.8349752 1.5875961 15 15
0.82489038 4.6076202 -1.2542372 12 0
1.0444244 5.8221626 0.10324844 12 8
0.85623372 4.768302 -1.1184566 16 1
1.0454888 5.8105903 0.30941018 23 9
0.9349373 5.1857696 -1.0242627 12 2
1.0466822 5.7997985 0.51561338 19 10
1.017258 5.625505 -0.90544277 11 3
1.0461745 5.7739201 0.72049159 15 11
1.0521445 5.8010821 -0.72390395 4 4
1.0546584 5.803422 0.93422669 21 12
1.0547816 5.7983313 -0.51561338 11 5
1.0536703 5.7807779 1.1421827 21 13
1.052446 5.7626433 -0.30700275 100 6
1.0576458 5.7854176 1.3578045 15 14
1.0639566 5.8084602 -0.10307391 16 7
1.0580659 5.7649465 1.5705141 18 15
0.85703754 4.6017489 -1.2542372 12 0
1.0854963 5.822782 0.10338806 19 8
0.89236432 4.7775335 -1.1220559 15 1
1.0842822 5.7994137 0.30920088 9 9
0.96587384 5.1561294 -1.0196834 14 2
1.0864147 5.7884331 0.51526475 22 10
1.0569825 5.6262169 -0.90669429 11 3
1.0828846 5.7530088 0.71878546 16 11
1.1014446 5.8404131 -0.72975373 4 4
1.0846125 5.7456393 0.92609209 36 12
1.0993059 5.8123603 -0.5175308 13 5
1.0980228 5.7944994 1.1463805 35 13
1.0961105 5.7788939 -0.3082588 36 6
1.0940078 5.7568331 1.3528557 23 14
1.1059774 5.8087487 -0.10321353 16 7
1.0976437 5.7595086 1.5710317 37 15
0.88027501 4.55408 -1.2428491 11 0
1.1276413 5.8229141 0.10352767 12 8
0.92783004 4.7866535 -1.1256551 15 1
1.1308352 5.823072 0.31087559 9 9
1.001097 5.1454062 -1.0189201 14 2
1.1246449 5.7750373 0.51474178 9 10
1.084133 5.5566573 -0.8966825 10 3
1.1260656 5.7608957 0.72073537 12 11
1.1678572 5.969151 -0.74681538 9 4
1.128875 5.7592516 0.92953372 21 12
1.1472855 5.8477554 -0.52136564 13 5
1.1272161 5.7348785 1.1360768 18 13
1.1456892 5.8181319 -0.31077093 72 6
1.1305302 5.7358699 1.3497064 22 14
1.1509113 5.8285522 -0.1037022 12 7
1.1299531 5.7119079 1.5601612 27 15
0.91736513 4.5743418 -1.2500961 12 0
1.1680377 5.8190255 0.10359748 8 8
0.95968789 4.7724175 -1.1238555 12 1
1.1763568 5.8446097 0.3124457 7 9
1.03959 5.1557937 -1.0223546 12 2
1.1732191 5.8080568 0.51840234 16 10
1.1231027 5.5549583 -0.8976211 8 3
1.1687993 5.770607 0.722929 13 11
1.2363411 6.0931435 -0.76338965 18 4
1.1723757 5.7727284 0.93297523 21 12
1.2599763 6.1929865 -0.55291605 31 5
1.169578 5.7384114 1.1383665 17 13
3.0440049 14.921782 -0.79812342 17 6
1.1709368 5.7297463 1.3501562 13 14
1.1715186 5.7173324 1.5637847 23 15
0.95006382 4.5716085 -1.2511313 11 0
0.9913922 4.7579703 -1.1220559 23 1
1.286709 6.1645031 0.33003056 30 9
1.0800737 5.1655178 -1.0257893 14 2
1.2202682 5.8309269 0.52119136 3 10
1.1616085 5.5409799 -0.8966825 12 3
1.2239342 5.8281484 0.73121613 4 11
1.2839975 6.1035662 -0.76582706 16 4
1.2213873 5.8009186 0.93891978 16 12
1.3050823 6.1877112 -0.55326468 31 5
1.2211629 5.7798371 1.1482886 18 13
3.1556633 14.923065 -0.79937947 17 6
1.2268498 5.7917585 1.3668026 7 14
1.2172168 5.7314792 1.5699965 22 15
0.97909385 4.5476966 -1.2464726 13 0
1.0229471 4.739325 -1.1193565 15 1
1.3299412 6.1512341 0.32982123 28 9
1.1119573 5.1386633 -1.021973 14 2
1.2016481 5.5344558 -0.89699531 8 3
1.3210884 6.0692377 -0.76265842 18 4
1.3558949 6.2134876 -0.55640227 22 5
3.2662139 14.917661 -0.80032152 17 6
1.0124958 4.5482931 -1.2485431 14 0
1.0560067 4.7320685 -1.1193565 14 1
1.3728554 6.141799 0.32982123 30 9
1.1474135 5.1248269 -1.0208282 15 2
1.2476108 5.5586982 -0.90231407 13 3
1.3738852 6.1063466 -0.76850814 15 4
1.3948567 6.1844349 -0.55465913 28 5
3.3583779 14.841899 -0.79749537 17 6
1.0424925 4.5335832 -1.2464726 13 0
1.0925186 4.7397723 -1.1229557 15 1
1.4182181 6.1478815 0.33065861 30 9
1.1827101 5.1188116 -1.0212098 14 2
1.283636 5.5423794 -0.90106261 13 3
1.41603 6.0946741 -0.76826441 12 4
1.4366395 6.1687255 -0.55413622 34 5
3.4602268 14.822586 -0.7977047 8 6
1.0706531 4.5151033 -1.2433668 14 0
1.1211511 4.7170587 -1.1193565 15 1
1.4601789 6.1339445 0.33044925 30 9
1.2165984 5.1027904 -1.0196834 14 2
1.3209203 5.5275187 -0.90012401 15 3
1.4741317 6.1543908 -0.77703899 12 4
1.4778085 6.1507959 -0.55343896 37 5
3.5748534 14.844668 -0.80021685 17 6
1.1081134 4.5319142 -1.2500961 12 0
1.1512719 4.6977601 -1.116657 17 1
1.5039214 6.12748 0.33065861 28 9
1.2564083 5.1113324 -1.0231179 22 2
1.3613651 5.5258355 -0.90137547 15 3
1.5056376 6.0976963 -0.77118921 12 4
1.5274215 6.1674042 -0.55587929 35 5
3.6254749 14.606121 -0.78870296 17 6
1.1373653 4.5147009 -1.2475078 15 0
1.1859485 4.697166 -1.1184566 17 1
1.5486181 6.124577 0.33107728 30 9
1.2872422 5.0834041 -1.0193018 22 2
1.4033109 5.5295997 -0.90356559 13 3
1.5525748 6.1043515 -0.7733829 15 4
1.5719153 6.1623826 -0.55640227 32 5
3.7214136 14.557236 -0.78744686 17 6
1.1693412 4.5085206 -1.2480254 12 0
1.2177316 4.6849999 -1.1175569 18 1
1.5903318 6.1097512 0.33086795 28 9
1.3241853 5.0799928 -1.0204465 14 2
1.4463741 5.536869 -0.90638137 15 3
1.6062133 6.1356125 -0.77874517 13 4
1.6154044 6.1531854 -0.55657655 35 5
3.8422618 14.6043 -0.79142439 17 6
1.1997921 4.4965143 -1.2469902 11 0
1.2534297 4.6876798 -1.1202562 15 1
1.6360465 6.110075 0.33149597 28 9
1.3601241 5.0725212 -1.0208282 19 2
1.4803799 5.5094671 -0.90356559 13 3
1.645399 6.1108303 -0.77703899 12 4
1.658842 6.1436815 -0.55675089 22 5
3.9482985 14.592544 -0.79226178 17 6
1.2291101 4.4805765 -1.2449197 12 0
1.2923236 4.7013636 -1.1256551 15 1
1.6807804 6.1062078 0.33191466 28 9
1.3996798 5.078043 -1.0238811 17 2
1.5103928 5.4685321 -0.89855969 12 3
1.7039024 6.1565905 -0.78435117 12 4
1.6963617 6.1127534 -0.55500776 25 5
1.2692673 4.5034971 -1.2537196 14 0
1.3219336 4.680975 -1.1229557 15 1
1.7255455 6.1020117 0.33233336 28 9
1.4372364 5.0757031 -1.0254076 17 2
1.5560821 5.4844599 -0.90293986 13 3
1.7278427 6.0777149 -0.77582031 15 4
1.7521064 6.1467462 -0.55919123 29 5
2.2384622 7.8374147 -0.42716613 13 6
1.3049729 4.5093718 -1.2578605 13 0
1.3545809 4.6716323 -1.1229557 21 1
1.7658762 6.0821447 0.33191466 28 9
1.4693459 5.0542359 -1.0231179 21 2
1.5733377 5.4013939 -0.89105082 12 3
1.7769018 6.0883722 -0.77874517 15 4
1.792738 6.1267161 -0.55849403 29 5
2.2931232 7.8215966 -0.42716613 13 6
1.3342248 4.492743 -1.2557901 13 0
1.3849413 4.6545897 -1.1211561 16 1
1.811713 6.0811534 0.33254269 30 9
1.4978608 5.0212789 -1.0185385 15 2
1.5985637 5.34864 -0.88416773 12 3
1.8096831 6.0434909 -0.77460164 7 4
1.8377582 6.1216841 -0.55919123 32 5
2.3764355 7.9010267 -0.43239969 13 6
1.363304 4.4759278 -1.2537196 14 0
1.4242258 4.6671753 -1.126555 15 1
1.8587924 6.0836377 0.33338007 38 9
1.5351768 5.0182085 -1.0200649 24 2
1.6439718 5.36379 -0.8885479 10 3
1.8611567 6.0610714 -0.77850145 12 4
1.8769308 6.09728 -0.55814534 22 5
1.3916395 4.4570804 -1.2511313 12 0
1.4463022 4.6236405 -1.1184566 19 1
1.9053974 6.0838547 0.33411276 30 9
1.5543151 4.9567885 -1.0097612 14 2
1.7180842 5.4690256 -0.90794575 20 3
1.9183239 6.0952682 -0.78459489 15 4
1.9290435 6.1144295 -0.56093436 26 5
2.4648516 7.7985182 -0.42863154 13 6
1.4274312 4.4619765 -1.2552725 11 0
1.483304 4.6282773 -1.1220559 18 1
1.9551499 6.093225 0.33536884 30 9
1.5618581 4.8617048 -0.9925884 17 2
1.7689294 5.496387 -0.91451597 15 3
1.9407256 6.0193806 -0.77655149 12 4
1.9729116 6.1046038 -0.56128299 32 5
1.4663637 4.475769 -1.2620018 14 0
1.5149693 4.6159577 -1.1216059 14 1
1.993897 6.0680428 0.33474082 30 9
1.6423882 4.9924169 -1.0215914 22 2
1.821479 5.5270543 -0.92171198 13 3
2.0094609 6.0867405 -0.78703225 15 4
2.0192342 6.1020312 -0.56232882 29 5
2.5961168 7.831593 -0.43239969 13 6
1.4650209 4.3683476 -1.2345669 12 0
1.5415747 4.5886431 -1.1175569 21 1
2.0425787 6.0729055 0.33578753 28 9
1.6377311 4.8636117 -0.99754947 12 2
1.8612835 5.5179472 -0.92233771 13 3
2.0480928 6.0612798 -0.78556985 15 4
2.0656199 6.0991087 -0.5633747 26 5
1.5199362 4.4292765 -1.2547548 13 0
1.5906758 4.6275268 -1.1297042 23 1
2.0868754 6.0641627 0.33610156 28 9
1.7080945 4.9578629 -1.0193018 19 2
1.8900944 5.4768085 -0.91764468 15 3
2.0734956 5.998054 -0.77923268 13 4
2.104888 6.0751262 -0.56250316 19 5
1.549542 4.4149117 -1.2537196 15 0
1.6171263 4.5997634 -1.1256551 15 1
2.1371143 6.0720544 0.33735761 26 9
1.6428444 4.6625109 -0.96091413 11 2
1.9342008 5.4802451 -0.92046052 13 3
2.1179662 5.9909186 -0.78020763 13 4
2.1545656 6.0809422 -0.56442058 22 5
2.8263628 7.9637308 -0.44286692 13 6
1.579019 4.4003506 -1.2526842 9 0
1.630741 4.537014 -1.1130579 15 1
2.1862183 6.075779 0.33840433 26 9
1.8050983 5.0111065 -1.0353296 9 2
2.0012414 5.5465074 -0.93391389 9 3
2.1570401 5.9685187 -0.77923268 13 4
2.195612 6.0620046 -0.56407195 22 5
2.1816819 6.0137086 -0.33526415 11 6
1.6017188 4.367455 -1.2464726 11 0
1.6973163 4.6206384 -1.1364527 20 1
2.2272034 6.0566192 0.338195 26 9
1.8664868 5.0702362 -1.0502127 7 2
2.008476 5.4471455 -0.91952187 15 3
2.198653 5.9533157 -0.77923268 18 4
2.2413371 6.0558715 -0.56494349 19 5
2.2027857 5.9421496 -0.33212399 22 6
1.6538622 4.4140544 -1.263037 11 0
1.735013 4.6232715 -1.140052 17 1
2.2729414 6.050272 0.33871832 23 9
1.8817971 5.0037918 -1.0391458 13 2
2.0596852 5.4681144 -0.92546642 11 3
2.2394605 5.9359632 -0.7789889 12 4
2.2969446 6.0754867 -0.56825542 23 5
2.26331 5.9770594 -0.33495015 22 6
1.6722083 4.3699255 -1.2537196 9 0
1.7616655 4.5964894 -1.1364527 21 1
2.3280025 6.0678215 0.34060243 21 9
1.9209077 5.0015287 -1.0414355 13 2
2.1006491 5.4609752 -0.92671788 11 3
2.305114 5.9831638 -0.78727603 12 4
2.3364332 6.051868 -0.56755817 23 5
2.310745 5.9760156 -0.33578753 22 6
1.7187792 4.4016299 -1.2661428 11 0
1.7914927 4.5807624 -1.135553 22 1
2.3707073 6.0555544 0.34081176 23 9
1.9527586 4.9828539 -1.0402907 13 2
2.1471522 5.4704556 -0.93078518 15 3
2.3366532 5.9410634 -0.78386366 12 4
2.3761127 6.0321169 -0.56720954 23 5
2.3630965 5.9898748 -0.33746228 22 6
1.7509481 4.3910122 -1.2666605 8 0
1.8256713 4.5714445 -1.1364527 22 1
2.4169447 6.0458536 0.34123048 23 9
1.9969759 4.9927969 -1.0452517 13 2
2.1950612 5.476954 -0.93453962 15 3
2.3817701 5.9338169 -0.7850824 10 4
2.4241118 6.03017 -0.56860405 23 5
2.3947048 5.9450226 -0.3358922 22 6
1.7902951 4.4001551 -1.2728721 8 0
1.8560687 4.5549793 -1.135553 21 1
2.462111 6.0362301 0.34164914 23 9
2.0333948 4.980197 -1.0456334 13 2
2.2354872 5.4669814 -0.93547827 11 3
2.4141104 5.8950005 -0.78215748 10 4
2.4914038 6.0716534 -0.57418203 23 5
2.442224 5.9429383 -0.33672959 11 6
1.816529 4.3768425 -1.2697662 8 0
1.8938091 4.5563054 -1.1391522 16 1
2.5133986 6.0410228 0.34290522 21 9
2.0582991 4.9423199 -1.0406723 16 2
2.2705553 5.4439497 -0.93422669 13 3
2.4689753 5.9109755 -0.7865448 10 4
2.5252702 6.033895 -0.57226461 20 5
2.505271 5.9773197 -0.33966038 11 6
1.8402643 4.348043 -1.2651075 9 0
1.9301349 4.5537386 -1.1418515 17 1
2.5594089 6.0325227 0.34342858 19 9
2.1057987 4.95855 -1.0471598 15 2
2.3077352 5.4261465 -0.93391389 15 3
2.5202966 5.9173355 -0.78971344 12 4
2.5686283 6.0220642 -0.57278752 23 5
1.8659803 4.3244476 -1.2620018 11 0
1.9649687 4.5473089 -1.1436511 15 1
2.610718 6.0387926 0.34478933 16 9
2.1293659 4.9206781 -1.0421988 13 2
2.3501122 5.4230013 -0.93610394 11 3
2.5678709 5.9141631 -0.79166335 12 4
2.6185522 6.0222559 -0.57453066 23 5
6.3278823 14.532319 -0.83067638 17 6
1.9008148 4.3240256 -1.2656252 12 0
1.9958757 4.5338283 -1.1436511 18 1
2.6511996 6.0167651 0.34457996 16 9
2.1565361 4.8895254 -1.0387642 15 2
2.3855202 5.4010415 -0.93516535 9 3
2.6088679 5.8983641 -0.79190701 13 4
2.6669893 6.0184011 -0.57592511 23 5
6.4380946 14.507868 -0.83182776 17 6
1.930166 4.308887 -1.2651075 10 0
2.0306695 4.5268965 -1.1454507 15 1
2.6980484 6.0090418 0.34520799 11 9
2.2083242 4.9137468 -1.0471598 15 2
2.4174936 5.3716464 -0.93297523 13 3
2.663033 5.9089637 -0.79580688 9 4
2.7171366 6.0177951 -0.57766825 28 5
6.5276947 14.437095 -0.83036238 17 6
1.9714295 4.319912 -1.2723545 9 0
2.0654638 4.5196991 -1.1472504 17 1
2.7490726 6.0100384 0.3463594 9 9
2.2474787 4.9089208 -1.0494496 13 2
2.4549384 5.3546367 -0.93297523 13 3
2.7033949 5.888423 -0.79556316 11 4
2.7613673 6.0064006 -0.5783655 35 5
6.656734 14.452849 -0.83392119 17 6
1.9990971 4.3007884 -1.2708015 12 0
2.096967 4.5051694 -1.1472504 18 1
2.8118393 6.0382619 0.34908086 7 9
2.2824991 4.8970671 -1.0502127 13 2
2.4963396 5.3485436 -0.93485248 13 3
2.7377086 5.855021 -0.7936132 11 4
2.815058 6.012239 -0.5808059 28 5
6.7379994 14.371037 -0.83182776 17 6
2.0324564 4.2958121 -1.2733897 10 0
2.1342587 4.50488 -1.1508496 15 1
2.8556371 6.0220933 0.34929019 2 9
2.3174708 4.8827877 -1.0505943 9 2
2.5285285 5.320282 -0.93297523 13 3
2.7945573 5.8721018 -0.79848802 11 4
2.8603923 5.9996333 -0.58150309 24 5
6.7693267 14.179454 -0.82345402 17 6
2.0657506 4.2884798 -1.2754604 10 0
2.1554973 4.4688072 -1.1454507 20 1
2.3617551 4.887701 -1.0551738 11 2
2.5828192 5.3380618 -0.93923265 11 3
2.8467388 5.8756719 -0.80165666 12 4
2.9126472 6.0010266 -0.5835948 24 5
6.8995824 14.196518 -0.82722223 17 6
2.0973384 4.2774234 -1.2764956 9 0
2.1900764 4.4606485 -1.1472504 18 1
2.4062178 4.8922343 -1.0597532 13 2
2.6217687 5.3234448 -0.93985838 11 3
2.902761 5.8836346 -0.80555642 13 4
2.9615314 5.9948373 -0.58498931 28 5
7.0959353 14.344927 -0.83873612 17 6
2.1347966 4.2761335 -1.2806368 9 0
2.2358837 4.4727511 -1.1544489 15 1
2.4508584 4.8963833 -1.0643326 11 2
2.6677639 5.3204398 -0.94267422 9 3
2.9446595 5.8649993 -0.8058002 11 4
3.0158396 5.9989367 -0.5874297 31 5
7.24511 14.386544 -0.84417909 8 6
2.1680973 4.2680154 -1.2827072 9 0
2.2670529 4.4570336 -1.1544489 20 1
2.4751379 4.8577294 -1.0597532 11 2
2.7147176 5.3210411 -0.94611579 13 3
2.9909513 5.8549051 -0.8072626 11 4
3.0685344 5.999022 -0.58952147 29 5
7.3727007 14.388934 -0.84731919 17 6
2.196954 4.2510586 -1.2821896 13 0
2.3106518 4.4653282 -1.1607474 15 1
2.5244012 4.8721471 -1.0666224 9 2
2.749052 5.298934 -0.94549 11 3
3.0354123 5.840929 -0.80823755 11 4
3.1195345 5.9951291 -0.59126455 36 5
7.3652611 14.136497 -0.83538663 17 6
2.2357237 4.2548175 -1.2878836 10 0
2.3409929 4.4494967 -1.1607474 15 1
2.5638478 4.8648243 -1.068912 12 2
2.7905905 5.2883468 -0.94705439 15 3
3.0769575 5.8236408 -0.808725 11 4
3.1650405 5.9802485 -0.5919618 36 5
7.5423288 14.232974 -0.84417909 17 6
2.2608209 4.2305865 -1.2852954 13 0
2.3867095 4.460537 -1.1679459 14 1
2.5977459 4.846808 -1.068912 14 2
2.8367803 5.2861433 -0.95018309 9 3
3.0808926 5.7338219 -0.79921919 15 4
3.2048273 5.9544959 -0.59161317 29 5
2.295835 4.2248845 -1.2884012 13 0
3.2474008 5.9710236 0.11864146 30 8
2.4289675 4.4643068 -1.1733446 16 1
3.2188666 5.9111814 0.35274437 11 9
2.6333988 4.8320022 -1.0696753 14 2
2.8726695 5.2644763 -0.94987023 11 3
3.1608212 5.7853398 -0.80945623 9 4
3.2185085 5.8836026 -0.58673245 24 5
3.2064977 5.8519402 -0.34970888 11 6
3.2221329 5.8731756 -0.11693113 25 7
2.3336806 4.2239728 -1.2930601 11 0
3.2512102 5.8822746 0.11731508 42 8
2.4638464 4.4540634 -1.1751443 15 1
3.2483909 5.8699121 0.35159299 26 9
2.6785917 4.8362932 -1.0746363 14 2
2.9170563 5.2603493 -0.95268601 15 3
3.1982419 5.7579255 -0.808725 11 4
3.2527268 5.8488011 -0.58551228 52 5
3.2627745 5.859643 -0.35148832 23 6
3.269875 5.8627629 -0.11717546 45 7
2.3775115 4.234942 -1.3013422 10 0
3.2961128 5.8664088 0.1174547 45 8
2.4998384 4.4473801 -1.1778437 19 1
3.3029978 5.8714628 0.3530584 26 9
2.6959186 4.7883911 -1.0681487 13 2
2.955652 5.2432966 -0.95331174 15 3
3.2705348 5.7948008 -0.81701219 11 4
3.353287 5.9317522 -0.59614527 29 5
4.249032 7.5070906 -0.45207804 12 6
3.3294244 5.8751645 -0.11787355 5 7
2.3984001 4.2031407 -1.2966834 8 0
2.5269573 4.4230528 -1.1760441 19 1
2.7234316 4.7592297 -1.0658592 11 2
3.0020051 5.2396741 -0.95644045 15 3
3.2723882 5.7046723 -0.80750632 16 4
3.4243968 5.9600215 -0.60137457 26 5
4.313292 7.4980164 -0.45333412 12 6
2.4296234 4.1896367 -1.2977188 15 0
2.5734303 4.4322681 -1.1832426 19 1
2.7585623 4.7434955 -1.0666224 9 2
3.0404973 5.2220049 -0.95706618 15 3
3.3291276 5.710844 -0.81164992 11 4
3.4779778 5.9566169 -0.60346633 37 5
4.3856926 7.5022068 -0.45542756 12 6
2.4715633 4.1942096 -1.3044481 13 0
2.6142128 4.4309778 -1.1877415 14 1
2.7656424 4.6801763 -1.0567002 11 2
3.0899553 5.2227516 -0.96113342 13 3
3.3810558 5.7079587 -0.81457478 11 4
3.5235417 5.9390464 -0.60416359 33 5
2.5069997 4.1888924 -1.3080715 8 0
2.6423094 4.4097376 -1.1868417 15 1
2.8095589 4.6814437 -1.0612797 13 2
3.132556 5.2134509 -0.96332359 15 3
3.4259698 5.6950183 -0.81603718 11 4
3.5793006 5.9428549 -0.60695255 33 5
2.5482261 4.1910963 -1.3142831 8 0
2.6831639 4.4078293 -1.1913408 15 1
2.8760972 4.7192101 -1.0742546 10 2
3.1834037 5.2173014 -0.96801656 16 3
3.4666808 5.6726556 -0.81628096 12 4
3.6290214 5.9313173 -0.60834706 33 5
2.5817695 4.1818733 -1.3168714 9 0
2.711056 4.3861485 -1.190441 15 1
2.9131048 4.7056947 -1.0757812 12 2
3.2270317 5.2067046 -0.97020662 15 3
3.4999168 5.6381955 -0.8148185 12 4
3.6871676 5.9329133 -0.61113608 34 5
2.6003358 4.1452899 -1.3111774 15 0
2.7589557 4.3930407 -1.1976395 15 1
2.968878 4.7218056 -1.0841768 10 2
3.2884181 5.2219253 -0.97740263 13 3
3.5402496 5.6153049 -0.81506222 11 4
3.7540176 5.9474649 -0.61531955 31 5
2.6582756 4.1726551 -1.3256712 11 0
2.8000369 4.3901024 -1.2021384 14 1
3.0152731 4.720294 -1.0887562 10 2
3.2960608 5.1539063 -0.96895516 15 3
3.6350281 5.6773839 -0.82773668 11 4
3.8040519 5.9345293 -0.616714 34 5
2.6695008 4.1264224 -1.3168714 14 0
2.8327339 4.3737197 -1.2030382 15 1
3.0580125 4.7161345 -1.0925723 10 2
3.3342903 5.1363235 -0.96989381 13 3
3.6821496 5.663518 -0.8294428 9 4
3.8475637 5.9111671 -0.61706263 27 5
4.8861499 7.4981999 -0.46903491 12 6
2.6890438 4.0952373 -1.3127302 15 0
2.8667235 4.3608489 -1.2048379 19 1
3.0833056 4.6831923 -1.0899011 14 2
3.3635447 5.103025 -0.96801656 11 3
3.7271721 5.6482668 -0.83090526 12 4
3.910708 5.9174056 -0.6205489 31 5
4.9582152 7.4938865 -0.47091895 12 6
2.7411435 4.1117272 -1.3241183 13 0
2.9035866 4.3504558 -1.2075372 15 1
3.1126521 4.6566558 -1.0887562 12 2
3.3826096 5.0547929 -0.96332359 15 3
3.7819843 5.645195 -0.83431756 12 4
3.9674621 5.9131241 -0.62298924 28 5
5.0638642 7.5386734 -0.47594327 12 6
2.8055141 4.1452866 -1.3412004 8 0
2.936074 4.3333054 -1.2084371 14 1
3.1483953 4.6396842 -1.0899011 14 2
3.4455695 5.0719028 -0.97114527 13 3
3.8101397 5.6022401 -0.83188021 12 4
4.0400519 5.9313893 -0.62786996 36 5
5.1073689 7.4899354 -0.47510585 24 6
2.7742188 4.0380235 -1.3127302 11 0
2.9651501 4.3110967 -1.2079872 25 1
3.1773663 4.6127419 -1.0887562 14 2
3.4876204 5.0574832 -0.97302246 11 3
3.8514109 5.5787725 -0.83236772 12 4
4.0881643 5.9128714 -0.62891585 32 5
5.1777253 7.4803705 -0.47678062 12 6
2.833281 4.0629282 -1.3272241 11 0
3.0029817 4.3014774 -1.2111365 20 1
3.2184916 4.6033196 -1.0918092 12 2
3.5364363 5.0524321 -0.97677696 16 3
3.9210217 5.5956421 -0.83894861 11 4
4.1339192 5.8907118 -0.6296131 28 5
5.2435966 7.463655 -0.4780367 12 6
2.8872457 4.0793161 -1.3391298 8 0
3.0509672 4.3058472 -1.2183349 20 1
3.2709992 4.6095595 -1.0986782 12 2
3.5727665 5.0292301 -0.97708976 15 3
3.9553888 5.5616617 -0.83797371 11 4
4.2026834 5.9006562 -0.63379657 28 5
5.3118086 7.4496331 -0.47950208 12 6
2.9156561 4.0590587 -1.3391298 8 0
3.0718513 4.2717853 -1.2147356 17 1
3.3180151 4.6073217 -1.1036394 14 2
3.628582 5.0330091 -0.98272139 15 3
4.0278115 5.5805917 -0.84504211 9 4
4.2484446 5.8776312 -0.63449377 28 5
2.9484746 4.0448494 -1.3412004 8 0
3.1314664 4.2911639 -1.2264332 15 1
3.348943 4.5824585 -1.1032577 14 2
3.6951256 5.0505972 -0.99116892 12 3
4.0572896 5.5395241 -0.8430922 9 4
4.3270802 5.8992395 -0.64007175 33 5
9.9735632 13.582343 -0.88311702 17 6
2.9708951 4.0164022 -1.3386122 11 0
3.1427908 4.2441416 -1.2192347 21 1
3.3902087 4.5715828 -1.1063106 12 2
3.7338278 5.0294361 -0.99210751 14 3
4.1088891 5.5285902 -0.84577334 11 4
4.3943329 5.904047 -0.64390665 38 5
10.039509 13.473941 -0.88060486 17 6
2.9930639 3.987838 -1.3360239 12 0
3.1934147 4.2501407 -1.2273329 21 1
3.4432869 4.5760422 -1.1131797 10 2
3.8247075 5.077405 -1.0068123 10 3
4.1533589 5.5076962 -0.84699202 12 4
4.457057 5.901844 -0.64704424 34 5
10.203191 13.49593 -0.88667589 17 6
3.0571125 4.014492 -1.3520708 10 0
3.2395508 4.2494378 -1.2336316 15 1
3.4727674 4.5487714 -1.1124165 12 2
3.852864 5.0411625 -1.0049351 10 3
4.2194524 5.5148273 -0.85259801 11 4
4.5126896 5.8895645 -0.64913595 34 5
10.370088 13.519457 -0.89295614 17 6
3.0803416 3.9869349 -1.3500001 9 0
3.2691367 4.2267194 -1.2336316 15 1
3.5164614 4.539937 -1.1162328 14 2
3.9170151 5.0516076 -1.0124439 12 3
4.2882838 5.524436 -0.85869151 12 4
4.5781522 5.8893766 -0.65262216 34 5
10.502245 13.495595 -0.89620101 17 6
3.1224017 3.9835787 -1.3562119 9 0
3.2961593 4.2007275 -1.2327318 20 1
3.5383661 4.5029273 -1.1131797 12 2
3.8471529 4.8906169 -0.98553723 12 3
4.3451667 5.5177588 -0.86234754 10 4
4.6388969 5.8823028 -0.65541118 39 5
10.597443 13.423513 -0.89630568 17 6
3.1525409 3.9647071 -1.3572472 9 0
3.33026 4.1837125 -1.2345314 20 1
3.5892963 4.5026774 -1.1192856 10 2
3.9847009 4.9933367 -1.0118183 12 3
4.3922548 5.4981461 -0.86405367 12 4
4.7097211 5.8871121 -0.65959466 30 5
3.1643741 3.9230556 -1.3505179 15 0
4.963738 6.1494308 0.13794382 5 8
3.3740757 4.178556 -1.2399302 17 1
4.95965 6.1377888 0.41355878 2 9
3.6206434 4.47751 -1.1192856 12 2
4.9219432 6.0846047 0.68469548 2 10
4.0654507 5.0222054 -1.0233943 7 3
4.4392805 5.4781446 -0.86575991 10 4
4.7594943 5.8649187 -0.66081482 26 5
4.9878745 6.1441503 1.5383022 1 13
4.9530325 6.0968804 -0.41167465 13 6
4.9496527 6.0862064 -0.13693158 27 7
3.188015 3.896383 -1.3489649 13 0
4.971077 6.0713053 0.1369665 25 8
3.154968 3.8518729 -1.1494999 14 1
4.9681945 6.0613079 0.41073263 14 9
4.9541907 6.0377727 0.68330097 14 10
3.9086149 4.7601233 -0.97552538 7 3
4.9541073 6.0290833 0.95813686 14 11
3.9542933 4.8106151 -0.76460832 4 4
4.9342561 5.9985189 1.2302008 16 12
4.8307133 5.8684669 -0.66499835 27 5
4.9495277 6.0106678 1.513497 16 13
4.9691701 6.025949 1.8032078 4 14
4.9722767 6.0232887 2.0928109 3 15
3.2225435 3.8829496 -1.3520708 16 0
5.1308784 6.1779823 0.14017773 5 8
3.4420538 4.1430287 -1.2435294 21 1
3.7355421 4.4899101 -1.1353136 10 2
5.0675936 6.088799 0.69306242 1 10
4.0896626 4.9103117 -1.0121311 14 3
4.5572853 5.4659419 -0.87380332 13 4
5.0190406 6.0154953 1.2408383 2 12
4.894547 5.8621297 -0.66813594 27 5
5.0323749 6.0165191 1.810856 2 14
4.9993262 5.9706526 2.0865991 15 15
3.2744529 3.8899176 -1.3624235 13 0
5.1352348 6.0961304 0.13913059 5 8
3.498518 4.1516833 -1.2534273 15 1
3.7338786 4.4247088 -1.1253915 12 2
5.1202593 6.0654516 0.69445693 1 10
4.1761103 4.9435077 -1.0249587 12 3
5.1287918 6.0669622 0.97544235 1 11
4.5696969 5.4036779 -0.86892849 12 4
5.142581 6.076817 1.260862 2 12
4.9726934 5.8719091 -0.67319095 31 5
5.1382947 6.06531 1.5451714 1 13
5.1826744 6.1090379 1.8495475 2 14
5.1084156 6.0151196 2.1145515 2 15
3.3396204 3.9157262 -1.3789879 10 0
3.5505629 4.1586456 -1.2624253 18 1
5.2920156 6.1939673 0.42695674 2 9
3.7738547 4.4139361 -1.1288261 14 2
5.2639961 6.1524706 0.70840186 1 10
4.2105141 4.9194398 -1.0255845 12 3
5.2169337 6.0910058 0.98470432 1 11
4.7268691 5.5149307 -0.89183992 11 4
5.2022886 6.0674744 1.2658678 2 12
5.0260806 5.8578167 -0.67528266 31 5
5.2270083 6.0876999 1.5596728 1 13
5.2474222 6.1049986 1.8585455 2 14
5.1671019 6.0030694 2.1223164 1 15
3.3675554 3.8917284 -1.3789879 9 0
3.5878861 4.1419697 -1.2651247 15 1
3.82464 4.4090633 -1.1345503 14 2
5.3026638 6.1086273 0.70770466 1 10
4.2715125 4.9190145 -1.0318419 11 3
5.3046579 6.104465 0.99299151 0 11
4.7662096 5.480967 -0.89183992 8 4
5.2818751 6.0718231 1.2746283 2 12
5.1123447 5.8727975 -0.68120927 37 5
5.275598 6.0560584 1.5611992 1 13
5.2832894 6.0584807 1.8558462 2 14
5.2709203 6.0357857 2.1471629 2 15
3.3978667 3.8704348 -1.3800232 10 0
3.6277246 4.1279001 -1.268724 14 1
3.8768454 4.4051628 -1.1406562 14 2
5.38731 6.1193123 0.71328253 1 10
4.2739577 4.8512673 -1.0240202 14 3
5.3797107 6.1020856 0.99884117 1 11
4.8066216 5.4482088 -0.89208364 10 4
5.3644013 6.0783033 1.2840142 2 12
5.1727028 5.8569713 -0.68364966 37 5
5.3604031 6.0652266 1.573411 1 13
5.3549156 6.052629 1.8657441 2 14
5.3359857 6.0248723 2.1564806 1 15
3.4306152 3.8517914 -1.3820938 9 0
3.6597641 4.104744 -1.2696238 20 1
3.9205778 4.3926363 -1.1444724 14 2
5.4973221 6.1549034 0.72199816 1 10
4.3546343 4.8721104 -1.0349705 9 3
5.4486423 6.093976 1.003716 1 11
4.8591032 5.4307909 -0.89476484 8 4
5.4472909 6.0839119 1.2934003 2 12
5.2560062 5.8682055 -0.68922758 42 5
5.4340615 6.062746 1.58257 1 13
5.417696 6.0296445 2.1720095 1 15
3.4820256 3.854986 -1.3919289 8 0
3.6987875 4.0906577 -1.2732229 22 1
3.9756298 4.3906651 -1.1513416 14 2
5.5615549 6.1400037 0.72478712 1 10
4.3911977 4.8445158 -1.0355963 14 3
5.5054479 6.0695343 1.0061533 0 11
4.8835564 5.3820367 -0.89232743 12 4
5.5029106 6.060358 1.2965289 2 12
5.3316736 5.8697162 -0.69375974 33 5
5.48946 6.0391889 1.586386 1 13
5.5411987 6.0897002 1.9008365 2 14
5.5051966 6.041656 2.1901269 1 15
3.4214242 3.7351406 -1.3572472 11 0
3.7404242 4.0791001 -1.277722 15 1
4.0054221 4.3635039 -1.1513416 12 2
5.6420274 6.1421099 0.7296679 1 10
4.4294152 4.8203335 -1.0368477 14 3
5.6165047 6.107903 1.0188278 1 11
4.9075694 5.3332043 -0.88989002 12 4
5.594873 6.0779881 1.308418 2 12
5.398169 5.8601937 -0.69707161 28 5
5.5820527 6.055572 1.6008875 1 13
5.6285105 6.0995598 1.9161332 2 14
5.5763426 6.0366807 2.2020326 2 15
3.5098698 3.7797132 -1.3820938 9 0
3.7893338 4.0763803 -1.2849205 16 1
4.062541 4.3641744 -1.1589739 12 2
5.7054262 6.126895 0.73245686 1 10
4.4683466 4.7950735 -1.0380992 14 3
5.6796069 6.0927634 1.0227276 1 11
5.0033345 5.3635473 -0.9006145 8 4
5.6452565 6.0474443 1.3102952 2 12
5.4528885 5.839334 -0.69898903 34 5
5.6687174 6.066206 1.6138625 1 13
5.7364626 6.1322627 1.9386281 2 14
5.6305089 6.0126863 2.2072091 2 15
3.5553768 3.7768359 -1.3898584 8 0
5.7369895 6.0900784 0.14604174 6 8
3.8330286 4.0675135 -1.2903192 15 1
4.0840702 4.3278513 -1.1566842 12 2
5.7852964 6.1284814 0.73733753 1 10
4.5076671 4.7717252 -1.0396636 13 3
5.737308 6.0712757 1.0256525 0 11
5.0124516 5.3005176 -0.89573973 11 4
5.6944337 6.0174904 1.3121724 2 12
5.5459313 5.8585091 -0.70578718 29 5
5.7746835 6.0958967 1.6321803 1 13
5.6979036 6.0022454 2.2175617 4 15
3.5876713 3.7595358 -1.3924465 10 0
3.8552444 4.0356903 -1.2885196 15 1
5.9524703 6.2267303 0.45144999 2 9
4.116147 4.3027911 -1.1574475 14 2
5.9040155 6.1695738 0.74709904 1 10
4.601522 4.8051357 -1.0537428 11 3
5.8125176 6.0654721 1.0315022 1 11
5.1001682 5.3184094 -0.9047581 10 4
5.8036394 6.0498633 1.327816 2 12
5.6184273 5.8527083 -0.70979631 34 5
5.8687854 6.1092305 1.6466817 1 13
5.8880062 6.1228189 1.9611233 2 14
5.7905831 6.0152035 2.2372317 7 15
3.6413574 3.7615254 -1.4027992 9 0
5.6687822 5.8538184 0.14223711 16 8
3.901654 4.0261922 -1.2943684 14 1
6.0163407 6.2040496 0.4529154 2 9
4.1925654 4.3218589 -1.1704224 12 2
5.9646664 6.1443224 0.74919075 1 10
4.6426702 4.7791691 -1.055307 13 3
5.9072881 6.078845 1.0407642 0 11
5.0223064 5.1645536 -0.8845278 8 4
5.9156651 6.0789623 1.3434594 2 12
5.6869459 5.8418951 -0.71328253 34 5
5.9523907 6.1102982 1.6581303 1 13
5.6603193 5.8064275 -0.42496803 27 6
5.9605398 6.112257 1.9710211 2 14
5.6800432 5.8205609 -0.14195788 29 7
5.8550744 5.9957285 2.2455142 8 15
3.6607604 3.729121 -1.4002111 12 0
5.6965122 5.7988381 0.14188807 44 8
3.933763 4.003027 -1.2957181 14 1
4.2206264 4.2889524 -1.1696591 14 2
6.0158029 6.1110506 0.75023663 1 10
4.673152 4.743824 -1.0546813 13 3
5.9617858 6.0477276 1.0427142 0 11
5.1321154 5.2042756 -0.89744592 10 4
6.0273328 6.10782 1.3591028 2 12
5.6926017 5.7666001 -0.70892483 24 5
6.0418119 6.1160841 1.6711053 1 13
5.6726351 5.7383614 -0.42287454 27 6
6.0140257 6.0815845 1.9746205 2 14
5.6741233 5.7338595 -0.14080602 31 7
5.9362106 5.9945135 2.2605255 13 15
3.7016976 3.7185335 -1.4059051 10 0
5.7541957 5.7783494 0.14234182 55 8
3.9629889 3.9768469 -1.296168 14 1
4.2469516 4.2573423 -1.168896 10 2
6.0949173 6.1055651 0.75476873 1 10
4.6997485 4.706316 -1.0534298 13 3
6.0589404 6.0631733 1.0524638 1 11
5.1177878 5.1177897 -0.88867134 10 4
6.0743551 6.072237 1.3603542 2 12
5.807426 5.8013496 -0.71816331 35 5
6.1204886 6.109818 1.6810273 1 13
6.1115322 6.094492 1.9926165 2 14
5.8344159 5.8140826 -0.14377292 7 7
5.985085 5.9621515 2.2636313 1 15
3.711827 3.6782944 -1.4002111 13 0
5.8995419 5.8421602 0.14492479 23 8
4.0065842 3.966233 -1.3015668 13 1
4.3156633 4.2662349 -1.1795813 10 2
6.1788502 6.1059499 0.75999802 1 10
4.7620068 4.7025394 -1.0600001 9 3
6.1604652 6.0792875 1.0627007 0 11
5.2415371 5.1706629 -0.90402687 15 4
6.1813107 6.0934744 1.3747462 2 12
5.9258504 5.8375664 -0.72775042 25 5
6.223484 6.1286263 1.6978186 1 13
6.2095089 6.1063323 2.0106125 2 14
3.7609062 3.6752434 -1.4090109 10 0
5.9716587 5.8315678 0.14569269 30 8
4.0327835 3.9368026 -1.3011169 17 1
4.3425288 4.2332635 -1.1788181 12 2
6.241303 6.0821314 0.76243842 1 10
4.7805667 4.6553998 -1.0568714 14 3
6.2596626 6.0915089 1.0724503 0 11
5.3201914 5.1754723 -0.91133898 11 4
6.30302 6.1272798 1.392267 2 12
5.9979 5.8265963 -0.73158526 30 5
6.3055544 6.1233253 1.7085038 1 13
6.3527136 6.160511 2.0430055 2 14
3.8031654 3.664984 -1.4152226 10 0
6.069838 5.845222 0.14708889 42 8
4.0770164 3.9247701 -1.3065157 16 1
4.3932085 4.2232504 -1.1845423 14 2
6.3755517 6.1267681 0.77359438 1 10
4.840024 4.6479063 -1.0628159 13 3
6.3220887 6.0669022 1.0758626 0 11
5.3599553 5.140017 -0.91182649 13 4
6.3656058 6.1022644 1.3966471 2 12
6.1046104 5.8479843 -0.73960358 25 5
6.4031019 6.1296368 1.7230054 1 13
6.3786664 6.0998478 2.0376067 2 14
3.8222904 3.6310222 -1.4126344 13 0
6.146749 5.8371291 0.14796151 50 8
4.0597634 3.8525698 -1.2921189 20 1
6.4882474 6.1528177 0.46861619 2 9
4.4268599 4.1965289 -1.1856872 12 2
6.4886584 6.1467586 0.78196126 1 10
4.9204998 4.6579666 -1.0731405 13 3
6.453681 6.1072164 1.0909745 0 11
5.4505196 5.1542993 -0.92108858 7 4
6.4751539 6.118968 1.411039 2 12
6.1568785 5.8161664 -0.74099815 30 5
6.5028434 6.1386924 1.73827 1 13
6.4636288 6.0952768 2.0511036 2 14
3.8235774 3.581799 -1.4038346 11 0
6.2336164 5.8353586 0.14904355 44 8
4.1392055 3.8734016 -1.3087653 24 1
4.4983745 4.2036161 -1.1967541 14 2
6.5663557 6.1339517 0.78614479 1 10
4.9500108 4.6208062 -1.0725149 14 3
6.5581837 6.1177492 1.1012114 0 11
5.3121543 4.9536624 -0.89183992 8 4
6.5234923 6.0790038 1.4122906 2 12
6.2362475 5.8072653 -0.74553025 25 5
6.5541611 6.1011744 1.7405598 1 13
6.5070796 6.0488677 2.0511036 2 14
3.8797092 3.5838568 -1.4152226 10 0
6.324162 5.8378143 0.15023032 46 8
4.1847639 3.8615906 -1.3146139 18 1
6.7203541 6.1970186 0.47908339 2 9
4.5463786 4.1894064 -1.2017151 14 2
6.6676383 6.141952 0.79311723 1 10
4.9821472 4.5861382 -1.0725149 14 3
6.612421 6.0825667 1.1031613 0 11
5.4898052 5.0481372 -0.9157263 7 4
6.6472263 6.108161 1.4298111 2 12
6.301589 5.7864923 -0.74849349 21 5
6.683373 6.1349258 1.7634568 1 13
6.6295934 6.0770369 2.0762982 2 14
3.9146318 3.5657902 -1.4188461 13 0
6.3972964 5.8231349 0.15099822 46 8
4.1698217 3.7942469 -1.3015668 23 1
6.7634506 6.1499538 0.47908339 2 9
4.5929518 4.1734085 -1.2062945 14 2
6.7722931 6.1515203 0.80043828 1 10
5.0696244 4.601696 -1.0844039 13 3
6.6841307 6.0629287 1.1080362 0 11
5.6984406 5.1670327 -0.94448751 7 4
6.7394805 6.1066999 1.4404486 2 12
6.4309044 5.8250585 -0.75912648 26 5
6.7609763 6.1197343 1.7726158 1 13
6.7257361 6.0814328 2.0933945 2 14
3.9796724 3.5745189 -1.4333398 12 0
6.4933271 5.8302226 0.1523246 48 8
4.2556787 3.8184025 -1.3200128 17 1
4.6578016 4.1748071 -1.215835 14 2
6.8477249 6.1333356 0.80427319 1 10
5.0066423 4.4827499 -1.0643803 14 3
6.8080912 6.0914154 1.1216855 0 11
5.6796203 5.0781684 -0.93546921 9 4
6.9134431 6.179163 1.4686069 1 12
6.4729004 5.7813478 -0.75930083 21 5
6.8474727 6.1116056 1.7840642 1 13
6.7912984 6.0550828 2.1005929 2 14
4.0154791 3.5575964 -1.437481 12 0
6.5727963 5.8192163 0.15323213 49 8
4.3107567 3.8151772 -1.3290108 21 1
6.9972076 6.188436 0.48955056 2 9
4.7089 4.1616898 -1.2215593 10 2
6.955009 6.144628 0.81194282 1 10
5.1429558 4.5405111 -1.0865939 12 3
6.9070177 6.0936422 1.1309476 0 11
5.7259655 5.0498953 -0.93741906 9 4
6.9682689 6.1411958 1.4711099 1 12
6.5788927 5.7939568 -0.76697052 16 5
6.9684873 6.1349096 1.8046715 1 13
6.9329276 6.0950174 2.1311862 2 14
4.0620394 3.5485427 -1.4452456 10 0
6.6674962 5.8205266 0.1544887 49 8
4.3402214 3.7875538 -1.3299106 16 1
7.1365824 6.223444 0.49624959 2 9
4.7896433 4.1738577 -1.2349159 6 2
7.0548282 6.1456509 0.81856668 2 10
5.2132673 4.538218 -1.0947285 12 3
7.0392504 6.1234488 1.1455719 0 11
5.6487346 4.9121017 -0.91913867 14 4
7.0258803 6.1053591 1.4742386 1 12
6.6673217 5.7896895 -0.7725485 10 5
7.0496917 6.119575 1.8145936 1 13
6.9812002 6.0515742 2.1329858 2 14
4.0954967 3.5276628 -1.4483514 10 0
6.7488894 5.8090596 0.15543112 50 8
4.4167824 3.8003762 -1.3452073 14 1
4.7784581 4.1057749 -1.2246122 10 2
7.1156979 6.1118274 0.82065845 1 10
5.2433219 4.5004282 -1.0944157 9 3
7.1270342 6.1129236 1.152884 0 11
5.8064618 4.9785028 -0.93912524 11 4
7.1403394 6.1178498 1.4892563 1 12
6.1506314 5.2661452 -0.70840186 9 5
7.1310248 6.1033978 1.8245157 2 13
7.0854931 6.0558686 2.1518817 2 14
4.1406412 3.5164902 -1.4555984 10 0
6.8395905 5.8045044 0.15658298 44 8
4.4372635 3.7644036 -1.3434076 17 1
7.2776222 6.1696935 0.50001782 2 9
4.7980175 4.0647006 -1.2223225 12 2
7.2007623 6.0980577 0.82553917 2 10
5.2580266 4.449676 -1.0909741 12 3
7.2301679 6.1142926 1.1626337 1 11
5.5924554 4.7276688 -0.8991521 16 4
7.2341819 6.1111937 1.4998938 1 12
6.8114486 5.7500153 -0.77986956 11 5
7.2574844 6.1243696 1.8458863 1 13
7.1603861 6.0338788 2.1617796 2 14
4.1585555 3.4832644 -1.4535278 10 0
6.9310808 5.8014498 0.15776975 45 8
4.4792228 3.7478709 -1.3483566 23 1
7.3960643 6.1840668 0.50525135 2 9
4.8858376 4.0822997 -1.2375872 12 2
7.3124471 6.1076503 0.83355749 1 10
5.3245897 4.4441614 -1.098483 12 3
7.3356423 6.1183414 1.1728706 2 11
5.9751801 4.9818707 -0.955212 10 4
7.3666682 6.137681 1.5186659 1 12
6.262466 5.2139869 -0.71293396 9 5
7.3533244 6.1200433 1.8596245 1 13
7.2222733 6.0024376 2.1680782 2 14
4.2185221 3.4836698 -1.4659511 10 0
7.0331063 5.8038354 0.15916595 46 8
4.5308342 3.7375901 -1.356005 21 1
7.5161104 6.195806 0.51048499 2 9
4.9202795 4.0530834 -1.2391137 22 2
7.3979721 6.0919175 0.83843827 1 10
5.3905687 4.4357495 -1.1056789 13 3
7.4456468 6.1224523 1.1835952 0 11
6.0067482 4.9375143 -0.95472455 11 4
7.4459753 6.1161909 1.5261748 1 12
7.1118479 5.8375797 -0.80497038 11 5
7.4444408 6.1084065 1.8718363 2 13
7.3092208 5.9889264 2.1815755 2 14
4.2277584 3.4419374 -1.4607747 11 0
7.1168866 5.7899289 0.16014329 47 8
4.5810075 3.7255406 -1.3632034 18 1
7.6366801 6.2061634 0.51571852 2 9
4.9911275 4.0532885 -1.249799 12 2
7.483633 6.0752821 0.84331894 1 10
5.4689612 4.4365869 -1.1153778 12 3
7.5498891 6.1203246 1.1933447 0 11
6.0564947 4.9079566 -0.9571619 12 4
7.5529695 6.116271 1.5393152 1 12
7.0316191 5.6900334 -0.79137415 16 5
7.5632243 6.1180215 1.8909173 2 13
7.3720794 5.9548922 2.1878741 2 14
4.2351122 3.3990371 -1.4550807 12 0
7.2008138 5.7751331 0.16112062 40 8
4.6342726 3.7154098 -1.3713017 16 1
7.7109957 6.1776733 0.51781195 2 9
5.0622187 4.0526981 -1.2604843 10 2
7.6098647 6.0901136 0.85273176 1 10
5.4998031 4.3982959 -1.1153778 12 3
7.6637645 6.1244774 1.2045567 1 11
6.1340399 4.9002433 -0.96398658 11 4
7.7004609 6.1471992 1.5605905 1 12
7.1895432 5.7352319 -0.80462182 11 5
7.6579375 6.1066918 1.9038923 2 13
7.4942698 5.967618 2.2117188 4 14
4.3132796 3.4125385 -1.4737157 13 0
7.3005624 5.7718525 0.16244701 41 8
4.6478672 3.6732993 -1.3677025 20 1
5.1366205 4.0537486 -1.2719328 10 2
7.6866059 6.0639901 0.85656661 2 10
5.5707064 4.3915915 -1.1235124 11 3
7.7468777 6.1027641 1.210894 0 11
6.2117662 4.8916917 -0.97081131 11 4
7.7897587 6.1299372 1.5699764 1 12
7.3327765 5.7661791 -0.81612635 11 5
7.7559485 6.0967588 1.9176304 2 13
7.5863314 5.9548635 2.2265656 5 14
4.32938 3.376405 -1.4711276 11 0
7.4037743 5.7699084 0.1638432 33 8
4.6703215 3.6383686 -1.3668026 19 1
5.172544 4.0238166 -1.2738409 8 2
7.8199782 6.0811143 0.86667669 1 10
5.6261864 4.3719873 -1.1285183 11 3
7.8488741 6.0947967 1.220156 1 11
6.3367162 4.9188056 -0.98494816 10 4
7.9041634 6.1310987 1.5843685 1 12
7.2972651 5.6562614 -0.8077594 11 5
7.8697095 6.0977769 1.9351848 1 13
4.374289 3.3625813 -1.4783745 11 0
7.507308 5.7668066 0.16523938 42 8
4.7079735 3.61517 -1.3704019 19 1
7.9654441 6.1120992 0.52618575 2 9
5.1989512 3.986413 -1.2734593 10 2
7.9318199 6.0797033 0.87434638 1 10
5.6675491 4.341011 -1.1307085 9 3
7.9826608 6.1098309 1.2342927 1 11
6.3992786 4.8961587 -0.98933536 10 4
7.9718828 6.094965 1.5893744 1 12
7.3460746 5.6124363 -0.80880529 16 5
7.9464154 6.0689044 1.9435806 2 13
4.4192162 3.3482921 -1.4856213 9 0
7.6143427 5.7649555 0.16670538 35 8
4.7222219 3.5739789 -1.3672525 24 1
5.2438822 3.963043 -1.277657 8 2
8.0281219 6.0650144 0.88027298 1 10
5.711904 4.3120522 -1.1335243 19 3
8.1043587 6.1137271 1.2464797 0 11
6.529985 4.9242754 -1.0042036 9 4
8.1152058 6.1152453 1.6093979 1 12
7.4614749 5.6185422 -0.81717223 17 5
8.0858402 6.0864825 1.9672408 2 13
4.4533191 3.3254495 -1.4892448 8 0
7.7185116 5.7594938 0.16810159 35 8
4.7876706 3.5712187 -1.3789499 24 1
8.2101383 6.1196523 0.53665298 2 9
5.2918916 3.9415805 -1.282618 14 2
8.0990305 6.030241 0.88341063 1 10
5.7878313 4.3062634 -1.1425974 9 3
8.1978197 6.0948997 1.2542794 1 11
6.5211883 4.8465934 -0.99762261 19 4
8.2179632 6.1031976 1.621287 1 12
7.5133147 5.5758166 -0.81856668 11 5
8.1502085 6.0462599 1.9725834 1 13
4.4624219 3.2839754 -1.484586 11 0
7.8036394 5.7386389 0.16907892 45 8
4.848598 3.5642571 -1.3892977 21 1
5.3287764 3.9115107 -1.2849078 14 2
8.2180357 6.030129 0.89177752 1 10
5.8113813 4.2610798 -1.141346 15 3
8.3202314 6.0961862 1.2664663 0 11
6.4908042 4.7540298 -0.9878729 5 4
8.3496351 6.1110144 1.6388077 1 12
7.6582012 5.6008506 -0.83007127 11 5
8.2904806 6.0610557 1.9962438 2 13
4.5196447 3.2776928 -1.4959742 10 0
7.9406691 5.7544208 0.1711732 37 8
4.9017701 3.550899 -1.397396 17 1
8.3756781 6.0629768 0.54188651 2 9
5.4036736 3.908735 -1.2963563 12 2
8.3632669 6.0473213 0.90293348 1 10
5.8730087 4.2435455 -1.1476034 12 3
8.4366217 6.0914044 1.2776783 1 11
6.6204123 4.7783084 -1.0024973 10 4
8.4689989 6.1080379 1.6538254 1 12
7.6896806 5.5439358 -0.82937407 11 5
8.4186106 6.0649996 2.0168512 2 13
4.5392723 3.2438159 -1.494939 10 0
8.0479918 5.7490592 0.17263921 38 8
4.9534039 3.5358391 -1.4050443 24 1
8.5370607 6.0916758 0.54963231 2 9
5.4237604 3.8673036 -1.2948298 12 2
8.4636936 6.0304117 0.90920866 1 10
5.7633848 4.1049161 -1.1206967 12 3
8.5490513 6.0844836 1.2884028 0 11
6.6956701 4.7618856 -1.0088346 12 4
8.5425777 6.0731411 1.6600827 3 12
7.7217002 5.4855013 -0.82867676 11 5
8.5279875 6.0538049 2.0328791 2 13
4.5833602 3.2284153 -1.5021858 10 0
8.1451664 5.7330184 0.17386088 29 8
4.9677944 3.4953122 -1.4023448 23 1
8.6218605 6.0617943 0.55235374 2 9
5.4699039 3.8428879 -1.2994094 13 2
8.5697641 6.0184646 0.91618109 1 10
6.0085726 4.2166328 -1.162621 11 3
8.6595821 6.0725207 1.2986398 1 11
6.7344294 4.7207565 -1.0098095 11 4
8.6624289 6.0677538 1.6751004 1 12
7.8381562 5.4863 -0.8370437 11 5
8.6397724 6.0451431 2.0496705 2 13
8.1335468 5.6867156 -0.52011478 33 6
8.1382551 5.6836596 -0.1732675 49 7
4.6041994 3.1952372 -1.5016681 12 0
8.1504803 5.6520882 0.17312786 48 8
5.0241065 3.4827492 -1.4113429 23 1
8.7460585 6.0583229 0.55758733 2 9
5.5434136 3.8370104 -1.3104763 15 2
8.709878 6.0265093 0.92663985 1 10
6.0362391 4.1734595 -1.1623082 10 3
8.7997589 6.0796194 1.3132643 1 11
6.7802896 4.682651 -1.0117593 10 4
8.7533531 6.0407906 1.6844865 3 12
7.9746799 5.499311 -0.84750247 12 5
8.7157097 6.0080781 2.0576842 2 13
8.1829195 5.6365924 -0.52074283 22 6
8.2189188 5.6550474 -0.17414011 38 7
4.634367 3.1684699 -1.5042564 11 0
8.3862314 5.7292819 0.17728156 40 8
5.0981841 3.4816613 -1.4252899 14 1
8.8706303 6.0534019 0.56282091 2 9
5.5781755 3.8037467 -1.3123844 9 2
8.8373461 6.0239096 0.93570399 1 10
6.099514 4.1545691 -1.1688784 13 3
8.901063 6.0582509 1.3220388 2 11
6.821022 4.6407847 -1.0129781 9 4
8.9227314 6.0661654 1.7088903 3 12
8.0788002 5.488287 -0.8544749 12 5
8.8386497 6.0022316 2.0767653 2 13
4.7188654 3.1781259 -1.5244442 12 0
8.5156116 5.7308855 0.17916641 41 8
5.1353035 3.454684 -1.428889 18 1
8.9624014 6.0247531 0.56596106 2 9
5.5899258 3.7548614 -1.3089497 13 2
8.9288092 5.9953866 0.94093341 1 10
6.1611748 4.1339006 -1.1751359 12 3
9.0156908 6.0445981 1.3327633 0 11
6.4278097 4.3079238 -0.95009351 9 4
9.0305195 6.0476885 1.721405 1 12
8.9537697 5.9895015 2.0939381 1 13
4.7361097 3.1418986 -1.5228913 10 0
8.6220798 5.7154942 0.1805626 42 8
5.1430521 3.4079847 -1.4243901 14 1
9.1641092 6.0678959 0.57600957 2 9
5.6716723 3.7525775 -1.3219248 13 2
9.0767994 6.003252 0.95208931 1 10
6.1635165 4.0733609 -1.17013 11 3
9.1404943 6.0362043 1.3449502 0 11
6.9795837 4.6074324 -1.0268712 15 4
9.1714563 6.0497575 1.7401772 1 12
8.3542633 5.5065351 -0.87539226 12 5
9.057662 5.9678917 2.1084394 1 13
4.782186 3.1246102 -1.530656 12 0
8.7622366 5.7207541 0.18265688 32 8
5.0704327 3.3091598 -1.3978459 25 1
9.2062473 6.0037708 0.57600957 2 9
5.7092476 3.7203903 -1.3245962 9 2
9.1886053 5.9854107 0.95941037 1 10
6.2580285 4.0733333 -1.1826447 11 3
9.2456455 6.0133772 1.3542123 0 11
6.9300299 4.5055733 -1.014928 10 4
9.2664728 6.0200229 1.7501891 1 12
8.3590794 5.4263802 -0.87190604 12 5
9.224267 5.9857373 2.1374426 3 13
4.8298764 3.1078737 -1.538938 12 0
8.8860617 5.7135172 0.18440214 44 8
5.1261983 3.2947536 -1.4068439 24 1
9.3722963 6.0192199 0.58375531 2 9
5.7598639 3.6963494 -1.3303204 7 2
9.3106661 5.9727492 0.96777731 1 10
6.3112564 4.0455379 -1.1873378 16 3
9.3743238 6.0043592 1.3668866 0 11
7.1535692 4.5801806 -1.0429579 14 4
9.4081135 6.0190578 1.7689612 1 12
8.3866901 5.3614483 -0.87086016 12 5
9.3204222 5.95608 2.1500359 2 13
4.8808293 3.0926914 -1.5482556 13 0
9.0186567 5.710176 0.1863219 34 8
5.1918879 3.2859824 -1.4185413 25 1
9.5390034 6.0326405 0.59150106 2 9
5.7971468 3.6633894 -1.3329917 9 2
9.4060364 5.9416575 0.97335529 1 10
6.4078345 4.0446081 -1.2001654 13 3
9.4428778 5.9557114 1.3707864 0 11
7.087976 4.4687238 -1.0288211 14 4
9.4900188 5.9785008 1.7764701 1 12
8.5149632 5.3600864 -0.88027298 12 5
9.4548321 5.9494152 2.1714065 2 13
4.9170508 3.0677469 -1.5529144 10 0
9.1550274 5.7073755 0.18831147 34 8
5.2213173 3.2537787 -1.4203409 30 1
9.6249685 5.9933472 0.59422249 2 9
5.8692546 3.6518693 -1.343677 9 2
9.5521832 5.9410868 0.98416263 1 10
6.35706 3.9507678 -1.1854606 10 3
9.6258831 5.9776101 1.3912605 2 11
7.3315082 4.5510454 -1.0595322 10 4
9.7027531 6.0183024 1.8083826 1 12
8.4031487 5.2081456 -0.86493361 12 5
9.5979414 5.9463348 2.1946852 3 13
4.9350572 3.0313199 -1.551879 11 0
9.2662296 5.6872554 0.18977746 35 8
5.3385854 3.2753356 -1.4459854 32 1
9.7517138 5.978199 0.59945607 2 9
5.9046497 3.6169608 -1.3459667 11 2
9.6579952 5.9137912 0.99078649 2 10
6.4839001 3.9671206 -1.2039198 12 3
9.7554502 5.9641061 1.403935 1 11
7.4274697 4.539083 -1.0687943 7 4
9.7344131 5.9442453 1.8065054 1 12
8.6433973 5.2738838 -0.88585097 12 5
9.7246981 5.9313245 2.2141476 2 13
4.9594059 2.9987922 -1.5529144 12 0
9.4083986 5.6844759 0.19187176 36 8
5.3663259 3.2410076 -1.4473351 15 1
9.823988 5.9285536 0.60134023 2 9
5.9633837 3.5959237 -1.3535991 13 2
9.83214 5.9264522 1.0043827 1 10
6.6535811 4.0073638 -1.2302008 12 3
9.8614817 5.9347506 1.413197 1 11
7.4742846 4.4963322 -1.0709878 9 4
9.7959919 5.8883538 1.8102598 1 12
8.8747139 5.3303652 -0.90572244 12 5
9.8820095 5.9330182 2.2404792 1 13
4.9934998 2.9720025 -1.5570555 20 0
9.5475407 5.6779385 0.19389623 37 8
5.4273472 3.2263708 -1.4576828 22 1
10.029986 5.9577432 0.61138868 2 9
6.0153551 3.5702362 -1.359705 16 2
9.9486723 5.9023924 1.0120524 1 10
6.6847944 3.9628305 -1.2308265 10 3
10.015396 5.9325366 1.4292837 1 11
7.5789418 4.4875317 -1.0814687 10 4
9.9694672 5.8982821 1.8346636 3 12
