# .PCD v0.7 - Point Cloud Data file format
VERSION 0.7
FIELDS x y z intensity ring
SIZE 4 4 4 4 2
TYPE F F F F U
COUNT 1 1 1 1 1
WIDTH 1317
HEIGHT 1
VIEWPOINT 0 0 0 1 0 0 0
POINTS 1317
DATA ascii
6.5554004 0.20601383 -1.7573814 2 0
7.6003561 0.23487005 -1.7555181 3 1
9.1406698 0.27608263 -1.7775766 3 2
11.458066 0.3400723 -1.8155787 3 3
15.445474 0.44761848 -1.8972621 4 4
6.5605688 0.1591929 -1.7584167 2 0
7.6037903 0.18052338 -1.7559679 3 1
9.1266737 0.21189748 -1.7745237 3 2
73.412315 1.6787691 6.4244242 32 10
11.432559 0.25744897 -1.8111985 3 3
15.350976 0.33764625 -1.8853189 19 4
6.5422049 0.11305384 -1.7532402 2 0
7.6146078 0.12759778 -1.7582175 3 1
9.1475859 0.14689831 -1.77834 3 2
11.438027 0.17768973 -1.8118242 3 3
15.408537 0.23130231 -1.8921436 3 4
21.645828 0.31736487 3.428731 2 12
46.485779 0.64098883 -2.4364483 0 6
6.5582886 0.067537025 -1.7573814 2 0
7.6231079 0.07451088 -1.760017 3 1
9.1130371 0.084297903 -1.7714708 3 2
11.42317 0.09968593 -1.8093213 3 3
15.429625 0.12388419 -1.894581 3 4
6.5547328 0.022881027 -1.7563461 2 0
7.6000533 0.022550812 -1.7546182 3 1
9.1330366 0.020723749 -1.775287 3 2
11.407783 0.019912602 -1.8068182 2 3
15.386438 0.018801603 -1.8892187 3 4
6.5470061 -0.022853453 -1.7542756 2 0
7.6000257 -0.030508619 -1.7546182 2 1
9.1447372 -0.043093875 -1.7775766 3 2
11.407644 -0.059730828 -1.8068182 2 3
15.360391 -0.088470474 -1.8860501 2 4
6.5350957 -0.068437859 -1.7511697 2 0
7.5840387 -0.083394222 -1.751019 3 1
9.14814 -0.10698052 -1.77834 3 2
11.391149 -0.13917606 -1.8043153 2 3
15.325653 -0.19527324 -1.8819065 2 4
6.5576377 -0.11446398 -1.7573814 2 0
7.5871682 -0.13640839 -1.7519189 3 1
9.1353931 -0.17062348 -1.7760502 3 2
11.378049 -0.21846971 -1.8024381 2 3
15.319948 -0.30218259 -1.8814191 2 4
6.5335035 -0.15967539 -1.7511697 2 0
7.6172009 -0.19015117 -1.7591172 2 1
9.1300554 -0.23429519 -1.775287 3 2
11.403892 -0.29862142 -1.8068182 2 3
15.309527 -0.4089157 -1.880444 2 4
6.5554004 -0.20601174 -1.7573814 2 0
7.6156878 -0.24332419 -1.7591172 2 1
9.1713648 -0.29943818 -1.7836826 3 2
11.413375 -0.37862065 -1.8086954 2 3
15.310268 -0.51591927 -1.8809316 2 4
6.5383587 -0.25117838 -1.7532402 2 0
7.5826478 -0.29527214 -1.7519189 3 1
9.1494322 -0.36268091 -1.7798663 3 2
11.370978 -0.45670566 -1.8024381 2 3
15.290425 -0.62214601 -1.8789817 2 4
6.5403061 -0.29699355 -1.7542756 2 0
7.5842948 -0.34838018 -1.7528186 2 1
9.0956888 -0.4241688 -1.7699443 3 2
11.379352 -0.53663665 -1.8043153 2 3
15.273813 -0.72831005 -1.8775192 2 4
6.5226388 -0.34183705 -1.7501343 2 0
7.5700016 -0.40070161 -1.7501192 3 1
9.1121111 -0.48870933 -1.7737606 3 2
11.406888 -0.61777496 -1.8093213 2 3
15.220784 -0.83232141 -1.8716695 2 4
6.5239506 -0.38759407 -1.7511697 2 0
7.5592389 -0.45307359 -1.7483196 3 1
9.1241531 -0.55326205 -1.7768134 3 2
11.386522 -0.69642961 -1.8068182 2 3
15.226491 -0.9392947 -1.873132 2 4
6.5345793 -0.4340263 -1.7547932 2 0
7.5753355 -0.5071373 -1.7528186 3 1
9.0887289 -0.6148265 -1.7707076 3 2
11.365618 -0.7748301 -1.8043153 3 3
15.217583 -1.0454359 -1.8728882 2 4
6.535243 -0.47991824 -1.7558285 2 0
7.5385718 -0.55756676 -1.7451702 3 1
9.0843334 -0.67667681 -1.7707076 3 2
11.348262 -0.85128826 -1.8024381 2 3
15.18022 -1.1494002 -1.8692321 3 4
6.5164194 -0.52315396 -1.7516873 2 0
7.5423717 -0.60949469 -1.7469698 3 1
9.0911283 -0.74103749 -1.7729974 3 2
11.338103 -0.93016964 -1.8018124 3 3
15.152262 -1.2510676 -1.8667948 3 4
6.5260811 -0.56981033 -1.7553109 2 0
7.5418153 -0.66247612 -1.7478697 3 1
9.0544434 -0.80171639 -1.7668914 3 2
11.362815 -1.0121052 -1.8068182 4 3
15.119432 -1.3546933 -1.8638699 3 4
6.5084801 -0.61408639 -1.7516873 2 0
7.5195465 -0.71345478 -1.7438205 4 1
9.0896673 -0.86883116 -1.7749053 4 2
11.320079 -1.0880057 -1.8011867 3 3
15.143197 -1.4634593 -1.8680135 2 4
6.4905806 -0.65814465 -1.7480639 3 0
7.5337696 -0.76790935 -1.7483196 5 1
9.0601063 -0.92828071 -1.770326 4 2
11.304551 -1.1642237 -1.7999352 4 3
15.140509 -1.5699611 -1.8689884 2 4
6.5051565 -0.70438868 -1.7532402 3 0
7.5419288 -0.82064754 -1.7514689 7 1
9.0573082 -0.99193656 -1.7710892 4 2
11.315784 -1.2452762 -1.8030639 3 3
15.17288 -1.6777819 -1.8743507 2 4
6.4770513 -0.74712926 -1.7470287 3 0
7.503108 -0.86946625 -1.7438205 4 1
9.0287113 -1.0526429 -1.7668914 3 2
11.314662 -1.3251634 -1.8043153 3 3
15.107567 -1.7774045 -1.8677697 2 4
6.4908528 -0.79467672 -1.752205 3 0
7.4987888 -0.92206407 -1.7442704 3 1
9.0133495 -1.1146852 -1.765365 3 2
11.316896 -1.4055825 -1.8061925 3 3
15.114489 -1.885288 -1.8702071 2 4
6.4506617 -0.83550501 -1.7428875 3 0
7.4709125 -0.97162801 -1.7393216 4 1
9.0287075 -1.1806372 -1.7699443 3 2
11.326394 -1.4871261 -1.8093213 2 3
15.136383 -1.9954301 -1.8745944 2 4
6.4484997 -0.88104141 -1.7439228 3 0
7.4678087 -1.0242903 -1.7402214 4 1
9.0046864 -1.2414951 -1.7668914 3 2
11.300081 -1.5639955 -1.8068182 3 3
15.06703 -2.0934036 -1.8677697 2 4
6.4613137 -0.92878729 -1.7490991 3 0
7.4797635 -1.079183 -1.7447205 5 1
9.0346594 -1.3099632 -1.7745237 3 2
11.324073 -1.6479669 -1.8124499 2 3
15.083476 -2.2031298 -1.8716695 1 4
6.4623127 -0.97502565 -1.7511697 3 0
7.4527793 -1.1284574 -1.7402214 4 1
9.0175304 -1.3718235 -1.7729974 3 2
11.292766 -1.7240018 -1.8093213 3 3
15.075577 -2.3095801 -1.8726445 2 4
6.4515319 -1.0195138 -1.7501343 3 0
7.4620409 -1.1832063 -1.7442704 3 1
8.9924717 -1.4307038 -1.7699443 3 2
11.319783 -1.8070567 -1.8155787 2 3
15.051246 -2.4135132 -1.8716695 1 4
45.351852 -7.3210301 -2.4075589 0 6
6.4349127 -1.0618315 -1.7475463 2 0
7.4730401 -1.2371538 -1.7487694 3 1
8.9977589 -1.4960238 -1.7729974 3 2
11.275715 -1.8808388 -1.8105727 2 3
15.046216 -2.517873 -1.873132 2 4
6.4311509 -1.1073852 -1.7485816 2 0
7.460381 -1.2886316 -1.7478697 3 1
8.9718914 -1.554553 -1.7699443 3 2
47.139957 -8.1848555 4.1859159 0 10
11.250975 -1.9555163 -1.8086954 2 3
15.032183 -2.6235356 -1.8736194 2 4
46.379681 -8.1446085 -2.46785 1 6
6.4215622 -1.1507938 -1.7480639 3 0
7.4495192 -1.3390377 -1.7474198 4 1
8.9724121 -1.6192422 -1.772234 3 2
11.256487 -2.0375333 -1.8118242 2 3
15.033507 -2.729341 -1.8760569 3 4
6.4532537 -1.2030312 -1.7589344 2 0
7.4304113 -1.3892214 -1.7451702 3 1
8.9840441 -1.6861874 -1.7768134 3 2
11.257518 -2.1189911 -1.8143271 3 3
15.002384 -2.8320179 -1.8745944 3 4
6.4371114 -1.2465845 -1.7568637 2 0
7.4224448 -1.4414327 -1.7456201 3 1
8.9681997 -1.7481151 -1.7760502 3 2
11.1998 -2.1891944 -1.8074441 2 3
14.982246 -2.9366846 -1.8745944 3 4
6.3922658 -1.2842634 -1.7470287 2 0
7.4198427 -1.494755 -1.7474198 2 1
8.9560928 -1.8091186 -1.7760502 3 2
11.219488 -2.2724364 -1.8130757 2 3
14.992505 -3.0475345 -1.8784941 3 4
6.4155293 -1.3344321 -1.7558285 2 0
7.4056807 -1.5444295 -1.74652 3 1
8.9355583 -1.8699908 -1.7745237 3 2
11.195617 -2.3490844 -1.8118242 2 3
14.986954 -3.1527832 -1.880444 3 4
6.3701739 -1.3714626 -1.7459934 2 0
7.4023376 -1.5977374 -1.7483196 3 1
8.9376354 -1.9356508 -1.7775766 3 2
11.182805 -2.4280248 -1.8124499 2 3
14.921906 -3.2480457 -1.8750819 3 4
6.3981581 -1.4242965 -1.7563461 2 0
7.3986106 -1.6510739 -1.7501192 2 1
8.9124107 -1.9954265 -1.775287 3 2
11.177146 -2.5086312 -1.8143271 3 3
14.949221 -3.3634694 -1.8814191 3 4
6.3654656 -1.4637338 -1.7501343 2 0
7.4134893 -1.7088133 -1.7564179 2 1
8.9135647 -2.061136 -1.77834 3 2
11.151663 -2.5848167 -1.8130757 3 3
14.952446 -3.4740415 -1.8848314 3 4
6.3701301 -1.5117055 -1.7542756 2 0
7.3975873 -1.7596253 -1.7555181 2 1
8.8684034 -2.1160233 -1.772234 3 2
11.133347 -2.6626065 -1.8130757 4 3
14.966435 -3.5875983 -1.8897061 3 4
6.3293967 -1.5487936 -1.7459934 2 0
7.3813372 -1.8102984 -1.7546182 2 1
8.8534145 -2.1778843 -1.772234 3 2
11.11065 -2.7393205 -1.8124499 3 3
14.96415 -3.69771 -1.8926311 3 4
47.983929 -11.919269 -2.5911534 0 6
6.337162 -1.5976655 -1.7511697 2 0
7.3760772 -1.863695 -1.7564179 2 1
8.8418016 -2.2406039 -1.7729974 3 2
11.095085 -2.8177927 -1.8130757 3 3
14.96298 -3.8084538 -1.8957996 2 4
6.3146348 -1.638956 -1.7480639 2 0
7.3515701 -1.9122006 -1.7537185 2 1
8.8225451 -2.2997453 -1.772234 3 2
11.090939 -2.8972428 -1.8155787 4 3
14.947549 -3.9158394 -1.8972621 2 4
43.870842 -11.542041 -2.3774135 0 6
6.3107991 -1.6838921 -1.7501343 2 0
7.3572102 -1.9672302 -1.7582175 2 1
47.18861 -12.635323 2.5601707 0 9
8.7948971 -2.3582311 -1.7699443 3 2
11.081888 -2.9776766 -1.8174559 4 3
14.939716 -4.0226541 -1.8996994 2 4
44.174782 -11.952362 -2.3983479 0 6
6.2951636 -1.7268865 -1.7490991 1 0
7.3282642 -2.0144126 -1.7546182 2 1
8.7857904 -2.4216597 -1.7714708 3 2
11.095103 -3.0644357 -1.8230875 4 3
14.930403 -4.1321492 -1.9021369 2 4
42.843349 -11.91373 -2.3305204 0 6
6.2866726 -1.7718407 -1.7501343 1 0
7.2915182 -2.0591688 -1.7492194 2 1
8.791338 -2.4893551 -1.7760502 3 2
11.050634 -3.1353486 -1.819333 4 3
14.895463 -4.234653 -1.9014057 2 4
41.929489 -11.975584 -2.2853019 3 6
6.2964182 -1.8221307 -1.7563461 1 0
7.2844515 -2.1121933 -1.751019 3 1
8.7723055 -2.5485899 -1.7756686 4 2
11.044211 -3.2149117 -1.821836 4 3
14.869347 -4.3396516 -1.9018931 2 4
40.834995 -11.964202 -2.2300353 0 6
6.2801666 -1.8638473 -1.7553109 2 0
7.2717733 -2.1622832 -1.7514689 3 1
8.7561798 -2.6103306 -1.7760502 3 2
11.051782 -3.300981 -1.8268418 3 3
14.843267 -4.4419003 -1.9023806 2 4
40.054249 -12.039714 -2.1919348 0 6
6.241127 -1.8997695 -1.7480639 2 0
7.2639565 -2.21527 -1.7532685 3 1
8.7170906 -2.665082 -1.7718524 4 2
11.047355 -3.3838413 -1.8299706 3 3
14.885908 -4.5681295 -1.9118865 2 4
23.621084 -7.2667942 -2.1621597 28 5
39.156132 -12.068443 -2.1473446 0 6
6.2682838 -1.955954 -1.759452 1 0
7.231575 -2.2606947 -1.7492194 4 1
8.6851587 -2.7217636 -1.7691811 3 2
11.027232 -3.4620669 -1.8305963 3 3
14.860413 -4.6769171 -1.9128615 2 4
38.899521 -12.287366 -2.137924 1 6
6.2136474 -1.9878085 -1.7480639 2 0
7.2226357 -2.3147638 -1.751019 5 1
8.7164164 -2.7985351 -1.7794847 4 2
11.02474 -3.5481489 -1.8343508 3 3
14.82362 -4.7793283 -1.9123739 2 4
38.320358 -12.406689 -2.1109188 0 6
6.20329 -2.032342 -1.7490991 2 0
7.180378 -2.3566229 -1.7447205 4 1
8.7297363 -2.8718796 -1.7863539 4 2
10.992196 -3.6225557 -1.8330992 3 3
14.837019 -4.8982582 -1.9184674 3 4
38.138016 -12.642488 -2.105685 0 6
6.1852875 -2.0743706 -1.7480639 2 0
7.1785283 -2.4116583 -1.7483196 5 1
8.7099857 -2.9312344 -1.7863539 4 2
10.99349 -3.7061269 -1.8374794 2 3
14.779894 -4.9940939 -1.9155425 3 4
37.184776 -12.608056 -2.0577452 0 6
6.2167087 -2.1320925 -1.7610049 2 0
7.1895919 -2.4699619 -1.7550682 6 1
8.6503277 -2.9785466 -1.77834 3 2
10.971084 -3.7840736 -1.8381052 2 3
14.813104 -5.117918 -1.9243171 3 4
37.11095 -12.872584 -2.0585828 0 6
6.1652136 -2.1626518 -1.7506521 2 0
7.1721735 -2.5200939 -1.7550682 7 1
8.6835585 -3.0562599 -1.7894068 4 2
10.963702 -3.865231 -1.8412338 2 3
14.7845 -5.2238526 -1.925292 3 4
37.869576 -13.4252 -2.105685 0 6
6.1867213 -2.2176034 -1.7610049 2 0
7.1200056 -2.5563433 -1.74652 5 1
8.6897192 -3.1267781 -1.7951311 4 2
10.958751 -3.9497149 -1.8449883 2 3
14.742998 -5.3223443 -1.9245608 2 4
38.030308 -13.781796 -2.1199205 0 6
6.1547632 -2.2547598 -1.7563461 3 0
7.1147919 -2.6106863 -1.7496693 6 1
8.6510954 -3.1812692 -1.7916965 4 2
10.93091 -4.0261245 -1.8449883 2 3
14.765079 -5.447125 -1.9323605 2 4
37.543587 -13.902695 -2.0981486 0 6
6.1605835 -2.305799 -1.7625577 3 0
7.1000419 -2.6616611 -1.7505691 6 1
8.6231623 -3.2395158 -1.7905518 3 2
10.924723 -4.1106858 -1.8487427 2 3
14.773131 -5.5675726 -1.938454 2 4
37.52034 -14.192722 -2.1023357 0 6
6.1190729 -2.3390944 -1.7553109 3 0
7.092206 -2.7153442 -1.7532685 6 1
8.6119108 -3.3023543 -1.7928416 3 2
10.896489 -4.1849523 -1.8487427 3 3
14.837649 -5.7105007 -1.9521034 2 4
37.296162 -14.398869 -2.0952177 0 6
6.0814123 -2.3722663 -1.7490991 3 0
7.0953407 -2.7720659 -1.7586673 7 1
8.6178961 -3.373847 -1.7989473 3 2
10.885397 -4.2681327 -1.8518714 3 3
14.872345 -5.8403888 -1.9618529 2 4
33.519299 -13.210361 -1.8881769 4 6
6.0718818 -2.4175227 -1.7511697 3 0
7.0685749 -2.8186457 -1.7568678 7 1
8.608717 -3.4397557 -1.8020002 3 2
10.840664 -4.338151 -1.8493685 3 3
14.954663 -5.9935527 -1.9781833 2 4
6.0620151 -2.4627616 -1.7532402 3 0
7.0198445 -2.8561738 -1.7496693 6 1
8.559042 -3.4893956 -1.7966576 3 2
10.83206 -4.4226871 -1.8531229 3 3
14.969418 -6.1210999 -1.9857392 3 4
33.479404 -13.737732 -1.8965507 4 6
6.0446744 -2.5050223 -1.7532402 3 0
7.0249319 -2.9155691 -1.7559679 7 1
8.5634775 -3.5611248 -1.8027636 3 2
10.808214 -4.5012383 -1.8543743 3 3
15.016092 -6.2628989 -1.9976823 2 4
33.345833 -13.955704 -1.8944571 4 6
6.0199213 -2.5441525 -1.7511697 4 0
7.0187635 -2.9706175 -1.7595671 7 1
8.5492516 -3.6254203 -1.8050531 3 2
10.801981 -4.5873942 -1.8587546 3 3
15.037766 -6.395546 -2.0064571 2 4
33.218201 -14.175615 -1.8927823 4 6
5.9984646 -2.5845881 -1.7501343 4 0
6.9942751 -3.0180011 -1.7586673 6 1
8.4985056 -3.6741099 -1.7997105 3 2
10.744312 -4.6517062 -1.8543743 3 3
15.078351 -6.5374866 -2.0179126 3 4
26.935392 -11.717433 -1.53941 23 6
6.0050383 -2.6372774 -1.7573814 3 0
6.9944415 -3.0761707 -1.7640662 6 1
8.4726486 -3.7333505 -1.7997105 3 2
10.740492 -4.7393608 -1.8593802 4 3
15.132209 -6.6867223 -2.0313184 5 4
26.564449 -11.777289 -1.5228719 23 6
5.9617934 -2.668088 -1.7501343 4 0
6.9496775 -3.1145651 -1.7582175 5 1
8.4649515 -3.7989738 -1.8035268 3 2
10.711588 -4.8139782 -1.860006 4 3
15.068868 -6.7848663 -2.0291247 27 4
26.301638 -11.875644 -1.5124046 23 6
5.9610739 -2.7166178 -1.7553109 4 0
6.9655461 -3.1787877 -1.7676654 6 1
8.4489365 -3.8628752 -1.8058165 3 2
10.674127 -4.8869967 -1.8593802 4 3
15.190152 -6.9642167 -2.0517924 5 4
26.022121 -11.968838 -1.5011001 11 6
5.9139266 -2.7451532 -1.7470287 4 0
6.9272799 -3.2199461 -1.7636162 5 1
8.4253225 -3.9234226 -1.8065797 3 2
10.650492 -4.9664059 -1.8612576 4 3
15.256277 -7.1238461 -2.0673916 5 4
26.093473 -12.223076 -1.5101019 23 6
5.9085898 -2.7929778 -1.7511697 3 0
6.9204841 -3.2757323 -1.7676654 6 1
8.3977261 -3.9821463 -1.8065797 3 2
10.640541 -5.0525007 -1.8656377 3 3
15.346008 -7.2966695 -2.0864034 5 4
25.722679 -12.26909 -1.4935637 23 6
5.9098368 -2.8442123 -1.7573814 4 0
6.90798 -3.3290422 -1.7703648 3 1
36.634651 -17.662577 2.1314344 0 9
8.3492079 -4.0289764 -1.8020002 3 2
10.595233 -5.1196542 -1.8637605 3 3
15.455503 -7.4814682 -2.1083398 5 4
25.595448 -12.422961 -1.4910516 23 6
5.8903399 -2.8843732 -1.7573814 4 0
6.8799109 -3.3734119 -1.7690151 5 1
36.510452 -17.917902 2.1314344 0 9
8.3596458 -4.1062088 -1.810396 3 2
36.324448 -17.850225 3.5409634 3 10
10.630136 -5.2283702 -1.8762752 2 3
36.221733 -17.831154 4.9571581 3 11
15.676687 -7.720685 -2.1456318 8 4
36.141464 -17.815155 6.3819013 3 12
25.70507 -12.698654 -1.5025654 23 6
5.8804345 -2.9305949 -1.7604873 4 0
6.8579359 -3.4222302 -1.769465 6 1
8.3518476 -4.1750031 -1.8149751 3 2
10.611041 -5.3112969 -1.8794039 2 3
15.657899 -7.8477287 -2.1505065 8 4
35.892799 -18.028656 7.8075233 2 13
25.822786 -12.981861 -1.5147074 11 6
5.8805075 -2.9820611 -1.7666988 3 0
6.83214 -3.4691417 -1.7690151 4 1
8.3154974 -4.2296476 -1.8134488 3 2
10.651153 -5.4246917 -1.8931701 2 3
15.565594 -7.9379101 -2.1453881 10 4
26.090712 -13.345547 -1.5358511 11 6
5.8423772 -3.0141842 -1.7615224 3 0
6.8164115 -3.5212264 -1.7712647 3 1
8.264843 -4.2767701 -1.8088694 3 2
10.676163 -5.5316334 -1.9044335 2 3
15.65605 -8.1222601 -2.1656184 11 4
26.050062 -13.555026 -1.5389913 11 6
5.8382978 -3.0638752 -1.7666988 3 0
6.8054633 -3.575979 -1.7748638 3 1
8.248683 -4.3416805 -1.8119223 3 2
10.665246 -5.6207671 -1.9094393 2 3
15.707816 -8.2888002 -2.1807303 15 4
25.824165 -13.66742 -1.5312456 23 6
5.8031316 -3.0972824 -1.7625577 4 0
6.7889271 -3.627995 -1.7771133 5 1
8.2389421 -4.4102788 -1.8165017 3 2
10.653604 -5.7100182 -1.9144453 2 3
15.841971 -8.5015116 -2.2075415 12 4
5.7813678 -3.1377199 -1.7625577 3 0
6.7514472 -3.6687882 -1.7739639 3 1
8.2303686 -4.4798913 -1.8214628 4 2
10.658578 -5.8088326 -1.9225799 3 3
15.865877 -8.6575422 -2.2192409 15 4
5.7835579 -3.190062 -1.7698047 3 0
6.7297301 -3.716543 -1.7748638 3 1
8.1601715 -4.5139523 -1.8126855 3 2
10.698281 -5.9252734 -1.9369718 3 3
15.648602 -8.6777315 -2.1970608 11 4
5.7549696 -3.2255769 -1.7677342 3 0
6.7093754 -3.7651258 -1.7762135 3 1
8.1412382 -4.5761266 -1.815357 4 2
10.688688 -6.0153942 -1.9426033 3 3
15.891991 -8.9583311 -2.2399588 11 4
5.7350969 -3.2685888 -1.7687694 3 0
6.682261 -3.81304 -1.7762135 2 1
8.116806 -4.6391363 -1.8172649 3 2
10.669374 -6.105463 -1.9469837 3 3
15.898091 -9.1122932 -2.2499521 12 4
5.7182474 -3.3134184 -1.77084 3 0
6.6497474 -3.8578255 -1.7748638 3 1
8.0867968 -4.6990733 -1.8180283 3 2
10.657851 -6.2005272 -1.9529281 4 3
15.86668 -9.2420435 -2.2545829 11 4
5.6949763 -3.3532584 -1.77084 3 0
6.6276894 -3.9071243 -1.7762135 4 1
8.0901289 -4.7749643 -1.8260422 4 2
10.659616 -6.2990575 -1.9610627 4 3
15.786396 -9.3434868 -2.2523894 12 4
5.6687031 -3.389962 -1.7698047 3 0
6.6159887 -3.9611561 -1.7802627 3 1
8.0279732 -4.8141627 -1.8195547 3 2
10.659414 -6.3997593 -1.9691973 5 3
15.703717 -9.439476 -2.2497082 11 4
5.6382952 -3.425442 -1.7677342 3 0
6.5798492 -4.0021839 -1.7780131 3 1
8.0277014 -4.8905191 -1.8271869 3 2
10.668443 -6.5069346 -1.9792091 14 3
15.664542 -9.5654316 -2.253608 11 4
5.6191754 -3.4677644 -1.7692871 2 0
6.5699844 -4.0592895 -1.7829621 3 1
8.0067186 -4.9547081 -1.8302399 3 2
10.61436 -6.5760531 -1.9776447 26 3
15.555208 -9.6483974 -2.2475147 15 4
5.6046505 -3.5130649 -1.772393 2 0
6.5332322 -4.0998778 -1.7807125 4 1
7.9187441 -4.9770532 -1.8180283 3 2
10.660149 -6.7078576 -1.9948525 5 3
15.618481 -9.8392897 -2.2665262 12 4
5.5734696 -3.5479567 -1.7703223 2 0
6.4913039 -4.1370096 -1.7771133 4 1
7.9367595 -5.0660162 -1.8302399 3 2
10.662993 -6.8140254 -2.0042386 5 3
15.500915 -9.9170618 -2.2594578 11 4
5.5615439 -3.595171 -1.7744634 2 0
6.4753523 -4.1906962 -1.7807125 5 1
7.9341493 -5.1426587 -1.8378724 3 2
10.679789 -6.9302368 -2.0164404 6 3
15.562812 -10.110469 -2.278713 8 4
5.5379243 -3.6349692 -1.774981 3 0
6.4589667 -4.2443614 -1.7843118 5 1
7.9046135 -5.20224 -1.8393987 3 2
10.698778 -7.0491877 -2.0292683 5 3
15.924341 -10.504157 -2.342329 11 4
5.5204501 -3.6788995 -1.7775693 2 0
6.4291782 -4.2893505 -1.7843118 4 1
7.8974853 -5.2769313 -1.8462679 3 2
10.711696 -7.1654415 -2.041157 5 3
16.229979 -10.869125 -2.3983889 11 4
5.4594312 -3.6935339 -1.7661812 2 0
6.4071436 -4.3395939 -1.7865613 6 1
7.9189439 -5.3716121 -1.8600061 3 2
10.785609 -7.3243904 -2.0649352 4 3
16.178328 -10.998909 -2.402045 9 4
5.4494371 -3.7424943 -1.7713577 2 0
6.3799038 -4.3864255 -1.7874612 6 1
7.9242444 -5.4543309 -1.8699282 3 2
10.97624 -7.5635214 -2.1112397 8 3
16.390333 -11.311155 -2.4451866 7 4
5.4301772 -3.7839181 -1.7734282 2 0
6.3467021 -4.4275208 -1.7865613 7 1
7.8763161 -5.5027733 -1.8676385 3 2
10.905364 -7.627511 -2.1077983 9 3
16.212141 -11.351864 -2.4300749 5 4
5.4115143 -3.8273137 -1.7760164 3 0
6.3156376 -4.4717207 -1.7865613 6 1
7.8857532 -5.5916939 -1.8790871 3 2
10.819633 -7.6805892 -2.1015408 9 3
15.551598 -11.051943 -2.3425727 4 4
5.3642612 -3.8503544 -1.7692871 2 0
6.2937603 -4.5225258 -1.7892607 7 1
7.8879557 -5.6764245 -1.8890091 3 2
10.756132 -7.7490091 -2.0996637 9 3
13.409995 -9.6715927 -2.0300996 3 4
5.3481803 -3.8956723 -1.7729106 3 0
6.2525873 -4.5594645 -1.7865613 7 1
7.8459635 -5.7276702 -1.8882459 3 2
10.719087 -7.8336983 -2.1027923 10 3
13.338945 -9.7626324 -2.0296123 3 4
5.3246469 -3.9342818 -1.7739457 3 0
6.2245407 -4.6042366 -1.7874612 6 1
7.8120956 -5.7869792 -1.8897724 3 2
10.692697 -7.9295201 -2.1084239 9 3
15.991333 -11.871881 -2.4454305 9 4
13.737774 -10.213737 -1.4976842 31 5
14.823431 -11.032954 -0.96842468 18 6
5.2985964 -3.9725175 -1.7744634 2 0
6.1828942 -4.6405611 -1.7847617 6 1
7.7683663 -5.8390174 -1.8890091 3 2
10.794921 -8.1227465 -2.1397109 9 3
13.838888 -10.424563 -2.1273515 10 4
13.872908 -10.465379 -1.5203447 31 5
14.626509 -11.045897 -0.96057421 18 6
5.2661223 -4.0059023 -1.7729106 3 0
6.1751523 -4.7025027 -1.7919601 6 1
7.7523909 -5.9121571 -1.895115 3 2
10.822736 -8.262641 -2.1566057 9 3
13.786277 -10.536592 -2.1305199 12 4
13.856464 -10.605568 -1.5266199 32 5
14.029033 -10.749302 -0.92624182 18 6
5.259438 -4.0590935 -1.7801574 3 0
6.1575937 -4.7574124 -1.7964592 6 1
7.7714844 -6.0129881 -1.9099981 4 2
10.76479 -8.3379955 -2.1566057 9 3
13.61512 -10.557165 -2.1154084 12 4
13.388674 -10.396552 -1.4830421 30 5
13.825923 -10.747694 -0.91776341 18 6
5.2157617 -4.0838022 -1.774981 3 0
6.1073594 -4.7870607 -1.7915101 5 1
7.7478495 -6.0816431 -1.9145776 4 2
10.787085 -8.4764109 -2.1728749 9 3
13.447474 -10.578318 -2.1007838 13 4
13.002749 -10.243183 -1.4481798 29 5
13.396126 -10.564445 -0.89410758 17 6
5.2022514 -4.1321311 -1.7801574 3 0
6.082943 -4.8368578 -1.7942096 5 1
7.7098107 -6.1392541 -1.9157225 3 2
10.676672 -8.5108776 -2.1625502 13 3
13.497425 -10.770996 -2.1202829 3 4
13.008745 -10.395901 -1.4568955 29 5
13.223789 -10.579104 -0.88751322 26 6
5.1732769 -4.1683488 -1.7801574 3 0
6.0368929 -4.8694191 -1.7906104 5 1
7.6850891 -6.2077322 -1.9203018 4 2
10.6001 -8.5715446 -2.1591089 11 3
13.298467 -10.765042 -2.1007838 8 4
13.189935 -10.703887 -0.89023465 26 6
5.135076 -4.1970277 -1.7770516 3 0
6.0314074 -4.9348922 -1.7991585 3 1
7.6775899 -6.2885113 -1.9290791 7 2
10.550675 -8.6510134 -2.1609859 9 3
12.956044 -10.638428 -2.0583735 12 4
13.018086 -10.700789 -1.4743265 30 5
13.166123 -10.834032 -0.89358425 17 6
5.1153135 -4.2392797 -1.7801574 4 0
6.0021768 -4.9795651 -1.8005083 5 1
7.6546421 -6.3595214 -1.9344217 28 2
10.514321 -8.744669 -2.1659918 11 3
12.750607 -10.615867 -2.0371683 20 4
12.903276 -10.758237 -1.4697944 30 5
13.034966 -10.879609 -0.88981605 26 6
5.0855932 -4.274888 -1.7801574 4 0
5.967267 -5.0213461 -1.8005083 4 1
7.6100583 -6.4128051 -1.9344217 22 2
10.465097 -8.8280487 -2.1684947 10 3
12.802066 -10.810927 -2.0573983 6 4
13.019546 -11.01016 -1.4917578 31 5
13.063876 -11.059388 -0.8970384 18 6
13.380651 -11.339589 -0.30615014 32 7
5.0438643 -4.300261 -1.7760164 4 0
5.937995 -5.0679431 -1.8023077 4 1
7.6203237 -6.5129733 -1.9485416 4 2
10.418221 -8.9137363 -2.1716235 11 3
12.738341 -10.910368 -2.0593483 7 4
13.081817 -11.232288 -0.9036327 18 6
13.30116 -11.432726 -0.30615014 32 7
5.0195656 -4.3404226 -1.7780869 4 0
5.9304643 -5.1335063 -1.810856 3 1
7.5862012 -6.5736909 -1.951213 4 2
10.381181 -9.0051546 -2.1766293 9 3
12.50301 -10.861041 -2.0335121 12 4
12.355783 -10.755872 -0.85851914 17 6
4.9986215 -4.3821301 -1.7811928 4 0
5.9085674 -5.1853247 -1.8149052 3 1
7.5696168 -6.6524119 -1.9588453 4 2
10.312128 -9.0721893 -2.1753781 9 3
12.142763 -10.693992 -1.9867141 13 4
12.311801 -10.854311 -1.4359779 29 5
12.295366 -10.855088 -0.85956585 17 6
4.9534698 -4.4040837 -1.7760164 5 0
5.8867803 -5.2394023 -1.8194041 3 1
7.5505452 -6.7272911 -1.9657143 4 2
10.241292 -9.1342821 -2.1735008 9 3
12.060408 -10.771892 -1.9854957 18 4
12.054521 -10.777985 -1.414712 28 5
12.722721 -11.387418 -0.8948403 8 6
4.9254713 -4.4411454 -1.7770516 4 0
5.8688645 -5.2973466 -1.8252529 3 1
7.5357118 -6.8114281 -1.9744916 4 2
10.143441 -9.178174 -2.1666176 9 3
11.954017 -10.82784 -1.980377 7 4
11.991845 -10.877355 -1.4164551 28 5
12.413198 -11.271401 -0.87872082 8 6
12.978812 -11.797395 -0.30615014 32 7
4.9114552 -4.4910665 -1.7832633 4 0
5.8303022 -5.3368735 -1.824803 3 1
7.5371814 -6.9089742 -1.9874666 4 2
10.14316 -9.3075285 -2.1803839 9 3
12.024325 -11.045321 -2.004751 16 4
12.816115 -11.801546 -0.91305321 9 6
4.8828154 -4.527873 -1.7842987 4 0
5.8143253 -5.3973336 -1.8315514 3 1
7.5031438 -6.9747925 -1.9912828 4 2
10.077935 -9.3781147 -2.1803839 9 3
11.961449 -11.142527 -2.0071883 15 4
12.28089 -11.468154 -0.88060486 26 6
4.8482718 -4.5592036 -1.7832633 4 0
5.7878547 -5.4484797 -1.8351506 3 1
7.4814115 -7.0525908 -1.9985336 4 2
10.061065 -9.494338 -2.1910214 9 3
12.085391 -11.416605 -2.0413115 15 4
12.241947 -11.580682 -1.4743265 30 5
12.223733 -11.575584 -0.88227969 26 6
4.8191209 -4.5956059 -1.7842987 3 0
5.7510862 -5.4900994 -1.8356007 4 1
7.5781631 -7.2443805 -2.0378401 6 2
10.06875 -9.6353645 -2.2072906 9 3
11.982459 -11.478728 -2.0374119 8 4
12.331338 -11.841864 -0.89599168 17 6
4.7813649 -4.6237655 -1.782228 4 0
5.7266197 -5.5436687 -1.8400996 4 1
7.5795598 -7.3476706 -2.05196 7 2
9.9955683 -9.6999197 -2.206039 7 3
12.064352 -11.719784 -2.0651982 8 4
12.533113 -12.204954 -0.91682142 18 6
4.7572451 -4.6651487 -1.7853339 4 0
5.7044663 -5.599895 -1.8454984 5 1
7.5364804 -7.4086637 -2.0542498 10 2
10.144435 -9.9828386 -2.254221 9 3
12.130725 -11.949998 -2.0907905 10 4
12.353807 -12.199532 -0.90991306 27 6
4.7136016 -4.6873493 -1.7811928 4 0
5.667995 -5.6423326 -1.8463982 4 1
7.4956112 -7.469491 -2.056921 10 2
9.1784067 -9.1560059 -2.053359 1 3
11.691689 -11.679451 -2.0291247 8 4
12.146951 -12.146951 -1.5029136 31 5
12.442688 -12.455725 -0.922683 18 6
4.6815867 -4.7193251 -1.7811928 4 0
5.6610074 -5.7126193 -1.8567461 6 1
7.4004722 -7.4783778 -2.0450909 10 2
9.0698242 -9.1749058 -2.0433471 2 3
11.623077 -11.770063 -2.0310745 11 4
12.531905 -12.708115 -1.5614822 33 5
12.261518 -12.446957 -0.91566998 18 6
4.667439 -4.7712264 -1.7884396 4 0
5.6277976 -5.7589693 -1.8589954 4 1
7.3453407 -7.527051 -2.0443277 10 2
10.218976 -10.482748 -2.3186719 9 3
11.774679 -12.091267 -2.0722666 5 4
12.478995 -12.832433 -1.5660143 33 5
12.152058 -12.509334 -0.91399521 18 6
4.6286511 -4.7981334 -1.7863692 4 0
5.5982733 -5.8093438 -1.8625948 5 1
7.2653871 -7.5498548 -2.0366955 13 2
10.148282 -10.556683 -2.3192978 9 3
11.603355 -12.082969 -2.056911 13 4
12.079629 -12.609729 -0.91514659 27 6
4.6083565 -4.8443274 -1.7915455 4 0
5.5710049 -5.8624115 -1.8670937 5 1
7.312501 -7.7030745 -2.0645535 10 2
10.097938 -10.648449 -2.3243036 9 3
11.764408 -12.423126 -2.1007838 12 4
12.594359 -13.327477 -0.96099293 27 6
4.5884948 -4.8896699 -1.7967219 3 0
5.5456328 -5.9158359 -1.8720427 6 1
7.2679377 -7.7639704 -2.0672247 10 2
10.093512 -10.793712 -2.3405728 12 3
10.796051 -11.557111 -1.9418663 2 4
4.5463748 -4.9130764 -1.7936161 3 0
5.5121341 -5.9629927 -1.8747422 6 1
7.2481813 -7.8520274 -2.0771468 10 2
10.14111 -10.997517 -2.3693566 9 3
10.758143 -11.678921 -1.9496659 8 4
4.5223813 -4.9561129 -1.7977571 3 0
5.4677448 -5.9984484 -1.8738421 6 1
7.2288685 -7.941638 -2.0874505 12 2
10.218246 -11.237581 -2.4056494 11 3
10.843185 -11.937416 -1.9801333 6 4
4.4902558 -4.9904361 -1.7987925 3 0
5.4387622 -6.0509672 -1.8783413 7 1
7.2243938 -8.048892 -2.1023335 10 2
10.107894 -11.273345 -2.3981407 9 3
10.795342 -12.052748 -1.9867141 8 4
4.4604354 -5.0274425 -1.8008629 3 0
5.4067254 -6.1004567 -1.8819405 7 1
7.2213736 -8.1594076 -2.11798 12 2
10.034179 -11.349557 -2.3993921 9 3
10.87388 -12.312319 -2.0169377 8 4
4.4252281 -5.0584593 -1.8008629 3 0
5.3819585 -6.158597 -1.888239 6 1
7.174561 -8.2214565 -2.121033 10 2
9.9027786 -11.35977 -2.3868773 9 3
10.845019 -12.453802 -2.0276623 7 4
4.4087338 -5.1111722 -1.8086276 2 0
7.1259537 -8.2817612 -2.1237042 10 2
9.787178 -11.386683 -2.3781171 11 3
14.332111 -16.692059 -2.7013559 3 4
4.3792009 -5.1491842 -1.8112158 3 0
5.2903996 -6.2272 -1.8864396 46 1
7.0605249 -8.3195963 -2.121033 10 2
9.7324381 -11.480159 -2.3837488 10 3
10.227577 -12.081304 -1.9435725 2 4
4.3428092 -5.1773934 -1.8106982 2 0
5.2616577 -6.2794967 -1.8913884 35 1
7.0287285 -8.4003048 -2.1290469 10 2
9.6596565 -11.556918 -2.3856258 9 3
10.456815 -12.523967 -2.0032885 7 4
4.2991719 -5.1986527 -1.8075923 2 0
5.2462363 -6.3506312 -1.9017363 7 1
6.9749098 -8.4552269 -2.1305733 10 2
9.5988398 -11.648463 -2.3906317 10 3
10.288384 -12.498575 -1.9876893 8 4
4.2896299 -5.2614803 -1.8189803 2 0
5.2140789 -6.4022131 -1.9062351 7 1
6.9479184 -8.5433159 -2.1404953 10 2
9.4998465 -11.693728 -2.3862517 10 3
9.9169283 -12.220199 -1.9323605 4 4
4.2648964 -5.3063569 -1.8241568 2 0
5.1912169 -6.4658093 -1.9143335 7 1
6.8917899 -8.5962086 -2.1416404 10 2
9.4327974 -11.778265 -2.3900061 9 3
10.288963 -12.861117 -2.0223 8 4
4.2277465 -5.3360019 -1.8241568 2 0
5.1507883 -6.5080061 -1.9161332 7 1
6.865694 -8.6872406 -2.1523256 10 2
9.3405466 -11.831428 -2.3875031 9 3
10.095673 -12.801702 -2.001826 8 4
4.2046614 -5.3836575 -1.8303684 2 0
5.1052294 -6.5438061 -1.9161332 7 1
6.8184714 -8.7492571 -2.1561418 12 2
9.2428083 -11.87291 -2.3831229 9 3
13.488008 -17.351088 -2.698431 5 4
4.1667399 -5.4106216 -1.8298507 3 0
5.0795798 -6.6031179 -1.9233315 7 1
6.7488527 -8.7857475 -2.1534703 10 2
9.1452656 -11.918342 -2.3793685 9 3
13.377416 -17.459009 -2.7006249 7 4
4.1419291 -5.4587674 -1.8360624 3 0
5.0510335 -6.6641464 -1.9305301 7 1
6.6920934 -8.8389101 -2.1549969 10 2
9.0573626 -11.980326 -2.3787427 9 3
13.21094 -17.493362 -2.6916065 5 4
4.0944633 -5.475174 -1.8319213 3 0
5.0137157 -6.7117362 -1.9341292 7 1
6.6603665 -8.929059 -2.1653006 10 2
8.931016 -11.986242 -2.3674796 9 3
13.023304 -17.497583 -2.678201 7 4
4.0538473 -5.5005145 -1.830886 3 0
4.9782906 -6.7622681 -1.9386281 7 1
6.5971084 -8.9710245 -2.1645374 12 2
8.8375273 -12.030834 -2.3643508 9 3
12.838607 -17.503241 -2.6652827 10 4
4.0253968 -5.5404835 -1.8350271 3 0
4.9367251 -6.8023062 -1.9404278 7 1
6.5227976 -9.0009661 -2.1607211 12 2
8.7533216 -12.092238 -2.3643508 9 3
12.711025 -17.578962 -2.6635766 7 4
3.9933667 -5.5778756 -1.8381329 4 0
4.9140544 -6.8714771 -1.9503256 7 1
6.4796391 -9.0707169 -2.1668272 10 2
8.6547461 -12.129027 -2.3599706 9 3
12.779208 -17.935646 -2.7040372 7 4
3.970901 -5.6270256 -1.8453798 3 0
4.8828869 -6.9270658 -1.9566242 7 1
6.4364958 -9.1446295 -2.173696 12 2
8.5834932 -12.208545 -2.3637249 9 3
12.614617 -17.962109 -2.6950188 13 4
3.9204926 -5.6387486 -1.8402034 3 0
4.8810968 -7.0282102 -1.9755201 7 1
6.3445287 -9.1490097 -2.1641557 10 2
8.4733086 -12.232447 -2.356842 9 3
12.449378 -17.992601 -2.6864879 9 4
3.8963151 -5.6882949 -1.8474505 3 0
4.8847313 -7.1393147 -1.9971154 9 1
6.3159413 -9.2449532 -2.1763675 10 2
8.3565264 -12.245617 -2.3480816 9 3
12.343592 -18.108601 -2.6908755 9 4
3.8500259 -5.705749 -1.8443446 3 0
4.8500195 -7.1958656 -2.0034139 9 1
6.2687845 -9.3148804 -2.1824734 10 2
8.2465868 -12.267591 -2.3411984 9 3
12.200269 -18.169613 -2.6872194 5 4
3.8229306 -5.7517953 -1.8505563 4 0
4.7888861 -7.2133145 -1.9989151 9 1
6.2708549 -9.4598722 -2.2061336 13 2
8.1694679 -12.338039 -2.3437014 7 3
12.07422 -18.255999 -2.687463 7 4
6.8990378 -10.443098 -1.0950247 16 5
3.7826831 -5.7783442 -1.8505563 4 0
4.7469435 -7.2596188 -2.0025144 9 1
6.2374535 -9.5500059 -2.2172008 10 2
6.1856675 -9.4815588 -1.7930521 10 3
6.3394551 -9.7321281 -1.4261152 3 4
6.8324838 -10.501028 -1.0960705 16 5
3.7558284 -5.8234391 -1.8567679 3 0
4.7005849 -7.2966766 -2.0038638 10 1
6.217361 -9.6659698 -2.2339919 12 2
6.1428146 -9.5610733 -1.7999352 10 3
6.7791119 -10.563608 -1.5411599 10 4
6.7074113 -10.467949 -1.0877036 16 5
3.7212963 -5.859302 -1.8598738 4 0
4.6474428 -7.3260245 -2.0029643 10 1
6.1549811 -9.717432 -2.2358999 10 2
6.0600743 -9.5786848 -1.7952422 13 3
6.8335137 -10.813726 -1.5706522 5 4
6.5682521 -10.410049 -1.0768963 16 5
6.5586081 -10.406834 -0.64467436 17 6
3.6884944 -5.8982425 -1.8640147 4 0
4.5920558 -7.3516798 -2.0011647 13 1
6.1046534 -9.7884846 -2.2423875 10 2
5.9523211 -9.5553684 -1.7830403 19 3
5.8591137 -9.4167223 -1.3617681 19 4
6.5290618 -10.509807 -1.0824744 16 5
6.5005369 -10.476128 -0.6461398 17 6
3.6431763 -5.9172688 -1.8619443 4 0
4.5416403 -7.3852191 -2.0016146 14 1
6.143003 -10.004862 -2.2820759 12 2
5.7646403 -9.3996706 -1.7464346 17 3
5.9072909 -9.6435995 -1.3885795 31 4
6.1336288 -10.040613 -0.61662227 26 6
3.6017773 -5.9425588 -1.8619443 4 0
4.5252943 -7.4750919 -2.0173612 17 1
6.1014428 -10.094548 -2.2927611 12 2
5.7825956 -9.5783548 -1.7720897 17 3
6.1534934 -10.204789 -1.4631635 15 4
5.9106812 -9.8137302 -1.0022911 21 5
6.0654407 -10.086612 -0.6168316 17 6
3.5562434 -5.9609227 -1.8598738 4 0
4.5178876 -7.5818353 -2.0376067 15 1
6.0185328 -10.112227 -2.2874184 9 2
5.70717 -9.6005135 -1.7689612 16 3
5.518775 -9.2983713 -1.3276447 13 4
5.8582792 -9.8821774 -1.00508 14 5
5.9762917 -10.093292 -0.61473817 18 6
6.3835759 -10.798341 -0.21895789 17 7
3.5214577 -5.9949856 -1.8629795 4 0
4.5105515 -7.6880484 -2.0578523 25 1
5.8882532 -10.052356 -2.2645214 12 2
5.6200562 -9.6060238 -1.7627038 20 3
6.0422544 -10.340079 -1.4704757 18 4
5.3349204 -9.140604 -0.9259426 13 5
5.6663575 -9.7240629 -0.58982629 19 6
6.3360801 -10.886476 -0.21986541 17 7
3.4833868 -6.0261135 -1.8650501 4 0
4.468461 -7.7396026 -2.0632513 21 1
5.7765403 -10.017371 -2.24773 12 2
5.6117225 -9.7433376 -1.7808502 13 3
5.6136847 -9.762495 -1.3827296 19 4
5.2273164 -9.1016064 -0.91827285 13 5
5.9031453 -10.290807 -0.62175119 17 6
6.2619133 -10.933915 -0.21993522 17 7
3.4613962 -6.0832653 -1.8754028 4 0
6.2512517 -10.995255 0.22077294 16 8
4.461894 -7.851162 -2.0848465 19 1
5.6425219 -9.9447565 -2.2225432 12 2
5.4539638 -9.6241655 -1.7520663 18 3
5.3427415 -9.4394188 -1.3317883 20 4
5.135829 -9.0849438 -0.91304356 19 5
5.8763161 -10.411777 -0.62656611 17 6
6.234477 -11.059901 -0.22161067 17 7
3.4178994 -6.1055965 -1.8748853 11 0
6.1528287 -10.995669 0.21993522 16 8
4.437407 -7.9365506 -2.0992434 15 1
5.4110193 -9.6898203 -2.1572866 18 2
5.3536897 -9.598959 -1.7408029 9 3
5.6176124 -10.088715 -1.4178281 19 4
5.0606585 -9.0996828 -0.91095179 12 5
5.4552069 -9.8212309 -0.58877957 19 6
5.2746167 -9.5117435 -0.18984728 12 7
3.3715994 -6.1202598 -1.872297 25 0
6.1357017 -11.14697 0.22209933 16 8
4.4001908 -7.9973035 -2.1073413 14 1
5.2978721 -9.6447649 -2.1389689 7 2
4.9340458 -8.9935789 -1.6247286 19 3
5.2359343 -9.5557089 -1.3378818 18 4
5.509522 -10.071692 -1.0043827 14 5
5.3960857 -9.8766012 -0.58982629 19 6
5.5967221 -10.256595 -0.20394883 14 7
3.3361533 -6.1572371 -1.8764381 37 0
5.9472966 -10.985543 0.21805036 15 8
4.3312683 -8.0038328 -2.1010427 15 1
5.2248101 -9.6711521 -2.1366794 18 2
4.935863 -9.1477585 -1.6463164 16 3
5.1323676 -9.5238762 -1.3283759 12 4
4.8915796 -9.0922508 -0.90328211 19 5
4.9989686 -9.3035326 -0.55350512 21 6
5.4852681 -10.221412 -0.20248282 14 7
3.2985373 -6.1906071 -1.879544 28 0
5.3122635 -9.9783058 0.19731691 12 8
4.3155665 -8.1095695 -2.1208386 14 1
5.1332178 -9.6623144 -2.1267571 15 2
4.9709468 -9.3687057 -1.6797936 7 3
4.8612652 -9.1735868 -1.2747533 19 4
5.3851328 -10.179335 -1.0075203 14 5
5.0132051 -9.488308 -0.56240225 20 6
3.2668936 -6.2357306 -1.8862734 7 0
5.2406173 -10.011605 0.1972471 12 8
4.2624612 -8.1464071 -2.1226382 14 1
5.5889463 -10.690668 0.63221842 12 9
5.0892706 -9.7431583 -2.1366794 9 2
4.9392257 -9.4679813 -1.6913697 14 3
4.8420477 -9.2935658 -1.2866967 20 4
5.3249683 -10.237894 -1.0096121 14 5
5.0002422 -9.6258755 -0.56847322 10 6
5.4691014 -10.541957 -0.20729968 15 7
3.2170882 -6.2463632 -1.8826498 5 0
5.262095 -10.225756 0.20073758 26 8
4.2037015 -8.1724997 -2.1217382 16 1
5.8154478 -11.315636 0.66676015 14 9
4.796032 -9.3400879 -2.0408931 10 2
4.7423024 -9.2473631 -1.6460036 10 3
4.9815602 -9.7264481 -1.3417815 10 4
4.8250928 -9.4331169 -0.92698848 13 5
4.9565358 -9.7067966 -0.57119471 10 6
5.4498796 -10.686767 -0.20939396 15 7
3.175148 -6.2721171 -1.8836851 4 0
5.2230659 -10.322002 0.20192434 26 8
4.16325 -8.2346907 -2.1302865 14 1
5.748199 -11.374567 0.66791159 8 9
4.7951732 -9.4969463 -2.0679879 4 2
4.7575183 -9.4346447 -1.6735362 9 3
4.7403793 -9.4170046 -1.2944963 18 4
4.6571007 -9.2636414 -0.90711701 12 5
4.9763799 -9.9116621 -0.58124322 19 6
3.1427107 -6.3143387 -1.8898968 4 0
5.109921 -10.275849 0.20031872 26 8
4.1114402 -8.2715635 -2.1325359 14 1
4.6763983 -9.4246712 -2.0450909 21 2
4.6468043 -9.3773594 -1.6575798 14 3
4.7897511 -9.6785631 -1.3259385 19 4
4.7317443 -9.5781631 -0.93465823 13 5
5.0935197 -10.324091 -0.603329 18 6
5.2489867 -10.653265 -0.20729968 15 7
3.0934606 -6.3257117 -1.886791 5 0
5.039813 -10.314866 0.20038854 13 8
4.0467529 -8.2860565 -2.1289368 15 1
5.6921754 -11.665521 0.6802628 2 9
4.6380181 -9.5135593 -2.0573027 22 2
4.6720195 -9.5960579 -1.6904311 24 3
4.5899429 -9.4568148 -0.91966736 13 5
4.8322797 -9.9693928 -0.58061516 9 6
3.0542426 -6.3576016 -1.8898968 4 0
4.9278765 -10.26687 0.19878291 13 8
3.9854345 -8.3070784 -2.1271372 15 1
5.6416764 -11.769814 0.68403101 2 9
4.6172805 -9.6413231 -2.0779099 13 2
4.607471 -9.6337852 -1.6913697 20 3
4.1664915 -8.7234726 -1.1870075 13 4
4.4122448 -9.2504625 -0.89665824 19 5
4.7805929 -10.040755 -0.58281326 19 6
3.0213258 -6.4032292 -1.8971437 4 0
5.0626001 -10.734249 0.20716007 14 8
3.9373121 -8.3558531 -2.1325359 15 1
5.5835576 -11.85492 0.6867525 6 9
4.4896903 -9.5410748 -2.0496705 13 2
4.4678564 -9.5075989 -1.6638372 15 3
4.1467972 -8.8404093 -1.1989506 9 4
4.217401 -9.0031872 -0.86981428 12 5
4.6994438 -10.045926 -0.58124322 19 6
5.0771852 -10.873193 -0.20946379 15 7
2.9744203 -6.4166355 -1.8950732 5 0
4.9757733 -10.743927 0.2066714 14 8
3.8819814 -8.3859959 -2.1334357 14 1
5.4746685 -11.837417 0.68350762 8 9
4.4740281 -9.682682 -2.0733306 16 2
3.9925213 -8.6525011 -1.50928 11 3
4.0682487 -8.8287687 -1.1935885 18 4
4.1094871 -8.9346638 -0.86040151 12 5
5.0526834 -11.000491 -0.63441652 17 6
4.9480338 -10.787539 -0.20716007 15 7
2.9311523 -6.4407606 -1.8961084 5 0
4.8923697 -10.760198 0.20632236 28 8
3.837049 -8.4430523 -2.1410842 14 1
5.3819866 -11.853524 0.68225157 8 9
4.2943988 -9.4669495 -2.0206673 15 2
5.295208 -11.678638 1.1218687 6 10
3.9287577 -8.672965 -1.5080284 5 3
4.0596957 -8.9745159 -1.2094315 15 4
4.0306134 -8.9268188 -0.8569153 12 5
4.9962873 -11.081015 -0.63703334 17 6
4.7560205 -10.562897 -0.20220359 14 7
2.8971469 -6.4857612 -1.9033554 5 0
4.8171301 -10.79409 0.20632236 28 8
3.7668982 -8.4447193 -2.1347857 13 1
5.2673974 -11.819661 0.67816937 4 9
4.2010527 -9.4357195 -2.0076923 9 2
3.914659 -8.8048725 -1.5261748 8 3
4.1556277 -9.3600597 -1.2574481 21 4
3.9439173 -8.8957615 -0.85133731 24 5
5.1152039 -11.559446 -0.66246861 8 6
4.5382953 -10.270267 -0.19599053 20 7
2.8486948 -6.4987516 -1.9012847 4 0
4.7788568 -10.90722 0.20785816 28 8
3.7047253 -8.4636707 -2.1329858 14 1
5.2508678 -12.001625 0.68654317 6 9
4.1052775 -9.3921404 -1.9924276 10 2
3.8996782 -8.9345093 -1.5440084 10 3
3.9926639 -9.1649961 -1.2274681 15 4
3.881717 -8.9230785 -0.85133731 12 5
4.4300289 -10.198101 -0.5827086 29 6
4.8801231 -11.255731 -0.21414103 16 7
2.8105021 -6.5321884 -1.9054259 5 0
4.7404985 -11.028501 0.20953359 14 8
3.6501071 -8.4958534 -2.1347857 14 1
4.5950346 -10.705533 0.6105513 14 9
3.9653313 -9.2473536 -1.9557924 21 2
3.7501233 -8.7581348 -1.508967 12 3
3.9317489 -9.195611 -1.2279556 15 4
3.8177648 -8.9462948 -0.85098869 24 5
5.2027526 -12.209492 -0.69554496 8 6
4.3257952 -10.166258 -0.19284908 13 7
2.7843599 -6.5979257 -1.9188845 3 0
4.6183324 -10.954453 0.20750912 14 8
3.602057 -8.5480661 -2.1415341 16 1
4.5728798 -10.862527 0.61766905 6 9
4.0254993 -9.5716038 -2.0183775 13 2
3.8326807 -9.1265049 -1.5677863 7 3
4.1015911 -9.7811852 -1.3022959 20 4
4.3936477 -10.498205 -0.99566722 14 5
4.4897485 -10.743621 -0.6102373 18 6
2.7249336 -6.5850725 -1.909567 4 0
4.5616078 -11.034477 0.20841664 14 8
3.5370841 -8.5603971 -2.1383848 14 1
4.5197954 -10.949571 0.6208092 14 9
3.7609866 -9.1203175 -1.9176304 9 2
4.8796396 -11.838894 1.1202999 2 10
3.8245311 -9.2882061 -1.5909387 9 3
3.5667033 -8.6749525 -1.1516654 20 4
3.732569 -9.0964193 -0.86022717 30 5
4.2684894 -10.418011 -0.59003562 19 6
4.3272948 -10.577317 -0.19948101 14 7
2.6774433 -6.6003551 -1.9085318 5 0
4.325242 -10.673154 0.20101681 13 8
3.478698 -8.5884933 -2.1392844 13 1
4.4859462 -11.08639 0.6267755 13 9
3.6986949 -9.149992 -1.9183939 7 2
3.6013737 -8.922677 -1.5239848 9 3
3.8525803 -9.5594778 -1.2654914 10 4
4.2678533 -10.627335 -0.60018879 18 6
4.0404925 -10.076442 -0.18949823 19 7
2.6455724 -6.6547899 -1.9188845 4 0
4.3259087 -10.892655 0.2045771 13 8
3.4222505 -8.6216269 -2.1415341 16 1
4.2891736 -10.816664 0.60981864 10 9
3.6694317 -9.2632027 -1.9367114 18 2
4.6603251 -11.770638 1.1075752 12 10
3.5607898 -9.0027084 -1.5333707 22 3
3.3985698 -8.6057405 -1.1360661 19 4
3.6674573 -9.3008585 -0.874695 12 5
4.6184721 -11.736682 -0.66100323 8 6
3.9978366 -10.17513 -0.19082463 19 7
2.5976465 -6.6694975 -1.9178492 4 0
4.2226486 -10.847309 0.20318091 13 8
3.3732774 -8.6743679 -2.1487324 23 1
4.2914214 -11.041076 0.6208092 14 9
3.6297448 -9.3483601 -1.9493048 12 2
4.5737157 -11.79174 1.1065294 1 10
3.5087113 -9.0506811 -1.537438 27 3
3.3663411 -8.7014608 -1.1455719 20 4
3.669919 -9.5009413 -0.89108032 12 5
3.9922771 -10.351605 -0.58145255 9 6
4.1838403 -10.870909 -0.20332053 14 7
2.5494335 -6.6798043 -1.9157786 4 0
4.2778974 -11.220328 0.2096034 14 8
3.3113801 -8.6898441 -2.1469328 21 1
4.0195479 -10.559319 0.59212905 2 9
3.5678816 -9.3826475 -1.951213 18 2
4.5386486 -11.941794 1.1176852 6 10
3.6529799 -9.6215954 -1.6300472 16 3
3.3985064 -8.9654799 -1.177258 20 4
4.206903 -11.121506 -1.040291 14 5
3.9827151 -10.545516 -0.59076834 19 6
4.170423 -11.06005 -0.20632236 14 7
2.5162623 -6.7336326 -1.9261314 4 0
4.2050552 -11.264909 0.20988265 14 8
3.2465456 -8.7017956 -2.1442335 17 1
3.9157398 -10.506649 0.58762819 14 9
3.4543428 -9.2785358 -1.9244996 24 2
4.4961629 -12.08336 1.1279696 2 10
3.4948719 -9.4024515 -1.5887486 17 3
3.5223079 -9.491477 -1.2430674 20 4
3.7610772 -10.156615 -0.94755721 27 5
3.967176 -10.730423 -0.59956074 18 6
3.6416276 -9.8657579 -0.18356441 12 7
2.467865 -6.7474065 -1.9250962 4 0
3.7598622 -10.290998 0.19124347 12 8
3.189728 -8.7352314 -2.1469328 18 1
3.965488 -10.871469 0.60646909 8 9
3.4835808 -9.5606718 -1.9779261 7 2
4.0524054 -11.12785 1.0361074 13 10
3.4791186 -9.5639925 -1.6119009 17 3
3.2845161 -9.0437756 -1.1814015 18 4
3.7498155 -10.347465 -0.96289659 13 5
3.8867309 -10.742833 -0.59872341 18 6
3.8946714 -10.782424 -0.20010929 14 7
2.4285109 -6.7862978 -1.9313078 4 0
3.78216 -10.580617 0.19613016 12 8
3.1312892 -8.7646275 -2.1487324 14 1
3.7458379 -10.496341 0.58406937 12 9
3.4516888 -9.6827698 -1.9981518 12 2
3.6817405 -10.333818 0.959759 2 10
3.0844176 -8.6668348 -1.4570308 18 3
3.733705 -10.508668 -1.369324 23 4
3.1315887 -8.8335323 -0.81996119 17 5
3.6883585 -10.421385 -0.57935911 19 6
3.560817 -10.077792 -0.18656623 12 7
2.3861797 -6.8176732 -1.9354489 4 0
3.6527677 -10.448199 0.19319814 24 8
3.0725965 -8.7936325 -2.150532 11 1
3.5987558 -10.311037 0.57234609 14 9
3.3129137 -9.5027103 -1.956174 6 2
3.6422851 -10.453343 0.96847457 7 10
3.0491598 -8.7609158 -1.4692327 17 3
3.0745316 -8.8487368 -1.150203 10 4
3.0740008 -8.8621731 -0.82065845 23 5
3.2013798 -9.2502546 -0.51299709 11 6
3.4302979 -9.9285192 -0.18335499 30 7
2.3485324 -6.8634109 -1.9437311 4 0
3.4340322 -10.04142 0.18523984 33 8
3.0281389 -8.8646593 -2.1626794 15 1
3.5491383 -10.395779 0.57569557 14 9
3.3622139 -9.8595123 -2.0248652 6 2
3.6244662 -10.64071 0.98346537 12 10
2.9608095 -8.6973181 -1.4551535 20 3
3.1990981 -9.4188385 -1.2213746 16 4
3.0056589 -8.8645496 -0.81891537 17 5
3.7850931 -11.182573 -0.6187157 8 6
3.6462548 -10.797207 -0.19892253 21 7
2.3091168 -6.9012222 -1.9499428 5 0
3.5083642 -10.49757 0.19319814 12 8
2.9751384 -8.9072466 -2.1680782 14 1
3.4543538 -10.353991 0.57203203 16 9
3.0406849 -9.1246824 -1.8695467 24 2
3.9133182 -11.750173 1.0835202 13 10
3.4605682 -10.402851 -1.7364228 13 3
2.9028132 -8.7414551 -1.1309476 20 4
2.9086106 -8.7794037 -0.80915391 22 5
3.3827085 -10.228365 -0.56460035 20 6
3.3695619 -10.206535 -0.18761338 12 7
2.2800865 -6.9759345 -1.9665072 5 0
3.4349918 -10.521807 0.19319814 12 8
2.9152994 -8.9352102 -2.169878 15 1
3.5038972 -10.751951 0.59265244 10 9
3.0370667 -9.3305063 -1.9073268 6 2
3.4558396 -10.623359 0.97736448 2 10
3.3762603 -10.391062 -1.7304782 7 3
2.8747871 -8.8634739 -1.1441095 21 4
2.8036995 -8.6649046 -0.79677778 28 5
2.2407284 -7.0211291 -1.9747895 7 0
3.3650973 -10.556962 0.19340758 12 8
2.8487086 -8.9423485 -2.1667287 16 1
3.4426775 -10.819926 0.59505987 6 9
2.9022865 -9.1325684 -1.8626775 24 2
2.9746335 -9.3942986 -1.209919 23 4
2.8397577 -8.9901457 -0.82484198 23 5
3.1260576 -9.914587 -0.54481739 21 6
2.2054455 -7.0808678 -1.9872128 9 0
3.2687418 -10.507639 0.19208118 36 8
2.7885249 -8.9694605 -2.1685281 17 1
3.3350747 -10.740695 0.58940756 14 9
3.0164075 -9.7264042 -1.9794526 13 2
3.395062 -10.954133 1.0033369 11 10
3.0696294 -9.9163666 -1.6441264 12 3
2.8234196 -9.1379299 -1.1743331 12 4
2.7892506 -9.0497351 -0.82850248 28 5
2.9105332 -9.4608374 -0.51875407 22 6
2.1514652 -7.0813041 -1.9830716 9 0
3.3009844 -10.878467 0.19843386 12 8
2.719053 -8.9663305 -2.1631293 17 1
3.4203761 -11.293205 0.61840177 10 9
3.0666635 -10.138092 -2.0588293 10 2
3.3110099 -10.952775 1.0010709 4 10
3.1744642 -10.514331 -1.7395515 17 3
2.6931167 -8.9369392 -1.1460594 25 4
3.2049046 -10.662213 -0.97405255 20 5
2.9207475 -9.7353573 -0.53267539 22 6
3.118829 -10.415411 -0.18977746 19 7
2.1030731 -7.0998564 -1.9841069 9 0
3.0865428 -10.433366 0.1899171 35 8
2.6652303 -9.0149956 -2.1703279 16 1
3.3889611 -11.47771 0.62719417 13 9
2.8569884 -9.6884832 -1.9634248 15 2
3.2124999 -10.90109 0.99427271 7 10
2.8410804 -9.6531639 -1.5937545 19 3
2.7973835 -9.5230999 -1.2186935 9 4
2.6503 -9.0457335 -0.82466763 28 5
2.65203 -9.069232 -0.4952029 23 6
3.0987051 -10.617373 -0.19305852 19 7
2.0555987 -7.1217904 -1.9861774 9 0
3.0114148 -10.446974 0.18977746 23 8
2.6060042 -9.0464897 -2.1734772 15 1
3.2220557 -11.199742 0.61076069 16 9
2.7654271 -9.6251669 -1.9466335 16 2
3.2044995 -11.160712 1.0158873 11 10
2.9990385 -10.458888 -1.7232823 19 3
2.7237329 -9.5175877 -1.215525 12 4
2.5656853 -8.9831009 -0.81734651 28 5
2.5919328 -9.0990496 -0.49583086 35 6
2.999352 -10.550267 -0.19145289 13 7
2.0026941 -7.1248078 -1.9830716 9 0
3.0473096 -10.848415 0.19668862 12 8
2.5501535 -9.0907326 -2.1797757 14 1
3.013124 -10.748327 0.58501136 6 9
2.7353082 -9.7704353 -1.9722018 12 2
3.2847629 -11.74886 1.0673091 4 10
3.0946844 -11.07645 -1.8215232 18 3
2.7179635 -9.7543669 -1.2433112 19 4
2.4324503 -8.7474117 -0.79433739 27 5
2.5160527 -9.0664444 -0.49310946 11 6
2.923491 -10.563242 -0.19131328 26 7
1.9551709 -7.1420016 -1.9841069 9 0
2.8143561 -10.294609 0.18628699 22 8
2.4948928 -9.1323175 -2.1856244 16 1
3.3138731 -12.146791 0.65985179 8 9
2.6020081 -9.5506229 -1.924118 12 2
3.2136126 -11.803628 1.0702726 3 10
2.5218298 -9.2754755 -1.5224204 15 3
2.673336 -9.8531055 -1.2535481 18 4
2.4129467 -8.91185 -0.8077594 16 5
2.4610257 -9.1146402 -0.49478418 11 6
2.7547548 -10.223761 -0.18482098 12 7
1.9025323 -7.1402111 -1.9799658 9 0
2.8501403 -10.711615 0.19347738 24 8
2.4396851 -9.1754541 -2.1919231 16 1
2.8856578 -10.867995 0.5893029 8 9
2.4891379 -9.3878326 -1.8878642 15 2
2.5834036 -9.7847052 -1.2425799 10 4
2.3537533 -8.9338465 -0.80828232 28 5
2.7978191 -10.649503 -0.57705635 9 6
2.7378385 -10.443445 -0.18845108 12 7
1.8509783 -7.1417756 -1.9768599 9 0
2.8713562 -11.094718 0.20003949 13 8
2.3718057 -9.1710939 -2.186974 10 1
2.8131144 -10.893187 0.58961695 16 9
2.3594894 -9.1498156 -1.8367275 19 2
2.9978981 -11.642293 1.0517955 1 10
2.5868158 -10.053125 -1.6441264 24 3
2.4874039 -9.6948242 -1.2289306 16 4
2.3441992 -9.1565866 -0.82693368 17 5
2.61917 -10.260447 -0.5549705 20 6
2.6846073 -10.539817 -0.18984728 25 7
1.7979412 -7.1473441 -1.9747895 9 0
2.6983564 -10.742606 0.19333775 24 8
2.308017 -9.1953917 -2.1887739 14 1
2.761312 -11.017653 0.5952692 16 9
2.3273187 -9.2997818 -1.8634408 10 2
2.8150098 -11.265258 1.0158873 12 10
2.4377649 -9.7628174 -1.5937545 27 3
2.4035797 -9.6545858 -1.2216184 27 4
2.2786171 -9.1731272 -0.82693368 11 5
2.7996743 -11.304493 -0.61034197 18 6
2.670521 -10.807244 -0.19431511 13 7
1.7412555 -7.1375046 -1.9685777 9 0
2.6261489 -10.781069 0.19368681 12 8
2.246305 -9.228713 -2.1928227 17 1
2.655045 -10.924566 0.58919823 16 9
2.3736775 -9.7817202 -1.9565556 24 2
3.0762208 -12.686502 1.1420889 12 10
2.6574304 -10.976115 -1.788672 3 3
2.3123491 -9.5727215 -1.2091877 20 4
2.2910769 -9.5064678 -0.85552078 12 5
3.0491652 -12.690927 -0.68403101 8 6
2.5782261 -10.755619 -0.19305852 13 7
1.6976122 -7.175806 -1.9758247 9 0
2.4616177 -10.413375 0.18677565 22 8
2.1827173 -9.2479649 -2.1937227 16 1
2.5751207 -10.919059 0.58794218 4 9
2.31199 -9.8186722 -1.9607532 12 2
2.8986628 -12.329465 1.1080981 2 10
2.172919 -9.2497635 -1.5048997 14 3
2.3296506 -9.9481335 -1.2545232 18 4
2.1095238 -9.0294333 -0.81124562 16 5
2.4730821 -10.610653 -0.57098538 20 6
1.6495916 -7.1909614 -1.9768599 9 0
2.4486806 -10.691502 0.19145289 24 8
2.1179798 -9.2550087 -2.1919231 17 1
2.4881518 -10.89004 0.58543009 14 9
