# .PCD v0.7 - Point Cloud Data file format
VERSION 0.7
FIELDS x y z intensity ring
SIZE 4 4 4 4 2
TYPE F F F F U
COUNT 1 1 1 1 1
WIDTH 1272
HEIGHT 1
VIEWPOINT 0 0 0 1 0 0 0
POINTS 1272
DATA ascii
2.6350138 -9.5990686 -2.2981 24 1
3.348248 -12.214002 0.66372466 2 9
2.6452959 -9.6629438 -1.9473966 24 2
2.6716347 -9.7792635 -1.6056436 17 3
2.6634426 -9.7693939 -1.2433112 15 4
2.8754754 -10.57621 -0.95888752 20 5
2.9208813 -10.765482 -0.58459264 19 6
2.796509 -10.328479 -0.18677565 31 7
2.2425749 -8.3811035 -2.3247128 9 0
2.8014748 -10.484521 0.18942842 23 8
2.5538602 -9.5645123 -2.2855027 21 1
2.5999992 -9.7646513 -1.964188 9 2
2.5743842 -9.6888561 -1.58781 34 3
2.6256998 -9.9028778 -1.2579355 19 4
2.8311093 -10.707746 -0.9689976 27 5
3.0056427 -11.392 -0.61745965 8 6
2.7620108 -10.49085 -0.18935861 12 7
2.1830368 -8.3928165 -2.3236775 9 0
2.7362566 -10.534791 0.1899869 35 8
2.4938791 -9.6085157 -2.2918015 37 1
2.5175006 -9.7274456 -1.9531209 12 2
2.5131028 -9.7314558 -1.5918773 17 3
2.8730319 -11.149313 -1.4136845 20 4
2.7740335 -10.788515 -0.97457546 27 5
2.7683046 -10.797476 -0.58417404 9 6
2.7630458 -10.800473 -0.19459434 13 7
2.1243918 -8.4078522 -2.3236775 9 0
2.6507773 -10.498885 0.18900958 23 8
2.4310267 -9.6426973 -2.2958505 16 1
2.4761345 -9.8433619 -1.972965 12 2
2.4083328 -9.5950613 -1.5668478 17 3
2.5382628 -10.142698 -1.2837718 13 4
2.7855327 -11.155566 -1.0059516 14 5
2.6715689 -10.723044 -0.57914978 29 6
2.6123741 -10.516747 -0.18914919 12 7
2.0707958 -8.4371271 -2.3278186 10 0
2.6269205 -10.719124 0.19263966 24 8
2.3630168 -9.6495571 -2.2936008 24 1
2.3118997 -9.4694242 -1.8947334 19 2
2.3038883 -9.4580994 -1.5418184 17 3
2.5807402 -10.618829 -1.3417815 5 4
2.7432411 -11.321903 -1.0191993 14 5
2.6276169 -10.869563 -0.58605814 9 6
2.6138711 -10.837542 -0.19459434 13 7
2.0073702 -8.4325838 -2.3226421 9 0
2.5215039 -10.608799 0.19033594 35 8
2.2505636 -9.4762192 -2.2486107 23 1
2.271064 -9.5923195 -1.9161041 19 2
2.3041005 -9.7546339 -1.5874972 14 3
2.5256674 -10.717737 -1.3520186 19 4
2.6627655 -11.334961 -1.0186763 14 5
2.7212026 -11.611021 -0.62499607 17 6
2.5153832 -10.758167 -0.19284908 13 7
1.9506228 -8.4558039 -2.3252304 10 0
2.4635367 -10.696298 0.19159251 36 8
2.2437916 -9.7499781 -2.3097975 22 1
2.1917505 -9.5543613 -1.9054186 15 2
2.2394698 -9.7858877 -1.5900002 21 3
2.2139657 -9.6977882 -1.2213746 5 4
2.4001021 -10.547044 -0.94633704 33 5
2.5582786 -11.26941 -0.60563177 18 6
2.4773164 -10.939292 -0.1957811 13 7
1.8932271 -8.476758 -2.327301 11 0
2.4523411 -10.998193 0.19668862 12 8
2.1693137 -9.7368727 -2.3030491 14 1
2.2475688 -10.121401 -2.0153246 13 2
2.1839142 -9.8591413 -1.5993862 16 3
2.1256502 -9.6199675 -1.2096752 19 4
2.3158393 -10.541812 -0.56564707 20 6
2.3469532 -10.710199 -0.19138309 19 7
1.8384892 -8.51054 -2.3329952 10 0
2.3544228 -10.917307 0.19494337 25 8
2.1057999 -9.7727356 -2.3079977 17 1
2.1512969 -10.017838 -1.9916644 15 2
2.134892 -9.9668627 -1.6144038 18 3
2.1787202 -10.197544 -1.2803594 15 4
2.4895287 -11.692238 -1.0458689 15 5
2.2118998 -10.415104 -0.55800605 10 6
2.1784716 -10.284202 -0.18349461 18 7
1.7829779 -8.542079 -2.3381712 10 0
2.3254666 -11.160565 0.19899234 13 8
2.0256081 -9.7299633 -2.2945008 18 1
2.146709 -10.347873 -2.0542498 13 2
2.1437058 -10.360667 -1.6757263 19 3
2.1175048 -10.261109 -1.2864529 9 4
2.1142564 -10.308986 -0.55151635 31 6
2.1939809 -10.72625 -0.19110386 13 7
1.7286108 -8.5729542 -2.3433478 10 0
2.2360311 -11.109483 0.19780558 38 8
1.9727775 -9.8103924 -2.3102474 15 1
2.0222263 -10.092745 -2.0008233 21 2
2.0065587 -10.04184 -1.6219126 19 3
2.0728271 -10.401828 -1.3022959 7 4
2.1387327 -10.771781 -0.96080488 20 5
2.0269685 -10.236933 -0.54691082 31 6
1.6760905 -8.6227407 -2.3537006 10 0
2.1904113 -11.289721 0.20073758 26 8
1.9305694 -9.9597588 -2.3421905 5 1
1.9517164 -10.106617 -2.0008233 19 2
1.9857112 -10.311649 -1.6632115 25 3
2.0447073 -10.648033 -1.3313009 9 4
2.0806997 -10.876467 -0.96882319 13 5
1.9573226 -10.260643 -0.54743415 21 6
1.9307899 -10.150424 -0.18035316 11 7
1.6222492 -8.6684113 -2.3630178 10 0
2.0902452 -11.190729 0.19871311 26 8
2.0315044 -10.886769 -2.5567937 16 1
1.7648649 -9.4946146 -1.8771789 7 2
1.9212338 -10.36605 -1.6697817 18 3
2.0413845 -11.046599 -1.3793174 1 4
1.9764992 -10.769099 -0.57381147 20 6
1.8404421 -10.057436 -0.17846832 23 7
1.5599833 -8.6700191 -2.36043 11 0
2.0218081 -11.247995 0.19948101 26 8
1.6925935 -9.463891 -1.8687835 9 2
1.8273983 -10.248592 -1.6488196 17 3
1.9628265 -11.052764 -1.3783424 19 4
1.8645455 -10.531363 -0.93570399 26 5
1.8951669 -10.737065 -0.57140404 10 6
1.8470433 -10.507267 -0.18621717 18 7
1.5045537 -8.701376 -2.3661237 10 0
1.9575142 -11.344601 0.20094702 13 8
1.8838565 -10.929109 -2.5603931 21 1
1.7347599 -10.106271 -1.9931908 15 2
1.7817922 -10.412971 -1.6732231 9 3
1.9109133 -11.202847 -1.3954041 18 4
1.8056574 -10.630552 -0.94337374 19 5
1.7551444 -10.366035 -0.55099303 21 6
1.7555116 -10.401287 -0.18412289 12 7
1.4475603 -8.734539 -2.3723354 10 0
1.8828338 -11.385612 0.20143569 13 8
1.6814216 -10.178687 -2.3817818 4 1
1.6765889 -10.193687 -2.0080738 12 2
1.7180018 -10.479739 -1.6819836 20 3
1.6485901 -10.089425 -1.2552543 21 4
1.7454772 -10.729426 -0.95104349 20 5
1.6509519 -10.215881 -0.18063241 11 7
1.3859413 -8.7406149 -2.3713002 10 0
1.9320445 -12.212231 0.21581645 15 8
1.6115367 -10.197878 -2.3835814 5 1
1.4921955 -9.4856253 -1.8664937 22 2
1.5297606 -9.7576971 -1.5643448 24 3
1.6631806 -10.6941 -0.94685996 13 5
1.8154989 -11.713879 -0.62122786 17 6
1.5911915 -10.302257 -0.18195879 18 7
1.326622 -8.7615385 -2.3744061 10 0
1.8282218 -12.102832 0.21365236 30 8
1.5275105 -10.124095 -2.3637857 13 1
1.4434295 -9.6123009 -1.8893907 10 2
1.5416976 -10.303434 -1.6500709 10 3
1.4876548 -9.9779491 -1.2386801 4 4
1.5849721 -10.681802 -0.94476819 20 5
1.8026146 -12.192553 -0.64593047 8 6
1.5955856 -10.83144 -0.19110386 19 7
1.2626648 -8.7514658 -2.3692296 10 0
1.3652948 -9.4979715 -2.215318 7 1
1.3587749 -9.4997034 -1.8653487 3 2
1.4028468 -9.8445969 -1.5749824 19 3
1.4411176 -10.151218 -1.2589104 19 4
1.5220643 -10.775465 -0.95208931 13 5
1.7029785 -12.101995 -0.64048749 17 6
1.5476903 -11.040348 -0.19459434 13 7
1.2036384 -8.7753792 -2.3733706 10 0
1.6243668 -11.87358 0.20918456 28 8
1.4340191 -10.495842 -2.445668 2 1
1.3844374 -10.185946 -1.9981518 10 2
1.3409747 -9.9050465 -1.583117 18 3
1.3357264 -9.9052849 -1.2272245 14 4
1.3874675 -10.343494 -0.91304356 19 5
1.1438403 -8.7950621 -2.3764765 10 0
1.5419497 -11.888596 0.20925435 14 8
1.3527006 -10.443754 -2.4312711 2 1
1.195658 -9.2821436 -1.8191731 24 2
1.3110036 -10.21982 -1.6319245 11 3
1.2622653 -9.8808937 -1.2230808 10 4
1.3839115 -10.878437 -0.95941037 13 5
1.4268836 -11.32674 -0.19927157 14 7
1.0809978 -8.7913284 -2.3733706 10 0
1.4307718 -11.652702 0.20492616 27 8
1.2115533 -9.8958654 -2.3016992 1 1
1.2174951 -9.9877481 -1.9557924 15 2
1.1324037 -9.3303757 -1.4886307 16 3
1.2741895 -10.606935 -0.93465823 13 5
1.3208319 -11.044032 -0.58291793 19 6
1.2981968 -10.919426 -0.19194156 13 7
1.0266997 -8.8464575 -2.3863118 11 0
1.2043277 -10.42463 -2.4227228 7 1
1.1141466 -9.7034378 -1.8985497 19 2
1.0708289 -9.3694544 -1.4936365 10 3
1.1588951 -10.187297 -1.2589104 14 4
1.123116 -9.9345274 -0.874695 24 5
1.4594299 -12.970239 -0.68403101 17 6
0.96533334 -8.8572502 -2.3873467 11 0
1.1147107 -10.277794 -2.3867307 6 1
1.0484799 -9.7304983 -1.9023658 19 2
1.0666755 -9.9482613 -1.5846813 22 3
1.0399413 -9.7470665 -1.2035817 10 4
1.1171497 -10.540476 -0.92733705 13 5
1.2385598 -11.744665 -0.61892503 17 6
1.1867528 -11.310177 -0.19850367 21 7
0.90190852 -8.8483992 -2.3832059 11 0
1.2563432 -12.368463 0.21700323 15 8
1.0893285 -10.742882 -2.4929075 8 1
0.96990114 -9.6320982 -1.8817585 7 2
0.9828254 -9.8119812 -1.5618418 19 3
0.97777313 -9.8133488 -1.210894 21 4
1.0536313 -10.631109 -0.93465823 13 5
1.0704759 -10.878457 -0.57286942 20 6
1.09296 -11.166932 -0.19585089 13 7
0.83993053 -8.8525562 -2.3826883 10 0
1.1672242 -12.324968 0.2160957 15 8
0.95041668 -10.073122 -2.3358917 15 1
1.1028028 -11.710045 0.616413 6 9
0.89844745 -9.5759277 -1.8695467 15 2
0.88408715 -9.4762144 -1.5074027 14 3
0.87830895 -9.4858837 -1.1697021 18 4
0.94431692 -10.257277 -0.90119034 12 5
1.0007745 -10.933226 -0.57538158 19 6
0.77694464 -8.8272791 -2.3744061 10 0
1.0699747 -12.205324 0.21386179 15 8
0.86416644 -9.8774605 -2.2891018 8 1
1.0369751 -11.900514 0.62604278 2 9
0.80882746 -9.3198767 -1.8184099 19 2
0.82775539 -9.5963039 -1.5255492 18 3
0.86747181 -10.118616 -1.2469672 29 4
0.86897117 -10.219945 -0.8973555 19 5
0.92593521 -10.957857 -0.57632357 39 6
0.92182249 -10.977687 -0.19229062 13 7
0.71717197 -8.8555937 -2.3806179 10 0
0.97798914 -12.128782 0.2123958 14 8
0.79190558 -9.8424606 -2.279654 6 1
0.9356876 -11.680502 0.61411017 8 9
0.745929 -9.3526945 -1.8237525 22 2
0.74513859 -9.4049273 -1.4942621 19 3
0.75522465 -9.5960398 -1.1818891 20 4
0.78737676 -10.094663 -0.88585097 25 5
0.89230096 -11.517634 -0.60542244 18 6
0.85743445 -11.143358 -0.19508299 13 7
0.65518826 -8.8584576 -2.3801 11 0
0.78876734 -10.715372 0.18754356 23 8
0.85513848 -11.700692 0.61484283 8 9
0.68033296 -9.3537579 -1.8229893 10 2
0.71929842 -9.9615698 -1.5818655 16 3
0.69105178 -9.6406794 -1.1867638 20 4
0.76276624 -10.719846 -0.94023609 19 5
0.78073543 -11.165031 -0.19536224 20 7
0.59448999 -8.8801641 -2.3847589 10 0
0.7107504 -10.644673 0.18621717 22 8
0.74532831 -11.221455 -2.596385 14 1
0.64530534 -9.7930708 -1.9077084 10 2
0.62106639 -9.5010395 -1.5080284 27 3
0.80371708 -12.42851 -1.5292166 7 4
0.66214877 -10.323273 -0.90502524 19 5
0.74698102 -11.742119 -0.61662227 17 6
0.69272488 -11.01055 -0.19256985 13 7
0.53588641 -8.9148579 -2.3930409 10 0
0.63570356 -10.6374 0.18600775 11 8
0.6758849 -11.342985 -2.6233792 14 1
0.71168357 -12.014424 0.63075304 14 9
0.55464864 -9.4190845 -1.8340561 3 2
0.5503481 -9.4302063 -1.4961394 16 3
0.58289146 -10.109165 -1.2433112 19 4
0.59756464 -10.458928 -0.91652977 19 5
0.66589332 -11.762999 -0.61745965 17 6
0.62231547 -11.130919 -0.19459434 13 7
0.47248793 -8.9261808 -2.3951116 10 0
0.56479889 -10.705479 0.1871247 23 8
0.59469908 -11.347531 -2.6233792 15 1
0.64864045 -12.460006 0.65388548 8 9
0.48724997 -9.3913574 -1.8279504 6 2
0.50708658 -9.9073744 -1.571228 15 3
0.50627607 -9.9940357 -1.2286868 31 4
0.52573007 -10.486723 -0.91862154 13 5
0.59195769 -11.974925 -0.62834555 8 6
0.54146731 -11.071079 -0.19347738 13 7
0.408654 -8.8964558 -2.3863118 11 0
0.55465227 -12.16751 0.21260521 14 8
0.47541845 -10.469536 -2.4195735 2 1
0.58375412 -12.955058 0.67963481 2 9
0.41442344 -9.2690802 -1.8035268 12 2
0.43930405 -9.9422474 -1.5762339 18 3
0.43112639 -9.9141064 -1.2184497 21 4
0.51669461 -12.026924 -1.05319 15 5
0.48683342 -11.471917 -0.60175884 9 6
0.45255607 -10.842907 -0.18942842 12 7
0.34483233 -8.8952913 -2.3852766 12 0
0.39698926 -10.381146 -2.3984282 9 1
0.46101165 -12.16656 0.63808006 10 9
0.36206022 -9.5993786 -1.8672569 16 2
0.37545511 -10.142539 -1.6075207 18 3
0.35524204 -9.7343674 -1.1960258 21 4
0.42373925 -12.014031 -0.63002026 8 6
0.37323904 -10.741881 -0.18761338 12 7
0.28613994 -8.9070377 -2.3878646 10 0
0.43078512 -13.557094 0.23675935 18 8
0.35915306 -11.365226 -2.6251788 10 1
0.38261926 -12.243213 0.64195293 6 9
0.30356428 -9.8233624 -1.9103796 6 2
0.31405929 -10.338304 -1.6381818 21 3
0.29292417 -9.8119097 -1.2052879 23 4
0.34455135 -11.817818 -1.0343643 14 5
0.32655838 -11.405667 -0.59799069 9 6
0.22467829 -8.9377871 -2.3956292 11 0
0.30421662 -12.272361 0.21428065 15 8
0.28080708 -11.408368 -2.6346269 11 1
0.31768003 -13.092174 0.68633378 14 9
0.24685246 -10.321803 -2.0069292 16 2
0.23892018 -10.213855 -1.6181583 16 3
0.23013759 -10.063772 -1.235999 14 4
0.24163888 -10.899677 -0.95383239 20 5
0.25531021 -11.795047 -0.61829704 8 6
0.16217116 -8.933342 -2.3940761 10 0
0.18202296 -10.324769 -2.3840313 6 1
0.17870849 -10.554907 -2.05196 16 2
0.16511287 -10.06319 -1.5940675 33 3
0.15564898 -9.7991648 -1.203338 19 4
0.1701967 -11.080363 -0.96952045 13 5
0.16885978 -11.516955 -0.603643 9 6
0.099930212 -8.9458475 -2.397182 10 0
0.10684676 -10.035442 -2.3169959 2 1
0.11008002 -10.873908 -2.1137822 19 2
0.10030977 -10.449262 -1.6550769 14 3
0.094195895 -10.582108 -1.2993711 16 4
0.092135996 -10.997604 -0.96219939 13 5
0.084355332 -11.787903 -0.20576388 22 7
0.038977381 -8.9327974 -2.3935585 11 0
0.049023423 -12.212043 0.2131637 14 8
0.038116034 -9.9268093 -2.2918015 11 1
0.033941105 -10.803736 -2.100044 15 2
0.026126878 -9.9795694 -1.580614 17 3
0.022393376 -10.691684 -1.3127767 9 4
0.014565935 -10.432141 -0.91269487 13 5
0.01047707 -12.00552 -0.62918293 17 6
0.004101539 -11.748211 -0.20506579 14 7
-0.023431771 -8.9502392 -2.3982174 10 0
-0.035308324 -11.900135 0.20771854 14 8
-0.03207361 -10.209399 -2.3570371 9 1
-0.043391239 -11.300408 -2.1965933 4 2
-0.043820098 -10.04272 -1.5906258 19 3
-0.055993754 -11.457817 -1.4068599 18 4
-0.06342639 -11.356443 -0.99357545 14 5
-0.073984139 -12.111153 -0.63473052 17 6
-0.076590292 -11.547988 -0.20157529 14 7
-0.086396724 -9.000083 -2.4116762 10 0
-0.12057436 -12.119555 0.21155807 29 8
-0.10239979 -10.115392 -2.3354418 10 1
-0.11737189 -10.846345 -2.1084394 10 2
-0.10989672 -9.6866245 -1.5343094 18 3
-0.13699608 -11.542499 -1.4173405 12 4
-0.14966325 -12.076939 -1.0566761 15 5
-0.14308202 -10.930062 -0.57286942 10 6
-0.1485544 -8.9586964 -2.4008055 12 0
-0.1728494 -10.104689 -2.3331923 2 1
-0.18188904 -10.317262 -2.0057843 4 2
-0.18611801 -10.252493 -1.6241028 7 3
-0.19725513 -10.463549 -1.2849904 21 4
-0.22239356 -11.477994 -1.0043827 14 5
-0.22908048 -11.51192 -0.60343367 18 6
-0.209033 -8.9362335 -2.3951116 10 0
-0.24339525 -10.177309 -2.3502886 3 1
-0.25342959 -10.296114 -2.0019681 6 2
-0.24646918 -9.8046484 -1.5533944 9 3
-0.29906255 -11.575181 -1.4217279 18 4
-0.29044142 -11.018071 -0.9642911 13 5
-0.31276977 -11.633824 -0.6099233 18 6
-0.33142778 -12.015599 -0.20981283 15 7
-0.27315083 -8.9403019 -2.3966644 11 0
-0.35320511 -11.494823 0.20073758 13 8
-0.30937609 -9.955204 -2.2994497 1 1
-0.32381436 -10.246999 -1.9928092 3 2
-0.32618898 -10.098786 -1.6003247 24 3
-0.39432269 -12.013265 -1.4758378 3 4
-0.36934716 -11.075514 -0.96952045 13 5
-0.41368002 -12.150275 -0.63713801 8 6
-0.33425468 -8.9034271 -2.3873467 11 0
-0.46301374 -12.219369 0.21344294 15 8
-0.38420621 -10.09301 -2.3318427 9 1
-0.42123973 -10.866304 -2.1137822 7 2
-0.39071107 -9.9442749 -1.5762339 16 3
-0.43862927 -10.873589 -0.95208931 20 5
-0.47228846 -11.508506 -0.603643 9 6
-0.47341663 -11.390429 -0.19899234 14 7
-0.39605826 -8.893158 -2.3852766 11 0
-0.5122357 -11.456807 0.2001791 13 8
-0.44492111 -9.873992 -2.2819035 2 1
-0.4478119 -9.82374 -1.9115247 9 2
-0.45802677 -9.9334936 -1.5749824 16 3
-0.54475135 -11.637765 -1.4305025 15 4
-0.52036971 -10.99365 -0.96289659 13 5
-0.54240257 -11.333457 -0.59464121 9 6
-0.54322654 -11.187113 -0.19550186 13 7
-0.45648399 -8.8883276 -2.3847589 10 0
-0.50727451 -9.7773209 -2.2603083 5 1
-0.55400938 -10.535973 -2.0508151 12 2
-0.50745994 -9.5552597 -1.5155373 17 3
-0.52657127 -9.8180513 -1.2072377 18 4
-0.5795961 -10.667459 -0.93465823 13 5
-0.62238568 -11.345348 -0.59547853 9 6
-0.52010077 -8.9119234 -2.3920057 10 0
-0.73965549 -12.598384 0.22028428 16 8
-0.5636059 -9.5712223 -2.2135184 2 1
-0.59146726 -9.9262772 -1.9328952 7 2
-0.60686755 -10.095707 -1.6018891 6 3
-0.61624652 -10.162872 -1.2501358 18 4
-0.7135796 -11.633615 -1.0197222 14 5
-0.69614989 -11.253016 -0.590873 19 6
-0.71908504 -11.525831 -0.20157529 14 7
-0.58469826 -8.9447021 -2.4018409 11 0
-0.79873967 -12.153928 0.21260521 14 8
-0.72945702 -11.070171 -2.5612926 16 1
-0.62331098 -9.3596983 -1.8233709 6 2
-0.65510899 -9.7601042 -1.5493271 8 3
-0.67378259 -9.9602661 -1.225762 20 4
-0.77404994 -11.354176 -0.99566722 14 5
-0.79857135 -11.594583 -0.60908592 9 6
-0.81614667 -11.759918 -0.20576388 14 7
-0.64671135 -8.9346218 -2.4002879 10 0
-0.87710911 -12.088375 0.21155807 14 8
-0.80771554 -11.078414 -2.5644419 18 1
-0.67463946 -9.1868525 -1.7905518 6 2
-0.71540821 -9.6726799 -1.5361867 14 3
-0.70723796 -9.4723015 -1.1662897 24 4
-0.83686429 -11.129949 -0.97649294 20 5
-0.88229883 -11.652608 -0.6124354 9 6
-0.87994069 -11.514668 -0.20157529 14 7
-0.70476508 -8.8953485 -2.3909705 10 0
-0.95291293 -11.974315 0.20967323 14 8
-0.88945752 -11.152305 -2.5828879 11 1
-0.75418949 -9.3736973 -1.8279504 10 2
-0.7916888 -9.7757406 -1.5533944 1 3
-0.90462047 -11.026695 -0.96795171 34 5
-0.91685468 -11.080875 -0.5827086 9 6
-0.76137048 -8.8266964 -2.3738885 11 0
-1.0268193 -11.879891 0.20813741 14 8
-0.97504264 -11.235128 -2.6035836 15 1
-0.84888464 -9.7223492 -1.8970231 9 2
-0.90816498 -10.33882 -1.6438135 14 3
-0.90115178 -10.177453 -1.2545232 13 4
-1.0047356 -11.280084 -0.99078649 14 5
-1.0304005 -11.500086 -0.60510838 9 6
-1.0335817 -11.445677 -0.20059796 14 7
-0.82376283 -8.8463144 -2.3806179 10 0
-1.1026597 -11.796775 0.20681101 42 8
-0.96664172 -10.322135 -2.3934791 7 1
-0.88354373 -9.3643627 -1.8283319 7 2
-0.99916649 -10.530848 -1.6754133 6 3
-0.96550345 -10.119704 -1.248186 15 4
-1.0563934 -10.991173 -0.96603423 13 5
-1.0866458 -11.244112 -0.59202439 19 6
-1.1277103 -11.605564 -0.20352997 14 7
-0.89069933 -8.8922491 -2.394594 11 0
-1.1957896 -11.896231 0.20869587 28 8
-0.99416417 -9.8730583 -2.2909014 13 1
-0.9671191 -9.5376644 -1.8634408 10 2
-1.0205806 -10.012666 -1.5940675 18 3
-1.0189308 -9.9448633 -1.2274681 20 4
-1.0942537 -10.606975 -0.93291503 19 5
-1.1612041 -11.198506 -0.59003562 28 6
-0.95090246 -8.8685255 -2.389935 10 0
-1.2843728 -11.939286 0.2096034 14 8
-1.0829002 -10.049941 -2.3336422 15 1
-1.0810983 -9.967885 -1.9489232 15 2
-1.0906714 -10.00726 -1.5943803 16 3
-1.1000042 -10.044065 -1.24063 24 4
-1.252972 -11.36747 -1.0005479 14 5
-1.227922 -11.0869 -0.58459264 29 6
-1.2883123 -11.576763 -0.20332053 14 7
-1.0110384 -8.8463173 -2.3857942 10 0
-1.3613163 -11.874402 0.20862606 28 8
-1.1514784 -10.028585 -2.330493 27 1
-1.1538141 -9.9873991 -1.9542658 15 2
-1.1254362 -9.6972237 -1.5461985 10 3
-1.1698684 -10.034168 -1.2403862 5 4
-1.3624741 -11.615693 -1.0232084 14 5
-1.3232893 -11.23079 -0.59265244 19 6
-1.3319658 -11.253724 -0.19780558 20 7
-1.071375 -8.8275356 -2.3826883 10 0
-1.2247642 -10.047383 -2.3367915 19 1
-1.2187327 -9.9401264 -1.9466335 16 2
-1.2080762 -9.8106852 -1.5655963 12 3
-1.3241889 -10.707407 -1.3247199 11 4
-1.4292706 -11.491223 -1.0130984 14 5
-1.399681 -11.205424 -0.59181505 19 6
-1.4553006 -11.601297 -0.20408843 14 7
-1.1349459 -8.8351698 -2.3868291 10 0
-1.573982 -12.219167 0.21504855 30 8
-1.3118298 -10.170013 -2.3673849 16 1
-1.2999665 -10.022882 -1.9645696 12 2
-1.3602123 -10.44451 -1.6682173 15 3
-1.4279933 -10.920322 -1.3522624 16 4
-1.5001086 -11.409852 -1.0068232 14 5
-1.4893764 -11.282502 -0.59642065 18 6
-1.4884369 -11.230066 -0.19773577 13 7
-1.1857001 -8.7466288 -2.3650885 10 0
-1.692106 -12.449621 0.21930695 15 8
-1.3817468 -10.152884 -2.3655853 16 1
-1.3895994 -10.157503 -1.9928092 12 2
-1.3648273 -9.9376793 -1.5887486 18 3
-1.4402115 -10.445995 -1.29474 7 4
-1.4083827 -10.175758 -0.89875001 19 5
-1.5174681 -10.90784 -0.57716101 19 6
-1.6691328 -11.952178 -0.21065055 15 7
-1.2576478 -8.8146381 -2.3857942 10 0
-1.4260724 -9.9577999 -2.3223946 19 1
-1.4464152 -10.062304 -1.9760182 12 2
-1.4826498 -10.276173 -1.6444392 14 3
-1.4925872 -10.256372 -0.90676832 12 5
-1.6095775 -11.019788 -0.58365065 19 6
-1.6479919 -11.227974 -0.19808482 13 7
-1.313043 -8.7753038 -2.377512 10 0
-1.4961338 -9.9632788 -2.3259938 23 1
-1.5040323 -9.9684868 -1.9596084 16 2
-1.56855 -10.359322 -1.6594571 19 3
-1.6192895 -10.656729 -1.3235012 12 4
-1.6584729 -10.876255 -0.96254802 13 5
-1.6976603 -11.081329 -0.58752352 19 6
-1.8216126 -11.848969 -0.20925435 15 7
-1.3802583 -8.8040943 -2.3878646 10 0
-1.6128951 -10.252902 -2.3961787 21 1
-1.5700144 -9.9463825 -1.9573188 15 2
-1.6816704 -10.617651 -1.7026329 10 3
-1.7320124 -10.886297 -1.3534811 15 4
-1.6106145 -10.089226 -0.89386928 18 5
-1.652382 -10.316166 -0.54753882 10 6
-1.8979367 -11.796476 -0.20855626 15 7
-1.4351579 -8.7639914 -2.3795824 10 0
-1.6997063 -10.345527 -2.4204733 15 1
-1.6665827 -10.09983 -1.9897563 12 2
-1.709296 -10.325017 -1.6575798 14 3
-1.7566347 -10.576598 -1.3164327 3 4
-1.6383181 -9.8323669 -0.87208033 30 5
-1.7240325 -10.302408 -0.54743415 21 6
-1.4937032 -8.7385254 -2.3754413 10 0
-1.7573991 -10.248898 -2.4006777 20 1
-1.8228205 -10.597115 -2.0901217 10 2
-1.7345264 -10.052297 -1.6156553 14 3
-1.8494083 -10.673612 -1.3300822 7 4
-1.7052151 -9.8108749 -0.87120879 12 5
-1.7677035 -10.138932 -0.53937441 21 6
-1.5504413 -8.7129393 -2.3713002 10 0
-2.1359794 -11.979208 0.2123958 14 8
-1.8093139 -10.13694 -2.3772829 23 1
-1.8115648 -10.108744 -1.9962438 9 2
-1.8333178 -10.199369 -1.6413106 8 3
-1.8790486 -10.422436 -1.3003459 7 4
-1.8006345 -9.947732 -0.88445646 18 5
-1.8052638 -9.9435863 -0.52963996 22 6
-1.6087693 -8.6886063 -2.3676767 11 0
-2.2553024 -12.156685 0.21581645 15 8
-1.9430151 -10.463191 -2.4569156 15 1
-1.8428752 -9.885479 -1.9546474 12 2
-1.9001215 -10.16302 -1.6375562 14 3
-1.9810313 -10.565152 -1.3198452 12 4
-2.0204084 -10.733785 -0.95557559 13 5
-1.8898264 -10.011208 -0.53393149 21 6
-2.1309731 -11.25632 -0.19996966 21 7
-1.6792421 -8.728384 -2.3816531 10 0
-2.0090005 -10.413015 -2.4483674 15 1
-1.8998984 -9.8106947 -1.9424356 12 2
-1.9103959 -9.8373051 -1.5871843 19 3
-2.0338705 -10.443897 -1.3064394 4 4
-2.1105838 -10.797633 -0.96254802 13 5
-2.0288231 -10.350564 -0.5527724 10 6
-1.7333282 -8.6823483 -2.3723354 10 0
-2.0556369 -10.268799 -2.417774 12 1
-2.1566706 -10.734566 -2.1282835 9 2
-1.987999 -9.8682661 -1.5943803 13 3
-2.2682753 -11.229164 -1.4066161 13 4
-2.14237 -10.567842 -0.94337374 13 5
-2.3103023 -11.365652 -0.60782987 18 6
-2.2983115 -11.276415 -0.20087719 14 7
-1.8056419 -8.7267895 -2.3878646 10 0
-2.5986869 -12.537565 0.22349551 16 8
-2.1003578 -10.124447 -2.3871806 21 1
-2.2571669 -10.842259 -2.1527071 7 2
-2.1553273 -10.325971 -1.6707202 11 3
-2.1733937 -10.385338 -1.3027834 11 4
-2.1628618 -10.299147 -0.92071325 13 5
-2.3616109 -11.216346 -0.60071218 18 6
-2.4372818 -11.545755 -0.20597331 14 7
-1.8778517 -8.7668629 -2.4023585 10 0
-2.6299374 -12.257121 0.21881828 15 8
-2.1848989 -10.174317 -2.4024773 18 1
-2.2087402 -10.250475 -2.0382218 16 2
-2.1914911 -10.14462 -1.6438135 12 3
-2.1681113 -10.01099 -1.2576917 16 4
-2.247402 -10.342205 -0.9259426 13 5
-2.4908733 -11.433764 -0.61327279 9 6
-2.4504106 -11.219783 -0.20045835 14 7
-1.9365034 -8.7422218 -2.3992527 10 0
-2.6643293 -12.008101 0.21469951 15 8
-2.3048797 -10.379495 -2.4546659 11 1
-2.2875063 -10.267383 -2.0447092 10 2
-2.2941217 -10.271736 -1.6669658 11 3
-2.4348505 -10.875069 -1.3683491 7 4
-2.2933497 -10.209627 -0.91548389 13 5
-2.4670889 -10.956258 -0.58857024 19 6
-2.5542173 -11.315537 -0.20248282 14 7
-2.0035207 -8.7548542 -2.4064996 10 0
-2.8070705 -12.246494 0.21930695 15 8
-2.3485272 -10.23779 -2.4249723 25 1
-2.32919 -10.121062 -2.0187593 10 2
-2.4394848 -10.574992 -1.7189021 11 3
-2.5379939 -10.975782 -1.3832171 14 4
-2.7850785 -12.006124 -1.0782908 16 5
-2.7525001 -11.837524 -0.63692868 8 6
-2.5042398 -10.744341 -0.19256985 13 7
-2.0459406 -8.6616898 -2.3847589 10 0
-2.5803685 -10.907225 0.19564149 12 8
-2.3229661 -9.8115396 -2.3277936 9 1
-2.4564977 -10.34332 -2.0664616 10 2
-2.4867206 -10.446246 -1.7007557 18 3
-2.6145575 -10.957796 -1.3832171 7 4
-2.6581953 -11.114903 -0.99985063 14 5
-2.8900504 -12.047194 -0.64927989 8 6
-2.6175234 -10.886028 -0.19543205 13 7
-2.0999587 -8.6209173 -2.377512 10 0
-2.6554978 -10.893293 0.19571128 25 8
-2.4796865 -10.156672 -2.4137249 16 1
-2.5557756 -10.444593 -2.0901217 7 2
-2.7055116 -11.031494 -1.7989967 19 3
-2.7009516 -10.979756 -1.3883356 9 4
-2.7376349 -11.103813 -1.0005479 14 5
-2.7199688 -11.00736 -0.59422249 9 6
-2.1538901 -8.5876856 -2.3723354 10 0
-2.7451229 -10.928793 0.19668862 12 8
-2.53356 -10.079081 -2.399328 16 1
-2.5115237 -9.9619961 -1.997007 10 2
-2.6077697 -10.320953 -1.6860509 7 3
-2.8462822 -11.240149 -1.4236778 13 4
-2.8312335 -11.123591 -0.60154951 9 6
-2.7248611 -10.682266 -0.19243024 19 7
-2.2070284 -8.5462532 -2.3650885 10 0
-2.8944533 -11.192019 0.20178472 26 8
-2.5418541 -9.8215513 -2.3421905 18 1
-2.5923531 -9.9879265 -2.0057843 12 2
-2.6553931 -10.208819 -1.6707202 13 3
-2.9697485 -11.392885 -1.4456142 11 4
-3.1846635 -12.182525 -1.1016486 17 5
-2.8845255 -11.010817 -0.59652531 18 6
-2.2487788 -8.4634209 -2.3464534 10 0
-2.6920898 -10.110518 -2.4155245 15 1
-2.6630321 -9.9733791 -2.0065475 12 2
-2.7255766 -10.186216 -1.6700946 13 3
-2.9330208 -10.938553 -1.3905294 12 4
-2.9790225 -11.086895 -1.0043827 28 5
-2.9904227 -11.098405 -0.60238689 9 6
-2.9060614 -10.762874 -0.19459434 20 7
-2.3129003 -8.4661522 -2.35163 10 0
-3.0221238 -11.054602 0.20003949 26 8
-2.7605495 -10.083959 -2.4137249 15 1
-2.7012527 -9.8471031 -1.9847952 15 2
-2.7786183 -10.108382 -1.6603956 18 3
-2.9212246 -10.598217 -1.3498249 18 4
-3.2674606 -11.83018 -1.0737587 16 5
-3.0318031 -10.9546 -0.59568793 18 6
-2.9436972 -10.607443 -0.192151 13 7
-2.3537769 -8.3906908 -2.3350656 10 0
-3.2268476 -11.487578 0.20827703 28 8
-2.811723 -10.003025 -2.3988781 17 1
-2.8045492 -9.9508314 -2.0096004 10 2
-2.9119318 -10.311157 -1.6970013 17 3
-2.9408672 -10.39281 -1.3261824 19 4
-2.8859177 -10.151266 -0.55308646 21 6
-2.9829605 -10.471768 -0.19005671 13 7
-2.4058795 -8.351778 -2.3288538 10 0
-3.2016675 -11.099712 0.20164511 13 8
-2.8922973 -10.020597 -2.407876 17 1
-2.8253784 -9.7631655 -1.9756364 19 2
-2.9574409 -10.19951 -1.6819836 15 3
-3.1285462 -10.768529 -1.3768799 19 4
-3.2350717 -11.106243 -1.0120524 14 5
-3.1811004 -10.899698 -0.59505987 9 6
-3.195184 -10.92668 -0.19871311 14 7
-2.461937 -8.3273687 -2.3267834 9 0
-2.951113 -9.9627924 -2.3988781 6 1
-2.8856442 -9.716855 -1.9702938 10 2
-3.0071671 -10.106667 -1.6700946 16 3
-3.2739706 -10.982318 -1.4071035 11 4
-3.4540205 -11.556808 -1.0552818 15 5
-3.4261317 -11.441654 -0.62593812 17 6
-2.5166481 -8.2988853 -2.3236775 9 0
-3.4190786 -11.260577 0.20541482 13 8
-2.9225883 -9.6193743 -2.3210452 16 1
-2.9556966 -9.7039862 -1.9718202 19 2
-3.0834172 -10.10432 -1.6732231 17 3
-3.2942646 -10.775052 -1.3834609 21 4
-3.268383 -10.663767 -0.97579563 13 5
-3.2813814 -10.686204 -0.58584875 28 6
-3.4097598 -11.0836 -0.20241301 21 7
-2.5676415 -8.258976 -2.3174658 9 0
-3.3882518 -10.885117 0.19899234 26 8
-3.295073 -10.579262 -2.5581434 17 1
-3.0596488 -9.799304 -1.9954805 19 2
-3.0854726 -9.8638544 -1.6369305 11 3
-3.153327 -10.062284 -1.29474 29 4
-3.2791574 -10.419178 -0.57245076 10 6
-3.5928872 -11.395183 -0.20855626 15 7
-2.6264088 -8.2445307 -2.318501 9 0
-3.4726675 -10.88787 0.19948101 13 8
-3.3652935 -10.544863 -2.555444 17 1
-3.8449481 -12.033311 0.66204989 14 9
-3.2027617 -10.011443 -2.0431828 12 2
-3.139791 -9.7969265 -1.6294216 19 3
-3.2762926 -10.20446 -1.3159453 19 4
-3.333941 -10.359159 -0.95208931 13 5
-3.3444614 -10.373221 -0.57119471 30 6
-3.6108897 -11.179533 -0.20506579 14 7
-2.6791091 -8.2113018 -2.3143599 9 0
-3.9633732 -12.133128 0.22279742 16 8
-3.3698096 -10.309948 -2.5041552 27 1
-3.9040146 -11.930247 0.65786302 16 9
-3.329422 -10.162348 -2.0786731 16 2
-3.1933255 -9.729722 -1.6219126 20 3
-3.144089 -9.5628023 -1.235999 18 4
-3.3083894 -10.044797 -0.92524534 13 5
-3.5439022 -10.734625 -0.59244311 19 6
-3.6888497 -11.154052 -0.20506579 14 7
-2.7302492 -8.1740751 -2.3091838 9 0
-3.6706281 -10.983095 0.20213377 26 8
-3.1782904 -9.498908 -2.3124969 6 1
-4.004786 -11.96211 0.6611079 12 9
-3.2350485 -9.6517439 -1.9786894 24 2
-3.3437326 -9.9586964 -1.6638372 28 3
-3.5102596 -10.430525 -1.3512874 12 4
-3.4420829 -10.210255 -0.94267654 19 5
-4.4380369 -13.141822 -0.72694647 8 6
-3.740983 -11.052261 -0.20366959 14 7
-2.789571 -8.1662703 -2.3122892 9 0
-3.7329798 -10.915575 0.20136586 26 8
-3.4971287 -10.220098 -2.4938073 16 1
-4.092083 -11.945196 0.66173589 14 9
-3.3902442 -9.8851995 -2.0313528 18 2
-3.4670887 -10.092039 -1.6901182 16 3
-3.488158 -10.136094 -1.3161889 24 4
-3.8082175 -11.041086 -1.021814 14 5
-3.4665556 -10.033463 -0.55633128 31 6
-3.9495442 -11.412045 -0.21079017 15 7
-2.8541603 -8.1684809 -2.318501 9 0
-3.9635968 -11.330934 0.20953359 28 8
-3.5696807 -10.199114 -2.4947071 15 1
-4.0465884 -11.54878 0.64132488 2 9
-3.3642924 -9.5908146 -1.9756364 22 2
-3.4051814 -9.691124 -1.6269187 5 3
-3.4349363 -9.7594662 -1.2703662 7 4
-3.4992552 -9.9035616 -0.55046964 21 6
-4.0050988 -11.316331 -0.20953359 15 7
-2.8994184 -8.1156101 -2.3091838 9 0
-4.0897441 -11.434789 0.21197693 14 8
-3.6834738 -10.293206 -2.5239508 17 1
-4.2988825 -11.999711 0.66801625 12 9
-3.5199783 -9.8147259 -2.0267732 25 2
-3.4173222 -9.5128136 -1.6009505 26 3
-3.6797473 -10.226493 -1.3344694 13 4
-3.4597478 -9.5783358 -0.53372216 21 6
-4.0091681 -11.081248 -0.20569406 29 7
-2.9427519 -8.0588779 -2.2988307 9 0
-4.2004228 -11.496842 0.21365236 15 8
-3.7518964 -10.25809 -2.5217013 16 1
-4.2493625 -11.61193 0.6480239 14 9
-3.6961076 -10.089176 -2.0885954 18 2
-3.6112857 -9.8204794 -1.2847468 19 4
-3.6437652 -9.8768587 -0.55172575 21 6
-3.0042884 -8.0567617 -2.3040073 9 0
-4.5617127 -12.220355 0.2276841 17 8
-3.8318617 -10.259698 -2.52845 17 1
-4.2918553 -11.479087 0.64226693 10 9
-3.663224 -9.787324 -2.0313528 22 2
-3.5550911 -9.4832897 -1.6040792 22 3
-3.869241 -10.304874 -1.351531 13 4
-3.6436024 -9.6680241 -0.54146785 21 6
-4.1064887 -10.878992 -0.20297149 14 7
-3.0467093 -7.999485 -2.2936544 9 0
-4.1639132 -10.92137 0.20401864 13 8
-3.9096453 -10.249083 -2.5324988 16 1
-4.5321999 -11.868663 0.66581815 6 9
-3.7160408 -9.7211666 -2.0229571 16 2
-3.9609416 -10.345584 -1.7545692 18 3
-3.5828724 -9.3434525 -1.2286868 14 4
-3.9233534 -10.194089 -0.57245076 10 6
-4.1535678 -10.775424 -0.20157529 14 7
-3.0884786 -7.9420099 -2.2833018 9 0
-4.1007776 -10.534246 0.19731691 25 8
-3.9711993 -10.196116 -2.5262003 16 1
-4.7128916 -12.087944 0.67994881 14 9
-3.6439133 -9.3365231 -1.9481598 19 2
-3.7180769 -9.5118399 -1.6175325 24 3
-3.6053183 -9.2091503 -1.2143062 21 4
-4.1634645 -10.613006 -0.9974103 14 5
-3.9199278 -9.97684 -0.56177419 10 6
-4.2902017 -10.902472 -0.20450729 14 7
-3.1424224 -7.9166641 -2.2822666 9 0
-4.0472145 -10.185722 0.19131328 36 8
-4.0595627 -10.211605 -2.536998 15 1
-4.5830073 -11.516589 0.64959395 12 9
-4.2742572 -10.729828 -2.2450588 4 2
-4.8650351 -12.181953 1.6106254 0 11
-3.8838599 -9.7201815 -1.2852342 19 4
-3.7664628 -9.4073048 -0.88654822 12 5
-3.1903622 -7.8766274 -2.2770901 9 0
-4.1167212 -10.153512 0.19124347 12 8
-4.130753 -10.183016 -2.536998 15 1
-4.7249126 -11.636056 0.65817702 12 9
-4.0940142 -10.072256 -2.1134005 3 2
-4.7262244 -11.621826 1.0976394 10 10
-4.1097035 -10.0957 -1.7264109 14 3
-3.9950907 -9.7994452 -1.2993711 16 4
-3.9767087 -9.7349119 -0.92001605 26 5
-4.0830445 -9.9802904 -0.56512368 20 6
-3.227567 -7.8113117 -2.2646666 9 0
-4.2073774 -10.172569 0.192151 12 8
-4.2091932 -10.171937 -2.541497 15 1
-4.7815728 -11.543739 0.65482759 10 9
-3.925868 -9.4685354 -1.9924276 7 2
-4.8400702 -11.667682 1.1051347 8 10
-4.3202286 -10.404266 -1.7842916 7 3
-3.8522687 -9.2635975 -1.2318555 21 4
-4.3395214 -10.399445 -0.59055901 19 6
-3.2580166 -7.7316217 -2.2481024 9 0
-4.2440963 -10.061879 0.19061519 23 8
-4.2952576 -10.178211 -2.5504949 16 1
-5.1161838 -12.111707 0.68905526 6 9
-3.8787174 -9.1732759 -1.9359483 7 2
-4.7847886 -11.310657 1.074456 15 10
-4.192493 -9.9009085 -1.7029458 11 3
-3.858722 -9.0994101 -1.213575 31 4
-4.3177142 -10.166965 -0.96638286 27 5
-4.2157359 -9.907608 -0.56428635 10 6
-3.2699714 -7.6110644 -2.2196321 10 0
-4.3630257 -10.150335 0.19284908 12 8
-4.3538876 -10.119336 -2.5432966 14 1
-4.8621006 -11.295098 0.64446503 14 9
-4.0001092 -9.2836905 -1.9649512 10 2
-5.0111842 -11.619091 1.1070522 15 10
-4.5133562 -10.459791 -1.8043153 10 3
-5.2554884 -12.168015 1.6274434 3 11
-3.8937953 -9.0066547 -1.2048005 23 4
-4.3553414 -10.059784 -0.9590618 13 5
-5.2189822 -12.037296 -0.68758982 8 6
-4.6011524 -10.592038 -0.20157529 14 7
-3.3240256 -7.5939398 -2.2211852 9 0
-4.4148417 -10.071617 -2.5387976 15 1
-5.1655283 -11.772986 0.67377317 6 9
-3.990617 -9.0865698 -1.9290791 10 2
-5.1109953 -11.632138 1.1115843 7 10
-4.2315826 -9.6215591 -1.6647757 6 3
-4.9843936 -11.322536 1.5189797 3 11
-4.0478244 -9.1906776 -1.2330741 21 4
-4.1149912 -9.3255253 -0.89177752 12 5
-4.8718147 -11.025031 -0.63169503 8 6
-3.1251247 -7.0059776 -2.055541 9 0
-4.7700982 -10.683692 0.20422806 13 8
-4.4596138 -9.983613 -2.5244007 15 1
-5.0625377 -11.322748 0.65001267 12 9
-4.1405683 -9.2520218 -1.9702938 9 2
-4.9404926 -11.034277 1.0577221 6 10
-4.1839342 -9.3358097 -1.6203485 24 3
-5.1348143 -11.446851 1.5404286 6 11
-4.1655331 -9.2817268 -1.2491609 21 4
-4.0966558 -9.1112204 -0.87399781 18 5
-5.340621 -11.86127 -0.68172824 8 6
-4.643189 -10.297899 -0.19717729 13 7
-3.1899443 -7.0191646 -2.0658937 22 0
-4.9141178 -10.80303 0.20716007 14 8
-4.5275893 -9.9486885 -2.5235009 12 1
-5.1480856 -11.301669 0.65085006 8 9
-4.175736 -9.1585827 -1.9565556 13 2
-5.1745105 -11.343932 1.0908413 2 10
-4.1661434 -9.1248817 -1.5887486 10 3
-5.2575083 -11.504609 1.553103 15 11
-4.2054682 -9.1982594 -1.2418487 18 4
-4.2049685 -9.1802139 -0.88341063 12 5
-4.6747117 -10.191651 -0.58762819 19 6
-3.3054161 -7.14048 -2.1083403 9 0
-4.9726043 -10.732171 0.20646198 14 8
-4.3871245 -9.4642248 -2.4083259 14 1
-5.2344246 -11.281759 0.65179205 4 9
-4.340456 -9.3464422 -2.0031128 10 2
-5.3559971 -11.527971 1.1121073 2 10
-4.1539464 -8.932579 -1.5602776 24 3
-5.2648182 -11.311052 1.5318978 5 11
-4.1723738 -8.9599276 -1.213575 16 4
-5.5236721 -11.850958 2.0708797 4 12
-4.4576373 -9.5550842 -0.92245638 26 5
-4.5555468 -9.7516203 -0.56407702 20 6
-3.2966986 -6.9931631 -2.0715878 12 0
-4.4164872 -9.3558264 -2.3885303 11 1
-5.2277355 -11.064357 0.64132488 2 9
-4.4492455 -9.4082022 -2.0229571 9 2
-5.4482765 -11.515513 1.1145476 18 10
-4.4216475 -9.3371916 -1.6363046 21 3
-5.5536613 -11.71709 1.5921013 11 11
-4.0919323 -8.6292486 -1.172627 37 4
-5.3589492 -11.29101 1.9795219 6 12
-4.5174456 -9.5137205 -0.9214105 13 5
-4.649251 -9.7736883 -0.56721711 20 6
-3.3512895 -6.9821692 -2.0752113 13 0
-4.6108541 -9.5934963 -2.4573653 18 1
-5.2977343 -11.017716 0.64069682 6 9
-4.3718529 -9.0840378 -1.9596084 19 2
-4.4130654 -9.1573982 -1.6100237 17 3
-5.7126303 -11.843508 1.6145252 8 11
-4.1503496 -8.5968952 -1.1721394 14 4
-5.7655845 -11.937318 2.0996637 3 12
-4.6496577 -9.6182795 -0.93465823 13 5
-4.930613 -10.185851 -0.5930711 19 6
-3.3843255 -6.9296851 -2.0664113 12 0
-4.7325487 -9.6774311 -2.4870589 17 1
-5.2568626 -10.740083 0.62667084 3 9
-4.3988872 -8.979249 -1.9435806 10 2
-4.4299078 -9.0305996 -1.5931287 27 3
-5.6613154 -11.530707 1.5772332 9 11
-4.3251705 -8.805419 -1.2045567 10 4
-5.536778 -11.262139 1.9876565 3 12
-4.4951844 -9.1394472 -0.89108032 12 5
-4.8330002 -9.8089857 -0.57307881 20 6
-5.7712607 -11.697814 -0.2276841 18 7
-3.4334815 -6.90762 -2.0669291 9 0
-4.5594735 -9.1609011 -2.3624361 13 1
-5.4206505 -10.886415 0.63734734 6 9
-4.3092856 -8.6468697 -1.8779422 16 2
-5.8303223 -11.68871 1.142786 7 10
-5.2304125 -10.481422 -1.8553129 9 3
-5.9383588 -11.889707 1.6318306 4 11
-4.7007484 -9.403573 -1.2908403 9 4
-5.7546792 -11.506871 2.0377157 3 12
-4.5071535 -9.0045071 -0.88097024 18 5
-4.9730363 -9.9222765 -0.58166188 9 6
-5.7289653 -11.410619 -0.22286724 26 7
-3.4636345 -6.8449516 -2.055541 9 0
-4.8724065 -9.6165142 -2.4888585 17 1
-6.0115843 -11.854608 0.69659162 6 9
-4.5253854 -8.9161654 -1.9435806 9 2
-5.7929416 -11.408641 1.1194284 3 10
-4.8157721 -9.4760046 -1.6835479 4 3
-6.1126499 -12.017487 1.6554734 3 11
-4.5787115 -8.9862242 -0.88236475 12 5
-4.9584732 -9.714777 -0.57161337 20 6
-5.799551 -11.347963 -0.22244836 17 7
-3.498071 -6.7948403 -2.0477762 10 0
-5.4927359 -10.664803 0.20939396 14 8
-4.9144211 -9.5337648 -2.4762611 18 1
-5.6747041 -11.00396 0.64886123 2 9
-4.5589571 -8.8328171 -1.932132 4 2
-6.0160127 -11.645834 1.1467953 4 10
-4.5319028 -8.7691317 -1.5634062 24 3
-6.0693645 -11.734044 1.622081 9 11
-5.0285144 -9.7134333 -1.3430003 9 4
-6.186583 -11.945333 2.1306376 7 12
-4.819211 -9.2972021 -0.91618109 19 5
-4.9582376 -9.5531664 -0.56407702 30 6
-3.5558882 -6.7931223 -2.0545056 9 0
-4.9737735 -9.4897356 -2.4735618 17 1
-5.6493306 -10.769519 0.63734734 4 9
-4.9572597 -9.4421911 -2.0729489 12 2
-6.2822876 -11.960919 1.1820061 4 10
-4.663785 -8.8719149 -1.5874972 17 3
-5.7305846 -10.892049 1.51118 3 11
-4.8735352 -9.2591496 -1.2847468 19 4
-6.2081409 -11.784756 2.1096754 1 12
-4.854516 -9.2113066 -0.91095179 12 5
-4.890542 -9.263978 -0.54900426 31 6
-3.6050425 -6.7715425 -2.055541 9 0
-5.0408196 -9.456501 -2.4740117 15 1
-5.5777726 -10.459418 0.62122786 6 9
-4.9585557 -9.2904539 -2.046999 12 2
-5.6963091 -10.663761 1.0577221 1 10
-4.7333765 -8.8573866 -1.5906258 17 3
-6.2052937 -11.601985 1.6155001 6 11
-4.8584266 -9.0761404 -1.2640289 29 4
-6.3227181 -11.806658 2.1212516 6 12
-5.1257668 -9.5635262 -0.94930029 13 5
-5.0611486 -9.4311008 -0.56093681 20 6
-3.6400182 -6.7264585 -2.0493293 7 0
-5.1143551 -9.4391041 -2.4785106 16 1
-5.890584 -10.862666 0.64760518 4 9
-5.0616899 -9.326355 -2.0626454 7 2
-6.4171309 -11.818886 1.1766025 2 10
-4.7045531 -8.6575022 -1.5605905 11 3
-6.0651574 -11.152059 1.558709 2 11
-4.9589911 -9.1143513 -1.2740222 14 4
-6.133862 -11.264331 2.0314584 1 12
-5.4843087 -10.067296 -1.0029882 14 5
-6.1377921 -11.25751 2.4923472 2 13
-4.9326596 -9.0396318 -0.53968841 21 6
-3.6831636 -6.6941118 -2.0472586 7 0
-5.1500382 -9.3485498 -2.464114 15 1
-5.8255692 -10.570434 0.63253242 6 9
-4.9667053 -9.0045967 -1.9989152 10 2
-6.5322213 -11.833104 1.1825291 7 10
-4.9448175 -8.9538269 -1.6200355 31 3
-5.992085 -10.841223 1.5209296 3 11
-5.0340314 -9.1003532 -1.2769471 16 4
-6.6943703 -12.096874 2.18977 4 12
-5.1914973 -9.3734255 -0.93744713 19 5
-5.1248369 -9.2416487 -0.55381918 20 6
-3.7342992 -6.6790047 -2.0503645 9 0
-5.2202139 -9.325182 -2.4672632 18 1
-6.0397935 -10.780416 0.64760518 2 9
-4.9574313 -8.8412714 -1.9702938 10 2
-6.7607784 -12.052492 1.2090244 3 10
-5.136786 -9.1499014 -1.66196 15 3
-6.6773014 -11.884232 1.6737536 1 11
-5.2125802 -9.2735319 -1.3061957 18 4
-6.3602595 -11.306089 2.0546105 1 12
-5.0593615 -8.9862528 -0.90223622 19 5
-6.81848 -12.105793 2.7007105 1 13
-5.6286135 -9.9851055 -0.60071218 9 6
-3.7865632 -6.6628494 -2.0534704 7 0
-5.2707324 -9.2631044 -2.4605148 14 1
-6.7602987 -11.871317 0.71595591 8 9
-5.0899992 -8.9309626 -1.9981518 4 2
-6.5704103 -11.52383 1.1605659 7 10
-5.2299085 -9.1652899 -1.6713461 16 3
-6.2875776 -11.009902 1.5567591 1 11
-5.2653751 -9.2162323 -1.3032708 13 4
-6.9665489 -12.184001 2.222934 4 12
-5.4148846 -9.4625778 -0.95383239 20 5
-6.9652534 -12.16694 2.7251341 3 13
-5.2851443 -9.2246485 -0.55716866 20 6
-3.8194578 -6.6128321 -2.0462234 9 0
-5.2982016 -9.1619759 -2.4434183 16 1
-6.6649337 -11.516136 0.69732434 8 9
-5.1414003 -8.8765221 -1.9939542 7 2
-6.7515907 -11.651793 1.1781713 6 10
-5.2729554 -9.0926695 -1.6647757 18 3
-6.6971011 -11.539177 1.6381679 4 11
-5.1661224 -8.8977079 -1.2632977 18 4
-6.8112645 -11.721743 2.1472197 4 12
-5.5272298 -9.5081825 -0.96219939 13 5
-5.5865874 -9.5948639 -0.58187127 29 6
-3.8215265 -6.5110326 -2.0229297 6 0
-5.3442616 -9.0945244 -2.4353201 16 1
-6.6976185 -11.393022 0.69261408 6 9
-5.2325621 -8.8937769 -2.0057843 6 2
-6.7377458 -11.442987 1.1617861 6 10
-5.1933622 -8.8165789 -1.6206613 16 3
-6.800693 -11.536076 1.6442614 8 11
-5.2160106 -8.84091 -1.2603729 31 4
-5.8835697 -9.948576 -0.60573643 9 6
-7.0656247 -11.928302 -0.24199508 21 7
-3.8469632 -6.4533415 -2.0130947 7 0
-5.3660941 -8.9910011 -2.4173241 15 1
-6.9633918 -11.658059 0.71166438 4 9
-5.3458991 -8.9429722 -2.0252469 10 2
-6.6027808 -11.041191 1.1255293 2 10
-5.2466693 -8.7665491 -1.6181583 15 3
-6.2598715 -10.451201 1.4958245 1 11
-5.2842307 -8.8188229 -1.2623228 16 4
-6.5658665 -10.949069 2.0220721 3 12
-5.7127604 -9.5189152 -0.97126353 13 5
-5.7913804 -9.6384764 -0.5893029 19 6
-3.87591 -6.3998885 -2.0048125 4 0
-7.1113801 -11.733041 0.23948193 19 8
-5.3943791 -8.8966637 -2.4020274 15 1
-6.7254839 -11.083257 0.67942542 6 9
-5.3297338 -8.7762222 -1.9958621 10 2
-6.8431506 -11.263865 1.1530704 2 10
-5.4688644 -8.9947042 -1.6672788 11 3
-6.3801484 -10.485251 1.5070363 0 11
-5.211483 -8.561285 -1.2306367 25 4
-6.6298132 -10.88272 2.0183177 1 12
-5.7168436 -9.3767338 -0.96080488 13 5
-5.9636264 -9.7699928 -0.59987479 18 6
-3.9144213 -6.3628006 -2.0017066 4 0
-5.4522705 -8.85215 -2.4002275 15 1
-6.8089838 -11.046235 0.68005347 4 9
-6.9411364 -11.251831 -2.5698156 3 2
-7.004283 -11.349761 1.166841 12 10
-5.2585311 -8.5142879 -1.5849943 9 3
-6.5262504 -10.558657 1.5240982 4 11
-5.2314529 -8.4605341 -1.2213746 15 4
-6.080471 -9.8221025 -1.010658 14 5
-5.8696084 -9.466713 -0.58375531 19 6
-3.9485095 -6.3189344 -1.9965302 5 0
-5.5118699 -8.8105659 -2.399328 15 1
-6.7272 -10.749063 0.66456205 4 9
-5.7899594 -9.2443161 -2.1202698 4 2
-7.305562 -11.6551 1.2034465 2 10
-5.3279071 -8.4967051 -1.5884358 18 3
-6.589529 -10.500538 1.5221483 5 11
-5.4677587 -8.7062244 -1.2623228 11 4
-5.7840748 -9.199193 -0.95069486 13 5
-6.2318296 -9.8998108 -0.61306345 9 6
-3.9790101 -6.272337 -1.9903185 4 0
-5.5476832 -8.7350101 -2.3889804 17 1
-7.4384646 -11.703081 0.72673714 4 9
-5.7057843 -8.9700994 -2.0664616 9 2
-6.8199601 -10.717577 1.11141 1 10
-5.3520799 -8.4043179 -1.5781111 18 3
-6.769361 -10.621682 1.5465221 10 11
-6.3358111 -9.9375734 -1.4470767 2 4
-5.8031206 -9.0880594 -0.94337374 13 5
-6.9489727 -10.87835 2.5091383 1 13
-6.0576668 -9.4757538 -0.58940756 9 6
-4.0206099 -6.2411575 -1.9892832 7 0
-5.6074729 -8.6944294 -2.3885303 16 1
-7.0802464 -10.969567 0.68424034 4 9
-5.7789183 -8.946538 -2.0702777 13 2
-6.958416 -10.768435 1.1216944 2 10
-6.7279453 -10.395844 1.5204421 5 11
-6.3683534 -9.8364429 -1.4387896 19 4
-5.6745634 -8.7514305 -0.91252059 32 5
-5.9899111 -9.2271795 -0.57653296 19 6
-4.0471616 -6.1870704 -1.981001 5 0
-5.6253295 -8.589859 -2.3705342 15 1
-7.5584445 -11.532933 0.72265494 8 9
-7.245286 -11.046693 -2.5679076 7 2
-7.0771437 -10.786226 1.1286669 4 10
-6.0554729 -9.222085 -1.7473731 6 3
-6.8396034 -10.408345 1.5292166 7 11
-6.3605356 -9.6756306 -1.4217279 5 4
-6.7963514 -10.330735 1.9585598 4 12
-6.067492 -9.215826 -0.96533698 13 5
-7.7040243 -11.688203 -0.7336455 8 6
-4.0945315 -6.165102 -1.9830716 5 0
-5.657105 -8.5081863 -2.3588367 15 1
-7.3654885 -11.069177 0.69680101 4 9
-7.3429046 -11.026891 -2.5751584 4 2
-6.0276656 -9.041522 -1.7210922 20 3
-7.0487123 -10.565104 1.5594403 3 11
-6.8244205 -10.217328 1.9460449 9 12
-4.1342325 -6.1315608 -1.9815186 6 0
-5.7163658 -8.4684849 -2.3588367 16 1
-7.4142108 -10.967228 -2.5732503 7 2
-7.232635 -10.694614 1.1295384 3 10
-6.0740323 -8.9746809 -1.7163991 15 3
-6.5061455 -9.6023149 -1.4241652 18 4
-4.1671181 -6.088202 -1.9768599 5 0
-5.7643328 -8.4122963 -2.3543377 15 1
-7.745512 -11.299341 0.71794468 2 9
-7.4953523 -10.926222 -2.5755401 7 2
-7.1120367 -10.359696 1.0993825 2 10
-10.283861 -14.974311 -2.8771429 6 3
-6.8407569 -9.9459276 -1.4821751 16 4
-5.9298959 -8.6119413 -0.91478664 19 5
-6.4488063 -9.3550615 -0.59547853 9 6
-4.1930346 -6.0374818 -1.969613 4 0
-5.7903113 -8.3280649 -2.3417406 16 1
-7.505259 -10.77857 -2.5530245 12 2
-7.2564101 -10.417313 1.1107128 2 10
-10.004073 -14.351179 -2.7707675 10 3
-6.7253942 -9.637044 -1.4429331 3 4
-6.0043511 -8.594245 -0.91722697 13 5
-6.5872388 -9.4145479 -0.60217756 9 6
-4.2261782 -5.99543 -1.9654719 4 0
-5.8460636 -8.2842522 -2.3408406 15 1
-7.8614039 -11.136 0.71438587 2 9
-7.6656775 -10.8507 -2.5824091 9 2
-8.1179848 -11.48243 1.2302905 1 10
-10.224717 -14.456932 -2.8045576 6 3
-6.6720343 -9.4197674 -1.4173405 13 4
-6.6835403 -9.4150934 -0.60510838 9 6
-4.2668881 -5.9665256 -1.9654719 4 0
-5.8796272 -8.2125788 -2.3318427 15 1
-7.7732749 -10.841595 -2.5930946 9 2
-6.7119684 -9.3510189 -1.8230875 10 3
-6.8935385 -9.5933743 -1.450489 7 4
-7.0856438 -9.8498306 -1.0615569 15 5
-4.2970915 -5.9209566 -1.9602956 4 0
-5.9322371 -8.1650248 -2.3300431 16 1
-7.8376498 -10.775732 -2.5900414 10 2
-10.557953 -14.499824 -2.8408504 5 3
-7.009469 -9.6123791 -1.4607261 3 4
-6.7844357 -9.2833471 -0.60259628 9 6
-4.3383226 -5.8908129 -1.9602956 5 0
-5.9567151 -8.0794916 -2.3174458 15 1
-7.9145589 -10.719372 -2.5900414 9 2
-10.634434 -14.387363 -2.8336542 8 3
-7.0327144 -9.5041695 -1.4517077 2 4
-6.9537196 -9.3837032 -1.021814 14 5
-4.343493 -5.8124108 -1.9442488 12 0
-5.991962 -8.0096245 -2.3093476 15 1
-7.9868474 -10.660714 -2.5892782 10 2
-10.736987 -14.315931 -2.8342798 9 3
-7.0833998 -9.4342041 -1.4485391 11 4
-4.378129 -5.7742486 -1.9416605 28 0
-6.0312386 -7.9458656 -2.3030491 16 1
-8.0800867 -10.629703 -2.5953841 10 2
-10.738581 -14.111722 -2.8086247 8 3
-8.1499376 -10.698323 -1.6513296 3 4
-4.4324689 -5.7619171 -1.9478723 46 0
-6.0794301 -7.8943024 -2.3003495 16 1
-8.1828718 -10.610347 -2.604543 10 2
-8.9801931 -11.631598 -2.3274322 4 3
-8.1892242 -10.595616 -1.6442614 2 4
-4.4666429 -5.7232184 -1.945284 12 0
-6.0960021 -7.8025274 -2.2859526 16 1
-8.2615862 -10.559146 -2.6060696 7 2
-9.1318264 -11.658819 -2.3455787 10 3
-8.2887163 -10.570993 -1.6493798 2 4
-4.5136843 -5.700984 -1.9483899 5 0
-6.1648493 -7.7781072 -2.2913516 16 1
-8.3479099 -10.521125 -2.6106489 9 2
-8.621233 -10.853927 -2.1954014 3 3
-15.739735 -19.78756 -3.1044998 7 4
-8.33251 -10.452916 -0.70056915 8 6
-4.5294056 -5.6415062 -1.9385546 4 0
-6.1419592 -7.641789 -2.2634575 16 1
-8.4359322 -10.48094 -2.6152282 10 2
-8.6794491 -10.771938 -2.1910214 9 3
-8.5433521 -10.591675 -1.6708289 13 4
-9.3375931 -11.563945 -1.3003637 24 5
-4.5686803 -5.6097474 -1.9385546 4 0
-6.1446738 -7.5367975 -2.2450116 17 1
-8.5008717 -10.41567 -2.6133201 6 2
-8.7375727 -10.694253 -2.1872668 11 3
-8.6749096 -10.602448 -1.6820408 13 4
-8.9762268 -10.959004 -1.2393546 22 5
-4.5870771 -5.5546861 -1.9302725 4 0
-6.0517998 -7.3205705 -2.1928227 17 1
-8.5721245 -10.354558 -2.6129384 10 2
-8.6153831 -10.395726 -2.1384594 10 3
-8.5960484 -10.361349 -1.653036 18 4
-4.6158195 -5.5106802 -1.9261314 4 0
-6.005095 -7.1616688 -2.1577303 17 1
-8.687129 -10.345581 -2.6259136 10 2
-8.7360487 -10.392786 -2.1503484 12 3
-8.8841753 -10.557776 -1.6942277 14 4
-9.6418657 -11.429828 -0.78367871 8 6
-4.6541786 -5.4783216 -1.9261314 3 0
-5.8428454 -6.8701797 -2.0821469 16 1
-8.7438669 -10.266746 -2.6213341 10 2
-8.9083557 -10.448793 -2.1747522 3 3
-8.7759609 -10.282597 -1.6598606 21 4
-8.9145727 -10.433936 -1.2006575 20 5
-4.6797009 -5.4310608 -1.9209551 4 0
-5.8703008 -6.8056111 -2.0749483 16 1
-8.6403294 -10.006388 -2.5698156 12 2
-8.788084 -10.166739 -2.1284475 9 3
-8.7630825 -10.123523 -1.6440176 19 4
-8.9506636 -10.329285 -1.1957767 20 5
-9.1075258 -10.499195 -0.72841191 8 6
-4.7241864 -5.4078107 -1.9240609 3 0
-5.8972464 -6.7434916 -2.0681999 15 1
-8.6504784 -9.877883 -2.5522611 12 2
-8.7533684 -9.9848204 -2.1031051 13 3
-8.8213158 -10.051701 -1.6420677 16 4
-9.0567541 -10.305458 -1.2003088 20 5
-9.9484015 -11.308095 -0.78933096 8 6
-4.7490125 -5.3602395 -1.9188845 3 0
-5.9260764 -6.6817465 -2.0619013 14 1
-8.7166204 -9.8143148 -2.5514979 12 2
-8.9134274 -10.025331 -2.1246932 10 3
-8.9229469 -10.025461 -1.6479174 15 4
-9.0754509 -10.182486 -1.1933364 20 5
-9.7452097 -10.922425 -0.76714051 8 6
-4.7682433 -5.3068347 -1.9116375 4 0
-5.9647617 -6.6315174 -2.059202 12 1
-8.9110594 -9.8932648 -2.5881333 12 2
-8.772872 -9.7295961 -2.0749471 13 3
-8.8370991 -9.7905159 -1.6194 20 4
-9.0795164 -10.044976 -1.1846209 20 5
-10.121396 -11.185864 -0.79058707 8 6
-4.8025723 -5.2705617 -1.9106023 4 0
-6.0161653 -6.5954747 -2.0610015 12 1
-8.9931536 -9.8453064 -2.5919495 10 2
-8.841918 -9.669569 -2.0752599 12 3
-9.1076279 -9.9496851 -1.6562046 15 4
-9.1790409 -10.013657 -1.1884557 20 5
-4.8287606 -5.2255559 -1.9064611 3 0
-6.0131011 -6.5003834 -2.0443552 7 1
-8.9415903 -9.6526604 -2.5576038 10 2
-8.8890591 -9.5858803 -2.0705669 14 3
-9.3524342 -10.074994 -1.6878905 19 4
-9.7316456 -10.468831 -1.2505106 22 5
-10.175906 -10.935259 -0.78284132 17 6
-4.8572001 -5.1832585 -1.9033554 3 0
-5.9743409 -6.3687057 -2.0160115 6 1
-8.9643993 -9.5427828 -2.5450106 19 2
-8.9801216 -9.5494947 -2.0761983 13 3
-9.4769716 -10.06727 -1.6976401 15 4
