# .PCD v0.7 - Point Cloud Data file format
VERSION 0.7
FIELDS x y z intensity ring
SIZE 4 4 4 4 2
TYPE F F F F U
COUNT 1 1 1 1 1
WIDTH 1336
HEIGHT 1
VIEWPOINT 0 0 0 1 0 0 0
POINTS 1336
DATA ascii
1.6455814 6.2994547 -1.0312161 21 3
1.780157 6.8000636 -0.86307877 15 4
1.6498071 6.2842278 -0.56842977 54 5
1.6543037 6.2745957 -0.11326612 40 7
1.4428383 5.4073892 -1.4995975 8 0
1.7215627 6.4429483 0.11640756 13 8
1.5464 5.7833543 -1.3820993 14 1
1.9057076 7.117167 0.38613471 9 9
1.6885878 6.2975116 -1.2673534 10 2
1.6797801 6.2515664 -1.0252717 19 3
2.5228074 9.3694286 -1.1913948 4 4
1.6957165 6.2802505 -0.56912696 54 5
4.9691496 18.365513 -0.9971047 9 6
1.6991149 6.2667542 -0.11333593 38 7
1.4764653 5.3822808 -1.4954566 8 0
1.7246528 6.2784395 0.11365007 9 8
1.5846717 5.7649012 -1.3802997 15 1
1.9791971 7.1903439 0.39084497 16 9
1.7304277 6.2779984 -1.2658269 10 2
1.7296942 6.262536 -1.029026 17 3
1.8569254 6.7094979 -0.85479164 16 4
1.7416476 6.275939 -0.56982422 50 5
1.7503412 6.2817068 -0.1138246 38 7
1.5160984 5.3792806 -1.497527 7 0
1.7554075 6.220058 0.11281236 11 8
1.6365285 5.7949572 -1.3901975 10 1
2.0625024 7.2935858 0.39722994 16 9
1.7699353 6.2506523 -1.262774 10 2
1.7873915 6.2997169 -1.0371606 17 3
1.503652 5.2891207 -0.67515624 12 4
1.7930691 6.2904515 -0.57226461 37 5
5.2163134 18.263615 -0.99542993 9 6
1.7803955 6.2212715 -0.11295197 30 7
1.552542 5.3648534 -1.4964917 8 0
1.8338547 6.3286533 0.11501136 9 8
1.6660911 5.7459583 -1.3811995 17 1
2.0972216 7.2233858 0.39419448 11 9
1.8190075 6.2569971 -1.2665902 10 2
1.8335351 6.2946725 -1.0384121 19 3
1.9381384 6.645144 0.84991688 2 11
1.5494361 5.3089843 -0.67905599 24 4
1.8347027 6.2701316 -0.57156736 37 5
1.7857255 6.0909171 -0.33264738 11 6
1.8412561 6.2681684 -0.11403403 28 7
1.5855607 5.3390679 -1.4923507 8 0
2.0381458 6.8543048 0.12481961 31 8
1.7095022 5.7453923 -1.383899 16 1
2.0780241 6.9750466 0.38142449 16 9
1.8643289 6.2497892 -1.2677351 8 2
1.8611902 6.2352948 0.56930131 9 10
1.8808295 6.2930741 -1.0402893 19 3
2.31457 7.7344737 0.99128538 10 11
1.5699486 5.2428899 -0.67198765 18 4
1.9078811 6.3633323 1.0521784 12 12
1.8338243 6.1124635 -0.55831969 19 5
2.404624 7.9947457 -0.43752864 13 6
1.8018872 5.9794517 -0.10900773 11 7
1.6216674 5.324173 -1.4913154 12 0
1.8253261 5.9890642 0.10928696 10 8
1.7455866 5.7202716 -1.3807496 15 1
2.1534507 7.0524297 0.38644874 9 9
1.9051048 6.2313223 -1.2665902 12 2
1.9110901 6.2431054 0.57121873 12 10
1.9265172 6.2895689 -1.0418537 22 3
2.0086226 6.5494676 0.8411423 6 11
1.6537139 5.3855095 -0.69173044 13 4
1.9407046 6.3162103 1.0465467 17 12
1.7721753 5.7605433 -0.52729225 31 5
17.650597 57.302956 11.654996 3 13
1.6306964 5.290801 -0.29015055 8 6
1.8837272 6.0966468 -0.11138126 16 7
1.6670775 5.3425179 -1.4995975 8 0
1.9702573 6.3063822 0.1153255 9 8
1.7955307 5.7435961 -1.3892977 25 1
2.220535 7.0944052 0.38958889 9 9
1.9462126 6.2103763 -1.2650636 10 2
1.9636788 6.2622705 0.57418203 2 10
1.9691933 6.2721972 -1.0412279 22 3
2.0787036 6.6129279 0.85113555 10 11
1.6766323 5.3305759 -0.68612444 10 4
1.9752593 6.2723618 1.0415409 13 12
1.9795039 6.2781801 -0.57592511 33 5
17.63854 55.908337 11.395495 1 13
1.9233751 6.0779629 -0.11127654 21 7
1.7049206 5.3325901 -1.5001153 9 0
1.7868421 5.5820947 0.10230601 21 8
1.8379598 5.7383461 -1.3910973 15 1
2.2571981 7.0387921 0.38739079 4 9
1.9925226 6.2059841 -1.2669718 8 2
2.0170975 6.2787604 0.57697099 16 10
2.023216 6.290266 -1.0465467 30 3
2.1351671 6.6303754 0.85527909 5 11
2.4608183 7.6370697 -0.98519188 5 4
2.0244617 6.2753372 1.0443566 13 12
1.8346714 5.6802564 -0.52223718 8 5
17.934267 55.492397 11.335963 1 13
1.776961 5.4917488 -0.30250186 19 6
1.9873387 6.1309662 -0.11249821 28 7
1.7324917 5.291182 -1.4918331 16 0
1.8214083 5.5561819 0.10206167 17 8
1.8858746 5.7494454 -1.3969461 14 1
2.0944116 6.3776922 0.35180232 2 9
2.0357971 6.1919236 -1.2669718 6 2
2.0658629 6.2796659 0.5783655 1 10
2.0664601 6.2741122 -1.0462338 27 3
2.2224305 6.7397351 0.8713659 6 11
2.6142149 7.9232097 -1.0244337 19 4
2.0700784 6.2666788 1.0452952 17 12
1.8198558 5.5027385 -0.50707209 16 5
19.615202 59.276222 12.136598 12 13
1.8918874 5.7105112 -0.31527182 21 6
2.0628459 6.2156334 -0.11431326 37 7
1.7755284 5.2972751 -1.4970094 10 0
1.8544254 5.5262699 0.10174754 21 8
1.9309295 5.7509184 -1.4005452 14 1
1.9352399 5.7571049 0.31830731 2 9
2.0808568 6.1831408 -1.2681167 10 2
2.1153755 6.282084 0.5799343 6 10
2.1177869 6.2819943 -1.0499883 26 3
2.2167397 6.5679445 0.85113555 10 11
2.6967764 7.9856381 -1.0349146 10 4
2.1454117 6.3456407 1.0609387 12 12
2.1137421 6.2447844 -0.57679671 37 5
2.2948792 6.7760363 1.3906161 5 13
1.9599271 5.7803903 -0.31987742 10 6
1.89139 5.5686655 -0.10265506 12 7
1.8149714 5.2920609 -1.4990799 10 0
1.9676404 5.7306905 0.10576159 6 8
1.9748304 5.7483559 -1.4032447 14 1
2.0936089 6.0871916 0.33735761 9 9
2.1373951 6.2074451 -1.2761306 8 2
2.1027162 6.1032801 0.56476921 9 10
2.1448452 6.2185035 -1.0418537 21 3
2.2353256 6.4735007 0.84089851 13 11
3.0947359 8.957284 -1.1636086 9 4
2.1496253 6.2147632 1.0415409 13 12
1.9339987 5.5882101 -0.51735646 11 5
2.3267028 6.7153277 1.3814572 3 13
2.0146337 5.8080797 -0.32218018 10 6
2.1691189 6.2428932 -0.1153604 30 7
1.8499544 5.2737923 -1.497527 11 0
2.0224988 5.7624474 0.1065993 7 8
2.0136185 5.7307529 -1.4023448 12 1
2.1104879 6.0030837 0.33348474 11 9
2.1763365 6.1834946 -1.2742226 6 2
2.0790648 5.9005351 0.54733807 18 10
2.208138 6.2633767 -1.0518655 32 3
2.2681065 6.4263129 0.83675498 12 11
2.2829146 6.4610829 -0.84138602 5 4
2.1602736 6.1105905 1.0265231 18 12
1.9570107 5.5294948 -0.51317304 11 5
2.3984404 6.7692423 1.3959587 5 13
1.9526833 5.5080972 -0.30627003 20 6
2.1698027 6.1070032 -0.1131265 28 7
1.8753819 5.2319794 -1.4892448 12 0
2.0086441 5.5976138 0.10380692 14 8
2.0591679 5.7352538 -1.4068439 11 1
2.1314006 5.9299388 0.33023992 7 9
2.2254376 6.1847749 -1.277657 8 2
2.2318852 6.1993065 0.57644808 8 10
2.254493 6.2552404 -1.0531169 32 3
2.3014617 6.3785782 0.83261144 10 11
2.2762866 6.3053575 -0.82310557 9 4
2.2733786 6.2904263 1.0593743 16 12
2.2592437 6.2445054 -0.58098018 56 5
2.4437966 6.7509127 1.3955771 21 13
1.9774773 5.4567761 -0.3041766 9 6
19.990213 55.102135 13.532606 1 14
2.2072248 6.0808153 -0.11291707 19 7
1.9098663 5.2133183 -1.4876919 14 0
2.1654117 5.9044938 0.10977564 15 8
2.1018398 5.7280569 -1.4086435 14 1
2.1100786 5.7443099 0.32071477 16 9
2.2604306 6.1469765 -1.2730777 14 2
2.1368287 5.8077354 0.54141146 19 10
2.2994733 6.2430568 -1.0537428 39 3
2.3239574 6.3027558 0.82481176 13 11
2.3140674 6.2725515 -0.820912 2 4
2.2706995 6.1483965 1.0380992 13 12
2.298641 6.2173662 -0.5799343 49 5
2.1209505 5.7275276 -0.32008675 10 6
2.3149939 6.2414966 -0.11619812 42 7
1.9462155 5.1998577 -1.4876919 13 0
2.0697677 5.5240803 0.10296919 17 8
2.1369896 5.7004709 -1.4054942 8 1
2.1459224 5.7182183 0.32008675 11 9
2.0423024 5.4363418 -1.1288261 6 2
2.1597998 5.7460494 0.53705364 9 10
2.0480373 5.4429493 -0.92108625 9 3
2.3497093 6.2380786 0.81847459 7 11
2.5895181 6.8710942 -0.90158945 1 4
2.4083977 6.3837519 1.0806495 8 12
2.3173525 6.135931 -0.57383341 33 5
2.1283793 5.6266494 -0.31527182 10 6
2.3627622 6.2364025 -0.11640756 52 7
1.9824699 5.1861444 -1.4876919 13 0
2.110424 5.5151 0.10307391 14 8
2.1781278 5.6890531 -1.406394 10 1
2.3458979 6.1208529 0.34353325 9 9
2.3523622 6.1313138 -1.2765123 12 2
2.1977174 5.7252522 0.53653073 12 10
2.1079514 5.4856801 -0.93078518 3 3
2.3967686 6.2307854 0.81969327 11 11
3.0181718 7.8421488 -1.0317459 3 4
2.4940984 6.4736934 1.0987958 7 12
2.3687334 6.141912 -0.57592511 27 5
2.4281218 6.2860956 -0.35316306 11 6
2.4156194 6.2440004 -0.11686131 57 7
2.0277586 5.1955729 -1.4944212 11 0
2.1314108 5.4555297 0.1022362 25 8
2.2149541 5.6664481 -1.4045944 10 1
2.3725617 6.0634084 0.34123048 9 9
2.3807888 6.0781813 -1.2688799 14 2
2.2281828 5.6856542 0.53426468 15 10
2.1707253 5.5333533 -0.9414227 5 3
2.429322 6.1861858 0.81603718 9 11
2.4746833 6.2984653 -0.83090526 23 4
2.8457882 7.2355657 1.2314522 9 12
2.3915164 6.0774417 -0.57139301 33 5
21.333487 54.158245 11.314592 1 13
2.2213829 5.6335454 -0.31736526 10 6
2.4694352 6.2530236 -0.11734998 55 7
2.0596917 5.1705217 -1.4913154 12 0
2.1240723 5.3294401 0.10014191 28 8
2.2587922 5.6617069 -1.4072938 10 1
2.4641247 6.173255 0.34834814 11 9
2.4395897 6.1055899 -1.2780387 14 2
2.3011179 5.7532063 0.54210871 16 10
2.1628368 5.4047432 -0.92202479 5 3
2.4418473 6.0957971 0.80628765 10 11
2.5193334 6.2828779 -0.83114898 35 4
2.6051817 6.493691 1.1081818 7 12
2.4932861 6.2085075 -0.585338 45 5
22.576607 56.161095 11.765665 5 13
2.2894888 5.6924143 -0.32155213 21 6
2.5137768 6.2374859 -0.11738489 42 7
2.0977447 5.1635423 -1.493386 11 0
2.1860886 5.3756094 0.10129377 17 8
2.281852 5.608295 -1.3978459 15 1
2.5455863 6.250237 0.35368642 7 9
2.4688144 6.0556855 -1.2711695 14 2
2.3101261 5.6636167 0.53513628 12 10
2.1952894 5.3767099 -0.91983473 9 3
2.5631976 6.2715449 0.83188021 11 11
2.3636897 5.7805061 -0.76680195 10 4
2.6414702 6.4534082 1.1044275 7 12
2.5234075 6.1618924 -0.58254898 31 5
2.3170426 5.646728 -0.31987742 10 6
2.5614965 6.2331777 -0.11762922 36 7
2.1322627 5.1452022 -1.4923507 11 0
2.2433052 5.41048 0.1022362 21 8
2.3246875 5.6012273 -1.4000953 16 1
2.6125782 6.2917924 0.35703593 7 9
2.1769209 5.237443 -1.1024945 20 2
2.3526707 5.6547089 0.53583348 9 10
2.3381147 5.6169596 -0.9636364 15 3
2.6142292 6.2741075 0.83456135 13 11
2.1747429 5.2142272 -0.69368041 6 4
2.6807747 6.4243398 1.1025503 7 12
2.6009171 6.2268572 -0.59039295 54 5
22.500603 53.815811 11.338253 1 13
3.1832116 7.6097231 -0.43229502 13 6
2.6057227 6.2169876 -0.11766412 21 7
2.1770082 5.1537037 -1.4990799 10 0
2.3215191 5.4904623 0.10405125 19 8
2.368072 5.5978374 -1.4032447 14 1
2.7358756 6.4609942 0.36771247 9 9
2.565865 6.0536075 -1.2780387 12 2
2.385659 5.6257248 0.53461331 13 10
2.2661266 5.3386579 -0.91858327 15 3
2.7449067 6.4603305 0.8618601 4 11
2.2451336 5.2815118 -0.70464855 10 4
2.6845653 6.3091326 1.0859681 23 12
2.6521354 6.2268763 -0.59213609 54 5
22.807878 53.524151 11.30925 1 13
2.4264643 5.6805224 -0.10782097 8 7
2.214463 5.1419287 -1.5001153 14 0
2.3597956 5.4741197 0.10405125 23 8
2.4047794 5.5758009 -1.4018949 16 1
2.8632452 6.6324391 0.37859833 9 9
2.6189644 6.0607786 -1.2833813 20 2
2.3877187 5.5229778 0.52642071 18 10
2.2696054 5.2447529 -0.90512991 16 3
2.5911107 5.9819789 0.80043793 6 11
2.3466735 5.4150667 -0.72463518 9 4
2.7309039 6.2956738 1.0869068 15 12
2.3749659 5.4698763 -0.52171427 13 5
2.7167404 6.2391386 -0.11878107 39 7
2.2510829 5.1281118 -1.5006329 11 0
2.4574788 5.5929894 0.1066342 9 8
2.4452157 5.5624442 -1.4027947 17 1
2.7075739 6.1534328 0.35232571 9 9
2.6715 6.0657043 -1.2883424 6 2
2.6246512 5.9565148 0.56947559 2 10
2.3308771 5.2848091 -0.91482884 9 3
2.5991406 5.8874702 0.79020089 10 11
2.3258727 5.2659941 -0.70684224 6 4
2.7843771 6.2981339 1.0906612 11 12
2.7557468 6.2275028 -0.59579664 36 5
2.7916467 6.2997065 -0.36111811 12 6
2.7586095 6.2163649 -0.11871127 28 7
2.2884066 5.115798 -1.5016681 12 0
2.4539721 5.480792 0.10481916 11 8
2.4887693 5.5559087 -1.4054942 17 1
2.7529185 6.1398478 0.3526397 7 9
2.7057431 6.0289946 -1.2845262 16 2
2.6947343 6.0016608 0.57557648 9 10
2.4260173 5.3981357 -0.9373554 7 3
2.6214464 5.8275447 0.78459489 12 11
2.3943522 5.3202267 -0.71634805 10 4
2.889128 6.4136219 1.1141263 14 12
2.3127022 5.12923 -0.49225563 7 5
24.464714 54.233776 11.564934 2 13
2.8404872 6.290987 -0.36174616 12 6
2.8101761 6.2151771 -0.11906032 18 7
2.3287816 5.1124096 -1.5052917 15 0
2.4920487 5.4657817 0.10485406 15 8
2.5265296 5.5388393 -1.4054942 17 1
2.5474508 5.5795455 0.32144746 7 9
2.727134 5.9675822 -1.2753674 14 2
2.7313821 5.9741197 0.57470495 5 10
2.8506882 6.2293172 -1.0850296 21 3
2.6908126 5.8745375 0.79336947 11 11
2.3676598 5.1666536 -0.69782394 9 4
3.0076587 6.5572009 1.1425974 27 12
2.4223807 5.2763295 -0.50794363 5 5
2.8423846 6.1741056 -0.11864146 21 7
2.3709185 5.1100478 -1.5094327 14 0
2.4737177 5.3267336 0.10251543 8 8
2.7935181 6.0071349 0.34719676 9 9
2.4414854 5.2453403 -1.1246282 14 2
2.9673107 6.372128 0.61497092 16 10
2.4142597 5.1797576 -0.90512991 16 3
2.7166498 5.8232293 0.78898221 13 11
2.3944368 5.1302114 -0.69514281 12 4
2.6771302 5.73067 1.0018064 9 12
2.4448085 5.2286081 -0.50498033 16 5
2.4450586 5.2220154 -0.30218783 19 6
2.9040916 6.1939459 -0.11940937 28 7
2.4213932 5.1248107 -1.5187503 6 0
2.5245235 5.3382578 0.10307391 12 8
2.6161196 5.5294461 -1.4122428 14 1
2.7533267 5.8141975 0.33714828 7 9
2.864002 6.0424647 -1.299791 7 2
3.0151391 6.358458 0.61566812 10 10
2.5359068 5.3430204 -0.93672973 15 3
2.7359455 5.759294 0.78288871 15 11
2.3569107 4.9591808 -0.67418122 6 4
2.9461792 6.1934772 1.0862811 3 12
2.5069463 5.2653804 -0.51020968 13 5
2.4797366 5.2012129 -0.3019785 38 6
2.544071 5.3289695 -0.10307391 4 7
2.4428751 5.0781856 -1.5099503 5 0
2.5140152 5.2214098 0.10115415 17 8
2.6605785 5.5233374 -1.415392 19 1
2.7244565 5.6509089 0.32877451 4 9
2.5085092 5.1983643 -1.1219569 6 2
2.8550274 5.9138145 0.57453066 4 10
2.5241609 5.223803 -0.91889614 16 3
2.7588005 5.7043118 0.77801394 11 11
2.5332713 5.2356586 -0.71415442 6 4
2.7327724 5.6429539 0.99304616 34 12
2.5479896 5.2567143 -0.51108128 11 5
2.52122 5.1945553 -0.30260652 19 6
2.5584855 5.2643166 -0.10216638 12 7
2.4859118 5.0766234 -1.5146091 6 0
2.720257 5.5502872 0.10789078 7 8
2.7162299 5.5396242 -1.4243901 11 1
2.6195333 5.3377018 0.31160831 19 9
2.5430112 5.1771998 -1.1211938 6 2
2.7231371 5.5414729 0.54019129 7 10
2.5998006 5.28582 -0.93297523 7 3
2.801187 5.6902556 0.77874517 7 11
2.4127693 4.899076 -0.67052519 13 4
2.7712274 5.6219659 0.99273324 19 12
3.0632901 6.2090135 -0.60573238 52 5
2.5936925 5.2502451 -0.30689809 10 6
2.6200008 5.296514 -0.10314372 8 7
2.5273247 5.0712481 -1.5182326 7 0
2.8910396 5.7959981 0.11305669 20 8
2.7522271 5.515295 -1.4230404 15 1
2.6594136 5.3246436 0.31192234 11 9
2.631763 5.2646837 -1.1440908 6 2
2.7822576 5.5633111 0.54420048 1 10
2.6941116 5.3823605 -0.95331174 1 3
2.8292828 5.64749 0.77557659 7 11
3.1122305 6.2095642 -0.85284173 4 4
3.1230671 6.2257667 1.103176 15 12
2.6318648 5.241993 -0.51317304 5 5
2.6015759 5.1749072 -0.30354857 39 6
2.7054663 5.3745461 -0.10502858 10 7
2.5661619 5.0603724 -1.5203031 8 0
2.8689876 5.6526337 0.11064825 11 8
2.79684 5.5081096 -1.4261897 17 1
2.7770557 5.4644136 0.32123813 9 9
2.6141562 5.1394401 -1.1208121 6 2
3.0622892 6.0178652 0.59074163 2 10
3.088424 6.0639935 -1.0778337 36 3
2.9281411 5.7443252 0.79166335 10 11
3.0076029 5.8976669 -0.8128686 9 4
3.1467013 6.1651025 1.0962929 30 12
3.1685414 6.205225 -0.60956728 45 5
2.6667452 5.2135191 -0.30689809 30 6
2.7702692 5.4089227 -0.10607573 14 7
2.618259 5.0749526 -1.5301383 9 0
2.8450282 5.5121427 0.10827474 10 8
2.8432779 5.5040307 -1.4302388 14 1
2.8737867 5.5607157 0.32804179 16 9
3.0811241 5.9568038 -1.3036071 7 2
2.8798115 5.562849 0.54803526 4 10
3.1596107 6.1007142 -1.0881582 18 3
3.1425731 6.0626411 0.8384611 15 11
3.1309769 6.0351129 -0.83480507 1 4
3.2650285 6.2908187 1.1225739 3 12
3.1309621 6.0273628 -0.59422785 21 5
2.7666812 5.3192816 -0.31422511 10 6
2.7118671 5.2050157 -0.10244562 10 7
2.6563296 5.0638571 -1.5322088 10 0
2.9736037 5.6638875 0.1116605 5 8
2.8797684 5.4828258 -1.4297889 9 1
2.936698 5.586484 0.33076328 9 9
3.1226325 5.9351497 -1.3036071 7 2
2.9268873 5.5607505 0.5497784 10 10
3.1560879 5.9911237 -1.0725149 26 3
3.3401823 6.3378954 0.87965298 6 11
3.5183556 6.6703358 -0.92596334 13 4
3.3346889 6.3167844 1.1313342 23 12
3.1719167 6.0059114 -0.59422785 21 5
3.2053552 6.0589728 -0.35923404 12 6
2.9194648 5.5115809 -0.10886811 11 7
2.6898279 5.0439539 -1.5316912 13 0
3.14956 5.9010801 0.1167566 13 8
2.917022 5.4630971 -1.4297889 23 1
2.9473596 5.5152798 0.32772776 9 9
3.1314781 5.8548965 -1.2906321 6 2
2.9571533 5.5266438 0.54838395 10 10
3.0494516 5.6943617 -1.0230815 19 3
3.8735268 7.2301574 1.0071282 6 11
3.5505447 6.6217394 -0.92255098 15 4
3.3206301 6.1877637 1.1122491 10 12
3.3276999 6.1983404 -0.61549383 46 5
2.8113806 5.2278585 -0.31108496 10 6
2.9265738 5.4352398 -0.10775116 6 7
2.7305405 5.0374184 -1.5353146 11 0
3.1610448 5.8267756 0.11570945 12 8
2.9494927 5.4345508 -1.4275393 14 1
2.9934099 5.5108867 0.32866985 21 9
3.2162676 5.9162383 -1.3089497 5 2
2.9547234 5.4328752 0.54106283 18 10
2.9880364 5.4895616 -0.9899174 28 3
3.233521 5.9356265 0.82993031 6 11
3.4406946 6.3133025 -0.88282162 11 4
3.4799638 6.3800564 1.151045 13 12
3.3831744 6.2000313 -0.61793417 42 5
3.5616732 6.5217347 1.4444242 2 13
2.8564796 5.2261267 -0.31213167 10 6
2.9942224 5.4713283 -0.10886811 4 7
2.7656419 5.0182328 -1.5353146 10 0
3.0461562 5.5249357 0.11012468 15 8
2.9920661 5.4223595 -1.4297889 17 1
3.0820124 5.5830545 0.33421743 9 9
3.2507646 5.8838997 -1.3066601 3 2
3.0195751 5.4609356 0.54594356 4 10
3.3638163 6.0810003 -1.100673 25 3
3.2555807 5.8804817 0.82529926 13 11
3.4779515 6.2769737 -0.88111544 15 4
3.4830883 6.2836576 1.1379044 16 12
3.3490534 6.0368819 -0.6039893 22 5
3.5594666 6.4108887 1.4253433 21 13
2.8861675 5.1960855 -0.31150365 10 6
2.9477634 5.2982626 -0.10583139 21 7
2.8072901 5.012774 -1.5394558 9 0
3.0455422 5.4337606 0.1087285 27 8
3.0250959 5.3950672 -1.4279894 17 1
3.0925665 5.5108924 0.33118194 9 9
2.9677804 5.2841973 -1.1780548 14 2
3.1103508 5.5357909 0.55553067 13 10
3.3023963 5.8679895 0.82676172 19 11
2.9400954 5.219964 -0.73560339 3 4
3.5501449 6.3004918 1.1454133 6 12
3.4566858 6.129631 -0.61566812 27 5
3.6051011 6.3875928 1.4257249 6 13
3.0264602 5.3601651 -0.32259887 10 6
2.9935403 5.29322 -0.10614554 23 7
2.8383088 4.9841638 -1.5368675 8 0
3.4456904 6.0482979 0.12150366 18 8
3.060729 5.3682032 -1.4266397 15 1
3.1487501 5.5181122 0.33296138 9 9
3.3656955 5.8959064 -1.319635 13 2
3.2773824 5.7365575 0.57801688 8 10
3.5504389 6.2094684 -1.1328986 28 3
3.457613 6.0446744 0.85503536 9 11
2.7802072 4.8564792 -0.68709946 10 4
3.7935054 6.6211524 1.2086128 26 12
3.5400188 6.1762195 -0.62281495 24 5
3.0269518 5.2725506 -0.31862134 10 6
3.5266855 6.1355782 -0.12352814 16 7
2.8894835 4.9926524 -1.5456674 11 0
3.4908872 6.026947 0.12157347 7 8
3.1108305 5.3686256 -1.4324883 16 1
3.1881988 5.4977226 0.33306605 9 9
3.4038575 5.8648796 -1.3181087 5 2
3.1602874 5.4430232 0.55065 15 10
3.5986676 6.193068 -1.1344628 26 3
3.5416949 6.0901337 0.86502868 11 11
3.6286094 6.2370763 -0.8859902 11 4
3.6527712 6.2735753 1.1497935 16 12
2.9722226 5.1006484 -0.51648492 16 5
3.0516098 5.230588 -0.31736526 10 6
3.4201641 5.8552542 -0.11836223 21 7
2.9369996 4.9940066 -1.5523967 8 0
3.2448111 5.5129976 0.1116605 5 8
3.1205492 5.299758 -1.419891 16 1
3.2173765 5.4598441 0.33212399 2 9
3.3898642 5.7479658 -1.2971196 10 2
3.2032716 5.4294071 0.55152148 19 10
3.6498477 6.1814032 -1.1369658 27 3
4.2435884 7.1812401 1.0241901 13 11
3.104331 5.2512312 -0.74900907 3 4
3.7336962 6.3108253 1.1613696 21 12
2.9864447 5.0437708 -0.51282436 5 5
3.736079 6.3073153 1.4249617 12 13
3.0473149 5.1404324 -0.31317839 10 6
3.1843672 5.3652167 -0.10890301 29 7
2.9797206 4.9866476 -1.5565379 9 0
3.5459599 5.929564 0.12059613 21 8
3.1954904 5.3413911 -1.4369874 25 1
3.345701 5.5880466 0.34133515 7 9
3.4178009 5.7039509 -1.2925402 20 2
3.1837335 5.3112144 0.54176009 16 10
3.5855093 5.972013 0.85527909 2 11
3.4403913 5.7280393 -0.8204245 11 4
3.6575758 6.084825 1.124451 14 12
2.9508858 4.9072204 -0.5009712 7 5
3.7121954 6.1683755 1.3993932 21 13
3.5571349 5.9060521 -0.36132747 12 6
3.2289717 5.3548436 -0.10914735 9 7
3.0164638 4.969028 -1.5575731 9 0
4.5079699 7.4230614 0.15159161 13 8
3.2256145 5.3072963 -1.433838 24 1
3.3670583 5.5378385 0.33966038 16 9
3.4698143 5.7023573 -1.2975012 14 2
3.3367977 5.4794483 0.56128299 10 10
3.0492408 5.0052757 -0.92828226 3 3
3.6033428 5.910181 0.84991688 6 11
3.6540017 5.9885674 -0.86137259 5 4
3.8851926 6.3649693 1.1810803 14 12
2.993382 4.9001017 -0.50236571 5 5
3.6906538 6.0367827 1.3753513 7 13
3.7697451 6.154079 -0.12597147 34 7
3.0633974 4.9697576 -1.5643023 12 0
3.4572933 5.6044016 0.11494155 3 8
3.2923713 5.3349671 -1.4473351 14 1
3.4413178 5.5719738 0.34321922 7 9
3.4703157 5.6145353 -1.2829998 16 2
3.5322375 5.7124939 0.58760399 5 10
3.5695426 5.7683172 -1.0743921 19 3
3.7354457 6.0317078 0.87112212 17 11
3.7030437 5.977056 -0.8633225 10 4
3.9742939 6.4098811 1.1945337 5 12
2.9909594 4.8220458 -0.4964391 7 5
3.7596159 6.0565581 1.385655 8 13
3.0480199 4.9063835 -0.30271122 19 6
3.8379531 6.1707253 -0.12684409 40 7
3.1072423 4.9629884 -1.5689611 21 0
3.4677658 5.536674 0.11403403 33 8
3.3388484 5.326714 -1.4513842 21 1
3.52161 5.6161036 0.34740612 7 9
3.4875779 5.5575261 -1.2753674 14 2
3.5222321 5.6083927 0.57941139 16 10
3.8640845 6.1503425 -1.1504192 12 3
3.7468302 5.9590874 0.86429745 8 11
3.7277656 5.9241762 -0.85942268 5 4
3.897866 6.1921034 1.1588666 6 12
3.0033116 4.7673326 -0.49295285 21 5
3.8677678 6.1347923 1.4096969 17 13
3.1708429 5.0274267 -0.31150365 10 6
3.2358942 5.1226373 -0.10576159 27 7
3.1513176 4.9580255 -1.5741374 12 0
3.4827204 5.4752107 0.11326612 8 8
3.3792162 5.3104391 -1.4531839 15 1
3.7699316 5.9198918 0.36781713 9 9
3.7035563 5.8111849 -1.3394792 7 2
4.7085381 7.3852401 0.76627332 2 10
3.5669177 5.5903277 -1.0503011 3 3
4.013761 6.2858067 0.9157263 4 11
3.6899934 5.7765427 -0.84162974 12 4
3.861201 6.0399141 1.1354015 13 12
3.4015875 5.316875 -0.55221879 12 5
3.9496553 6.1711569 1.4241984 7 13
3.2274063 5.038806 -0.31359708 10 6
3.2868767 5.1257439 -0.10628515 14 7
3.1868997 4.9375286 -1.5746551 14 0
3.4883091 5.4003711 0.11221898 2 8
3.4225512 5.2965403 -1.4558831 15 1
3.6745131 5.6821103 0.35462847 11 9
3.745105 5.7868338 -1.3398608 5 2
3.7302406 5.7616673 0.60050309 6 10
3.3631074 5.1906219 -0.97959268 11 3
3.767025 5.8095894 0.8501606 9 11
3.7518373 5.7839489 -0.84650451 13 4
3.8086197 5.8670068 1.107869 14 12
3.4668446 5.3364377 -0.55675089 22 5
3.2418153 4.9843407 -0.31160831 21 6
3.7677767 5.7863779 -0.12052631 13 7
3.2382352 4.9410119 -1.5829374 14 0
3.5171525 5.3625097 0.11193974 2 8
3.4583752 5.2708874 -1.4554334 13 1
3.745883 5.7047338 0.35766396 9 9
3.7940357 5.7736745 -1.3429137 9 2
3.6751597 5.5906391 0.585338 9 10
3.3210919 5.0481982 -0.95706618 13 3
4.0236282 6.1114359 0.89842087 12 11
3.344449 5.0779104 -0.74657166 18 4
3.945153 5.9854159 1.1354015 10 12
3.5961711 5.4518075 -0.57139301 10 5
3.164273 4.7915888 -0.30093178 38 6
3.1971121 4.8358083 -0.10118905 24 7
3.2747917 4.9215007 -1.5839727 15 0
4.0998158 6.156724 0.1291129 8 8
3.4918475 5.2417498 -1.4540836 16 1
3.6537807 5.4806871 0.34520799 9 9
3.8386097 5.7535791 -1.3444403 11 2
3.8468225 5.76371 0.60625535 9 10
3.2871318 4.921402 -0.9373554 24 3
3.9669127 5.9346647 0.87648439 17 11
3.278302 4.9026227 -0.72414774 19 4
4.1384511 6.1842823 1.1785774 12 12
3.6851418 5.5027194 -0.57941139 10 5
3.3522468 4.99997 -0.31548119 10 6
3.2798302 4.886426 -0.10272487 4 7
3.3177192 4.9113269 -1.5881137 11 0
4.2726126 6.3201232 0.13316187 9 8
3.5349071 5.2269301 -1.4567831 17 1
3.9068894 5.7726231 0.36530501 11 9
3.8896935 5.7428956 -1.3482565 13 2
3.7573271 5.5453801 0.58603519 15 10
3.5342638 5.2122459 -0.99742627 14 3
3.9112766 5.763917 0.85527909 15 11
3.3347476 4.9124651 -0.7290225 18 4
4.0327816 5.9362831 1.1366529 33 12
3.7269893 5.4841008 -0.58010858 24 5
3.2713201 4.8063827 -0.30469999 19 6
3.4872682 5.1179018 -0.10810021 4 7
3.3628533 4.903976 -1.5932901 10 0
4.0768471 5.9429588 0.12579694 16 8
3.5933707 5.2342558 -1.4657811 16 1
3.9155607 5.7014446 0.36247885 9 9
3.9064543 5.6839271 -1.3406241 11 2
3.8015947 5.5272217 0.58690673 6 10
3.3893859 4.9260602 -0.94705439 16 3
3.9335303 5.7126369 0.85162306 14 11
3.4140191 4.9544468 -0.73877203 10 4
4.0865464 5.9282141 1.1404074 13 12
3.7934713 5.4989467 -0.5844664 17 5
3.3243923 4.8135839 -0.30658406 20 6
3.5479386 5.1296129 -0.10886811 4 7
3.3994637 4.8857307 -1.594843 9 0
3.8702774 5.5582423 0.1182226 3 8
3.6300268 5.2112756 -1.466231 15 1
3.9438496 5.6575832 0.36143214 7 9
3.9628892 5.6806684 -1.3463483 13 2
3.9257863 5.6253905 0.6001544 6 10
3.4610183 4.9557223 -0.95737904 15 3
4.050642 5.795681 0.86819732 12 11
3.7989492 5.4315128 -0.81384355 8 4
4.0791345 5.8299451 1.1269541 24 12
3.5586402 5.0822663 -0.54280597 6 5
3.3475959 4.7755404 -0.30564201 29 6
3.5744739 5.0916238 -0.10858887 4 7
3.4588614 4.8959923 -1.6062311 9 0
3.9666929 5.6127396 0.11996785 3 8
3.6796031 5.2026682 -1.47118 16 1
3.8573081 5.449893 0.34991825 4 9
4.0251379 5.6849117 -1.3539807 13 2
3.9463582 5.5695176 0.59719115 9 10
3.4244077 4.8293118 -0.93766832 16 3
4.0025716 5.6425872 0.84942937 15 11
3.6023633 5.0746431 -0.76412088 10 4
4.3701468 6.1516681 1.1951594 5 12
4.0406919 5.6858068 -0.61026448 19 5
3.3538888 4.71241 -0.30312988 19 6
4.3688169 6.1316452 -0.13141662 25 7
3.4760725 4.8481755 -1.5984664 12 0
3.8295577 5.3372507 0.11466231 12 8
3.7362888 5.205349 -1.4792781 17 1
3.7857349 5.2703471 0.34007907 7 9
4.0450892 5.6272688 -1.3471116 7 2
4.0479574 5.6291809 0.60660398 9 10
3.5030386 4.8678188 -0.94987023 15 3
4.0985274 5.691124 0.86112887 15 11
3.6864381 5.1170168 -0.77435786 15 4
4.1773167 5.7941294 1.1313342 13 12
4.0406623 5.6025167 -0.60433793 18 5
4.1560831 5.7477374 -0.12380737 11 7
3.5257468 4.8456593 -1.6057135 11 0
4.1411676 5.689384 0.12283003 7 8
3.786309 5.1980386 -1.484677 21 1
3.8250477 5.249301 0.3403931 16 9
4.1145334 5.6424317 -1.3574153 9 2
4.034307 5.5283599 0.59875995 12 10
3.5023148 4.7975926 -0.94079703 16 3
4.6641273 6.3844028 0.97081131 13 11
3.5404761 4.8427696 -0.73657835 12 4
5.2719941 7.2085443 1.4144807 12 12
4.2244101 5.7719297 -0.6257782 12 5
4.4776626 6.1022935 -0.13211471 18 7
3.5735626 4.8417544 -1.6124427 9 0
4.1831627 5.6635518 0.12289985 3 8
3.8169687 5.1658778 -1.4828774 21 1
4.2047758 5.6865811 0.37064329 7 9
3.5057018 4.7376819 -1.1456172 8 2
4.0398355 5.4575357 0.59405357 9 10
3.5780528 4.8301678 -0.95206028 16 3
3.5934618 4.8456626 -0.74072188 10 4
5.3292513 7.1810827 1.4163579 6 12
4.0733514 5.4847708 -0.59771407 18 5
4.2518253 5.7188282 -0.37346941 12 6
4.562078 6.1294227 -0.13337129 22 7
3.5991704 4.8058634 -1.6088192 6 0
4.1650376 5.5573997 0.12122441 21 8
3.8809958 5.1765251 -1.493675 15 1
4.3630409 5.815248 0.38100579 9 9
3.5292594 4.7005343 -1.1425643 17 2
4.5756049 6.0919156 0.66656709 12 10
3.5475926 4.7198029 -0.93516535 16 3
4.4163074 5.871294 0.90207696 16 11
4.2621698 5.6643171 -0.87039089 21 4
5.2069564 6.9148893 1.3709919 28 12
4.1774912 5.543716 -0.60730124 7 5
4.1280637 5.4721603 -0.35923404 12 6
4.1781468 5.5325227 -0.12101499 11 7
3.620944 4.7652402 -1.6036428 10 0
4.5547485 5.989799 0.13134682 13 8
3.9311955 5.1679187 -1.4990739 22 1
4.3224759 5.6781735 0.37399277 9 9
3.6048186 4.7320027 -1.1563026 8 2
4.7411995 6.2214632 0.68434685 14 10
3.6786823 4.8237209 -0.96082056 16 3
4.6811957 6.133832 0.94741231 21 11
4.4124336 5.7795839 -0.89281487 6 4
4.4135423 5.774765 -0.63588828 8 5
4.2458558 5.5413165 -0.1218527 11 7
3.6529458 4.7383132 -1.6031252 9 0
4.4305487 5.7448893 0.12663467 16 8
3.9933748 5.1742854 -1.5089717 16 1
4.4086246 5.7102771 0.378075 9 9
3.6261423 4.6933732 -1.152868 10 2
4.7345529 6.1235871 0.67720014 10 10
3.6800094 4.7579432 -0.95268601 3 3
4.7799425 6.1756096 0.95886809 8 11
4.3311172 5.5917006 -0.86844105 8 4
4.6100225 5.9453497 -0.65820014 17 5
4.5705261 5.8880382 -0.39063561 12 6
4.4096208 5.6725764 -0.125413 14 7
3.7231886 4.7620416 -1.6196897 9 0
4.4495988 5.6870437 0.12604128 20 8
4.0597315 5.186883 -1.5206691 20 1
4.4151335 5.6369042 0.37524885 9 9
3.6672976 4.6787601 -1.1555393 4 2
4.8609519 6.1994019 0.68922758 6 10
4.2716308 5.4438992 -1.09598 6 3
5.7375569 7.3042436 -1.1404535 7 4
4.7142396 5.9928837 -0.66709006 22 5
4.4827948 5.6864004 -0.12639034 14 7
3.7419376 4.7177696 -1.6134779 9 0
4.5438972 5.7247558 0.1275771 16 8
4.1200767 5.1889386 -1.5296671 14 1
4.5922966 5.7795162 0.3868674 9 9
4.4097881 5.5458498 -1.3772594 8 2
5.516818 6.9355903 0.77533752 8 10
4.7105908 5.9177837 -1.1979753 15 3
5.1625395 6.480916 1.0173653 9 11
4.4882145 5.6323633 -0.88428408 5 4
4.528542 5.6748385 -0.63519108 16 5
4.6148052 5.7705326 -0.12897329 15 7
3.8038492 4.7276525 -1.6259012 9 0
4.5787368 5.6866636 0.12743747 24 8
4.1562042 5.1600471 -1.5296671 21 1
4.5961847 5.70222 0.38383192 9 9
4.441 5.5057621 -1.3749697 10 2
4.8381863 5.9960289 0.67406249 11 10
4.7381358 5.8678489 -1.1945337 21 3
5.2263761 6.4678741 1.0210215 0 11
4.478755 5.5406861 -0.87477821 21 4
4.6206999 5.7081261 -0.64251208 12 5
4.5042129 5.5582724 -0.37493482 12 6
4.5315175 5.5859847 -0.12555261 14 7
3.8624139 4.7324114 -1.6367717 10 0
4.6663909 5.7134151 0.12876385 25 8
4.1884279 5.1263781 -1.5283175 23 1
4.7041469 5.7534919 0.38948423 7 9
4.4818158 5.4776626 -1.375733 8 2
4.8887587 5.9729004 0.67528266 9 10
4.4184995 5.3945074 -1.1044275 7 3
4.4908977 5.4770455 -0.86965966 10 4
4.5908947 5.5910411 -0.63292503 20 5
4.6440978 5.643774 -0.1275771 9 7
3.8620939 4.6651554 -1.6227955 9 0
4.7291269 5.7084165 0.12939215 4 8
4.2340608 5.1090178 -1.5319167 24 1
4.9150467 5.9265165 0.40351027 7 9
4.521204 5.4477491 -1.3761146 7 2
5.0448794 6.0765905 0.69097072 14 10
4.7981462 5.7752895 -1.1892149 15 3
6.222333 7.4815402 -1.1948072 4 4
4.6438417 5.575695 -0.6348424 8 5
4.6193199 5.534452 -0.12583186 8 7
3.9119606 4.6587911 -1.6300424 9 0
4.7958794 5.7074118 0.13012515 13 8
4.288434 5.1017103 -1.5386652 18 1
4.9151626 5.8431468 0.40016076 9 9
4.581881 5.4430895 -1.3829837 7 2
4.9511471 5.8796735 0.6724937 2 10
4.6041293 5.4637103 -1.131647 9 3
4.6181288 5.4745035 -0.87940925 20 4
4.7623725 5.6375008 -0.64564973 8 5
4.8154755 5.6882682 -0.13009024 9 7
3.9494002 4.6372495 -1.632113 7 0
5.0677896 5.9462185 0.1363731 9 8
4.3467035 5.09834 -1.5467634 20 1
4.7691627 5.5898976 0.385088 16 9
4.5929995 5.3796144 -1.3749697 12 2
4.8549123 5.6843739 0.65401667 12 10
4.8038731 5.6206412 -1.1710685 15 3
4.6962414 5.4888883 -0.88696516 15 4
4.7228689 5.514163 -0.63519108 8 5
4.8787017 5.6880627 -0.39272904 13 6
4.9202008 5.7303724 -0.13183548 9 7
3.9917808 4.6212606 -1.6362541 9 0
4.9224911 5.6967282 0.13141662 9 8
4.3770928 5.061974 -1.5449638 14 1
4.8724332 5.632833 0.39032158 7 9
4.6397905 5.3601012 -1.3780226 10 2
4.9765568 5.7430701 -1.2036068 13 3
4.9595251 5.7153487 -0.92913198 9 4
4.9049759 5.6465111 -0.6543653 17 5
5.3131018 6.1098733 -0.42433998 13 6
5.2148538 5.9884443 -0.13860701 16 7
4.0256896 4.5968885 -1.6372893 9 0
5.1690602 5.8983412 0.13689667 15 8
4.4140158 5.0349932 -1.5458636 22 1
4.9524679 5.6452255 0.39356643 14 9
4.7004123 5.354136 -1.3848917 10 2
5.2016993 5.9188871 -1.2480342 12 3
4.8868608 5.5547724 -0.90841419 15 4
64.951981 73.777351 15.568359 62 12
5.2000742 5.9045582 -0.68835604 23 5
5.1284056 5.8149848 -0.4063364 13 6
5.0808001 5.7549291 -0.13399959 6 7
4.0474186 4.5571189 -1.6331483 9 0
5.3180017 5.9855986 0.13975887 15 8
4.4853125 5.0448351 -1.558461 15 1
5.0452023 5.6725693 0.39785796 9 9
4.8294177 5.4261422 -1.4119867 12 2
4.9401159 5.5466132 0.6498332 1 10
5.260262 5.9039941 -1.2524145 9 3
65.457253 73.416 12.077009 62 11
4.917592 5.5116329 -0.90695173 13 4
65.271149 73.13015 15.525184 62 12
5.2610779 5.8904004 -0.69097072 9 5
65.309853 73.070847 19.04999 100 13
5.4783363 6.1185856 -0.14335407 25 7
4.0499082 4.4978771 -1.6217602 9 0
5.1401305 5.7046914 0.13403448 14 8
4.5143313 5.0083957 -1.5566614 15 1
5.0806656 5.632762 0.39754397 11 9
4.8369293 5.3587728 -1.4032094 10 2
4.9437814 5.4713902 -1.1679399 11 3
5.0149183 5.544281 -0.91791999 9 4
5.1977396 5.738349 -0.67737442 9 5
65.734566 72.546005 19.029383 100 13
5.2376037 5.7762785 -0.40863919 13 6
5.5198541 6.0811567 -0.14335407 29 7
4.0616679 4.4480968 -1.6139956 10 0
5.1191301 5.6022372 0.13246377 9 8
4.57548 5.005527 -1.5656594 16 1
5.4865336 5.9980044 0.42601472 9 9
4.9696651 5.429141 -1.4306859 10 2
5.4762883 5.9805145 0.70944774 3 10
5.0138869 5.4716964 -1.1754488 11 3
5.6009874 6.1059828 -1.0173653 18 4
5.2538514 5.7195277 -0.67946619 13 5
15.060128 16.377768 -1.1660452 20 6
5.4077854 5.8747454 -0.13937493 6 7
4.0886855 4.4153805 -1.6124427 14 0
5.3619971 5.7863746 0.13769948 15 8
4.6182623 4.9820371 -1.5683587 14 1
5.6165657 6.0547299 0.43281841 9 9
5.0127869 5.4000716 -1.4322125 12 2
5.1635699 5.5566669 -1.2014169 10 3
5.3595438 5.7615075 -0.96618026 20 4
5.315382 5.7060351 -0.68225515 9 5
6.2058525 6.6549611 -0.47688529 12 6
5.5250821 5.9187088 -0.14132959 17 7
4.1643739 4.4346094 -1.6300424 9 0
5.5556326 5.9120126 0.14160882 16 8
4.6582699 4.9553537 -1.5701584 14 1
5.8023877 6.1681228 0.44380894 11 9
5.1015005 5.4192653 -1.4467138 10 2
5.1968184 5.5147328 -1.2001654 10 3
5.5494757 5.8827891 -0.99299151 9 4
5.3605609 5.6745815 -0.6829524 18 5
15.484942 16.374863 -1.181118 10 6
5.5580196 5.8712788 -0.14112017 17 7
4.1811428 4.392168 -1.624866 7 0
5.6454005 5.9261847 0.1428654 16 8
4.7160912 4.9489245 -1.5782566 15 1
5.9558849 6.2455606 0.45228738 2 9
5.1423364 5.3886762 -1.4478587 12 2
5.3311181 5.5806432 -1.2223791 10 3
5.4494514 5.6985383 -0.96813011 16 4
5.5313497 5.7761073 -0.69968635 9 5
5.4622059 5.6979299 -0.41366345 13 6
5.6781607 5.9169936 -0.14314464 10 7
4.2170711 4.3684306 -1.6269366 9 0
5.7824974 5.985867 0.14527383 17 8
4.769485 4.9354978 -1.5845551 14 1
5.1839266 5.3568769 -1.4490036 12 2
5.4579105 5.6340952 -1.2424027 10 3
5.8539333 6.0365748 -1.0324771 21 4
5.5326767 5.6973262 -0.69480556 9 5
5.6633468 5.825779 -0.42580539 13 6
5.8964477 6.0592141 -0.14757755 34 7
4.2663832 4.358212 -1.6341835 9 0
6.3321176 6.4638886 0.15794428 15 8
4.8229179 4.9215689 -1.5908539 17 1
6.3809209 6.5068889 0.47761798 2 9
5.2211986 5.3205557 -1.4490036 8 2
5.3919024 5.4887567 -1.2186246 10 3
5.6078186 5.7025762 -0.9820233 15 4
5.5992804 5.6879339 -0.69829178 14 5
6.1217132 6.2099609 -0.4569976 12 6
5.9624801 6.0421014 -0.14817093 20 7
4.3157601 4.3475161 -1.6414305 9 0
6.0702009 6.1127329 0.15036993 19 8
4.8599091 4.8905406 -1.5917536 20 1
6.8629742 6.9038267 0.51017094 10 9
5.2656012 5.2932439 -1.4512933 9 2
5.6382194 5.6618867 -1.2655549 10 3
5.9362459 5.952847 -1.0322334 36 4
5.6923428 5.7022872 -0.70491564 9 5
5.9762273 5.9720583 -0.14747284 15 7
4.3479929 4.3207617 -1.6424657 9 0
6.0375252 5.9955263 0.14851998 12 8
4.8986149 4.8628407 -1.5935532 17 1
6.9010787 6.8459001 0.50943822 17 9
5.3331008 5.2867618 -1.4596889 9 2
5.7309465 5.6752043 -1.277444 9 3
5.5899467 5.5297823 -0.96544904 6 4
5.8227282 5.7520213 -0.71607161 10 5
6.4398966 6.3550372 -0.4741638 12 6
5.9683194 5.8835096 -0.14628607 11 7
4.394609 4.3065276 -1.6486773 9 0
6.18925 6.0609589 0.15120766 20 8
4.938015 4.8339763 -1.5953529 20 1
6.6417484 6.4972692 0.4869338 13 9
5.3839183 5.2631249 -1.4635051 9 2
5.8552241 5.7178645 -1.2962161 9 3
5.8484712 5.6973276 -0.71432841 15 5
6.5127339 6.3377819 -0.47625723 12 6
6.0981479 5.9281201 -0.14845017 16 7
4.4162316 4.2676873 -1.6455716 9 0
6.3205972 6.1037269 0.15337174 21 8
4.9996829 4.8264542 -1.6043509 14 1
6.7501922 6.511755 0.49153933 12 9
5.4318357 5.2363129 -1.466558 11 2
5.9319921 5.7124767 -1.3043507 9 3
5.8754759 5.6521258 -1.0010349 10 4
5.9283342 5.6950064 -0.71920919 10 5
5.9054623 5.6670923 -0.42894551 13 6
6.1855783 5.9296842 -0.14956713 20 7
4.4627028 4.2527432 -1.6517832 9 0
6.3442268 6.0415273 0.15291798 28 8
5.0389042 4.7968044 -1.6061505 16 1
6.827322 6.4947605 0.49384215 8 9
5.4853344 5.2144957 -1.4711374 9 2
5.9659977 5.665483 -1.3030992 9 3
6.2805943 5.9579825 -1.0629444 31 4
5.9795175 5.6644454 -0.7206037 10 5
7.2504897 6.8612485 -0.52315027 11 6
6.2558851 5.9138336 -0.15026523 12 7
4.5007286 4.229424 -1.6548891 9 0
6.2725482 5.890316 0.1501954 19 8
5.0779505 4.7668467 -1.6079501 22 1
5.5731711 5.2244081 -1.4848757 9 2
5.982338 5.602088 -1.2980933 10 3
5.9915133 5.6047955 -1.0073721 10 4
6.0586977 5.6616983 -0.72548437 10 5
6.11835 5.7094517 -0.43857533 13 6
6.2823915 5.856379 -0.14991617 16 7
4.5273118 4.1952734 -1.6538538 9 0
6.4826689 6.0051203 0.15424436 14 8
5.1382771 4.7564316 -1.6164982 14 1
7.0525522 6.5261645 0.50357664 2 9
5.6028347 5.1810222 -1.4833492 8 2
6.0290351 5.5692825 -1.2999705 9 3
6.5703635 6.0608368 -1.0975554 31 4
7.2702169 6.6993747 -0.86493361 12 5
6.2893243 5.7894135 -0.44799584 13 6
6.2347941 5.7311773 -0.14782189 11 7
4.5457821 4.1552362 -1.6502303 11 0
6.5598698 5.992084 0.15508209 7 8
5.1633387 4.714776 -1.6142488 17 1
7.0212221 6.4067645 0.49813369 6 9
5.6794887 5.1788201 -1.4940345 11 2
6.0882144 5.5456796 -1.3043507 11 3
6.661386 6.0613966 -1.1058425 29 4
6.3337426 5.7572045 -0.74884212 10 5
6.2556438 5.6782451 -0.44276223 13 6
6.2736578 5.6886082 -0.14782189 7 7
4.5990744 4.1453872 -1.6590302 9 0
5.2265406 4.7059975 -1.6236967 15 1
5.6854148 5.1137824 -1.4864022 16 2
6.202229 5.572763 -1.3206199 9 3
6.7390013 6.0465608 -1.1116923 27 4
6.3233366 5.6676331 -0.74291551 10 5
7.4101338 6.6347413 -0.52126616 11 6
6.5338469 5.8419352 -0.15298781 8 7
4.5997519 4.0895996 -1.649195 12 0
5.2657351 4.6767855 -1.6259462 16 1
5.7841353 5.129982 -1.5028118 11 2
6.2794256 5.5633864 -1.3287545 10 3
6.8558145 6.0676465 -1.1241229 39 4
6.5747428 5.8107076 -0.76766777 10 5
6.507021 5.7447896 -0.45490417 12 6
6.6544476 5.8687506 -0.15487266 21 7
4.6586967 4.0841317 -1.6600655 9 0
5.2542758 4.6013932 -1.6124492 21 1
5.8951769 5.1553912 -1.5222743 14 2
6.3597646 5.5558038 -1.3375148 11 3
6.5540028 5.7194405 -1.068063 10 4
7.3782043 6.4296174 -0.85621798 12 5
6.4415174 5.6074257 -0.44757712 13 6
6.7978659 5.9113784 -0.15724619 9 7
4.6900206 4.0540323 -1.6611006 9 0
5.265624 4.5467668 -1.6061505 14 1
5.9399452 5.1218014 -1.5245639 9 2
6.4343176 5.5422101 -1.3450238 10 3
6.6391249 5.7065167 -0.76592463 10 5
6.9604135 5.9679093 -0.16003856 13 7
4.719677 4.0224462 -1.6616182 10 0
5.3209772 4.5301099 -1.613349 18 1
5.9985995 5.1016011 -1.5306698 7 2
68.65522 58.347607 7.8827143 56 10
6.5290995 5.546885 -1.3569127 10 3
6.9465671 5.8932004 -1.1185169 11 4
6.9098396 5.855823 -0.79241997 11 5
6.8566298 5.8045645 -0.47081429 12 6
7.0080161 5.924335 -0.16017818 13 7
4.7572994 3.9989285 -1.6652418 9 0
5.3516893 4.4937863 -1.613349 17 1
6.0671659 5.0873504 -1.5390654 9 2
6.5600934 5.4948258 -1.3553483 14 3
7.4138856 6.2011728 -1.1867638 16 4
6.8710456 5.741015 -0.78335583 16 5
7.0227194 5.8615026 -0.47939742 12 6
7.1137242 5.9290342 -0.16164419 14 7
4.7887683 3.9672489 -1.6662771 9 0
5.4032259 4.4715266 -1.6191977 14 1
6.1252317 5.0636334 -1.5447898 12 2
68.771973 56.812313 7.8042741 55 10
6.6312361 5.4741507 -1.3619186 10 3
6.9531255 5.7337556 -1.1065738 9 4
6.9386377 5.7157078 -0.78649336 11 5
6.8886414 5.6664557 -0.4674648 12 6
7.1302233 5.8589139 -0.16108571 14 7
4.8253241 3.9410548 -1.6693829 9 0
5.4478993 4.4447865 -1.6232469 17 1
6.1963167 5.0481935 -1.5535669 10 2
6.6968699 5.4501677 -1.3675503 12 3
7.6198893 6.194726 -1.2057754 11 4
6.8237095 5.5415263 -0.76906228 10 5
6.8908024 5.5880342 -0.46495271 12 6
7.3107953 5.9222813 -0.16422716 19 7
4.8451986 3.9012115 -1.6667948 10 0
5.45754 4.3895431 -1.6169481 18 1
6.2733879 5.0403295 -1.5642521 9 2
67.874374 54.494431 7.6153202 54 10
6.7954354 5.4539142 -1.3800651 9 3
7.6598501 6.1388993 -1.2052879 11 4
7.2355189 5.792594 -0.81089705 11 5
7.9456787 6.3543086 -0.53319877 10 6
7.4550929 5.9534559 -0.16653086 15 7
4.8807163 3.8753507 -1.6699005 11 0
5.5178256 4.3765154 -1.6259462 16 1
6.3238144 5.0085998 -1.5680684 15 2
68.143761 53.952003 7.6041636 54 10
6.8271484 5.4014368 -1.3788135 9 3
7.084722 5.5991931 -1.1087674 12 4
7.3571081 5.8061256 -0.81996119 11 5
7.1710968 5.6532378 -0.47856 12 6
7.4357443 5.8555598 -0.16520448 10 7
4.9259081 3.8554709 -1.6761122 10 0
5.5789495 4.3618927 -1.6349442 15 1
6.3756466 4.977622 -1.5722662 10 2
69.90094 54.553677 7.7575583 55 10
6.8491116 5.3414984 -1.3756849 9 3
7.3929844 5.7594323 -1.1506904 23 4
7.3660116 5.7301555 -0.81647497 11 5
7.1441512 5.5515647 -0.4741638 12 6
7.6122918 5.908957 -0.16820629 25 7
4.9435291 3.813905 -1.6730064 11 0
8.1006184 6.245079 0.17853811 10 8
5.6185284 4.3299727 -1.6376437 16 1
6.4366913 4.9533443 -1.5787537 7 2
6.9582777 5.3489323 -1.3900769 9 3
7.2818646 5.5916157 -1.1272914 19 4
7.2905545 5.5841379 -0.48128149 24 6
7.7740602 5.948019 -0.17085907 15 7
4.9884863 3.7933345 -1.6792181 11 0
8.1886005 6.2222495 0.17951545 10 8
5.659481 4.2988963 -1.640793 13 1
6.4930162 4.9248939 -1.5840963 10 2
70.20491 53.230541 7.7080536 54 10
7.0111971 5.3121495 -1.3932055 11 3
7.2194242 5.4639683 -1.1116923 31 4
7.3912535 5.5859103 -0.81054837 11 5
7.4887624 5.6534452 -0.49174872 11 6
7.8537107 5.9225001 -0.17169677 16 7
5.017282 3.7616084 -1.6802533 11 0
8.1827536 6.1303983 0.17846832 20 8
5.6761332 4.2509284 -1.6371938 15 1
6.5625482 4.907629 -1.5928736 12 2
7.0978336 5.3021359 -1.4032173 12 3
7.3550868 5.4883089 -1.126804 10 4
7.5984588 5.6616516 -0.82902539 11 5
7.4822121 5.5689459 -0.48881787 12 6
7.8457022 5.8331075 -0.17064963 10 7
5.0620637 3.7402682 -1.6864649 10 0
8.2543087 6.094502 0.17909659 20 8
5.7401662 4.2366576 -1.6470916 14 1
6.5919085 4.8582001 -1.5917287 10 2
70.515114 51.95026 7.6627331 54 10
7.1935363 5.2957864 -1.4147935 14 3
72.539612 53.363617 11.057206 49 11
7.4172106 5.4544668 -1.13046 20 4
8.0264311 5.8938465 -0.87120879 12 5
7.8397794 5.7504716 -0.50954288 23 6
8.1120586 5.9436588 -0.1755363 16 7
5.0927391 3.7082462 -1.6880178 9 0
8.28372 6.0273156 0.17881736 20 8
5.7822113 4.2056503 -1.6506908 14 1
6.6637864 4.8397536 -1.6008875 10 2
70.785782 51.391151 7.6529713 54 10
7.2703028 5.2744398 -1.4226153 10 3
72.524643 52.576305 10.99871 48 11
7.5531645 5.4736052 -1.1453282 31 4
7.5660515 5.4769049 -0.81717223 11 5
7.6563559 5.5341382 -0.49509817 11 6
8.2279339 5.9407272 -0.17714193 22 7
5.1216431 3.6748543 -1.6890532 9 0
8.4090509 6.0313954 0.18063241 10 8
5.8050961 4.1606398 -1.6488912 15 1
6.7348895 4.8217072 -1.6100464 7 2
7.2963977 5.2179322 -1.420738 12 3
7.5653424 5.4022865 -1.1414284 16 4
7.6170769 5.4332099 -0.81856668 11 5
7.6743302 5.4679875 -0.49384215 11 6
8.3050566 5.9086404 -0.17790982 17 7
5.1528449 3.6443717 -1.6911237 9 0
9.819438 6.9396906 0.20988265 14 8
5.8189559 4.1109123 -1.6448421 20 1
6.8100953 4.8039989 -1.6199685 7 2
71.161972 50.180649 7.6181092 54 10
7.3988538 5.2135177 -1.4335656 14 3
7.6256018 5.3653307 -1.1448407 21 4
8.4144363 5.9137654 -0.89979583 12 5
7.7155857 5.4165721 -0.49405149 23 6
8.4115992 5.8964329 -0.17930602 23 7
5.1867175 3.6129265 -1.6937119 10 0
10.202416 7.1040816 0.21700323 15 8
5.8642201 4.0802975 -1.6493411 21 1
6.9095654 4.8022771 -1.6356149 10 2
7.5641775 5.2494121 -1.4582822 11 3
7.7216053 5.3526764 -1.1536154 10 4
8.1279106 5.6280327 -0.86493361 12 5
7.7968612 5.3907547 -0.49677294 11 6
7.9128594 5.4648342 -0.16785724 10 7
5.2165928 3.5799072 -1.6952648 9 0
8.8379917 6.060564 0.18705489 11 8
5.9311409 4.0656986 -1.6601387 20 1
6.9631934 4.766017 -1.6401943 12 2
69.236603 47.371788 7.3395596 51 10
7.6707582 5.2444196 -1.4717356 14 3
71.672928 48.965309 10.657962 43 11
8.4292545 5.7565222 -1.2533045 21 4
9.1545467 6.2448139 -0.96952045 13 5
8.4417706 5.7499537 -0.53529221 10 6
8.4964151 5.7806635 -0.17937584 11 7
5.2430606 3.5444813 -1.6957825 10 0
8.0771236 5.458353 0.17016095 18 8
5.9771457 4.0361886 -1.6650877 14 1
7.0036135 4.7239952 -1.6421022 10 2
70.474289 47.499756 7.4354305 52 10
7.7374067 5.2130527 -1.4776801 10 3
77.517639 52.187977 11.473999 54 11
8.5894766 5.7784176 -1.2710973 13 4
8.5364399 5.7362485 -0.89979583 12 5
8.5603142 5.7457876 -0.54031646 10 6
8.8355646 5.9216032 -0.18565871 18 7
5.2976117 3.5290625 -1.7056175 9 0
10.811726 7.1968961 0.22670676 17 8
6.017458 4.0040493 -1.6686869 14 1
8.2376995 5.4772573 0.51844001 2 9
7.088748 4.7097554 -1.654314 10 2
71.539551 47.512741 7.5135226 53 10
7.8131118 5.1851273 -1.485189 10 3
8.6567354 5.7384672 -1.2752409 9 4
8.5952196 5.6912136 -0.9018876 12 5
8.5835581 5.674871 -0.53926975 10 6
8.7755499 5.7952018 -0.18356441 12 7
5.3059659 3.4813969 -1.7004411 9 0
10.934033 7.1713972 0.22824258 17 8
6.0534148 3.9672832 -1.6709365 16 1
7.1732059 4.6958041 -1.6665258 13 2
71.622711 46.850758 7.4877238 53 10
7.8614535 5.1404696 -1.4876919 9 3
8.8810902 5.7983518 -1.3022959 11 4
8.6688423 5.6468396 -0.54220057 10 6
8.9633074 5.8297448 -0.18663603 12 7
5.3262978 3.4431 -1.6994059 9 0
11.114852 7.1795187 0.23096514 35 8
6.0868268 3.9302151 -1.672736 16 1
7.237165 4.6658235 -1.6737766 12 2
72.690239 46.845673 7.5658159 53 10
7.9702229 5.1325226 -1.5014582 12 3
8.953743 5.759243 -1.3071707 12 4
8.9554853 5.7515292 -0.93117195 13 5
8.8459044 5.6746073 -0.55078363 10 6
9.0499287 5.7988024 -0.18761338 12 7
5.3502049 3.4058311 -1.6994059 9 0
6.1272726 3.8959899 -1.6763352 16 1
7.2645893 4.6120281 -1.6726319 7 2
73.52018 46.657333 7.6181092 54 10
8.0792627 5.123302 -1.5152245 12 3
8.591979 5.4442267 1.2489171 5 11
9.0239172 5.715713 -1.3115579 14 4
9.0290985 5.7101669 -0.93465823 13 5
9.1858702 5.8025818 -0.56941521 10 6
9.2187195 5.8165817 -0.19026613 13 7
5.3640289 3.3622434 -1.6963001 9 0
6.1543202 3.8531218 -1.6763352 16 1
7.3132577 4.5716057 -1.6764479 16 2
74.351013 46.459671 7.6704025 54 10
8.2287722 5.1379147 -1.5364995 12 3
9.0720234 5.6578274 -1.3127767 18 4
9.0880489 5.6612163 -0.93674988 13 5
9.1040449 5.6623621 -0.56187886 10 6
9.4697294 5.8829298 -0.19459434 13 7
5.3742204 3.3165941 -1.6921589 9 0
10.921175 6.7371631 0.22398418 16 8
6.1893668 3.8151724 -1.6785848 15 1
7.3793144 4.543335 -1.6844618 12 2
8.3375921 5.1273146 -1.5502658 10 3
9.2533979 5.6816092 -1.3332508 10 4
9.1069679 5.5851369 -0.93465823 13 5
9.3229055 5.7108531 -0.57297415 10 6
9.5378637 5.8333688 -0.1951528 13 7
5.4032736 3.2839522 -1.6942296 9 0
10.838043 6.5818672 0.22133142 16 8
6.2251854 3.7790248 -1.6812842 14 1
7.4192472 4.4967952 -1.68637 15 2
8.4002209 5.0853505 -1.5552716 10 3
9.2256107 5.5784278 -1.3237449 13 4
9.3767214 5.6630974 -0.95836449 13 5
9.5370083 5.7508211 -0.58365065 19 6
9.68013 5.8302145 -0.1972471 13 7
5.4360151 3.2521009 -1.6973354 9 0
10.892891 6.5141006 0.22154084 16 8
6.2681451 3.7454686 -1.6857833 14 1
7.3906789 4.4109783 -1.6730134 10 2
8.4957228 5.0644708 -1.566535 9 3
9.400794 5.5951109 -1.343244 10 4
9.4400024 5.6117558 -0.96080488 13 5
9.5432987 5.6664014 -0.58166188 19 6
9.8478889 5.8379526 -0.19983006 21 7
5.4480381 3.209141 -1.6942296 9 0
6.306931 3.7106209 -1.6893824 14 1
7.4517655 4.3771691 -1.6798825 10 2
8.6194725 5.0570121 -1.5828041 9 3
9.3985176 5.5052652 -1.3373944 13 4
9.5649347 5.5960212 -0.96952045 13 5
9.6809187 5.6570764 -0.58762819 19 6
10.036943 5.8557258 -0.20283188 14 7
5.4775491 3.1739476 -1.6963001 9 0
10.044909 5.8181481 0.20262244 13 8
6.3468156 3.6732042 -1.6929817 14 1
7.470242 4.3181648 -1.677211 9 2
8.679389 5.0090303 -1.5871843 10 3
9.5020752 5.4771876 -1.3466563 10 4
10.073427 5.7994952 -1.0169332 14 5
9.5168238 5.4702101 -0.57527691 9 6
10.039427 5.7636089 -0.20206398 14 7
5.4962173 3.1337159 -1.6952648 9 0
10.034161 5.716424 0.20157529 13 8
6.3858519 3.6365199 -1.6965809 12 1
12.455207 7.08705 0.75102103 2 9
7.5060711 4.2675095 -1.6783561 10 2
50.147209 28.499165 5.0463171 0 10
8.5320644 4.8449197 -1.55402 20 3
9.6367788 5.465559 -1.3603058 7 4
9.7286301 5.501956 -0.58574408 9 6
10.100312 5.7051811 -0.20248282 14 7
5.52807 3.1009398 -1.6983706 9 0
10.135631 5.6831994 0.20283188 13 8
6.4178843 3.5956595 -1.6983805 15 1
7.5263786 4.211525 -1.6764479 9 2
13.049685 7.2962213 1.3080333 16 10
8.8597097 4.9515252 -1.6075207 8 3
9.832449 5.486167 -1.382486 9 4
10.02811 5.5884552 -1.0043827 14 5
9.8531141 5.4841752 -0.59097767 9 6
9.9301453 5.5179677 -0.19829424 20 7
5.542284 3.0595047 -1.6963001 9 0
6.4353843 3.5481274 -1.6965809 14 1
12.793152 7.0476394 0.76546574 6 9
7.5487165 4.1550951 -1.6749215 10 2
12.894814 7.0948472 1.2876389 20 10
8.9234877 4.9057345 -1.6128395 9 3
9.9026232 5.4372702 -1.387117 13 4
10.616443 5.8123341 -0.63431185 17 6
10.058707 5.5001402 -0.20010929 14 7
5.5736957 3.0262687 -1.6994059 9 0
11.546326 6.2639318 0.22928971 17 8
6.4497194 3.4975398 -1.6938814 15 1
12.6278 6.8420806 0.7526958 6 9
7.5913539 4.1097679 -1.6779745 9 2
12.873937 6.9667277 1.2806665 19 10
8.9801092 4.8555269 -1.6169068 8 3
9.87397 5.3321562 -1.3778549 13 4
10.793924 5.8119373 -0.64247626 26 6
10.121516 5.4430428 -0.20059796 14 7
5.5878687 2.9836462 -1.6973354 9 0
11.307486 6.032568 0.22370495 16 8
6.4911733 3.4615998 -1.6983805 14 1
