# .PCD v0.7 - Point Cloud Data file format
VERSION 0.7
FIELDS x y z intensity ring
SIZE 4 4 4 4 2
TYPE F F F F U
COUNT 1 1 1 1 1
WIDTH 1327
HEIGHT 1
VIEWPOINT 0 0 0 1 0 0 0
POINTS 1327
DATA ascii
-0.68688989 6.1431212 -1.4270895 15 1
-0.68313253 6.1483808 -1.2024784 29 2
-0.91381317 8.2639904 -1.3168654 1 3
-1.1743153 10.670959 -1.318139 2 4
-1.4229058 12.97153 2.0668125 1 12
-1.4314661 13.091667 -1.1521989 18 5
-1.1915078 10.950251 -0.57726568 9 6
-1.4649208 13.528848 -0.23752725 20 7
-0.59912211 5.6906934 -1.5332441 10 0
-0.64520717 6.1593957 -1.4297889 14 1
-1.508715 14.451521 0.76148826 6 9
-0.63734764 6.1256618 -1.1971357 34 2
-1.4647598 14.101976 1.2404004 3 10
-0.84877515 8.1994343 -1.3056022 9 3
-1.4084438 13.652471 1.6852095 2 11
-1.0792496 10.479458 -1.2935213 12 4
-0.86970049 8.5029907 -0.7477963 15 5
-1.3455249 13.22348 -0.69659162 8 6
-1.3639981 13.475079 -0.23641029 20 7
-0.56013441 5.7024283 -1.5353146 11 0
-0.6014328 6.155992 -1.4279894 22 1
-0.59381175 6.1221457 -1.1956092 34 2
-0.80175793 8.3113356 -1.3224971 1 3
-1.0225608 10.65865 -1.3147266 9 4
-0.80408394 8.4434013 -0.74204391 25 5
-1.2266237 12.952192 -0.68183291 17 6
-1.2762657 13.551963 -0.23759706 20 7
-0.51855332 5.6869607 -1.5301383 11 0
-0.56072545 6.1852703 -1.433838 25 1
-0.55000126 6.114409 -1.1933196 31 2
-0.7394917 8.2695103 -1.3149883 1 3
-0.94566369 10.637847 -1.3113142 5 4
-0.95564604 10.901175 -0.57349747 30 6
-0.48062289 5.7116179 -1.5358323 13 0
-0.52581531 6.2880745 -1.4567831 14 1
-0.50762576 6.1220136 -1.1940827 31 2
-0.68108886 8.2665968 -1.3137368 1 3
-0.87493265 10.687717 -1.3166765 2 4
-1.250715 15.410272 -1.3526571 26 5
-1.0846759 13.45182 -0.70726818 8 6
-1.0735184 13.401024 -0.23466507 20 7
-0.43999377 5.7052031 -1.5332441 11 0
-0.47237849 6.1672373 -1.4279894 21 1
-0.46368217 6.1097469 -1.1910298 31 2
-0.61623472 8.1766005 -1.298719 7 3
-0.6557042 8.7615166 -1.0787874 2 4
-1.004043 13.54296 -1.1881071 20 5
-0.96463269 13.104512 -0.6886366 8 6
-0.97264117 13.308473 -0.23291981 19 7
-0.40096384 5.7196989 -1.5363499 11 0
-0.43255773 6.217042 -1.438787 20 1
-0.42128953 6.1167526 -1.1917931 31 2
-0.56196898 8.2220907 -1.3052894 5 3
-0.72240359 10.651358 -1.3108268 9 4
-0.90999812 13.557591 -1.1888043 20 5
-1.0337058 15.522269 -0.81528962 17 6
-0.89025313 13.474566 -0.2357122 20 7
-0.36029589 5.7107902 -1.5332441 11 0
-0.38622662 6.1732316 -1.4279894 22 1
-0.37833384 6.1156259 -1.1910298 31 2
-0.50527984 8.2376423 -1.3071665 8 3
-0.54295325 8.9283323 -1.0982866 2 4
-0.81388915 13.658995 -0.71710736 17 6
-0.32182184 5.7382412 -1.5399734 12 0
-0.34073874 6.1329713 -1.4180914 17 1
-0.33626568 6.110218 -1.1895033 31 2
-0.44457304 8.1560764 -1.2937132 2 3
-0.56433642 10.487952 -1.2896215 6 4
-0.69879901 13.245378 -0.69512624 17 6
-0.28380355 5.7615232 -1.5456674 9 0
-0.30012321 6.1585054 -1.4234902 15 1
-0.29284662 6.0967293 -1.1864504 31 2
-0.38724706 8.1510878 -1.2924616 9 3
-0.28145027 5.990356 -0.73633462 21 4
-0.27662957 5.9767475 -0.52345741 34 5
-0.2738035 5.9835186 -0.31391108 31 6
-0.24642865 5.8309188 -1.5637847 9 0
-0.25167954 6.0299983 -1.3933468 42 1
-0.24641226 6.004468 -1.1681327 36 2
-0.24301136 5.9982495 -0.95080876 41 3
-0.24001949 6.0020924 -0.73755336 37 4
-0.23458433 5.9705691 -0.52276015 55 5
-0.23171456 5.9773016 -0.31349242 31 6
-0.20421706 5.7900224 -1.5523967 12 0
-0.20930541 6.0238185 -1.3915472 64 1
-0.20435643 6.0021176 -1.1673695 36 2
-0.20106642 5.9978251 -0.9504959 35 3
-0.19831038 6.0095735 -0.73828453 36 4
-0.19426464 5.9819846 -0.52363169 48 5
-0.18972576 5.9707885 -0.31307372 21 6
-0.15969129 5.6464763 -1.5135738 17 0
-0.17124455 6.1692834 -1.42484 16 1
-0.16584527 6.0897207 -1.1841607 38 2
-0.21951596 8.2185879 -1.3021606 5 3
-0.2770336 10.650388 -1.3081456 18 4
-0.34062615 13.364594 -1.1696301 19 5
-0.27248985 10.915615 -0.57224143 10 6
-0.12200232 5.682198 -1.5228913 16 0
-0.12533255 5.9832683 -1.3816494 13 1
-0.12340937 6.094656 -1.184924 34 2
-1.2123138 60.393101 5.2847753 1 10
-0.16186526 8.2060938 -1.2999705 6 3
-0.20229045 10.632215 -1.3057083 5 4
-0.205961 11.131567 -0.97405255 13 5
-0.28075591 15.616042 -0.81853443 17 6
-0.082333632 5.7524657 -1.5415263 13 0
-0.086947404 6.3055239 -1.4558831 16 1
-0.081013881 6.1071467 -1.1872137 21 2
-0.10333826 8.2228441 -1.3024734 4 3
-0.1279681 10.625429 -1.3047333 19 4
-0.12820242 11.12875 -0.97370398 20 5
-0.16949998 15.663587 -0.82094187 17 6
-0.042511713 5.799263 -1.5539496 11 0
-0.043547872 6.3975658 -1.4770286 14 1
-0.037358053 6.1154237 -1.1887401 25 2
-0.04617219 8.2668238 -1.3093567 1 3
-0.053885974 10.645914 -1.3071707 6 4
-0.051193055 13.331606 -0.69868505 8 6
-0.0020208764 5.7820315 -1.5492908 8 0
0.0011010199 6.3256106 -1.4603822 16 1
0.0053297104 6.1076818 -1.1872137 19 2
0.011542242 8.2669449 -1.3093567 1 3
0.020411156 10.632135 -1.3054645 5 4
0.0287806 10.993968 -0.96185076 20 5
0.042074848 13.393554 -0.70192993 17 6
0.057993051 15.823484 -0.27620178 28 7
0.038130309 5.7490644 -1.540491 9 0
0.044400513 6.2046299 -1.4324883 17 1
0.047935493 6.1035705 -1.1864504 21 2
0.068921208 8.2271547 -1.3030992 2 3
0.094190173 10.582108 -1.2993711 6 4
0.10522851 11.164855 -0.97684151 27 5
0.13511345 13.346998 -0.69952244 26 6
0.16867328 15.84269 -0.27655083 28 7
0.078265414 5.7486582 -1.540491 10 0
0.087881207 6.2158599 -1.4351877 25 1
0.089540616 6.1070275 -1.1872137 19 2
0.10236879 6.7411838 -1.0678217 3 3
0.16832218 10.597071 -1.3013209 3 4
0.18232147 11.112053 -0.97230941 13 5
0.18132979 10.709766 -0.56135553 20 6
0.11770639 5.7634435 -1.5446322 9 0
0.13402252 6.3982596 -1.4774785 12 1
0.13170329 6.0846634 -1.1830158 17 2
0.14671099 6.6178617 -1.0484239 16 3
0.2401301 10.581789 -1.2996148 2 4
0.32055873 13.403768 -0.70266259 8 6
0.15757218 5.7489638 -1.5410087 8 0
0.17781998 6.3660002 -1.4702801 16 1
0.1731202 6.0836258 -1.1830158 17 2
0.18809485 6.4903383 -1.0284003 6 3
0.19951777 6.7225327 -0.82578677 6 4
0.38507199 12.749464 -1.1159421 17 5
0.40460476 13.167706 -0.69041598 17 6
0.19669782 5.7477584 -1.5410087 13 0
0.2173554 6.2555785 -1.4450855 23 1
0.21586299 6.0901175 -1.1845423 17 2
0.2390078 6.6448216 -1.0531169 13 3
0.38542756 10.561602 -1.2976649 2 4
0.4030076 10.88693 -0.95313519 13 5
0.49826047 13.210464 -0.69282347 26 6
0.23658128 5.7404537 -1.5394558 11 0
0.26394778 6.3240023 -1.461282 18 1
0.25756085 6.0943913 -1.1856872 19 2
0.28448555 6.6489611 -1.0540556 16 3
0.43629789 10.033099 -1.2330741 3 4
0.50738561 11.528761 -1.0096121 14 5
0.61748743 13.865211 -0.7273652 8 6
0.49618763 10.96911 -0.19166233 13 7
0.27711383 5.7483106 -1.5420439 13 0
0.31036776 6.3687196 -1.4720796 14 1
0.30155244 6.1002355 -1.1872137 23 2
0.40952727 8.1974669 -1.2999705 6 3
0.53325444 10.56312 -1.2986398 4 4
0.66580737 13.053106 -1.1434834 18 5
0.8041476 15.551853 -0.816127 17 6
0.6945796 13.297845 -0.23243116 19 7
0.31553668 5.7153726 -1.5337617 13 0
0.35178587 6.3119183 -1.4594824 19 1
0.34218633 6.0823603 -1.1841607 23 2
0.37617263 6.624619 -1.0509269 3 3
0.60687709 10.557158 -1.2983961 3 4
0.74077129 12.769672 -1.1190797 17 5
0.63969237 10.928271 -0.57370681 10 6
0.35502815 5.722734 -1.5363499 9 0
0.39388689 6.2957625 -1.4563332 25 1
0.38464087 6.0798235 -1.1841607 19 2
0.42304084 6.6316876 -1.0524912 6 3
0.59713501 9.2590876 -1.1392348 9 4
0.81567699 12.54549 -1.0999055 17 5
0.87245607 13.311133 -0.69910377 8 6
0.39690387 5.7335372 -1.5399734 8 0
0.43987742 6.3063912 -1.4594824 20 1
0.42762429 6.0848236 -1.1856872 19 2
0.47426143 6.6816931 -1.0609387 11 3
0.75662196 10.581317 -1.3025397 4 4
0.91326106 12.678596 -1.1121073 17 5
0.96536785 13.272676 -0.697429 8 6
1.1555507 15.773321 -0.27606216 27 7
0.43618751 5.7209954 -1.5373851 11 0
0.48553443 6.3245392 -1.4644314 26 1
0.47039714 6.0718217 -1.1837791 17 2
0.63856339 8.1867752 -1.3005962 6 3
0.82938719 10.561924 -1.3008335 7 4
1.0165526 12.83063 -1.1260523 18 5
1.239341 15.539263 -0.81696433 26 6
0.47451389 5.6985588 -1.5322088 10 0
0.52430916 6.2569118 -1.4495846 15 1
0.51327091 6.0742583 -1.184924 19 2
0.54407394 6.3988609 -1.0171371 21 3
0.88837647 10.383803 -1.2796283 5 4
0.95234394 11.040673 -0.96952045 13 5
0.94250703 10.860219 -0.57129937 40 6
0.51463324 5.6989551 -1.5332441 10 0
0.55528563 6.1133647 -1.4171916 14 1
0.55494881 6.0627065 -1.1833974 23 2
0.61245638 6.6525922 -1.0581229 8 3
0.95920509 10.359556 -1.2774346 12 4
1.20149 12.90268 -1.1337218 18 5
1.0233349 10.907064 -0.57412547 10 6
0.55440694 5.6952233 -1.5332441 9 0
0.55656672 5.6865344 -1.319113 10 1
0.59620357 6.0587883 -1.1833974 21 2
0.66297591 6.7013445 -1.0665703 14 3
1.051777 10.556065 -1.3025397 4 4
1.0881966 10.863931 -0.95522696 20 5
1.0919557 10.844204 -0.57119471 30 6
1.0996565 10.84473 -0.19026613 19 7
0.58975327 5.6586542 -1.5244442 8 0
0.60073972 5.7349439 -1.3312603 12 1
0.63931102 6.0622888 -1.184924 23 2
0.70349807 6.6376219 -1.0571842 4 3
1.1124572 10.444044 -1.2896215 12 4
1.1749057 10.903833 -0.57475352 9 6
0.62924647 5.6543984 -1.5244442 8 0
0.6411984 5.7344837 -1.3321601 11 1
0.68099934 6.061698 -1.1856872 23 2
1.5587586 13.831277 1.2177401 2 10
0.74622554 6.6110878 -1.0537428 8 3
1.1965446 10.534643 -1.3018084 12 4
1.514348 13.209233 -0.69680101 8 6
1.2614455 10.93581 -0.192151 13 7
0.66703737 5.6442294 -1.5228913 10 0
1.0081528 8.5051537 0.1494973 13 8
0.68986553 5.8112626 -1.3510561 14 1
0.72353417 6.0587454 -1.1860688 17 2
0.77565783 6.4664631 -1.0315289 14 3
1.6063981 13.352719 1.6513296 1 11
0.88331658 7.3315239 -0.906708 6 4
1.025404 8.4241762 -0.44475099 13 6
1.035924 8.4736128 -0.14900865 24 7
0.71050721 5.6720214 -1.5316912 8 0
0.72165996 5.7366991 -1.3348596 14 1
0.76236492 6.026278 -1.1807261 14 2
0.82227707 6.4726481 -1.0334063 1 3
1.056815 8.2841463 -1.0254087 19 4
1.6883568 13.161465 -1.1609144 19 5
1.3941504 10.778557 -0.18970767 25 7
0.74907678 5.6592622 -1.5296206 7 0
0.76349187 5.7450433 -1.3380089 16 1
0.80363482 6.0149717 -1.1795813 12 2
0.89055234 6.6390405 -1.0609387 19 3
1.4222195 10.560639 -1.3083893 4 4
1.4503551 10.712975 -0.94581407 13 5
1.464633 10.775997 -0.5699386 20 6
1.0211207 7.4835057 -0.13183548 9 7
0.7875002 5.6462412 -1.5275501 5 0
0.79844737 5.7029042 -1.3294607 14 1
0.84724915 6.0208793 -1.1818709 12 2
0.93854064 6.6443963 -1.0628159 3 3
1.1929995 8.4140253 -1.0434453 19 4
1.531289 10.745984 -0.94964898 13 5
1.6591069 11.628388 2.2832205 1 13
2.2349348 15.625313 -0.82722223 17 6
1.560985 10.872846 -0.19173212 13 7
0.82745689 5.6444292 -1.5285853 8 0
0.84277761 5.7280393 -1.3366592 15 1
1.1514018 7.8067188 0.41355878 2 9
0.88983929 6.0187016 -1.1826342 14 2
1.0104185 6.8096328 -1.0903484 1 3
1.0025972 6.7326403 -0.83578002 19 4
1.2713377 8.4965954 -0.75163114 10 5
1.602491 10.671543 -0.5655424 20 6
0.86478752 5.6251488 -1.5249618 9 0
0.89373982 5.7932768 -1.3533056 16 1
0.93333662 6.0220432 -1.1845423 14 2
1.2213696 7.8713794 0.69689733 2 10
1.0336456 6.6462607 -1.0653188 14 3
1.3529043 8.6691771 -1.0773251 10 4
1.3343312 8.5111322 -0.75372285 10 5
1.6865751 10.721259 -0.56878728 20 6
1.7382141 11.011959 -0.19459434 13 7
0.90925407 5.6513987 -1.5337617 8 0
0.92701983 5.7426476 -1.3429577 14 1
0.97315603 6.0018148 -1.1818709 14 2
1.0774826 6.6232843 -1.0628159 4 3
1.3202058 8.0974703 1.0073721 2 11
1.6663336 10.209222 -1.2701224 7 4
1.3840439 8.442626 -0.74849349 10 5
1.755867 10.67572 -0.56700778 30 6
1.8150445 10.999557 -0.19459434 13 7
0.94196248 5.6049056 -1.5228913 9 0
0.98263967 5.8282738 -1.3645531 14 1
1.0156884 5.9987464 -1.1826342 10 2
1.1283267 6.6428652 -1.0671961 6 3
1.7669097 10.369546 -1.2915714 14 4
1.444967 8.444541 -0.74953938 21 5
1.556217 9.0851593 1.7916965 1 13
1.8644817 10.862017 -0.57757968 19 6
0.97840142 5.5829701 -1.5187503 6 0
1.02263 5.8174329 -1.3636533 14 1
1.0575401 5.9915099 -1.1826342 10 2
1.1705425 6.611485 -1.0634416 14 3
1.8219048 10.259232 -1.2793844 11 4
1.5028368 8.4283638 -0.74901646 31 5
1.9494095 10.899854 -0.58030111 19 6
1.0232487 5.6083117 -1.5275501 8 0
1.0681293 5.836988 -1.3699518 14 1
1.1021836 5.9994278 -1.1856872 12 2
1.1701373 6.3506041 -1.0227686 15 3
1.5212077 8.2317562 -1.0278461 13 4
1.5561858 8.3882828 -0.74640173 35 5
2.450722 13.17156 -0.70213926 17 6
1.0555344 5.5649695 -1.517715 10 0
1.1073937 5.821732 -1.3681523 14 1
1.1447771 5.9954443 -1.1864504 12 2
1.2077574 6.3073578 -1.0171371 15 3
1.5666602 8.1585541 -1.0200466 7 4
1.6098602 8.3598862 -0.74483299 30 5
2.0923097 10.824511 -0.57778901 19 6
2.1214652 10.944589 -0.19459434 13 7
1.0954792 5.5631514 -1.5192679 8 0
2.1295407 10.804459 0.19222081 12 8
1.1472551 5.8100352 -1.3672525 15 1
1.1809815 5.9644027 -1.1818709 12 2
1.3052868 6.5741243 -1.0615644 14 3
1.6491803 8.2759075 -1.0361333 12 4
1.6732552 8.3738441 -0.74709904 10 5
2.6528792 13.240314 -0.70768684 8 6
1.1337072 5.5574584 -1.5197855 10 0
1.1906815 5.8211842 -1.3717515 14 1
1.2281216 5.9829359 -1.1872137 10 2
1.390976 6.7583332 -1.0928513 13 3
2.148397 10.410806 -1.3052207 12 4
1.7487893 8.4520082 -0.75511736 10 5
2.7277899 13.137382 -0.70318598 17 6
2.2379246 10.74985 -0.19166233 13 7
1.1760721 5.5664196 -1.5244442 7 0
1.2296766 5.8051033 -1.3699518 14 1
1.2712622 5.9859614 -1.1895033 10 2
1.3851093 6.5052686 -1.0534298 14 3
1.8029504 8.4387436 -1.0595322 10 4
1.8006586 8.4064732 -0.75215399 26 5
2.8108664 13.089218 -0.70161593 8 6
2.2935472 10.644042 -0.19005671 13 7
1.2190297 5.5769463 -1.5296206 8 0
1.2726767 5.8077989 -1.3726513 15 1
1.3123778 5.9690409 -1.1879768 10 2
1.4269474 6.4739704 -1.0499883 13 3
1.861816 8.425952 -1.0595322 15 4
1.8653313 8.4209309 -0.75459439 31 5
2.3996553 10.797379 -0.57967311 19 6
2.9618165 13.293985 -0.23773669 20 7
1.2541004 5.5513411 -1.5249618 9 0
1.320506 5.8310833 -1.3802997 23 1
1.3508072 5.9503965 -1.1860688 8 2
1.4985983 6.5854535 -1.069699 11 3
1.9175022 8.3992023 -1.0578259 20 4
1.9547431 8.5417147 -0.76662189 10 5
2.4503157 10.681517 -0.57433486 30 6
3.0464749 13.237906 -0.23710839 20 7
1.2879143 5.5257425 -1.5203031 13 0
1.3575091 5.8105736 -1.3776002 15 1
4.9014158 20.946667 1.1274213 3 9
1.3788736 5.8834777 -1.1746202 6 2
1.538661 6.5498323 -1.0656317 13 3
1.9569656 8.3044605 -1.0475889 24 4
2.0024235 8.4774437 -0.76208979 10 5
2.5312738 10.691357 -0.57580024 29 6
1.3310384 5.5314112 -1.5244442 8 0
1.3953987 5.7855554 -1.374001 15 1
1.4360603 5.9404984 -1.1879768 10 2
1.5384758 6.3447595 -1.0340319 17 3
2.0200543 8.3118134 -1.0502701 21 4
2.0379777 8.3664694 -0.75337422 21 5
2.5949104 10.620586 -0.57297415 20 6
1.3705499 5.5257344 -1.5254794 8 0
1.4376332 5.7832379 -1.3758006 15 1
1.4709336 5.899591 -1.1818709 10 2
1.556394 6.2284598 -1.0168241 7 3
2.1137195 8.4400043 -1.0683068 10 4
2.0973072 8.3559036 -0.75372285 21 5
2.6626544 10.577032 -0.57161337 10 6
1.4205688 5.5609536 -1.5379028 8 0
1.4789394 5.7768364 -1.3767005 15 1
1.5125178 5.8951473 -1.1830158 8 2
1.6602412 6.4568653 -1.0559328 17 3
2.2826324 8.8517723 -1.1224167 5 4
2.7528157 10.652017 -0.96254802 13 5
2.7486095 10.612801 -0.57454419 20 6
1.4559366 5.5418124 -1.5353146 9 0
1.5162451 5.7590971 -1.3749009 15 1
1.5621595 5.9167132 -1.1895033 10 2
1.5946275 6.0268998 -0.98741448 8 3
2.2838161 8.613451 -1.094143 7 4
2.2004552 8.2757444 -0.74919075 10 5
2.2837117 8.5707932 -0.46484798 25 6
2.8739262 10.76322 -0.19445471 33 7
1.4950916 5.5333791 -1.5358323 8 0
1.5604858 5.7634201 -1.3785001 15 1
1.6003413 5.8942952 -1.1872137 12 2
1.7865363 6.5664806 -1.0778337 3 3
2.8472381 10.443541 -1.3291072 7 4
2.901274 10.612543 -0.96254802 13 5
4.2896366 15.658787 -0.85087812 8 6
2.3550732 8.5792732 -0.15529151 8 7
1.493366 5.3776159 -1.4954566 12 0
1.591803 5.720469 -1.3708518 13 1
1.6456707 5.898108 -1.1902666 6 2
1.830205 6.5462399 -1.0765822 16 3
2.9040082 10.366065 -1.321795 14 4
2.4580379 8.7506046 -0.79520899 11 5
2.9962401 10.645192 -0.57956845 9 6
2.408397 8.5395279 -0.15487266 8 7
1.5011958 5.2630258 -1.4664688 8 0
1.6440173 5.7523127 -1.3811995 16 1
1.6846437 5.8789268 -1.1887401 10 2
2.3174334 8.0712214 -1.330006 10 3
2.9795997 10.356986 -1.3232574 12 4
5.2365074 18.118584 -0.98841703 9 6
2.4534895 8.4725666 -0.15396513 12 7
1.6236753 5.5453506 -1.5482556 8 0
1.6824901 5.735085 -1.3798498 15 1
1.738941 5.9122257 -1.197899 12 2
1.9348283 6.5655231 -1.0840909 13 3
3.0849984 10.448258 -1.337638 5 4
3.1651313 10.699024 -0.97614431 20 5
6.050055 20.398508 -1.11507 9 6
2.5114403 8.4513979 -0.15389533 25 7
1.6623497 5.5338802 -1.5482556 8 0
1.735405 5.7661185 -1.3901975 17 1
4.5873265 15.232409 0.83371186 2 9
1.7870789 5.9265671 -1.2032416 14 2
2.4387801 8.0725384 -1.3356376 2 3
3.1699495 10.466364 -1.3427565 3 4
2.5131185 8.2820425 -0.75720912 21 5
3.2817349 10.794693 -0.59129167 28 6
1.685199 5.474432 -1.534797 8 0
1.7993059 5.8342476 -1.4095433 14 1
1.8388488 5.9477086 -1.2101108 14 2
2.5184562 8.1307926 -1.3481523 2 3
3.2246454 10.391459 -1.3359319 19 4
2.626508 8.4431276 -0.77359438 10 5
3.4057457 10.927877 -0.59987479 9 6
1.7326765 5.4920111 -1.5430793 8 0
1.8470433 5.8438406 -1.4149421 14 1
1.8909975 5.9684148 -1.2169799 31 2
2.5679832 8.0904207 -1.344398 2 3
2.6408141 8.3047924 -1.0700129 10 4
3.426018 10.748085 -0.98695159 14 5
3.4096539 10.677423 -0.58741885 19 6
1.7472149 5.406251 -1.5223737 12 0
1.9184088 5.9253569 -1.4378871 17 1
1.9423153 5.9849458 -1.2230858 36 2
2.6219592 8.0647802 -1.3431464 2 3
2.735002 8.3975163 -1.0843935 10 4
2.7231102 8.3412371 -0.76766777 10 5
3.4598958 10.579328 -0.58333665 9 6
3.5194683 10.742443 -0.19731691 27 7
1.8067613 5.4599481 -1.5410087 8 0
1.9621787 5.9192195 -1.4396867 20 1
1.9852917 5.9749656 -1.2238491 32 2
4.6136694 13.877301 1.2794462 1 10
2.6844404 8.0650206 -1.3462751 2 3
2.801096 8.400815 -1.0873184 14 4
3.5757468 10.699203 -0.98695159 14 5
3.5159147 10.501884 -0.58040577 19 6
3.6299908 10.823779 -0.19927157 14 7
1.8355392 5.419754 -1.5332441 9 0
2.0209851 5.9570489 -1.452284 18 1
2.034538 5.9832654 -1.2284284 34 2
2.74195 8.0498247 -1.3469009 2 3
2.8648009 8.3960857 -1.0892683 12 4
1.8954674 5.4706964 -1.5513614 8 0
2.0727472 5.9722509 -1.4594824 15 1
2.0665846 5.941102 -1.2227042 14 2
2.0584257 5.9076767 -0.99085599 15 3
2.0546503 5.8869195 -0.76558328 18 4
2.0564594 5.8789086 -0.54489768 40 5
2.0612714 5.882772 -0.32668105 11 6
3.82447 10.896573 -0.20157529 14 7
1.9271594 5.4391217 -1.5461851 8 0
2.0974443 5.9098859 -1.447785 37 1
2.0902464 5.8765864 -1.2124004 31 2
2.0956414 5.8819981 -0.98897886 42 3
2.0890265 5.8537354 -0.76314586 33 4
2.0961099 5.8606567 -0.54454905 51 5
2.1049824 5.8757606 -0.32709977 22 6
5.5862465 15.56754 -0.28869772 30 7
1.9532454 5.3928394 -1.5368675 8 0
2.1379874 5.8932667 -1.4473351 58 1
2.136586 5.8766127 -1.2154534 34 2
2.1319196 5.8542318 -0.98678869 42 3
2.1461711 5.8837657 -0.76899564 22 4
4.5959029 12.586118 2.1221902 4 12
2.1492867 5.8795638 -0.5476867 28 5
5.6199894 15.34905 -0.85663497 17 6
3.9528229 10.778281 -0.20038854 14 7
2.008281 5.426177 -1.5503261 8 0
2.1973667 5.9275322 -1.4594824 19 1
24.422977 65.812088 3.6789043 25 9
2.2213194 5.9793353 -1.2398769 32 2
2.9849358 8.021965 -1.3556613 3 3
2.2260141 5.9728065 -0.78264499 7 4
3.959059 10.605912 -0.99043781 21 5
4.8606734 12.993571 -0.72705114 17 6
4.0518336 10.81409 -0.20157529 14 7
2.0645571 5.4608145 -1.5643023 11 0
2.2580154 5.9630771 -1.4720796 16 1
24.69351 65.177383 3.6527362 24 9
2.267535 5.9787631 -1.2429299 30 2
3.0513916 8.032855 -1.36098 5 3
2.2690706 5.9608307 -0.78313243 10 4
4.0699148 10.674822 -0.999502 14 5
4.049839 10.605483 -0.59495521 19 6
2.0912507 5.4195995 -1.5565379 21 0
2.2901256 5.9257555 -1.4666809 18 1
2.3148913 5.9774327 -1.2459828 28 2
3.1152549 8.0316153 -1.3644215 1 3
2.3182151 5.9674525 -0.78605735 13 4
3.4041421 8.7492275 -0.8213557 11 5
5.9723721 15.318342 -0.86165929 17 6
2.1325731 5.4138556 -1.559126 14 0
2.3328667 5.9132495 -1.4675807 15 1
2.3641822 5.9834485 -1.2505622 26 2
3.1683984 8.0065498 -1.3637959 2 3
2.3612857 5.954813 -0.7865448 16 4
4.5336652 11.40418 2.3854942 1 13
4.2008476 10.561627 -0.59568793 18 6
2.1912134 5.4508166 -1.5741374 13 0
2.3682697 5.8823571 -1.4639815 18 1
24.598728 61.037327 3.4488351 14 9
2.4025342 5.9554524 -1.2482725 28 2
3.2492943 8.0422802 -1.3738077 1 3
26.510176 65.549156 8.6817293 17 11
2.4057789 5.9455438 -0.78751975 19 4
3.4249535 8.451561 -0.79782367 28 5
6.2871108 15.483281 -0.87579 8 6
3.4087012 8.3820238 -0.15794428 13 7
2.2292137 5.4353862 -1.5741374 13 0
2.4137211 5.8764963 -1.4666809 17 1
2.448988 5.9534869 -1.2513254 28 2
27.197262 66.05088 6.2494154 28 10
3.3144915 8.0455494 -1.3781878 1 3
26.940638 65.330467 8.6768541 17 11
2.454042 5.9451184 -0.78971344 24 4
3.5303006 8.5397635 -0.8084566 11 5
3.4715948 8.3853178 -0.47562921 49 6
4.4678164 10.770305 -0.20352997 14 7
2.2721214 5.4343457 -1.5782787 13 0
2.4551704 5.8635249 -1.4675807 18 1
25.476561 60.784462 3.4540687 14 9
2.4980843 5.95435 -1.2551417 26 2
3.3453324 7.9621134 -1.3678632 13 3
2.4975348 5.9355941 -0.7906884 27 4
3.5379746 8.3919039 -0.79677778 28 5
3.5401502 8.3847971 -0.47698995 12 6
4.5752854 10.820686 -0.20506579 14 7
2.3190963 5.4396753 -1.5844903 13 0
2.4960458 5.8462415 -1.4675807 16 1
25.93951 60.696957 3.4593022 14 9
2.5457723 5.9512038 -1.2581946 26 2
7.8031969 18.232609 1.7350965 1 10
3.4140573 7.9694347 -1.3731819 3 3
27.01931 63.01041 8.418004 14 11
2.5436051 5.9289608 -0.7921508 27 4
3.6043434 8.3853035 -0.79852092 33 5
6.5883608 15.305343 -0.87327784 17 6
4.6111403 10.696661 -0.20332053 14 7
2.3408432 5.386147 -1.5736198 14 0
2.5142436 5.7768564 -1.4545335 24 1
26.522188 60.880589 3.4802368 15 9
2.5888271 5.9368854 -1.2589579 28 2
26.541103 60.83699 5.807013 15 10
3.4711919 7.9490261 -1.3738077 2 3
2.597661 5.9401593 -0.79605067 34 4
3.6500027 8.3307381 -0.7957319 33 5
4.6551542 10.609772 -0.60720181 18 6
4.8063622 10.938826 -0.20855626 15 7
2.3643057 5.3378787 -1.5643023 15 0
4.7874994 10.798515 0.20618272 14 8
2.5790069 5.8143854 -1.4684805 15 1
2.6445625 5.9509606 -1.2658269 30 2
26.693209 60.038502 5.7484441 14 10
3.425406 7.6972017 -1.3343862 18 3
2.6414917 5.9273186 -0.79678184 24 4
3.729193 8.352355 -0.800264 28 5
4.7657957 10.659063 -0.61191207 18 6
2.4174097 5.3564587 -1.5746551 14 0
2.6179338 5.792686 -1.4675807 15 1
29.89842 66.094566 3.801789 31 9
2.7006166 5.9645472 -1.2726961 30 2
7.7344575 17.07427 1.6399224 1 10
28.41502 62.611504 8.4423771 14 11
2.6877291 5.919579 -0.79824424 19 4
3.7469893 8.2372522 -0.79172277 22 5
4.8359542 10.616444 -0.61138868 27 6
2.3901896 5.1990318 -1.5332441 16 0
2.6680896 5.7955098 -1.4729795 20 1
2.7438357 5.9491134 -1.2734593 30 2
28.093157 60.882915 5.8662791 17 10
3.049665 6.6031036 -1.1519835 11 3
30.265816 65.471191 8.856246 20 11
2.7331595 5.9096789 -0.79946297 26 4
3.7851357 8.1693144 -0.78771359 33 5
4.9166732 10.59692 -0.61222607 27 6
2.4919598 5.322185 -1.5746551 16 0
2.7151003 5.7908587 -1.4765787 20 1
2.7919817 5.9440274 -1.2765123 28 2
28.653095 60.973812 5.8941689 18 10
3.0881221 6.5655646 -1.1491677 9 3
31.396851 66.691544 9.0507498 22 11
2.7912672 5.9263711 -0.80433774 35 4
3.9568541 8.3859453 -0.81124562 11 5
5.092926 10.779035 -0.62478673 8 6
5.1099205 10.800359 -0.20855626 15 7
2.5174158 5.2802448 -1.5674082 16 0
2.7579806 5.7770381 -1.4779284 23 1
27.685261 57.939175 3.3653069 10 9
2.8401845 5.938561 -1.2795652 30 2
28.312752 59.172718 5.7390308 14 10
3.1304672 6.5367203 -1.1479162 12 3
2.8317118 5.9049516 -0.80409402 26 4
5.079958 10.574253 -1.0263461 14 5
5.1152396 10.633428 -0.61840177 35 6
5.1418056 10.674342 -0.20681101 14 7
2.5694013 5.2938247 -1.5767257 15 0
5.1789198 10.66083 0.20688082 14 8
2.8110223 5.7839341 -1.484677 21 1
2.8918872 5.9397702 -1.2841446 26 2
28.658834 58.837505 5.7257838 13 10
3.8304482 7.8570657 -1.3844452 3 3
2.8885417 5.9171481 -0.80848128 28 4
5.1589026 10.549272 -1.0273918 14 5
5.1902232 10.599254 -0.61850643 17 6
5.2038708 10.61305 -0.20632236 22 7
2.6353884 5.3346472 -1.5943254 14 0
2.8426929 5.7467012 -1.480178 22 1
2.9385142 5.9299903 -1.2864343 30 2
28.819338 58.132599 5.6766276 12 10
3.8764274 7.812438 -1.3813165 6 3
2.9386134 5.9146156 -0.81091869 28 4
5.2182212 10.484461 -1.0246029 21 5
5.2534032 10.541309 -0.61725032 17 6
5.1956921 10.411849 -0.20311111 21 7
2.6916568 5.3540912 -1.6057135 10 0
2.89501 5.7510843 -1.4864765 22 1
2.9922144 5.9338751 -1.291777 26 2
29.179609 57.841049 5.6679125 12 10
3.9914179 7.9050927 -1.4025916 2 3
2.9905815 5.915215 -0.81384355 31 4
6.713068 13.260852 -1.3003637 24 5
5.3512568 10.552472 -0.62007648 17 6
2.7140141 5.3059301 -1.5969136 13 0
2.9652934 5.7897058 -1.5017732 18 1
3.0414972 5.9308376 -1.2955931 30 2
29.446211 57.370056 5.6417656 11 10
3.4035785 6.6283379 -1.1801417 16 3
3.0354366 5.9012537 -0.8148185 28 4
5.4769716 10.620535 -0.62625211 26 6
2.7500651 5.2873349 -1.5969136 22 0
3.0100319 5.7797594 -1.5044726 18 1
3.0864577 5.9164238 -1.2971196 28 2
4.2127786 8.0720215 0.79660344 1 10
3.3994656 6.5081167 -1.1629339 5 3
3.0828919 5.8945289 -0.81676841 28 4
5.5587268 10.61482 -1.0483093 22 5
5.447998 10.385715 -0.6146335 18 6
5.671164 10.797398 -0.21288446 15 7
2.7851064 5.2645907 -1.5958784 13 0
3.0275073 5.7155514 -1.4932251 23 1
3.1376994 5.9160891 -1.301699 26 2
30.193317 56.881176 5.6340957 11 10
3.4826012 6.5580993 -1.1760744 3 3
33.646103 63.305824 8.8026237 19 11
3.133291 5.8903885 -0.81920576 26 4
4.0542321 7.5897222 -0.1501954 8 7
2.8428338 5.2863464 -1.6083016 13 0
3.0765016 5.7136865 -1.4981741 22 1
3.1975615 5.9286003 -1.3093314 30 2
30.602528 56.716404 5.638279 11 10
3.456023 6.3997922 -1.1519835 23 3
3.1818957 5.8823371 -0.82115573 30 4
5.7993851 10.707861 -1.0653918 15 5
4.5309997 8.3554907 -0.49813369 11 6
2.8898604 5.2828164 -1.6134779 12 0
3.1154368 5.688107 -1.4972742 21 1
7.6198978 13.90075 0.83078104 6 9
3.2539768 5.9336753 -1.3154373 30 2
3.4351578 6.2537022 -1.1300827 20 3
35.499977 64.600891 9.0507498 22 11
3.2324483 5.8773756 -0.82359308 22 4
4.6225066 8.3805666 -0.50158787 23 6
5.9675832 10.805797 -0.21546741 16 7
2.9219766 5.2540717 -1.6108898 15 0
3.1797204 5.7104859 -1.5089717 18 1
3.3020914 5.9205256 -1.317727 30 2
32.146801 57.614361 5.7721505 14 10
32.804176 58.69619 8.2561607 12 11
3.2869637 5.8789225 -0.82700545 30 4
4.6685367 8.3396912 -0.83617222 29 5
5.9361095 10.586676 -0.63609123 17 6
6.0428762 10.763872 -0.21546741 16 7
2.9452732 5.2100015 -1.6036428 16 0
3.2252665 5.6983256 -1.5116711 16 1
3.3519945 5.9149923 -1.3215431 30 2
7.6136575 13.424277 1.3502167 2 10
4.4490895 7.8413639 -1.4279339 14 3
3.3475428 5.8903489 -0.83188021 45 4
4.7296004 8.3120899 -0.83669513 11 5
8.7100096 15.288877 -0.92215961 18 6
4.7819085 8.3801851 -0.16841573 10 7
2.9951026 5.2149601 -1.6114074 13 0
3.2600961 5.6694808 -1.5098715 16 1
3.4030054 5.9084592 -1.3253593 30 2
33.123104 57.486759 5.8045726 15 10
4.5362844 7.8665857 -1.4382586 1 3
3.4054253 5.8983712 -0.83626753 38 4
6.1301575 10.604919 -1.071667 15 5
6.139555 10.604074 -0.64216226 17 6
4.8328271 8.337059 -0.16820629 15 7
3.0392249 5.2072716 -1.6155485 12 0
3.3192582 5.6802349 -1.5188695 15 1
3.4530561 5.9021063 -1.3291756 30 2
34.337082 58.643326 5.945416 19 10
4.6076937 7.86621 -1.4438903 1 3
3.458575 5.8949986 -0.83919233 37 4
4.9436588 8.4161644 -0.85395193 30 5
6.2217131 10.579258 -0.64320898 8 6
4.8827896 8.2893343 -0.16792706 10 7
3.0677059 5.17483 -1.611925 14 0
3.3598375 5.6608601 -1.5197693 18 1
34.933487 58.811363 3.5849085 20 9
3.5082209 5.9014821 -1.3345182 31 2
11.04959 18.580088 1.8912796 3 10
4.6584568 7.8270597 -1.4426388 1 3
3.5087795 5.8883753 -0.84162974 37 4
4.9977698 8.3771858 -0.85342902 18 5
6.2605863 10.47727 -0.63965011 26 6
5.0048041 8.3657322 -0.17016095 10 7
3.1147196 5.1714926 -1.6176192 13 0
3.4173865 5.6673064 -1.5278676 15 1
36.01598 59.704342 3.6542017 24 9
3.5686035 5.9110799 -1.3421506 24 2
4.7157173 7.80193 -1.4438903 1 3
3.5641983 5.8875089 -0.84504211 38 4
5.0726547 8.3693523 -0.85621798 12 5
9.2660627 15.269999 -0.93608105 9 6
6.4423175 10.59993 -0.21651454 16 7
3.1315911 5.1183114 -1.607784 16 0
3.4731553 5.669898 -1.535066 14 1
37.836857 61.719994 3.7940431 30 9
3.6364803 5.9272256 -1.351691 15 2
37.219257 60.641277 6.2250118 27 10
4.781764 7.7848163 -1.4470189 2 3
3.6197722 5.8861556 -0.84845448 31 4
5.1246924 8.323555 -0.8551721 12 5
6.5656066 10.647241 -0.65556026 8 6
3.1978388 5.1455488 -1.6233131 15 0
3.4694152 5.5760193 -1.5161701 21 1
3.8801944 6.2289486 -1.4264882 12 2
37.460442 60.089134 6.1950297 26 10
4.8241868 7.7353292 -1.4438903 2 3
3.6733942 5.8809466 -0.85137933 37 4
5.1890111 8.2977133 -0.85621798 12 5
6.6665397 10.648013 -0.65838641 17 6
3.2389748 5.1334648 -1.6264189 16 0
3.5187376 5.5703974 -1.521119 25 1
38.790966 61.361263 3.8045101 31 9
3.9886675 6.3045697 -1.4501485 12 2
37.811024 59.741863 6.185617 26 10
4.8738475 7.6947837 -1.4426388 2 3
3.728225 5.8792748 -0.85479164 33 4
6.684864 10.529593 -1.0911899 16 5
6.8510947 10.774809 -0.66916758 8 6
6.7748961 10.642661 -0.22021447 17 7
3.3028746 5.1546454 -1.6403952 13 0
3.5817413 5.5834227 -1.5314667 21 1
4.0484605 6.3037066 -1.4562544 11 2
38.341366 59.654099 6.2040944 26 10
4.9346542 7.6747251 -1.4451418 2 3
3.7852976 5.8781395 -0.85844773 37 4
5.3525858 8.3024082 -0.8642363 18 5
6.8138018 10.556763 -0.65849108 26 6
3.3347225 5.1271873 -1.6388422 15 0
3.6164739 5.5540137 -1.5301172 23 1
4.0666323 6.2358227 -1.4470955 12 2
10.969038 16.813641 1.7563624 1 10
5.0032325 7.6632452 -1.449522 2 3
3.8425989 5.8788238 -0.86234754 38 4
5.4256949 8.2881756 -0.86667669 12 5
6.8632503 10.472185 -0.65618831 26 6
6.978035 10.635179 -0.22202952 17 7
3.368309 5.1005554 -1.6378069 15 0
7.0683942 10.695393 0.22377476 16 8
3.6605332 5.5367589 -1.5323665 38 1
4.085135 6.169632 -1.4383184 8 2
5.0609722 7.634717 -1.4507734 3 3
3.9011099 5.8783183 -0.86624736 40 4
7.036253 10.586406 -1.1121073 17 5
6.9439378 10.435656 -0.65692103 17 6
7.0609818 10.599518 -0.22230875 26 7
3.3995326 5.070498 -1.6357363 18 0
3.7143028 5.533721 -1.5386652 24 1
4.1587787 6.1865811 -1.4490036 10 2
5.1163588 7.6024742 -1.4513992 3 3
43.725052 64.922775 9.6108618 30 11
3.9575818 5.8739882 -0.86965966 37 4
7.0512762 10.438231 -0.66016579 17 6
7.1392894 10.55659 -0.22244836 17 7
3.4500637 5.0690017 -1.6429834 14 0
5.724319 8.4041405 0.17749096 10 8
3.7682052 5.5302033 -1.5449638 23 1
4.1753087 6.1184773 -1.4398447 8 2
44.043835 64.517448 6.8344045 44 10
5.1648517 7.5600452 -1.4501476 2 3
4.0119414 5.8658781 -0.87258458 38 4
5.663384 8.2680674 -0.87678677 18 5
7.2188621 10.52711 -0.66895825 17 6
5.6962342 8.2973757 -0.17567593 11 7
3.491956 5.054328 -1.6460892 15 0
3.8045042 5.500556 -1.544064 29 1
4.2436309 6.1263003 -1.448622 7 2
4.5781188 6.6017957 -1.2724382 1 3
4.0663772 5.8572969 -0.87550944 38 4
5.8096828 8.3559246 -0.89038306 18 5
7.2214379 10.374824 -0.66246861 17 6
7.3431506 10.537913 -0.22419362 18 7
3.540467 5.0488071 -1.6523008 16 0
3.8965609 5.5504174 -1.5656594 16 1
4.2332268 6.0210409 -1.4306859 8 2
5.3085575 7.54212 -1.4607852 2 3
4.136899 5.8709555 -0.88184667 43 4
43.208714 61.274937 11.875255 26 12
5.7323194 8.1230764 -0.86981428 24 5
7.3605266 10.41877 -0.66853952 8 6
7.5897379 10.731291 -0.22942933 19 7
3.5711474 5.0176716 -1.6502303 15 0
3.9103346 5.4881644 -1.5557615 17 1
10.868276 15.242393 0.98108989 2 9
4.2591934 5.968967 -1.4253433 19 2
5.3564897 7.4984469 -1.4595338 2 3
4.1916442 5.8613057 -0.88477147 41 4
43.784863 61.180637 11.915928 26 12
5.9002585 8.2383604 -0.88654822 12 5
7.4912734 10.448289 -0.67377317 17 6
3.6026969 4.9879198 -1.6486773 12 0
3.9633982 5.4812603 -1.5616102 23 1
4.3007607 5.9390869 -1.4253433 17 2
4.5113149 6.2229881 -1.2173731 1 3
4.2557783 5.8640327 -0.88964629 45 4
44.995632 61.953938 12.127427 28 12
5.8732901 8.0809278 -0.87399781 24 5
9.2655592 12.73425 -0.82533813 8 6
3.6317208 4.9548554 -1.6460892 15 0
4.0223193 5.4817376 -1.5697085 23 1
4.395596 5.9816909 -1.4428977 15 2
4.4282293 6.0194921 -1.1835834 2 3
4.3083849 5.850163 -0.89208364 41 4
7.757864 10.518671 -1.1434834 18 5
7.752686 10.500136 -0.68403101 8 6
7.8556094 10.627874 -0.2306859 28 7
3.6812093 4.9495339 -1.6528184 13 0
4.067471 5.4629035 -1.5724078 23 1
4.3480582 5.831243 -1.4138948 19 2
4.3496175 5.8269658 -1.1516707 33 3
4.3289208 5.7929096 -0.88794011 27 4
44.495762 59.500431 11.767628 24 12
4.327404 5.7824574 -0.63187915 48 5
4.2979045 5.7367744 -0.37566754 25 6
3.7377841 4.9530125 -1.6626536 15 0
4.1066875 5.4359269 -1.5728577 22 1
4.3649683 5.7694349 -1.4062624 28 2
4.3770695 5.7791381 -1.1482291 42 3
42.909111 56.612694 8.7221889 18 11
4.3728528 5.7672949 -0.88867134 41 4
47.205032 62.212883 12.368961 31 12
4.353209 5.7330637 -0.62978739 56 5
4.3463101 5.7177601 -0.37640023 25 6
3.7534828 4.9022536 -1.6543714 16 0
4.1670618 5.436511 -1.5814059 26 1
4.4661069 5.8182454 -1.4257249 12 2
4.4931374 5.8471193 -1.1679399 5 3
4.4953179 5.8436151 -0.90524554 38 4
45.635509 59.280319 11.848973 25 12
4.4077158 5.7214756 -0.63187915 20 5
8.0343065 10.417717 -0.68947399 26 6
8.188879 10.606657 -0.23389715 19 7
3.794724 4.8850851 -1.6574773 16 0
4.2120895 5.4165187 -1.5841054 23 1
4.5729647 5.8721151 -1.4467138 8 2
4.8472009 6.2175422 -1.2486601 2 3
44.037239 56.446323 8.7904367 19 11
4.5677586 5.8527775 -0.91158277 37 4
45.822071 58.670723 11.79078 25 12
8.1620455 10.446941 -1.1598686 19 5
8.2520666 10.546988 -0.70182526 26 6
3.8311274 4.8615084 -1.6585126 16 0
4.2449737 5.3808613 -1.5823058 26 1
4.6760993 5.9209714 -1.466558 9 2
43.871075 55.510544 6.1901493 26 10
4.8110003 6.0852327 -1.2286365 3 3
4.6257558 5.8425364 -0.91499513 33 4
46.271908 58.422485 11.80392 25 12
8.3360853 10.506214 -0.70287192 26 6
3.8641298 4.8353186 -1.6585126 16 0
4.2766323 5.3457551 -1.5805061 26 1
4.7467818 5.9249544 -1.4757168 9 2
42.75518 53.348125 5.9813247 20 10
5.0263915 6.2672377 -1.2724382 2 3
44.078262 54.920353 8.6466312 17 11
4.6900496 5.8395071 -0.91962618 30 4
8.4292612 10.472661 -0.70454675 26 6
3.9156644 4.8285518 -1.6657594 15 0
4.3442535 5.3513265 -1.5913037 23 1
4.8301311 5.943471 -1.4886919 8 2
42.884411 52.731655 5.9464622 19 10
4.9888153 6.1299891 -1.2517889 3 3
4.7482562 5.8281679 -0.92303848 29 4
48.146698 59.054695 12.067982 28 12
6.7344594 8.257267 -0.93221778 13 5
8.5848446 10.511074 -0.71124572 26 6
3.9296451 4.777225 -1.6574773 15 0
4.3926558 5.3344069 -1.5953529 19 1
4.8350611 5.8633194 -1.4772433 11 2
43.170364 52.332615 5.9353061 19 10
4.9711227 6.0218911 -1.236771 3 3
44.344521 53.679588 8.5491352 16 11
4.8229742 5.8361897 -0.92961943 34 4
47.978687 58.016903 11.924063 26 12
8.6505003 10.452949 -1.1870612 20 5
8.6452742 10.435504 -0.710199 17 6
3.9653759 4.7526412 -1.6585126 18 0
4.4322882 5.306601 -1.5962527 20 1
4.9111476 5.8715844 -1.4879286 9 2
43.588333 52.094154 5.9426274 19 10
4.9597826 5.9234262 -1.2236305 6 3
44.521854 53.13438 8.5115995 15 11
4.8942037 5.8388915 -0.93546921 34 4
48.788792 58.164841 12.02418 27 12
8.7411995 10.413667 -1.1895015 20 5
8.8065739 10.480402 -0.71742135 35 6
6.942142 8.25282 -0.18824165 19 7
4.013432 4.7425394 -1.6647241 15 0
4.4566283 5.2606621 -1.5917536 22 1
4.9558296 5.8416462 -1.4890735 11 2
44.531113 52.472145 6.0210667 21 10
4.9882283 5.8735995 -1.2205019 6 3
4.9631343 5.8378539 -0.94083142 34 4
49.344711 58.000351 12.061099 27 12
7.1191444 8.362011 -0.96080488 13 5
8.876935 10.415625 -0.71721202 17 6
7.0852461 8.3045607 -0.19054537 13 7
4.0489602 4.7173367 -1.6657594 16 0
4.5059462 5.2442012 -1.5962527 21 1
4.977284 5.7845826 -1.4833492 11 2
5.0497394 5.8625789 -1.2255077 11 3
5.0206208 5.8226066 -0.94400001 30 4
48.393383 56.084114 11.732586 24 12
7.1278687 8.2548018 -0.95418108 20 5
7.1457028 8.2667027 -0.57266009 10 6
4.0961943 4.7071552 -1.6719712 18 0
4.5594611 5.2339783 -1.6025513 21 1
5.0578418 5.7979116 -1.495561 11 2
5.1090174 5.8503885 -1.2302008 15 3
5.0797362 5.8107157 -0.9476561 36 4
48.560738 55.509563 11.681276 24 12
7.194387 8.2180891 -0.95557559 13 5
7.1623125 8.1728134 -0.56951994 30 6
4.1315131 4.6813407 -1.6730064 16 0
4.5920167 5.1976404 -1.6012017 25 1
5.0942931 5.7580485 -1.4944161 11 2
5.1562853 5.8219724 -1.2317652 13 3
10.851899 12.244301 2.0088944 4 11
5.1623201 5.8226418 -0.95545572 36 4
46.998928 52.973442 11.216352 38 12
7.3574128 8.2868519 -0.96952045 13 5
9.3367949 10.505198 -0.73657632 17 6
4.1666718 4.655262 -1.6740416 18 0
4.6489978 5.1886778 -1.6084001 24 1
5.1802545 5.7734904 -1.5077728 11 2
5.2416816 5.8358021 -1.2424027 22 3
7.493557 8.3370619 1.3763925 0 11
5.238677 5.8263187 -0.96203667 31 4
47.980675 53.325394 11.361524 20 12
7.4962854 8.3283958 -0.98032773 14 5
7.2944503 8.0927801 -0.57098538 20 6
7.4683428 8.2769861 -0.19459434 13 7
4.2172451 4.6460876 -1.6812886 16 0
4.7231107 5.1979227 -1.6214472 21 1
5.2458544 5.7671423 -1.5154052 11 2
50.575146 55.561893 6.5732861 37 10
5.3012357 5.8218942 -1.2470957 21 3
5.3166757 5.8306751 -0.96886134 16 4
48.542221 53.216473 11.408454 21 12
7.5112629 8.2287703 -0.97474986 20 5
7.5258555 8.2360926 -0.58469737 19 6
4.2827859 4.654233 -1.6947472 14 0
4.7557445 5.1627846 -1.6205474 22 1
5.3325787 5.7808857 -1.5287617 10 2
5.3819518 5.8282833 -1.2564818 20 3
5.3778005 5.8176732 -0.97276115 5 4
7.5427427 8.1511297 -0.97161222 13 5
7.3591819 7.941627 -0.5674265 20 6
4.3125381 4.6213951 -1.6937119 15 0
4.844883 5.1864195 -1.6385435 15 1
5.3449864 5.7157745 -1.5211295 11 2
5.4484982 5.8203564 -1.2627392 20 3
47.334995 50.530228 8.5013628 15 11
7.4357162 7.9320951 -1.3349569 7 4
47.822826 50.997448 11.073059 35 12
7.6594529 8.162199 -0.97928184 28 5
9.7487059 10.37769 -0.7462061 8 6
4.343895 4.5919337 -1.6937119 15 0
4.9095526 5.1844506 -1.6484413 15 1
5.4266348 5.7224846 -1.5329596 9 2
48.505466 51.131969 6.1660943 25 10
5.5216365 5.8165631 -1.2702481 19 3
48.050282 50.581364 8.5661964 16 11
7.5278211 7.9215932 -1.3417815 11 4
48.812035 51.329403 11.218856 19 12
7.7492127 8.1431665 -0.98346537 14 5
7.8853898 8.2775841 -0.59914213 37 6
4.3878832 4.5740428 -1.6983706 13 0
4.9483266 5.1528602 -1.6493411 15 1
5.4637346 5.6816273 -1.5321964 9 2
49.051849 50.990269 6.1901493 26 10
5.6059513 5.8234096 -1.2802597 30 3
7.6449304 7.9331656 -1.3527498 9 4
50.057743 51.908787 11.421595 21 12
7.8197064 8.1032095 -0.98520851 21 5
7.9915495 8.2726107 -0.60280561 27 6
4.4264421 4.5502238 -1.7009588 14 0
5.0140877 5.1489058 -1.6592389 18 1
5.5279384 5.6686444 -1.5390654 10 2
52.152992 53.461861 6.5342398 36 10
5.6713076 5.8095746 -1.2858914 25 3
48.460506 49.607372 8.5150118 15 11
6.9509263 7.112936 -1.221131 4 4
51.601128 52.767021 11.689411 24 12
4.467598 4.5288377 -1.7045823 13 0
5.0348496 5.0985231 -1.6542901 24 1
5.6087894 5.6717958 -1.550514 9 2
49.759033 50.300396 6.1901493 26 10
5.7589755 5.817574 -1.2965289 25 3
48.98447 49.44836 8.5462103 16 11
7.8094406 7.8806458 -1.3622556 2 4
50.797081 51.224468 11.425974 21 12
8.086462 8.1487999 -1.0043827 21 5
10.380936 10.450012 -0.77195543 26 6
8.1430054 8.188611 -0.20157529 14 7
4.4963737 4.4948053 -1.703547 13 0
5.0896263 5.0825267 -1.6605887 23 1
5.6079345 5.592299 -1.5394472 10 2
5.8176427 5.7953506 -1.3005962 24 3
49.42981 49.20599 8.5637598 16 11
7.8910027 7.8525386 -1.3668866 5 4
52.22361 51.932739 11.665006 23 12
10.453632 10.377291 -0.77195543 17 6
8.1658916 8.0977726 -0.20073758 14 7
4.5400252 4.4755116 -1.7082058 11 0
5.1499777 5.0714822 -1.6686869 26 1
5.7000318 5.6053205 -1.5539485 10 2
5.9044633 5.8002768 -1.310921 26 3
8.034893 7.8848519 -1.3822422 3 4
53.041843 52.015026 11.766376 49 12
8.2250605 8.0602045 -1.0075203 21 5
8.2365465 8.0630121 -0.60406166 9 6
4.5406852 4.4140825 -1.6968178 12 0
5.1908503 5.0408359 -1.6704865 25 1
13.953306 13.5406 1.0189812 2 9
5.7784886 5.6036592 -1.564634 10 2
5.9774456 5.7905269 -1.318117 24 3
50.599777 48.983261 8.6471176 17 11
6.109746 5.9124923 -1.0439328 7 4
54.312492 52.522312 11.966612 26 12
8.7553177 8.4637794 -1.0653918 15 5
8.835804 8.5296612 -0.64362764 8 6
4.5811529 4.391633 -1.7004411 14 0
5.216063 4.9950395 -1.6673372 21 1
5.8477087 5.5940528 -1.5730294 10 2
6.0652785 5.7961068 -1.3287545 23 3
52.23558 49.882542 8.868433 20 11
8.1700497 7.7965655 -1.3866295 7 4
55.100418 52.563152 12.061099 27 12
10.948519 10.437074 -1.3233728 25 5
8.7808428 8.361886 -0.63546324 8 6
4.64182 4.3895502 -1.7118292 13 0
5.262692 4.9714627 -1.6713864 25 1
5.90661 5.5719547 -1.5783721 12 2
50.666866 47.779438 6.0928836 23 10
6.1444082 5.7902031 -1.337202 25 3
52.5103 49.448608 8.856246 20 11
8.1058483 7.6305633 -1.3668866 4 4
10.978662 10.324095 -1.3184921 37 5
11.040386 10.367615 -0.79372716 26 6
4.6808286 4.3649421 -1.7149351 14 0
5.3115306 4.9478841 -1.6758853 25 1
5.9242821 5.5128942 -1.5730294 10 2
49.919476 46.420567 5.9638929 20 10
6.2241917 5.7859001 -1.3459623 29 3
8.4135294 7.8101277 -1.409541 1 4
20.901243 19.361544 -1.493145 11 6
8.8619986 8.1976871 -0.21072036 15 7
4.7189603 4.3408294 -1.7180409 9 0
5.370913 4.9353518 -1.6839837 23 1
5.958282 5.4674206 -1.5718845 10 2
6.3255901 5.7983713 -1.3591028 25 3
8.3757219 7.6695647 -1.3944291 21 4
8.9113197 8.1400061 -0.63253242 17 6
8.9737244 8.1883955 -0.21204674 15 7
4.7720442 4.3285456 -1.7263231 9 0
5.4370093 4.9265199 -1.6938814 24 1
6.0894761 5.509994 -1.5963081 10 2
13.954499 12.622144 1.6461976 1 10
6.395225 5.780561 -1.3653603 25 3
8.532196 7.7040286 -1.4114909 5 4
9.0321074 8.1439695 -1.0639973 23 5
9.0955553 8.1925488 -0.64153421 8 6
4.8136663 4.305428 -1.7304642 9 0
5.4349384 4.8559852 -1.6826339 22 1
6.1570935 5.4934883 -1.6039405 13 2
51.3932 45.837986 6.0249023 21 10
6.4826145 5.777832 -1.3753721 29 3
53.120964 47.312408 8.7343769 18 11
8.6065331 7.6627512 -1.4149032 14 4
9.1334085 8.1204348 -1.0692266 23 5
4.8682375 4.2934399 -1.739264 10 0
5.5184226 4.8617229 -1.6979306 34 1
6.1864533 5.4425859 -1.6016507 16 2
51.57132 45.354393 6.0085168 21 10
6.5880833 5.7898068 -1.3891382 26 3
8.8448009 7.7648754 -1.4451268 1 4
9.2048578 8.0696068 -1.0709697 15 5
6.6216826 5.7988901 -0.46128914 12 6
4.9082971 4.2682223 -1.7428875 9 0
5.5463448 4.8179669 -1.696131 30 1
6.2524748 5.4237094 -1.6089015 10 2
52.139603 45.212517 6.0378008 22 10
6.6970119 5.8031816 -1.4035301 15 3
8.9498205 7.7471142 -1.453414 2 4
56.044334 48.478703 11.736653 24 12
9.2609739 8.0051432 -1.0709697 15 5
6.6922412 5.7786236 -0.46338257 12 6
4.9291735 4.2263093 -1.7397816 9 0
5.6272054 4.8196969 -1.7105279 20 1
6.2707906 5.363338 -1.6039405 10 2
51.963306 44.427944 5.9813247 20 10
6.7568874 5.7729678 -1.4075974 34 3
6.708601 5.7256393 -1.0829312 22 4
6.7448535 5.7484469 -0.77533752 53 5
6.7035232 5.7071657 -0.4613938 50 6
4.9792132 4.2092552 -1.7470287 9 0
5.6666737 4.7853208 -1.7123275 35 1
6.3486013 5.3536034 -1.6142441 10 2
54.401844 45.859318 6.2250118 27 10
6.7365937 5.6747494 -1.3950827 21 3
54.42128 45.810749 8.7343769 18 11
6.7453713 5.6761084 -1.0824436 34 4
6.7512622 5.6730194 -0.77150261 53 5
6.7355552 5.6538072 -0.4608705 37 6
5.0114479 4.1768622 -1.7480639 9 0
5.693953 4.7406559 -1.7105279 33 1
6.419035 5.3367643 -1.6226398 10 2
52.949364 44.00626 6.0235071 21 10
7.0632558 5.8661156 -1.4542149 10 3
9.8254995 8.1399221 -1.1162907 17 5
6.9148831 5.7225232 -0.47039565 25 6
5.0375009 4.1393209 -1.7470287 9 0
5.7299228 4.7032614 -1.7114276 29 1
6.474359 5.3067527 -1.6272193 12 2
7.1865726 5.8842359 -1.4711099 13 3
55.99892 45.818264 8.8840322 20 11
9.4423037 7.7229333 -1.4977744 1 4
9.9684992 8.1417131 -1.1260523 18 5
7.0382299 5.7422919 -0.4760479 24 6
5.0752807 4.1113501 -1.7501343 9 0
5.7626157 4.6631474 -1.7114276 28 1
6.5311012 5.2774653 -1.6321803 15 2
7.282814 5.8785877 -1.4823732 14 3
56.663513 45.705399 8.9386292 21 11
9.5222597 7.6780066 -1.5019178 16 4
10.03441 8.0794125 -1.127098 27 5
7.129509 5.7343211 -0.47950208 24 6
12.893463 10.359202 -0.28869772 30 7
5.0978217 4.0709963 -1.7480639 9 0
5.8133111 4.6373858 -1.7168264 32 1
6.632278 5.2831192 -1.6482083 18 2
7.509161 5.9752002 -1.5199175 9 3
56.999859 45.323524 8.9415541 21 11
10.151582 8.0604849 -1.1340705 18 5
7.225708 5.7290788 -0.48327026 36 6
5.1473675 4.0520391 -1.7553109 9 0
5.8578014 4.6063223 -1.7204256 29 1
6.6511049 5.2245083 -1.6440103 12 2
56.674419 44.486385 6.303452 29 10
7.535676 5.9129705 -1.5171016 9 3
57.278931 44.912445 8.9371681 21 11
9.7457237 7.6361361 -1.5201983 1 4
10.308022 8.0680103 -1.1452264 18 5
7.3400602 5.7388144 -0.48829454 36 6
5.1748319 4.0169058 -1.7553109 9 0
5.8520579 4.5376868 -1.709628 25 1
6.7277746 5.2092009 -1.6539325 12 2
57.243767 44.306896 6.3330846 30 10
7.7298985 5.9786582 -1.5477628 7 3
59.296806 45.8298 9.2018671 24 11
9.8665924 7.6230221 -1.5309228 1 4
10.506074 8.1053772 -1.1609144 19 5
7.4210787 5.7191257 -0.49101597 36 6
10.57371 8.1399107 -0.23291981 19 7
5.1874061 3.9689415 -1.7501343 9 0
5.9176569 4.5227547 -1.7195259 33 1
6.8076763 5.1954556 -1.6646177 10 2
7.6677666 5.8455057 -1.5271133 9 3
9.9448404 7.5731978 -1.5348227 1 4
7.5308032 5.7203379 -0.49562153 35 6
5.2273259 3.9419377 -1.7542756 9 0
5.9490857 4.4813342 -1.7195259 28 1
57.105717 42.985386 3.7458942 28 9
6.8516269 5.1537037 -1.6665258 16 2
59.51614 44.750992 6.5147171 35 10
7.758925 5.829803 -1.5371252 9 3
10.019695 7.5202675 -1.5382349 1 4
10.672421 7.998529 -1.166841 19 5
7.6313119 5.7131081 -0.4995991 35 6
5.2547202 3.9053454 -1.7542756 9 0
5.9896159 4.4466591 -1.7222252 28 1
10.354194 7.681294 0.67565727 8 9
6.8275051 5.0613194 -1.6520243 13 2
7.843884 5.808413 -1.5458857 10 3
10.151747 7.5091639 -1.550422 1 4
7.7385116 5.7094946 -0.5039953 34 6
5.2943244 3.8776972 -1.7584167 9 0
6.0142226 4.4001327 -1.7204256 28 1
58.280746 42.60825 3.7835763 30 9
6.9213309 5.0563779 -1.6661443 10 2
7.8842459 5.7535071 -1.5458857 10 3
61.897442 45.136391 9.4061213 27 11
10.098052 7.3609266 -1.5343351 2 4
10.873263 7.9144034 -1.1766025 19 5
7.8524885 5.7093625 -0.50881022 34 6
5.3149996 3.8361216 -1.7563461 9 0
10.352462 7.4664354 0.22279742 16 8
6.0574393 4.3671584 -1.7240249 28 1
6.9962959 5.0366111 -1.6756847 16 2
59.31472 42.684803 6.3933964 32 10
7.9595032 5.7236962 -1.5527687 12 3
61.540409 44.221306 9.3047256 26 11
10.263666 7.3724751 -1.5516406 2 4
11.002728 7.8917117 -1.1846209 20 5
7.9603486 5.7032542 -0.51320642 34 6
5.3510966 3.80564 -1.759452 9 0
6.097312 4.3315349 -1.7267244 23 1
7.0985398 5.0353551 -1.6917126 13 2
8.0701847 5.7182436 -1.566535 9 3
10.3003 7.2903256 -1.5494469 3 4
14.137474 9.9950876 -1.5147668 31 5
8.071763 5.6982231 -0.51781195 33 6
5.4028482 3.785928 -1.7677342 9 0
6.1274033 4.2888622 -1.7267244 30 1
7.1583934 5.0049195 -1.6978186 15 2
8.1477909 5.69032 -1.5740438 11 3
9.9113102 6.9116592 -1.4836376 7 4
8.159544 5.6773734 -0.52095217 33 6
5.4030595 3.7314987 -1.759452 9 0
6.1660786 4.2536941 -1.7294236 26 1
7.2125626 4.9681873 -1.7023981 21 2
60.408295 41.595154 6.4167542 32 10
8.1938257 5.6377816 -1.5752953 12 3
63.763958 43.840164 9.5011787 28 11
9.9090481 6.8103037 -1.4763253 10 4
8.3649721 5.7404952 -0.88759404 12 5
8.281353 5.6767297 -0.52618575 33 6
5.4449511 3.7045543 -1.7646283 9 0
6.2149663 4.2236872 -1.7348225 22 1
7.2633166 4.9287367 -1.7062141 19 2
60.416908 40.982273 6.3871212 31 10
8.2591467 5.5981736 -1.5803012 10 3
9.9284067 6.7220397 -1.4721818 9 4
8.4213533 5.6931119 -0.88933718 25 5
8.4167833 5.6836033 -0.53225672 33 6
5.4770985 3.6707561 -1.7666988 9 0
6.2507768 4.184535 -1.7366221 16 1
7.3758931 4.9302769 -1.7245318 13 2
60.704861 40.561699 6.3874698 31 10
8.4031706 5.6105785 -1.6003247 10 3
10.680287 7.1228681 -1.5762583 1 4
8.5511055 5.696414 -0.89892429 38 5
8.5261002 5.6711669 -0.53665298 32 6
5.5090423 3.6366837 -1.7687694 9 0
6.2765865 4.1386461 -1.7357224 15 1
19.796066 13.048157 1.2425604 5 9
7.4387951 4.899395 -1.7314008 18 2
61.266159 40.320923 6.4167542 32 10
8.4791222 5.5782204 -1.6075207 13 3
9.3410387 6.1359224 -1.3722489 4 4
8.653965 5.6781154 -0.90554816 38 5
8.6446877 5.6655502 -0.54167718 32 6
5.5466232 3.6075294 -1.7729106 9 0
6.3209519 4.1064463 -1.7402214 14 1
7.453052 4.8345218 -1.7268214 13 2
8.5626211 5.5478911 -1.6159682 11 3
64.102661 41.501663 9.3763847 27 11
8.8193016 5.7076459 -1.2898653 2 4
8.7603331 5.66081 -0.91252059 39 5
8.7712908 5.6613827 -0.54712015 31 6
5.5456443 3.5520473 -1.7646283 9 0
6.3593149 4.0685186 -1.7429208 14 1
7.4766927 4.7760339 -1.7245318 22 2
62.652534 40.006359 6.5035615 35 10
8.6078014 5.4922314 -1.6172197 12 3
8.9175243 5.6832771 -1.2983961 13 4
8.9021778 5.6647611 -0.92315364 45 5
8.904994 5.6600056 -0.55298179 31 6
5.5899158 3.5256121 -1.77084 9 0
6.3941598 4.0281782 -1.7447205 15 1
