# .PCD v0.7 - Point Cloud Data file format
VERSION 0.7
FIELDS x y z intensity ring
SIZE 4 4 4 4 2
TYPE F F F F U
COUNT 1 1 1 1 1
WIDTH 1301
HEIGHT 1
VIEWPOINT 0 0 0 1 0 0 0
POINTS 1301
DATA ascii
6.7938118 -3.0191183 -1.7163765 8 1
8.1605263 -3.6333003 -1.736362 3 2
10.272976 -4.5802698 -1.7814759 4 3
14.3875 -6.4268012 -1.9347978 4 4
26.759632 -11.98698 -1.5366884 11 6
5.8454266 -2.6442258 -1.7190762 4 0
6.7826838 -3.0724807 -1.7190759 7 1
29.58992 -13.416357 1.7026981 6 9
8.1528406 -3.698293 -1.7401782 3 2
10.259719 -4.6626539 -1.7849175 4 3
14.425395 -6.5649114 -1.9460098 4 4
5.8198066 -2.681736 -1.7170056 4 0
6.7539916 -3.1164916 -1.7172763 6 1
29.132895 -13.455116 1.6817639 7 9
8.1618099 -3.7730143 -1.7478106 3 2
10.223332 -4.7325068 -1.7842916 4 3
14.458457 -6.7021923 -1.9567344 20 4
24.20783 -11.257448 -1.3991495 11 6
5.8044405 -2.7239418 -1.7180409 3 0
6.7250147 -3.1602519 -1.7154768 7 1
8.0861988 -3.8050761 -1.7371252 3 2
10.239131 -4.824719 -1.7927393 4 3
14.425674 -6.8097463 -1.9586842 10 4
23.870687 -11.298919 -1.3840768 22 6
5.7822781 -2.7617223 -1.7170056 4 0
6.7015905 -3.2051134 -1.7150269 5 1
8.0736017 -3.8682215 -1.7401782 3 2
10.205198 -4.8960834 -1.7927393 4 3
14.493506 -6.9627953 -1.9742836 5 4
23.8524 -11.49477 -1.3876357 11 6
5.7559075 -2.7986436 -1.7149351 4 0
6.6790514 -3.2518208 -1.7150269 5 1
8.0852203 -3.9434257 -1.7485738 6 2
10.208044 -4.985414 -1.7993095 4 3
14.542624 -7.1117725 -1.9876893 7 4
23.613773 -11.583604 -1.3784245 22 6
5.743155 -2.8421867 -1.7170056 4 0
6.6823783 -3.3113484 -1.7217753 6 1
8.0522175 -3.9971552 -1.7474288 4 2
10.19068 -5.0653501 -1.8024381 4 3
14.615243 -7.2741556 -2.0045071 6 4
22.914049 -11.439506 -1.3422081 11 6
5.7128205 -2.8769979 -1.7138997 4 0
6.669538 -3.363184 -1.7244748 7 1
8.0318336 -4.0554118 -1.7489554 4 2
10.187697 -5.1506405 -1.8080698 3 3
14.755366 -7.4728761 -2.0308311 6 4
22.657566 -11.504786 -1.3317409 10 6
5.7171769 -2.9281459 -1.7211467 4 0
6.6360869 -3.4031682 -1.7217753 7 1
7.9998336 -4.1095905 -1.7481922 4 2
10.197164 -5.2451305 -1.8162043 2 3
15.009462 -7.730381 -2.0729976 8 4
22.385052 -11.563684 -1.3204364 21 6
5.717155 -2.9786992 -1.7273583 4 0
6.6035285 -3.4449072 -1.7195259 5 1
7.9692087 -4.1644306 -1.7478106 3 2
10.212806 -5.3436656 -1.8255905 3 3
15.041291 -7.8801184 -2.0849409 10 4
22.360353 -11.749407 -1.3237858 10 6
5.6723228 -3.0058758 -1.7201115 4 0
6.5999751 -3.5018842 -1.7249247 4 1
7.9607439 -4.2310205 -1.7523898 3 2
10.196176 -5.4259691 -1.8293447 2 3
15.171617 -8.0838814 -2.1107774 10 4
22.475075 -12.010655 -1.3355091 10 6
5.6648045 -3.0527341 -1.7242525 4 0
6.5787964 -3.5497258 -1.7258245 5 1
7.9241042 -4.2827597 -1.7508634 3 2
10.220592 -5.5308647 -1.8406081 3 3
15.797245 -8.5593624 -2.206079 12 4
22.35207 -12.146286 -1.3332063 10 6
5.650672 -3.0949345 -1.7263231 4 0
6.5647345 -3.6000459 -1.728524 5 1
7.9446702 -4.3640089 -1.7619303 4 2
10.196553 -5.6079206 -1.843111 3 3
16.006605 -8.8179035 -2.2438586 11 4
22.594069 -12.477741 -1.3526752 11 6
5.6283803 -3.1352901 -1.7263231 3 0
6.5422087 -3.648828 -1.7294236 5 1
7.9242954 -4.4251094 -1.76422 4 2
10.187196 -5.6980991 -1.8487427 3 3
16.045111 -8.9856949 -2.2579956 11 4
22.068851 -12.394593 -1.3265072 10 6
5.6063552 -3.1745071 -1.7263231 4 0
6.5165758 -3.694412 -1.7294236 4 1
7.8719401 -4.4700675 -1.7596406 4 2
10.191816 -5.7944641 -1.8568773 3 3
16.230413 -9.2389011 -2.2930937 11 4
20.524429 -11.697434 -2.0668113 31 5
22.252371 -12.702826 -1.3428361 22 6
5.5974517 -3.2212777 -1.7304642 4 0
6.5294609 -3.7621925 -1.7397714 6 1
7.8328295 -4.518641 -1.7577326 3 2
10.182928 -5.8814864 -1.8625089 4 3
16.290953 -9.424551 -2.3108869 9 4
20.269859 -11.740576 -2.0493801 31 5
5.5720596 -3.2573535 -1.7294289 4 0
6.4986563 -3.8035967 -1.7384217 5 1
7.8400474 -4.5960503 -1.7665098 4 2
10.1791 -5.9744306 -1.8693922 4 3
16.361631 -9.6146727 -2.330142 11 4
5.5691147 -3.3080132 -1.7356406 4 0
6.4702687 -3.8478765 -1.7379718 6 1
7.8111434 -4.6526804 -1.7672729 4 2
10.167681 -6.06356 -1.8750238 3 3
16.553181 -9.8833456 -2.3671904 11 4
5.5359607 -3.3408229 -1.7325348 3 0
6.4432478 -3.8929532 -1.7379718 6 1
7.7767911 -4.7060823 -1.7668914 3 2
10.140307 -6.1436076 -1.8778396 4 3
16.67387 -10.113972 -2.394489 11 4
5.5092092 -3.3773701 -1.7314996 3 0
6.4192352 -3.9398794 -1.7388717 7 1
7.7613058 -4.7691865 -1.7707076 3 2
10.152095 -6.2456102 -1.8878514 4 3
16.761719 -10.328016 -2.4174004 6 4
5.5024939 -3.4250004 -1.7366759 3 0
6.3839998 -3.9783285 -1.7366221 5 1
7.7444763 -4.8336492 -1.7745237 3 2
10.1451 -6.3393617 -1.8947345 5 3
17.086514 -10.689281 -2.4746792 9 4
19.512272 -12.225793 -2.0145178 32 5
5.4670181 -3.4561048 -1.7330524 2 0
6.3708901 -4.0321794 -1.7406713 6 1
7.7039099 -4.8833933 -1.7729974 3 2
10.162308 -6.4491954 -1.9063107 24 3
17.658218 -11.21922 -2.5687623 11 4
19.762632 -12.575641 -2.0493801 31 5
5.4411311 -3.493144 -1.7325348 3 0
6.3606172 -4.0881486 -1.7456201 5 1
7.6861367 -4.9476838 -1.7768134 3 2
10.103752 -6.5114236 -1.9038078 33 3
5.4651623 -3.5626943 -1.7480639 3 0
6.317235 -4.1228685 -1.7415711 7 1
7.6851521 -5.0213637 -1.7844458 3 2
10.131933 -6.6276259 -1.9175739 6 3
17.566273 -11.508187 -2.5785117 9 4
5.4182296 -3.584888 -1.740817 3 0
6.2890248 -4.1657729 -1.7415711 6 1
7.6793575 -5.0944285 -1.791315 3 2
10.111746 -6.7156839 -1.9225799 6 3
17.468971 -11.619547 -2.5760744 11 4
5.4020591 -3.630033 -1.7439228 3 0
6.2655225 -4.2150197 -1.7433707 7 1
7.6533756 -5.1544962 -1.7936047 3 2
10.122386 -6.8276353 -1.933843 6 3
17.186722 -11.605689 -2.5463383 11 4
5.3574343 -3.6545937 -1.7377111 3 0
6.2391615 -4.2608562 -1.7442704 7 1
7.6551867 -5.2357306 -1.8027636 3 2
10.110332 -6.922688 -1.9407262 6 3
17.056162 -11.691719 -2.5390263 11 4
5.33179 -3.6919067 -1.7377111 3 0
6.2284827 -4.3176322 -1.7496693 6 1
7.6322746 -5.2966704 -1.8058165 3 2
10.111645 -7.0251603 -1.9501122 6 3
16.931759 -11.78103 -2.5326889 11 4
5.3476357 -3.7569873 -1.7511697 3 0
6.202137 -4.3621702 -1.7505691 7 1
7.6047416 -5.3566079 -1.8081062 3 2
10.131773 -7.1445312 -1.9635657 5 3
16.770088 -11.838764 -2.5205021 11 4
5.3055477 -3.7830129 -1.7459934 4 0
6.1778769 -4.4098911 -1.7523687 7 1
7.5671611 -5.4095674 -1.8081062 3 2
10.245498 -7.3323522 -1.9954783 8 3
16.719303 -11.978675 -2.5253766 11 4
5.2821383 -3.8222258 -1.7470287 4 0
6.1437836 -4.4506269 -1.7514689 7 1
7.5482793 -5.4760985 -1.8126855 3 2
10.227625 -7.4280772 -2.0020485 9 3
16.482742 -11.984205 -2.5022216 12 4
5.2553253 -3.8590086 -1.7470287 3 0
6.128264 -4.504952 -1.7559679 7 1
7.5367427 -5.5484486 -1.8191731 4 2
10.150076 -7.480546 -1.9970427 9 3
16.357143 -12.068342 -2.4958844 12 4
5.2344537 -3.9002202 -1.7490991 3 0
6.0997891 -4.5499554 -1.7568678 7 1
7.5245624 -5.620903 -1.8256606 3 2
10.075457 -7.5346627 -1.9926625 9 3
16.218462 -12.141792 -2.4875972 12 4
5.1947689 -3.9273479 -1.744958 4 0
6.0709839 -4.5947809 -1.7577676 7 1
7.5179954 -5.6982007 -1.8336746 4 2
10.032052 -7.6119819 -1.9945397 9 3
16.133305 -12.254721 -2.4875972 12 4
5.1825533 -3.9752755 -1.7501343 3 0
6.0480313 -4.6441731 -1.7604669 7 1
7.4998198 -5.767302 -1.8390172 4 2
10.108583 -7.781847 -2.0205078 14 3
15.912135 -12.262844 -2.4666357 12 4
5.1668715 -4.0208516 -1.7542756 3 0
6.0216117 -4.6910734 -1.7622666 7 1
7.4640174 -5.8231421 -1.8401619 3 2
10.290649 -8.0370436 -2.0680637 14 3
15.749507 -12.31372 -2.4546924 10 4
5.1272507 -4.0463533 -1.7501343 4 0
5.9987159 -4.7392001 -1.7649659 7 1
7.4473028 -5.8920846 -1.8458863 4 2
10.367329 -8.2111521 -2.0946577 11 3
15.677156 -12.434473 -2.4568863 12 4
5.0981646 -4.0829391 -1.7501343 3 0
5.9646497 -4.7820044 -1.7649659 6 1
7.4243612 -5.9586792 -1.8504658 4 2
10.337561 -8.3086414 -2.1006021 13 3
15.398185 -12.389311 -2.4266624 11 4
5.0695362 -4.1184311 -1.7501343 4 0
5.9462385 -4.835824 -1.769465 6 1
7.4089322 -6.0339689 -1.8573349 4 2
10.458434 -8.5266514 -2.137208 11 3
15.309778 -12.495251 -2.426419 12 4
5.0645151 -4.1733794 -1.7584167 3 0
5.8988042 -4.8660583 -1.7654159 4 1
7.4025068 -6.1130128 -1.8661121 4 2
10.503682 -8.6832266 -2.158483 9 3
15.313918 -12.67778 -2.4410431 13 4
5.0122709 -4.1879368 -1.7501343 4 0
5.8864727 -4.9236012 -1.7717146 4 1
7.3325591 -6.1418514 -1.8592429 4 2
10.55179 -8.8477287 -2.1810095 9 3
15.288088 -12.832775 -2.4507926 10 4
4.9917545 -4.2303209 -1.7532402 4 0
5.8564148 -4.9683576 -1.7730643 3 1
7.3235044 -6.2195783 -1.8676385 6 2
10.611721 -9.0217066 -2.206039 10 3
15.237424 -12.972652 -2.45713 10 4
4.9628439 -4.2642002 -1.7532402 4 0
5.8416667 -5.0246263 -1.7789129 3 1
7.3022184 -6.2897735 -1.8733629 28 2
10.584385 -9.1265287 -2.2135479 10 3
15.232922 -13.148705 -2.4707792 4 4
4.9446054 -4.308897 -1.7573814 4 0
5.8079147 -5.0665665 -1.7793628 3 1
7.2522154 -6.3354321 -1.8718363 22 2
10.454986 -9.1429806 -2.1997817 10 3
16.913673 -14.806803 -2.760097 10 4
4.9259834 -4.3535461 -1.7615224 4 0
5.7913761 -5.1237769 -1.7852116 3 1
7.2651191 -6.4366832 -1.8867195 6 2
10.438192 -9.2576914 -2.2097936 9 3
16.824738 -14.937699 -2.7625346 10 4
4.9012246 -4.3929873 -1.763593 4 0
5.7641673 -5.1718907 -1.7879109 3 1
7.2346101 -6.5003667 -1.8905357 6 2
10.514301 -9.4571543 -2.2398291 9 3
16.761349 -15.091986 -2.7693591 8 4
4.8632889 -4.4205999 -1.7610049 6 0
5.733686 -5.2172523 -1.7897105 3 1
7.2064667 -6.5665827 -1.895115 6 2
10.515156 -9.5915642 -2.254221 9 3
16.661442 -15.213986 -2.770334 10 4
4.8308892 -4.4531345 -1.7604873 5 0
5.7085805 -5.2677264 -1.7933098 3 1
7.1731405 -6.6261406 -1.8981681 6 2
11.488062 -10.623174 -2.478235 9 3
16.572302 -15.34612 -2.7732589 10 4
4.8032885 -4.4885516 -1.7615224 4 0
5.6953626 -5.3277617 -1.8005083 5 1
7.192615 -6.7377973 -1.9157225 6 2
11.465491 -10.75176 -2.4894984 9 3
16.479042 -15.469437 -2.775209 8 4
4.7774444 -4.5272903 -1.763593 4 0
5.6495466 -5.359345 -1.7978089 5 1
7.1408906 -6.7811913 -1.914196 6 2
11.420675 -10.856773 -2.4957557 9 3
16.370644 -15.584105 -2.775209 10 4
4.7465177 -4.5597043 -1.763593 4 0
5.6326008 -5.4165864 -1.8041074 5 1
7.127316 -6.8635626 -1.9233549 4 2
11.347447 -10.938981 -2.4963815 6 3
16.231457 -15.669059 -2.7700903 12 4
4.7165351 -4.5962496 -1.7646283 4 0
5.6020665 -5.4649186 -1.8068069 5 1
7.1101265 -6.9433293 -1.9317504 6 2
11.229334 -10.98123 -2.4876211 9 3
16.076275 -15.737556 -2.7622907 14 4
4.6953254 -4.6399283 -1.7687694 4 0
5.5790172 -5.5189705 -1.8117559 6 1
7.1495247 -7.0824571 -1.956174 6 2
11.246376 -11.15255 -2.5085835 9 3
15.842042 -15.726336 -2.7408419 13 4
4.6600895 -4.6698594 -1.7677342 4 0
5.533473 -5.5508838 -1.8095063 5 1
7.1163883 -7.1462598 -1.9603716 7 2
11.232894 -11.291863 -2.5226626 10 3
15.642329 -15.746418 -2.7252426 13 4
4.6417475 -4.715239 -1.7729106 4 0
5.5146904 -5.6078725 -1.815805 5 1
7.080081 -7.2097754 -1.964188 7 2
11.159322 -11.375648 -2.5239139 10 3
15.609813 -15.929088 -2.7384045 13 4
4.5925689 -4.730895 -1.7666988 4 0
5.4876161 -5.6588259 -1.819854 6 1
7.0295758 -7.259027 -1.964188 9 2
11.082379 -11.456118 -2.5245397 10 3
15.415458 -15.952027 -2.7237799 13 4
4.5727878 -4.7767963 -1.7718753 4 0
5.464138 -5.7138991 -1.8252529 6 1
6.9814386 -7.3107653 -1.9649512 9 2
10.988497 -11.518913 -2.5214109 10 3
11.536335 -12.105879 -2.0532548 6 4
4.5340242 -4.8029847 -1.7698047 4 0
5.4334736 -5.7618308 -1.8284022 5 1
6.9638228 -7.3924141 -1.97411 7 2
10.815075 -11.492743 -2.49951 10 3
15.21842 -16.194639 -2.7286549 13 4
4.5117588 -4.8450456 -1.7739457 4 0
5.4007649 -5.8058162 -1.8306518 6 1
6.9013557 -7.4293432 -1.9710571 10 2
10.678144 -11.50715 -2.4863696 9 3
14.825785 -15.993585 -2.6777134 9 4
4.5117965 -4.9134216 -1.7874043 3 0
5.3535156 -5.8361979 -1.8284022 5 1
6.8745003 -7.5022006 -1.9779261 13 2
10.538216 -11.51254 -2.4719777 11 3
14.910647 -16.312082 -2.7135429 11 4
4.469605 -4.9362082 -1.7842987 3 0
5.3453217 -5.9095612 -1.8396497 7 1
6.7851086 -7.5118642 -1.9676224 12 2
10.410572 -11.53779 -2.4613402 9 3
14.808369 -16.42905 -2.7157366 9 4
4.4324617 -4.9644089 -1.7832633 3 0
5.3195004 -5.9641867 -1.8450485 6 1
6.8395753 -7.6792674 -1.9989152 10 2
10.361281 -11.645607 -2.4688489 9 3
14.743423 -16.588415 -2.7249987 9 4
4.3913126 -4.9879823 -1.7806751 2 0
5.2725859 -5.9953246 -1.843249 7 1
6.8583441 -7.8094373 -2.0202856 10 2
10.25628 -11.690929 -2.4632173 9 3
14.565764 -16.62077 -2.7135429 11 4
4.3817115 -5.0476952 -1.7910279 2 0
5.2408161 -6.0437655 -1.8468481 7 1
6.7908058 -7.8422856 -2.0164697 10 2
10.158905 -11.744319 -2.4594631 9 3
14.424715 -16.693514 -2.7089119 9 4
4.3752575 -5.1119189 -1.8029336 3 0
5.2212901 -6.1068668 -1.8549464 7 1
6.7626615 -7.9208574 -2.0244837 10 2
10.066413 -11.802929 -2.45696 9 3
14.256327 -16.733366 -2.6991625 9 4
4.3232665 -5.1231456 -1.7962043 2 0
6.7286921 -7.9934092 -2.0309711 10 2
9.9354582 -11.815467 -2.445071 10 3
14.142991 -16.837048 -2.6998937 11 4
4.284924 -5.1502323 -1.795169 2 0
6.6978006 -8.0704041 -2.0386035 10 2
9.721611 -11.726384 -2.4125326 9 3
14.075747 -16.996529 -2.7096431 13 4
4.259891 -5.1934643 -1.7998277 3 0
5.0934877 -6.2163815 -1.8553963 36 1
6.4997101 -7.9410949 -1.9947174 10 2
9.611558 -11.755582 -2.4050238 10 3
14.004454 -17.152813 -2.7189052 11 4
4.2438812 -5.2463713 -1.80811 3 0
5.075552 -6.2812228 -1.8643943 9 1
6.5365772 -8.1008692 -2.0233386 10 2
9.5391731 -11.8347 -2.4075267 9 3
13.903559 -17.267839 -2.7220738 9 4
4.1975155 -5.2637873 -1.8039688 3 0
5.0437198 -6.3317456 -1.8688934 8 1
6.5238619 -8.2016182 -2.037077 10 2
9.4096212 -11.842237 -2.3956378 9 3
13.941871 -17.565058 -2.7535162 12 4
4.1917067 -5.3324518 -1.8174274 3 0
5.0078177 -6.3775325 -1.8720427 7 1
6.4288917 -8.199069 -2.0252469 10 2
9.2609425 -11.823662 -2.3787427 12 3
13.799333 -17.636946 -2.7496161 12 4
4.1425447 -5.346314 -1.812251 3 0
4.9655581 -6.4154191 -1.8729424 8 1
6.366693 -8.2375374 -2.0237205 10 2
9.1830025 -11.894281 -2.3799942 11 3
13.622526 -17.663689 -2.7388918 11 4
4.1027746 -5.3720336 -1.8112158 4 0
4.9230127 -6.4530272 -1.8738421 8 1
6.3518591 -8.338006 -2.0374587 10 2
9.0542841 -11.898365 -2.3681052 11 3
13.538525 -17.810511 -2.7469351 10 4
4.0767889 -5.4159794 -1.8163921 3 0
4.8965816 -6.5121603 -1.8810407 9 1
6.2831664 -8.3653507 -2.0336425 10 2
8.9351482 -11.909157 -2.3580933 11 3
13.424564 -17.918894 -2.7491288 12 4
4.0421324 -5.4467068 -1.8174274 3 0
4.8614254 -6.5578628 -1.8846399 8 1
6.2304535 -8.4169006 -2.0355504 10 2
8.8306503 -11.942656 -2.3524618 11 3
13.302286 -18.009853 -2.7491288 12 4
4.0017281 -5.471674 -1.8163921 4 0
4.8247213 -6.6042304 -1.888239 9 1
6.1715407 -8.4601917 -2.0355504 10 2
8.7144871 -11.959311 -2.3437014 12 3
13.178567 -18.105492 -2.7496161 12 4
3.9702082 -5.5088816 -1.8194979 3 0
4.7944369 -6.659893 -1.8945377 9 1
6.091701 -8.4743767 -2.0286815 10 2
8.6722622 -12.077623 -2.3549647 10 3
13.10044 -18.264805 -2.7598534 14 4
3.9338896 -5.5396142 -1.8205333 4 0
4.7545915 -6.7027388 -1.8972371 9 1
6.0335255 -8.518301 -2.029063 10 2
8.5329685 -12.060469 -2.339947 11 3
12.986356 -18.375271 -2.7627783 12 4
3.9039805 -5.5796061 -1.8246742 3 0
4.7210779 -6.7549367 -1.9026359 8 1
5.9705386 -8.5553846 -2.0279181 10 2
8.3943405 -12.041961 -2.3249292 12 3
12.857759 -18.465483 -2.7627783 12 4
3.8737044 -5.6194491 -1.8288155 3 0
4.6870675 -6.8069911 -1.9080348 7 1
5.8832393 -8.5537682 -2.0179961 12 2
8.3256035 -12.118357 -2.3286836 10 3
12.703827 -18.518784 -2.757416 12 4
3.8331933 -5.6424904 -1.8277801 4 0
4.6668873 -6.877439 -1.9188325 7 1
5.8101654 -8.5751286 -2.0134165 10 2
8.2961578 -12.257981 -2.3443272 11 3
12.722012 -18.818617 -2.7891021 14 4
3.8001547 -5.6787462 -1.830886 3 0
4.65558 -6.9649358 -1.9341292 9 1
5.7669249 -8.6373377 -2.0187593 12 2
8.2059526 -12.304307 -2.3424499 11 3
12.603526 -18.926802 -2.792027 14 4
3.7592859 -5.7012563 -1.8298507 3 0
4.6627307 -7.0794644 -1.9570743 10 1
5.6913819 -8.6544218 -2.0134165 10 2
7.961513 -12.120244 -2.296771 10 3
12.413421 -18.919209 -2.7783775 14 4
3.7383308 -5.7565255 -1.8391682 4 0
4.6280403 -7.1347327 -1.9633728 10 1
5.6344776 -8.6962566 -2.0141799 10 2
7.9088807 -12.22059 -2.3055315 9 3
12.28966 -19.018747 -2.7803273 12 4
3.7063792 -5.7955027 -1.8433093 3 0
4.5802159 -7.1701527 -1.9642726 10 1
5.5816064 -8.7512512 -2.0176144 10 2
8.0143986 -12.580087 -2.3624737 9 3
12.096903 -19.010294 -2.7666781 12 4
3.659652 -5.8114281 -1.8402034 5 0
4.5321236 -7.2052522 -1.9651723 10 1
5.5490637 -8.832263 -2.0275364 10 2
7.5159321 -11.976778 -2.239516 8 3
12.100911 -19.312963 -2.7983642 12 4
3.6200099 -5.8362041 -1.8402034 4 0
4.4829731 -7.2359343 -1.9651723 10 1
5.5358105 -8.9492598 -2.0454724 10 2
7.3885283 -11.958375 -2.2263756 5 3
11.933728 -19.337448 -2.790077 12 4
3.5811918 -5.8646317 -1.8412387 4 0
4.4282904 -7.2604008 -1.9633728 13 1
5.507916 -9.0447006 -2.0584474 12 2
7.3099961 -12.018105 -2.2279398 11 3
11.823175 -19.461004 -2.7959268 14 4
3.544143 -5.8961134 -1.8433093 5 0
4.3554268 -7.2543812 -1.9534749 16 1
5.4557419 -9.1014547 -2.0626454 9 2
7.1731491 -11.980715 -2.2116706 9 3
11.668685 -19.512405 -2.7915392 12 4
3.5107641 -5.9340129 -1.8474505 7 0
4.3175645 -7.3064213 -1.9593236 14 1
5.3641367 -9.0919762 -2.05196 9 2
7.0271568 -11.924984 -2.1922729 9 3
11.469749 -19.487326 -2.7764277 12 4
3.4692516 -5.9583778 -1.8474505 4 0
4.276248 -7.3532319 -1.9638227 15 1
5.3251777 -9.171649 -2.0615005 12 2
8.4619007 -14.591675 -2.6715882 3 3
11.388147 -19.661398 -2.7898331 10 4
3.4390943 -6.0025673 -1.853662 4 0
4.2160988 -7.3676839 -1.9597737 21 1
5.2889276 -9.2537041 -2.0718043 9 2
8.346715 -14.621487 -2.6665823 3 3
11.247659 -19.73525 -2.7891021 12 4
3.3943605 -6.0191064 -1.8515915 5 0
4.162025 -7.3894191 -1.957974 18 1
5.2107253 -9.2664452 -2.0664616 9 2
8.2328272 -14.658734 -2.662828 5 3
11.145115 -19.868484 -2.7971454 10 4
3.3550689 -6.0477242 -1.8531444 12 0
4.1235585 -7.4421582 -1.9642726 17 1
5.1886697 -9.3799028 -2.0836341 10 2
8.1283798 -14.712392 -2.6622021 5 3
10.976408 -19.89193 -2.7895896 14 4
3.3081396 -6.062521 -1.8505563 22 0
4.0789623 -7.4844537 -1.9678718 19 1
5.1361961 -9.4400406 -2.0889771 12 2
5.2431059 -9.6485662 -1.7392386 6 3
10.814542 -19.926199 -2.7837398 14 4
3.2766972 -6.1058946 -1.8567679 37 0
4.0266128 -7.5127473 -1.9678718 19 1
5.0569968 -9.4470892 -2.082871 10 2
7.922894 -14.81958 -2.6615763 3 3
10.651801 -19.957434 -2.7776463 16 4
3.2332561 -6.1246405 -1.8557327 20 0
3.9717464 -7.5330873 -1.9660723 21 1
5.0485296 -9.5916128 -2.1069131 7 2
7.8183217 -14.872784 -2.6612635 6 3
10.522169 -20.041779 -2.7793527 12 4
3.1993191 -6.1642098 -1.8609091 6 0
3.9890113 -7.695581 -2.0011647 20 1
4.895575 -9.4566374 -2.069896 3 2
7.7023916 -14.897581 -2.6562576 9 3
10.415684 -20.180016 -2.7883708 10 4
3.1695819 -6.2099338 -1.868156 4 0
4.0073376 -7.8614497 -2.0371568 16 1
5.5239358 -10.85538 -2.3675582 10 2
7.620574 -14.995014 -2.6640792 8 3
10.390386 -20.471712 -2.8188381 12 4
3.1244195 -6.228456 -1.8671206 5 0
3.9383903 -7.8613572 -2.0299582 16 1
5.4499173 -10.892729 -2.3675582 10 2
7.5236287 -15.057142 -2.6659565 7 3
10.010639 -20.06946 -2.7537599 16 4
3.0853689 -6.2565093 -1.8691912 4 0
3.8073003 -7.7306428 -1.9894673 21 1
5.3659449 -10.914654 -2.3641236 10 2
7.4235492 -15.119938 -2.6678338 8 3
10.080829 -20.568443 -2.812501 14 4
3.0413623 -6.2801661 -1.8697089 6 0
3.7739446 -7.8033018 -2.0011647 20 1
4.346962 -9.0001392 -1.9428172 7 2
7.3288898 -15.201143 -2.6728396 8 3
9.9249315 -20.613279 -2.8090887 14 4
3.0057428 -6.3186913 -1.8748853 6 0
3.7327542 -7.8576221 -2.008363 21 1
5.183352 -10.930881 -2.3515301 12 2
7.2361174 -15.2805 -2.6778455 8 3
9.763814 -20.646173 -2.8042138 14 4
2.9640105 -6.3447714 -1.8764381 5 0
3.6662722 -7.8587656 -2.0020645 22 1
5.0856137 -10.91608 -2.3408449 10 2
7.1327715 -15.331193 -2.6781583 10 3
9.1930227 -19.795622 -2.6799071 5 4
2.9280057 -6.3806019 -1.8810968 6 0
3.628932 -7.9189706 -2.0110624 20 1
4.9978495 -10.926324 -2.3355021 12 2
7.0362368 -15.403972 -2.6822255 8 3
9.4914026 -20.80773 -2.8081138 12 4
2.8841829 -6.4026494 -1.8816146 7 0
3.640713 -8.0933971 -2.0488544 15 1
4.4936357 -10.008134 -2.1324816 3 2
6.9398413 -15.477957 -2.6866059 7 3
9.3345509 -20.848118 -2.8047013 12 4
2.8401957 -6.4243956 -1.8821322 6 0
3.5935667 -8.1400089 -2.0542529 15 1
4.8226404 -10.944736 -2.3248169 10 2
6.8403668 -15.545917 -2.6900475 10 3
8.8893251 -20.231255 -2.7132993 7 4
2.7945075 -6.4422946 -1.8816146 5 0
3.5397496 -8.1720514 -2.0560527 14 1
4.7414422 -10.967324 -2.3225272 12 2
6.7488933 -15.633191 -2.6969306 10 3
9.0692711 -21.038397 -2.8129883 12 4
2.7574024 -6.4771643 -1.8862734 6 0
3.4764197 -8.1780224 -2.0515537 15 1
4.6567101 -10.975849 -2.3175662 16 2
6.6284566 -15.646027 -2.6912987 10 3
8.9057512 -21.052107 -2.8066511 6 4
2.7217915 -6.5194321 -1.8930025 9 0
3.4102445 -8.1805086 -2.0461547 15 1
4.5384936 -10.908397 -2.2965772 10 2
6.5357399 -15.732053 -2.6981821 10 3
9.0567274 -21.832537 -2.9021969 13 4
2.6776748 -6.5418506 -1.8940378 7 0
3.3338816 -8.1572151 -2.0344574 17 1
4.47261 -10.965263 -2.3019197 10 2
6.4175568 -15.757174 -2.6947405 11 3
8.6176805 -21.190948 -2.8088448 4 4
2.6319387 -6.5603848 -1.8940378 9 0
3.267432 -8.1567745 -2.0286086 25 1
4.3687043 -10.92254 -2.2866549 9 2
6.3204083 -15.826173 -2.6991208 11 3
8.5724249 -21.508759 -2.8429682 8 4
2.5942943 -6.5961256 -1.8992143 9 0
3.2232327 -8.2078476 -2.0358069 23 1
4.2995095 -10.971052 -2.2904713 12 2
6.1687379 -15.765058 -2.6812871 10 3
8.5390291 -21.867638 -2.8824539 10 4
2.5484161 -6.6181264 -1.9002496 9 0
3.1665144 -8.2361603 -2.0371568 21 1
4.2157764 -10.982471 -2.2866549 11 2
6.0564742 -15.810639 -2.6815999 11 3
8.4287043 -22.037966 -2.8970783 10 4
2.5021508 -6.6357565 -1.9002496 7 0
3.1171784 -8.2799511 -2.0425556 21 1
4.0452533 -10.767924 -2.2358999 7 2
5.9889627 -15.967208 -2.7009978 11 3
8.2273054 -21.969858 -2.8805041 8 4
2.4718194 -6.6965585 -1.9126729 9 0
3.0592976 -8.3015118 -2.0425556 18 1
4.062026 -11.040262 -2.2866549 9 2
5.8542533 -15.937143 -2.6891088 11 3
7.7833838 -21.234631 -2.7769151 2 4
2.4150176 -6.6823421 -1.903873 6 0
3.0040433 -8.3258076 -2.0434554 20 1
3.9888432 -11.079434 -2.2889447 9 2
5.7455254 -15.985061 -2.6903601 11 3
7.9745665 -22.223207 -2.8990283 9 4
2.371527 -6.7081461 -1.9064611 7 0
2.9419539 -8.3355522 -2.040756 21 1
3.9179182 -11.12553 -2.2927611 10 2
5.6645818 -16.112371 -2.7050653 10 3
7.843554 -22.347641 -2.9080465 15 4
2.3290563 -6.7373195 -1.9100846 6 0
2.8697038 -8.3153601 -2.0308583 21 1
3.8018017 -11.041234 -2.2698641 10 2
5.5423255 -16.123501 -2.700372 11 3
7.6925011 -22.416874 -2.9099963 13 4
2.2918589 -6.7826986 -1.9183668 6 0
2.8178103 -8.3536568 -2.0353572 21 1
3.7390897 -11.104068 -2.2774963 12 2
5.4595146 -16.241367 -2.7138255 10 3
7.5421267 -22.488852 -2.9124339 15 4
2.2523036 -6.8183193 -1.9240609 5 0
2.7669871 -8.3911505 -2.0398562 21 1
3.6559558 -11.113116 -2.2740617 16 2
5.3897548 -16.412336 -2.7360392 11 3
7.3901138 -22.543442 -2.9129212 15 4
2.2283738 -6.9074187 -1.9447664 7 0
2.7095332 -8.4139738 -2.040756 21 1
3.5662746 -11.100986 -2.2664294 18 2
5.2515178 -16.376204 -2.7238371 10 3
7.2531276 -22.658764 -2.9212084 13 4
2.1858993 -6.9412341 -1.9499428 9 0
2.6554024 -8.4475555 -2.0443552 19 1
3.1321254 -9.9885111 -2.0347872 3 2
5.140017 -16.421892 -2.7254016 11 3
7.0568767 -22.587584 -2.9056091 13 4
2.1407917 -6.9674048 -1.9530486 9 0
2.6009336 -8.480793 -2.0479543 15 1
3.3663316 -10.997043 -2.2355182 12 2
5.0165706 -16.418716 -2.7191441 11 3
6.9071212 -22.662882 -2.9090214 13 4
2.0916526 -6.976264 -1.9514956 10 0
2.5420299 -8.494566 -2.0470545 15 1
3.2883542 -11.016513 -2.234755 12 2
4.9204388 -16.51581 -2.7294688 10 3
6.7362962 -22.668688 -2.9036591 13 4
2.045469 -7.0040336 -1.9551191 9 0
2.4888134 -8.5387325 -2.0533531 15 1
3.2075255 -11.026005 -2.2320838 15 2
4.7779088 -16.467125 -2.7157025 10 3
6.59444 -22.772366 -2.9109714 15 4
1.9922937 -7.0032778 -1.9509782 9 0
2.4259479 -8.544651 -2.0506537 15 1
3.1231954 -11.029785 -2.2282674 15 2
4.6391954 -16.416439 -2.7019365 10 3
6.4536176 -22.882809 -2.9192584 15 4
3.3257754 -11.815989 -1.073933 32 5
1.9402602 -7.0058451 -1.9478723 9 0
2.358969 -8.5350828 -2.0443552 18 1
3.0532644 -11.069715 -2.2320838 18 2
4.5205297 -16.422876 -2.6978691 11 3
6.2642841 -22.820105 -2.9056091 15 4
1.8975573 -7.0375419 -1.9530486 9 0
2.2744889 -8.4530878 -2.0209603 19 1
2.9667532 -11.056629 -2.2252147 19 2
4.4241595 -16.522728 -2.7091324 7 3
5.9909463 -22.42112 -2.8495493 6 4
1.8464203 -7.0431433 -1.9509782 9 0
2.2469842 -8.5894194 -2.0497539 17 1
2.8973751 -11.099363 -2.229794 15 2
3.027426 -11.622469 -1.9022434 4 3
3.1165047 -11.998775 -1.5221483 7 4
1.8012998 -7.0667796 -1.9540838 9 0
2.1769383 -8.5591879 -2.0389564 19 1
2.8058205 -11.064132 -2.2187271 12 2
4.2497191 -16.794724 -2.743861 10 3
2.9866488 -11.829165 -1.4980181 16 4
3.1934021 -12.676007 -1.1436577 18 5
1.7509924 -7.0754328 -1.9530486 9 0
2.0844302 -8.4417429 -2.0074632 21 1
2.7299759 -11.081067 -2.2183454 15 2
2.8371866 -11.542254 -1.8825326 9 3
2.8080781 -11.458335 -1.4485391 16 4
2.9931493 -12.241242 -1.1025201 17 5
3.1299427 -12.868821 -0.23117457 19 7
1.7051626 -7.1025119 -1.9571897 9 0
2.0481415 -8.5508461 -2.0299582 21 1
2.6387563 -11.05067 -2.2084234 19 2
2.7563508 -11.569947 -1.8837841 12 3
2.7606063 -11.614781 -1.4658446 20 4
1.6572876 -7.121769 -1.9592602 9 0
1.9928035 -8.5839186 -2.0344574 19 1
2.5617051 -11.060725 -2.206897 19 2
2.6855385 -11.623085 -1.8894157 12 3
2.803757 -12.173482 -1.5338477 3 4
2.7211115 -11.842996 -1.0631257 15 5
1.6045223 -7.1140399 -1.9540838 9 0
1.9386058 -8.6162968 -2.0389564 16 1
2.46681 -10.999796 -2.1912506 12 2
2.563791 -11.460343 -1.860006 11 3
2.8419225 -12.808503 -0.68758982 8 6
1.5581146 -7.1401677 -1.958225 9 0
1.8713603 -8.59725 -2.0313082 23 1
2.3887098 -11.010995 -2.1901057 10 2
2.5104582 -11.601527 -1.8800297 9 3
2.6151245 -12.115903 -1.5219045 9 4
2.5194674 -11.742268 -0.62939227 17 6
2.7356739 -12.782547 -0.22817276 18 7
1.5050393 -7.1357489 -1.9540838 9 0
1.8173133 -8.63871 -2.0380566 15 1
2.2996957 -10.969757 -2.1786571 9 2
2.5624175 -12.254912 -1.9829636 13 3
2.4903545 -11.941479 -1.4977744 13 4
2.3687141 -11.398003 -1.018502 14 5
2.3936517 -11.548354 -0.61808771 26 6
2.6609437 -12.871833 -0.22942933 19 7
1.4544148 -7.1422963 -1.9530486 9 0
1.7608382 -8.6702852 -2.0425556 16 1
2.2339609 -11.039425 -2.1893425 19 2
2.3638639 -11.712901 -1.8925444 3 3
2.4570656 -12.207669 -1.5289729 14 4
2.2969186 -11.453332 -1.0219883 14 5
2.3231564 -11.615705 -0.6208092 8 6
2.5514591 -12.792043 -0.2276841 18 7
1.4067512 -7.16365 -1.9561545 9 0
1.6845357 -8.6020441 -2.0236597 15 1
2.1553328 -11.047043 -2.1878161 15 2
2.2661901 -11.64768 -1.8794039 9 3
2.1797087 -11.234559 -1.4051536 13 4
2.2040472 -11.402578 -1.0160617 14 5
2.2782962 -11.819912 -0.63085771 17 6
1.3574232 -7.1770926 -1.9571897 9 0
2.4196012 -12.817637 0.2276841 17 8
1.6359987 -8.6748743 -2.0380566 20 1
2.0730824 -11.034808 -2.1824734 18 2
2.2019129 -11.754472 -1.8941088 14 3
2.0968497 -11.226087 -1.4022288 12 4
2.1426125 -11.515625 -1.0247772 14 5
2.1436253 -11.554713 -0.61588961 18 6
1.3072854 -7.1863942 -1.9571897 9 0
2.3157699 -12.755515 0.2262879 17 8
1.5740057 -8.6784134 -2.0362568 19 1
1.9959971 -11.049011 -2.1824734 18 2
2.0270085 -11.254374 -1.8111985 21 3
2.0352664 -11.334235 -1.4139282 19 4
2.1786404 -12.169297 -1.0816028 16 5
2.0930583 -11.738493 -0.6248914 17 6
1.2557533 -7.1877337 -1.9551191 9 0
2.3120947 -13.247704 0.23473488 18 8
1.5147192 -8.6968708 -2.0380566 15 1
1.936862 -11.15519 -2.2007911 16 2
1.8637712 -10.767674 -1.7307911 17 3
1.9527184 -11.328607 -1.4114909 18 4
2.0976784 -12.207774 -1.0836946 16 5
2.0289569 -11.844991 -0.62981093 8 6
2.1334393 -12.507419 -0.22147104 17 7
1.2106336 -7.2189779 -1.9613309 9 0
2.0855536 -12.46278 0.22056352 16 8
1.4567727 -8.7146673 -2.0398562 16 1
1.8660297 -11.211045 -2.2091868 19 2
1.7937264 -10.811604 -1.735797 18 3
1.8752376 -11.339677 -1.4112471 20 4
2.0112951 -12.20211 -1.0819514 16 5
1.9449216 -11.850985 -0.62939227 26 6
2.0521297 -12.545332 -0.2218899 17 7
1.1580627 -7.213901 -1.9577073 10 0
2.0272708 -12.642542 0.22349551 16 8
1.3971287 -8.7323217 -2.0416558 17 1
1.7776197 -11.147875 -2.1943038 12 2
1.705212 -10.72992 -1.7207794 20 3
1.8146406 -11.470135 -1.4258715 20 4
1.9452983 -12.337875 -1.0927588 16 5
1.8756803 -11.936952 -0.63326514 17 6
1.1089332 -7.2216163 -1.9577073 10 0
1.9480442 -12.715685 0.22454266 16 8
1.3400162 -8.75704 -2.0452549 15 1
1.7012274 -11.169717 -2.1962116 15 2
1.722743 -11.350903 -1.8183944 16 3
1.6685455 -11.032745 -1.3700553 15 4
1.8419188 -12.236883 -1.0826486 16 5
1.7783768 -11.856922 -0.62834555 26 6
1.8393553 -12.307419 -0.21721266 16 7
1.060449 -7.2425632 -1.9613309 9 0
1.8407294 -12.60234 0.22230875 16 8
1.2715338 -8.7160454 -2.0335574 19 1
1.8042825 -12.398208 0.65660697 6 9
1.6130542 -11.111378 -2.1824734 19 2
1.6321474 -11.284452 -1.8058797 17 3
1.6121517 -11.187555 -1.3878481 10 4
1.7421625 -12.195283 -0.64561641 17 6
1.7640967 -12.395188 -0.21853903 16 7
1.0117261 -7.2631836 -1.9649543 12 0
1.7483019 -12.583192 0.22175027 16 8
1.2165459 -8.7671757 -2.0434554 17 1
1.7102925 -12.357084 0.65378082 18 9
1.5381277 -11.141816 -2.1862895 18 2
1.5840063 -11.518664 -1.8415467 18 3
1.5092517 -11.060865 -0.97666723 13 5
1.5994916 -11.78362 -0.62321663 17 6
0.96074259 -7.2681541 -1.9644365 14 0
1.6584229 -12.563081 0.22119181 32 8
1.1659943 -8.8566017 -2.0623512 20 1
1.6508738 -12.55656 0.66372466 6 9
1.469909 -11.210425 -2.1977382 19 2
1.5055642 -11.52918 -1.8415467 27 3
1.4233218 -10.958967 -1.3568934 16 4
1.4151274 -10.94072 -0.96516263 13 5
1.506489 -11.695189 -0.61798304 17 6
1.5436002 -12.049683 -0.21204674 15 7
0.91821086 -7.3301144 -1.9794481 10 0
1.5528313 -12.431484 0.21867865 15 8
1.1235312 -9.007431 -2.095644 20 1
1.5676111 -12.603456 0.66560876 16 9
1.3814621 -11.138585 -2.1817102 10 2
1.3717767 -11.108103 -1.7727156 17 3
1.401993 -11.401856 -1.4105159 6 4
1.3444974 -10.981743 -0.96795171 13 5
1.4231151 -11.691544 -0.61725032 17 6
1.4447052 -11.920948 -0.2096034 15 7
0.86542934 -7.322917 -1.9758247 13 0
1.3894366 -11.774498 0.20695063 14 8
1.0446813 -8.8795786 -2.0641508 21 1
1.4939028 -12.716982 0.67105168 4 9
1.3012729 -11.110682 -2.1744595 10 2
1.3201537 -11.323202 -1.8055668 19 3
1.2867121 -11.103751 -1.3724926 12 4
1.2340091 -10.697928 -0.94215357 13 5
1.4113944 -12.292257 -0.64844257 17 6
0.81876779 -7.3574381 -1.9835893 10 0
1.3927474 -12.555063 0.2204937 16 8
1.0073848 -9.0956678 -2.1127403 15 1
1.4123176 -12.792613 0.67450589 10 9
1.2155147 -11.04534 -2.1599579 10 2
1.2232226 -11.16916 -1.7795987 17 3
1.1928422 -10.962481 -1.3539685 12 4
1.225355 -11.316373 -0.9958415 14 5
1.2979418 -12.045649 -0.63493991 17 6
1.2930198 -12.079142 -0.21204674 15 7
0.76330018 -7.3362074 -1.9763422 10 0
1.2823371 -12.345692 0.21665418 15 8
0.94628602 -9.1414118 -2.1217382 15 1
1.3299627 -12.891794 0.67921609 2 9
1.131336 -10.985204 -2.1466014 7 2
1.1778393 -11.515629 -1.8334121 13 3
1.1273342 -11.079161 -1.3673741 18 4
1.1378946 -11.241397 -0.98852044 14 5
1.2135111 -12.072513 -0.63588196 8 6
1.2480547 -12.481849 -0.21895789 17 7
0.71523577 -7.3740458 -1.9851422 9 0
1.3009127 -13.461226 0.23606126 18 8
0.8828181 -9.1516743 -2.1226382 20 1
1.0701033 -11.174769 -2.182092 10 2
1.1052818 -11.606164 -1.8465527 12 3
1.0845853 -11.452367 -1.4124658 12 4
1.0578953 -11.233197 -0.98712587 14 5
1.1990889 -12.8284 -0.67523855 26 6
1.1793921 -12.689369 -0.22244836 17 7
0.66027719 -7.3403783 -1.9747895 9 0
1.2038906 -13.410019 0.23501411 18 8
0.82307261 -9.2041979 -2.1334357 15 1
0.99105883 -11.14855 -2.1756043 10 2
1.0495557 -11.87709 -1.8884771 13 3
0.97045487 -11.070091 -1.3644493 28 4
0.96111375 -11.029914 -0.96864891 13 5
1.0948535 -12.641263 -0.66498071 17 6
1.0955672 -12.75308 -0.22342572 17 7
0.60933757 -7.3331509 -1.9716836 9 0
1.1240945 -13.585499 0.23794611 18 8
0.76200604 -9.2290096 -2.1379349 15 1
0.89077872 -10.881258 -2.1221778 10 2
0.94643599 -11.63605 -1.8490556 12 3
0.89076477 -11.023017 -1.3578683 18 4
0.89494181 -11.147416 -0.97841036 14 5
0.99136388 -12.457467 -0.65493226 26 6
0.55666322 -7.3179631 -1.9665072 9 0
0.95835251 -12.627757 0.22105218 16 8
0.69785041 -9.2379894 -2.1388347 15 1
0.80832052 -10.775476 -2.1004255 10 2
0.88687247 -11.906193 -1.89098 15 3
0.8396433 -11.379375 -1.40101 9 4
0.83049035 -11.336203 -0.99444705 14 5
0.92422283 -12.706949 -0.6677022 17 6
0.50449693 -7.3062525 -1.9623661 9 0
0.63041031 -9.1998653 -2.1289368 19 1
0.94072115 -13.798991 0.72485304 2 9
0.72322279 -10.66346 -2.0775285 3 2
0.8024469 -11.924059 -1.8928572 10 3
0.77300823 -11.577087 -1.4246527 11 4
0.75896692 -11.45703 -1.0045571 14 5
0.8320933 -12.695301 -0.66676015 17 6
0.45563054 -7.3443036 -1.9716836 9 0
0.55683637 -9.0523272 -2.0938444 20 1
0.65922815 -10.809228 -2.105005 3 2
0.71816534 -11.877978 -1.8847226 14 3
0.68766606 -11.506902 -1.4153906 7 4
0.40477774 -7.3318033 -1.9675424 9 0
0.49967623 -9.1376324 -2.1127403 15 1
0.65391368 -12.113312 -2.3580177 21 2
0.98278564 -18.384264 -2.9159389 6 3
0.60229605 -11.3785 -1.3990601 9 4
0.69193858 -13.381733 -0.70224392 8 6
0.64120162 -12.527692 -0.21895789 17 7
0.35367528 -7.3363805 -1.9680601 10 0
0.43382931 -9.098074 -2.1028426 17 1
0.57237154 -12.182299 -2.3706112 12 2
0.85441536 -18.390676 -2.9159389 5 3
0.5190202 -11.299143 -1.3888232 16 4
0.30157399 -7.3174381 -1.9623661 9 0
0.36966842 -9.0853043 -2.0992434 15 1
0.48942855 -12.238961 -2.3809147 13 2
0.72818667 -18.451458 -2.9246991 11 3
0.43889013 -11.270753 -1.3849233 10 4
0.46453556 -12.316329 -0.64593047 17 6
0.4736591 -12.735254 -0.22244836 17 7
0.25028393 -7.3135724 -1.9608132 11 0
0.30636328 -9.0915594 -2.100143 15 1
0.32452488 -9.8344784 -1.9126694 4 2
0.6006999 -18.497553 -2.9312694 8 3
0.79012096 -24.729572 -3.0379593 9 4
0.19848406 -7.288106 -1.9535662 10 0
0.24340619 -9.112957 -2.1046422 15 1
0.31303605 -12.034606 -2.3400817 10 2
0.47245392 -18.536842 -2.9369009 8 3
0.61651546 -24.696781 -3.0333283 14 4
0.14763775 -7.2912455 -1.9540838 9 0
0.17901227 -9.0754662 -2.095644 15 1
0.18938717 -9.9538612 -1.9351848 7 2
0.34391013 -18.58709 -2.9444098 8 3
0.44915152 -24.982321 -3.0679393 7 4
0.096987903 -7.3114152 -1.9592602 9 0
0.11550026 -9.0648041 -2.0929446 17 1
0.1188276 -9.8666 -1.918012 12 2
0.21427813 -18.600889 -2.9462872 8 3
0.27272892 -24.802231 -3.0455153 14 4
0.045846008 -7.2964602 -1.9551191 9 0
0.052236699 -9.0692863 -2.0938444 16 1
0.049396321 -9.7592125 -1.8970231 15 2
0.045133863 -9.945919 -1.5752953 9 3
0.10015975 -24.950424 -3.0635517 2 4
-0.005094002 -7.2966022 -1.9551191 9 0
-0.011075373 -9.0655336 -2.0929446 15 1
-0.018684262 -9.7318344 -1.8916805 16 2
-0.045656528 -18.685034 -2.9594276 9 3
-0.029125294 -9.8162384 -1.2052879 6 4
-0.056092236 -7.3041158 -1.9571897 9 0
-0.074460357 -9.0769262 -2.095644 15 1
-0.085336477 -9.7785978 -1.9008393 13 2
-0.09072239 -9.8073263 -1.5533944 9 3
-0.24787942 -24.915648 -3.0594084 12 4
-0.10250428 -9.7880726 -0.85639226 12 5
-0.10573991 -9.6162214 -0.5039953 11 6
-0.10603158 -7.3190188 -1.9613309 9 0
-0.13618387 -9.0723124 -2.0947442 15 1
-0.19057612 -12.131415 -2.3583994 10 2
-0.30423707 -18.74188 -2.9688137 8 3
-0.1620044 -9.6680279 -1.1872512 22 4
-0.17627278 -9.5269184 -0.16632144 10 7
-0.15592277 -7.2620888 -1.9463193 11 0
-0.2060324 -9.4423141 0.16485542 8 8
-0.19960184 -9.075036 -2.095644 15 1
-0.27552906 -12.141566 -2.3606889 4 2
-0.43635422 -18.794598 -2.9775739 9 3
-0.59576613 -25.094421 -3.0820758 12 4
-0.20595849 -7.2376499 -1.9401076 12 0
-0.27194604 -9.4406462 0.16485542 8 8
-0.26340431 -9.0890064 -2.0992434 15 1
-0.27151689 -9.257309 0.48536369 6 9
-0.29482219 -9.9336205 -1.9317504 12 2
-0.56898361 -18.83848 -2.9850829 9 3
-0.76045132 -24.748377 -3.0401528 14 4
-0.30706531 -9.455575 -0.16513468 15 7
-0.25860232 -7.2958865 -1.9561545 9 0
-0.32769063 -9.1103153 -2.1046422 15 1
-0.33971635 -9.3989563 0.49290007 2 9
-0.36278948 -9.9411926 -1.9336585 18 2
-0.33905134 -9.2025805 0.8056677 2 10
-0.69873476 -18.875626 -2.991653 12 3
-0.93889523 -24.893225 -3.058677 17 4
-0.30825797 -7.2939568 -1.9561545 9 0
-0.38952848 -9.1039801 -2.1037421 15 1
-0.4358497 -10.022758 -1.950068 6 2
-0.3999455 -9.1602497 0.80218142 3 10
-0.83214235 -18.907782 -2.9975975 10 3
-1.136664 -25.522842 -3.1369171 13 4
-0.35936105 -7.295486 -1.9571897 9 0
-0.45307675 -9.1010389 -2.1037421 15 1
-0.50682443 -10.074461 -1.9607532 12 2
-0.96423417 -18.968756 -3.0082352 9 3
-1.295 -25.129684 -3.0896318 10 4
-0.4662739 -8.8970385 1.7317824 8 13
-0.40911978 -7.2947998 -1.9577073 10 0
-0.51655602 -9.1249819 -2.1100409 14 1
-0.5737741 -10.011876 -1.9493048 10 2
-1.1009717 -19.036503 -3.0201242 9 3
-1.4419869 -24.634516 -3.0299158 7 4
-0.53314936 -8.973918 1.7474288 1 13
-0.53025717 -8.8469944 2.0461547 8 14
-0.46216267 -7.3051815 -1.9613309 9 0
-0.58134347 -9.1132736 -2.1082413 15 1
-0.6503346 -10.111464 -1.9695306 13 2
-1.2394725 -19.063618 -3.0257559 10 3
-1.6382116 -24.994267 -3.075495 12 4
-0.59182239 -8.7486801 2.3495593 3 15
-0.51139063 -7.2767243 -1.9546015 10 0
-0.64715296 -9.1400948 -2.1154397 14 1
-0.87292033 -12.207759 -2.3790066 6 2
-1.3799069 -19.156954 -3.0420251 10 3
-1.8436913 -25.409876 -3.1281426 12 4
-0.55800962 -7.2190461 -1.9401076 11 0
-0.64139366 -8.2416353 -1.9084847 19 1
-0.64392477 -8.2185183 -1.6024141 9 2
-0.65098745 -8.25317 -1.3112338 3 3
-2.0432417 -25.6754 -3.1625097 5 4
-0.61734056 -7.3363585 -1.9727188 9 0
-0.69139439 -8.1652336 -1.8918384 24 1
-0.6962738 -8.155139 -1.5909655 15 2
-0.70098037 -8.1598587 -1.2971548 13 3
-0.70410568 -8.1462221 -1.0039597 19 4
-0.70907795 -8.1539631 -0.71607161 25 5
-0.71041131 -8.1037579 -0.42632878 27 6
-0.71974301 -8.1610765 -0.14300501 39 7
-0.6680159 -7.3260984 -1.9711659 11 0
-0.74719793 -8.178689 0.14335407 56 8
-0.7464239 -8.1388607 -1.8868895 15 1
-0.74672645 -8.126565 0.42768946 22 9
-0.75248933 -8.1580305 -1.592492 15 2
-0.75350404 -8.1379728 0.71502572 18 10
-0.75541186 -8.1430969 -1.2952776 13 3
-0.76003617 -8.1312265 -1.0027411 20 4
-0.75791365 -8.0932646 1.2874558 25 12
-0.76318723 -8.1190605 -0.71345693 34 5
-0.76145935 -8.0704346 1.5757008 24 13
-0.76630819 -8.1066866 -0.42674741 13 6
-0.76738679 -8.0879745 1.8756418 19 14
-0.77669954 -8.1558533 -0.14300501 25 7
-0.7159825 -7.302155 -1.9659895 11 0
-0.80388498 -8.1692924 0.14328425 39 8
-0.78804028 -7.993959 -1.8544965 20 1
-0.80127949 -8.0992918 0.42653811 27 9
-0.80108327 -8.0685711 -1.5760823 10 2
-0.80690819 -8.1128292 0.71328253 28 10
-0.8126353 -8.1415548 -1.2959032 13 3
-0.80781472 -8.0647755 0.99518514 20 11
-0.81655544 -8.1377163 -1.0042036 21 4
-0.81023979 -8.0465021 1.2808856 21 12
-0.82063383 -8.1354818 -0.71537429 25 5
-0.81657231 -8.0670176 1.5760823 37 13
-0.8216719 -8.0892172 -0.42611939 13 6
-0.82261944 -8.0845022 1.8760917 26 14
-0.82955521 -8.1245155 -0.14255126 32 7
-0.77300173 -7.3546171 -1.9815186 10 0
-0.85800654 -8.1497107 0.14303991 45 8
-0.96706706 -9.1549139 -2.1253376 18 1
-0.85765111 -8.105567 0.42716613 24 9
-1.2957925 -12.205677 -2.3858757 10 2
-0.86246973 -8.0970926 0.71241105 26 10
-2.0680234 -19.383007 -3.0873909 7 3
-0.86712837 -8.1005402 1.0003036 37 11
-2.8640254 -26.667229 -3.2931538 8 4
-0.86900634 -8.0781183 1.2868301 29 12
-0.88531965 -8.2028484 -0.72182387 15 5
-0.87350488 -8.0669765 1.5772274 24 13
-0.87714177 -8.0611277 1.8720427 20 14
-0.89428407 -8.1920786 -0.14384274 26 7
-0.87960339 -8.0445814 2.168386 35 15
-0.82196927 -7.3395858 -1.9789305 9 0
-0.91979289 -8.1872406 0.14380784 23 8
-1.0271802 -9.1287527 -2.1208386 15 1
-0.92317754 -8.1787682 0.431353 2 9
-1.3792056 -12.180727 -2.382823 10 2
-2.2218242 -19.531006 -3.113359 10 3
-3.0605798 -26.779257 -3.3094842 11 4
-0.87364608 -7.3375053 -1.9799658 9 0
-1.0899601 -9.1136189 -2.1190388 16 1
-1.4684289 -12.205886 -2.3896918 12 2
-2.3694944 -19.609152 -3.1283767 11 3
-3.2742434 -26.977947 -3.3367829 11 4
-0.92774999 -7.3542275 -1.9861774 9 0
-1.1545383 -9.1135216 -2.1208386 15 1
-1.5436808 -12.117437 -2.3744273 10 2
-2.5241313 -19.731249 -3.1505907 13 3
-3.4797037 -27.088316 -3.3533571 11 4
-0.9785592 -7.3437409 -1.9851422 9 0
-1.219166 -9.1129665 -2.1226382 15 1
-1.338809 -9.9543819 -1.9523578 12 2
-2.6546803 -19.66029 -3.142143 16 3
-3.6777978 -27.130247 -3.3616443 12 4
-1.0324895 -7.3558621 -1.9903185 9 0
-1.2756879 -9.0540609 -2.1109407 19 1
-1.4049668 -9.9214668 -1.9477782 10 2
-2.835793 -19.950281 -3.1915762 14 3
-3.8889799 -27.257196 -3.380656 12 4
-1.0826905 -7.3408294 -1.988248 9 0
-1.3194622 -8.9138479 -2.0803473 17 1
-1.4811293 -9.9580221 -1.9569372 12 2
-2.9907494 -20.0355 -3.2084711 12 3
-4.092113 -27.31576 -3.3913803 12 4
-1.1345024 -7.3369107 -1.9892832 9 0
-1.3813604 -8.9024935 -2.0798974 23 1
-1.5563587 -9.9842958 -1.964188 9 2
-2.8411539 -18.163973 -2.9118714 2 3
-4.3433499 -27.672861 -3.4393971 9 4
-1.1856952 -7.3288112 -1.9892832 9 0
-1.4444147 -8.8984041 -2.0812473 22 1
-1.6189177 -9.9405289 -1.9577004 12 2
-2.8787167 -17.617842 -2.8273969 12 3
-4.5341868 -27.628153 -3.4376907 12 4
-1.2368385 -7.3281908 -1.9913538 9 0
-1.516012 -8.9536934 -2.0965438 15 1
-1.687618 -9.9251137 -1.9569372 12 2
-2.3054552 -13.515876 -2.1716235 6 3
-4.5708041 -26.712242 -3.3275208 11 4
-1.2846209 -7.3003516 -1.9861774 9 0
-1.5645936 -8.8642092 -2.0780978 24 1
-1.765404 -9.9713936 -1.9683858 10 2
-2.9635057 -16.687637 -2.6844158 10 3
-4.5700564 -25.630238 -3.1966331 7 4
-1.3342823 -7.2914381 -1.9861774 9 0
-1.6372076 -8.9204397 -2.0938444 19 1
-1.8392422 -9.9819937 -1.972965 10 2
-3.0120904 -16.299412 -2.6252837 10 3
-2.1817398 -11.771618 -1.4699881 3 4
-1.3887635 -7.3009233 -1.9913538 9 0
-1.6921388 -8.8705082 -2.0848465 18 1
-1.9162691 -10.007475 -1.9805974 12 2
-3.1086705 -16.188749 -2.6108916 10 3
-4.2841201 -22.247118 -2.7817898 6 4
-1.4382029 -7.2834692 -1.9892832 9 0
-1.772194 -8.9502363 -2.1064417 21 1
-1.9860878 -9.9938526 -1.9805974 10 2
-3.1980641 -16.048475 -2.5918064 9 3
-2.3470516 -11.745849 -1.4707193 4 4
-1.4913408 -7.2846074 -1.9923891 9 0
-1.8318921 -8.924284 -2.1032922 25 1
-2.0532753 -9.9762564 -1.9798342 10 2
-3.2940524 -15.962494 -2.5814819 10 3
-4.2976379 -20.75252 -2.6021545 7 4
-1.5368868 -7.2553883 -1.9872128 9 0
-1.9035251 -8.9630756 -2.1154397 15 1
-2.136785 -10.026963 -1.9928092 10 2
-3.3558838 -15.707294 -2.5439377 10 3
-2.5802896 -12.046235 -1.5126424 16 4
-1.5883285 -7.2482557 -1.988248 9 0
-1.9689797 -8.9628916 -2.1185889 23 1
-2.2176535 -10.069706 -2.0042579 12 2
-2.6454828 -11.982482 -1.943542 13 3
-4.4021897 -19.873407 -2.4992967 6 4
-1.638481 -7.241045 -1.9892832 9 0
-1.998473 -8.8105488 -2.085746 21 1
-2.3053241 -10.130551 -2.0195224 12 2
-3.4860246 -15.282054 -2.4826152 9 3
-4.5842643 -20.048109 -2.5251331 3 4
-1.6907502 -7.2369547 -1.9913538 9 0
-2.117697 -9.043045 -2.1442335 14 1
-2.3809314 -10.135234 -2.0237205 10 2
-3.4735537 -14.751652 -2.4003308 8 3
-6.4610019 -27.374638 -3.4535336 6 4
-1.7358011 -7.2024374 -1.9851422 9 0
-2.1624737 -8.9522696 -2.1262374 15 1
-2.4576383 -10.14317 -2.0286815 12 2
-3.5135183 -14.467897 -2.3580933 9 3
-6.7345791 -27.668331 -3.4964316 6 4
-1.7879033 -7.1976438 -1.9872128 9 0
-2.2286849 -8.9520826 -2.1298366 15 1
-2.5264883 -10.118146 -2.0271549 10 2
-3.5401061 -14.145993 -2.3095987 13 3
-3.6132524 -14.406248 -1.823653 2 4
-1.8381088 -7.1849866 -1.9872128 9 0
-2.2969358 -8.9589586 -2.1352355 15 1
-2.6029317 -10.123078 -2.0317342 12 2
-3.2794347 -12.726439 -2.0815172 9 3
-7.1609344 -27.729212 -3.5164185 9 4
-1.8892082 -7.1757154 -1.988248 9 0
-2.3544536 -8.9238615 -2.1307364 15 1
-2.6745439 -10.108456 -2.0324974 12 2
-3.1606321 -11.920382 -1.953241 3 3
-3.3420038 -12.577842 -1.5979509 2 4
-1.9412769 -7.1698103 -1.9903185 9 0
-2.3993468 -8.8432608 -2.1154397 15 1
-2.7543261 -10.123637 -2.0393667 12 2
-3.1762273 -11.650269 -1.912568 9 3
-3.1864691 -11.663767 -1.4846125 7 4
-3.2158852 -11.747245 -1.0655661 15 5
-1.9892119 -7.1486387 -1.988248 9 0
-2.4798663 -8.8938732 -2.1316364 15 1
-2.8596237 -10.235122 -2.0656981 9 2
-3.2698336 -11.67974 -1.9210155 5 3
-3.2806962 -11.687107 -1.4904622 7 4
-2.0346417 -7.1237874 -1.9851422 9 0
-2.5467827 -8.8992682 -2.1370349 15 1
-2.9456258 -10.265861 -2.0760019 10 2
-4.4914961 -15.622538 -2.5745986 10 3
-7.9874792 -27.72776 -3.5429857 13 4
-2.0843248 -7.1094098 -1.9851422 9 0
-2.6110439 -8.888751 -2.1388347 15 1
-3.0161142 -10.24128 -2.0752387 12 2
-4.6138673 -15.636271 -2.5821075 10 3
-8.154973 -27.583754 -3.5317738 13 4
-2.1361327 -7.1020851 -1.9872128 9 0
-2.6842811 -8.9076233 -2.1478326 14 1
-3.0807252 -10.197421 -2.0706592 12 2
-3.4616416 -11.436649 -1.8925444 12 3
-8.3772974 -27.624933 -3.5444484 13 4
-2.1856627 -7.0869989 -1.9872128 9 0
-2.7383487 -8.8626013 -2.1415341 15 1
-3.1523869 -10.183719 -2.0721858 12 2
-4.8231654 -15.552303 -2.5789788 10 3
-8.6418486 -27.797037 -3.5741844 13 4
-2.2303596 -7.060905 -1.9841069 9 0
-2.800962 -8.8511887 -2.1433337 16 1
-3.2317164 -10.187661 -2.0775285 12 2
-4.9561534 -15.59544 -2.5918064 9 3
-8.8374786 -27.758379 -3.5768657 9 4
-2.274842 -7.030458 -1.9799658 9 0
-2.8614848 -8.8277092 -2.1424339 17 1
-3.3051875 -10.172319 -2.0790551 12 2
-5.0325041 -15.460904 -2.5752244 10 3
-9.0101299 -27.631838 -3.5685785 9 4
-2.3311582 -7.0364113 -1.9861774 9 0
-2.8407915 -8.55968 -2.0821469 21 1
-3.384177 -10.173216 -2.0840161 15 2
-5.1153369 -15.350433 -2.5627096 3 3
-9.1826992 -27.508009 -3.5607789 9 4
-2.378983 -7.0163059 -1.9851422 9 0
-2.9186525 -8.5931501 -2.0951941 23 1
-3.446892 -10.125181 -2.0790551 10 2
-5.9428368 -17.427059 -2.9162514 8 3
-9.3732338 -27.439474 -3.5602913 9 4
-2.4291744 -7.0031776 -1.9861774 9 0
-2.9638624 -8.5302267 -2.0848465 22 1
-3.5381558 -10.1602 -2.0912669 12 2
-6.0903797 -17.459751 -2.9287663 8 3
-9.5161123 -27.234694 -3.5422547 9 4
-2.4780066 -6.9860477 -1.9861774 9 0
-3.0311718 -8.5313625 -2.0902452 22 1
-3.5793641 -10.052025 -2.0740941 13 2
-6.2081428 -17.405643 -2.9268892 5 3
-9.6779633 -27.089081 -3.5320177 9 4
-2.5240839 -6.9613132 -1.9841069 9 0
-3.0687056 -8.4495478 -2.0753984 25 1
-3.6494532 -10.026791 -2.0740941 13 2
-4.253047 -11.666143 -1.9666944 4 3
-9.8586712 -26.998482 -3.5290928 9 4
-2.5672507 -6.9290309 -1.9799658 7 0
-3.1194828 -8.4059954 -2.0699997 26 1
-3.7210386 -10.010919 -2.0760019 12 2
-6.6308646 -17.810825 -3.0101123 4 3
-4.3278275 -11.599983 -1.5201983 3 4
-2.6157234 -6.9150085 -1.981001 9 0
-3.2850242 -8.6706724 -2.1406343 21 1
-3.8096514 -10.034254 -2.0863059 15 2
-4.4240232 -11.63409 -1.9713873 2 3
-4.5522318 -11.952407 -1.5704085 7 4
-2.6695025 -6.9109964 -1.9851422 9 0
-3.3482871 -8.6547976 -2.1424339 15 1
-3.8810289 -10.011074 -2.087069 10 2
-6.9575448 -17.919067 -3.044528 4 3
-10.305731 -26.501144 -3.4913132 12 4
-2.7134335 -6.8814087 -1.9820364 9 0
-3.4229434 -8.6674614 -2.1514318 17 1
-3.9703298 -10.033025 -2.0973725 12 2
-4.7708974 -12.037635 -2.0508561 7 3
-10.568852 -26.625973 -3.5173934 9 4
-2.7599661 -6.8587127 -1.981001 9 0
-3.4972105 -8.6776962 -2.1599801 14 1
-4.0488162 -10.031255 -2.1027153 12 2
-7.2180095 -17.856232 -3.0504723 6 3
-10.713491 -26.450344 -3.5039876 15 4
-4.7422924 -11.690566 -1.1037403 42 5
-2.8051207 -6.8361936 -1.9799658 9 0
-3.516938 -8.5581598 -2.1361351 17 1
-4.1209922 -10.008191 -2.1038601 10 2
-7.3477645 -17.81819 -3.0526626 9 3
-10.609129 -25.688765 -3.4125855 18 4
-2.8512862 -6.8128791 -1.9789305 9 0
-3.5976913 -8.5837212 -2.1487324 17 1
-4.1988974 -10.003443 -2.1088212 10 2
-7.520165 -17.889771 -3.0736246 7 3
-10.826738 -25.705545 -3.4247725 3 4
-2.8960772 -6.7897592 -1.9778951 9 0
-3.6728759 -8.5984602 -2.1586304 16 1
-4.282536 -10.006372 -2.1156902 10 2
-7.6619959 -17.876778 -3.080508 6 3
-11.021814 -25.678684 -3.4311097 9 4
-2.9449487 -6.7729187 -1.9789305 9 0
-3.6970272 -8.4904213 -2.1379349 17 1
-4.3727002 -10.023017 -2.1256123 12 2
-7.7794948 -17.806561 -3.0776923 9 3
-11.29789 -25.822989 -3.4608459 9 4
-11.048849 -25.169989 -1.4405997 11 6
-2.9780719 -6.7204027 -1.969613 9 0
-3.7546301 -8.4608412 -2.1370349 21 1
-4.4577208 -10.026331 -2.132863 10 2
-7.8867464 -17.713919 -3.0711219 12 3
-11.458493 -25.699972 -3.4549963 9 4
-11.232454 -25.110472 -1.4416465 11 6
-3.0296865 -6.7100124 -1.9727188 9 0
-3.8071826 -8.4202185 -2.1334357 18 1
-4.5462403 -10.036098 -2.1416404 10 2
-8.0216417 -17.683615 -3.0755022 12 3
-11.635988 -25.615736 -3.4545085 9 4
-11.415768 -25.049618 -1.4426931 11 6
-3.0764565 -6.6886978 -1.9727188 9 0
-3.8805475 -8.4252949 -2.1415341 20 1
-4.6416926 -10.059377 -2.1534703 13 2
-8.17307 -17.688152 -3.0861394 12 3
