# .PCD v0.7 - Point Cloud Data file format
VERSION 0.7
FIELDS x y z intensity ring
SIZE 4 4 4 4 2
TYPE F F F F U
COUNT 1 1 1 1 1
WIDTH 1309
HEIGHT 1
VIEWPOINT 0 0 0 1 0 0 0
POINTS 1309
DATA ascii
-6.3888512 10.999208 -0.22202952 26 7
-3.1016452 5.3765354 -1.6631712 9 0
-3.4362745 5.9638095 -1.5890542 15 1
-3.5850427 6.2295475 -1.3971035 24 2
-3.771245 6.5610452 -1.198601 3 3
-5.989512 10.437145 -1.4775441 16 4
-35.989155 62.738998 11.455697 21 12
-3.563797 6.2177057 -0.62699836 56 5
-6.0479674 10.564619 -0.63797539 17 6
-6.2603083 10.953264 -0.22021447 17 7
-3.0678382 5.4025631 -1.6647241 10 0
-3.3859868 5.9701104 -1.5845551 15 1
-3.5259871 6.2270899 -1.3909976 28 2
-4.6520667 8.2258501 -1.4967651 8 3
-33.351913 59.021397 8.3239202 13 11
-6.0472007 10.705824 -1.5097176 10 4
-34.77354 61.61248 11.205402 19 12
-3.5096443 6.2209969 -0.62490666 60 5
-6.1406927 10.902421 -0.65576959 8 6
-2.999897 5.3698807 -1.6481597 12 0
-3.3195374 5.9493575 -1.5728577 16 1
-32.83308 58.868408 3.5325725 18 9
-3.4548509 6.1994963 -1.3795491 26 2
-4.6161418 8.2935715 -1.5033354 3 3
-32.893436 59.146431 8.3097839 13 11
-4.7333078 8.5180569 -1.1965134 7 4
-34.054085 61.308968 11.107787 18 12
-3.4564595 6.2279258 -0.62316358 60 5
-4.7746401 8.6136789 -0.51613724 11 6
-2.9763052 5.4138765 -1.6554067 12 0
-3.2958469 6.002563 -1.580956 15 1
-32.517342 59.271317 3.54304 18 9
-3.4020491 6.2062488 -1.375733 26 2
-4.5107017 8.2389593 -1.4876919 12 3
-32.744591 59.858768 8.3775434 13 11
-5.8181114 10.644637 -1.4894872 7 4
-3.3861656 6.202939 -0.61828285 58 5
-7.3416734 13.465585 -0.80377567 8 6
-5.9397073 10.912303 -0.2168636 16 7
-2.9439178 5.4469318 -1.6590302 13 0
-3.2379982 5.9985561 -1.5737575 19 1
-32.0924 59.502476 3.54304 18 9
-3.3437319 6.2021985 -1.3696271 24 2
-32.545273 60.417828 6.0039845 21 10
-4.4488211 8.2658081 -1.4867533 4 3
-5.7436614 10.684993 -1.4894872 12 4
-33.784065 62.901482 11.308648 20 12
-3.3258178 6.194829 -0.61514527 58 5
-5.9600825 11.12017 -0.66121256 8 6
-5.9199991 11.059286 -0.21895789 17 7
-2.8768065 5.4127636 -1.6424657 14 0
-3.2124879 6.0519986 -1.5818559 14 1
-31.863371 60.077953 3.5639741 19 9
-3.2919099 6.2120891 -1.366574 28 2
-31.908182 60.238617 5.9638929 20 10
-4.3651338 8.2477789 -1.4779931 14 3
-6.7982759 12.855975 1.7856297 3 11
-4.588203 8.6802511 -1.2055316 9 4
-32.707573 61.930561 11.09277 17 12
-3.2806284 6.2143722 -0.61479658 62 5
-7.0295315 13.338326 -0.79016834 8 6
-7.1801376 13.641408 -0.26908121 26 7
-2.8443162 5.4429884 -1.6455716 22 0
-3.1701589 6.0742784 -1.5818559 21 1
-3.2404747 6.2169428 -1.3627579 26 2
-31.79608 61.053665 6.0224619 21 10
-4.3207488 8.3000784 -1.4820602 11 3
-4.5818281 8.8091125 1.2191811 3 11
-5.5792685 10.735964 -1.4855874 6 4
-33.296032 64.097557 11.440054 21 12
-3.2224789 6.2088299 -0.61200762 62 5
-6.9753428 13.456793 -0.79435521 8 6
-2.8045547 5.457067 -1.6440187 15 0
-3.1358578 6.1095858 -1.5854551 17 1
-3.1808786 6.2079635 -1.3558888 28 2
-4.2393017 8.2843208 -1.4739258 21 3
-5.5087719 10.778995 -1.4863187 9 4
-3.1565921 6.1844811 -0.60747552 56 5
-6.9582996 13.656426 -0.80325234 17 6
-2.7759674 5.4954829 -1.6497126 13 0
-3.087862 6.1208897 -1.5827556 20 1
-3.1244149 6.2014189 -1.3497829 26 2
-6.8710909 13.649771 1.3369691 2 10
-4.1925802 8.3323946 -1.4773673 14 3
-30.972561 61.60886 8.4667521 15 11
-4.3597174 8.6796503 -1.1926135 10 4
-3.1097658 6.199244 -0.60677826 60 5
-5.4543929 10.887422 -0.63818467 17 6
-2.733341 5.5038695 -1.6466069 13 0
-3.0461268 6.1417665 -1.5827556 20 1
-3.0601418 6.1808529 -1.3406241 28 2
-4.111547 8.3154202 -1.4692327 17 3
-31.123743 63.001793 8.6281071 17 11
-4.1511197 8.4065399 -1.1511779 13 4
-3.0487933 6.1850619 -0.60329205 60 5
-5.3147392 10.796218 -0.63064831 26 6
-5.4037881 10.991629 -0.21379198 16 7
-2.7101018 5.5540676 -1.6559243 12 0
-2.9690316 6.0928087 -1.5647595 21 1
-3.0100431 6.187943 -1.3375711 28 2
-30.32885 62.376598 6.068131 23 10
-3.9981487 8.2302084 -1.4492091 18 3
-5.28719 10.89822 -1.4872936 16 4
-2.9951181 6.1846771 -0.60120028 60 5
-5.2288036 10.811483 -0.62939227 26 6
-2.6562307 5.5414953 -1.6466069 13 0
-2.9297888 6.120419 -1.5665591 19 1
-2.9600015 6.1946344 -1.3345182 26 2
-30.150217 63.126194 6.1204252 24 10
-3.7823606 7.9263167 -1.3910154 9 3
-3.9146414 8.2145872 -1.1172982 27 4
-2.9501565 6.201838 -0.60085171 60 5
-6.3375845 13.340914 -0.77404886 17 6
-5.1640821 10.885337 -0.21030149 15 7
-2.6108961 5.5459218 -1.6424657 13 0
-2.8969383 6.1618867 -1.5719579 20 1
-2.9033349 6.1867127 -1.3284123 26 2
-28.314409 60.362457 5.8331594 16 10
-3.8618891 8.2405109 -1.4413874 18 3
-30.270597 64.650131 8.7650881 19 11
-4.0465193 8.6462526 -1.1721394 10 4
-4.445415 9.5072098 1.6622728 3 12
-2.884865 6.1753483 -0.59631962 58 5
-8.676156 18.597584 -1.0755041 9 6
-2.5745466 5.5692749 -1.6440187 14 0
-2.8407812 6.1536517 -1.5647595 22 1
-2.8535023 6.192565 -1.3253593 28 2
-27.055475 58.741756 5.6581511 11 10
-3.7885802 8.2331743 -1.4354428 17 3
-30.04571 65.354065 8.831872 19 11
-3.865047 8.4109421 -1.1365535 19 4
-2.8311303 6.1694903 -0.59387922 58 5
-4.9513316 10.809666 -0.62311196 8 6
-5.0032763 10.938192 -0.20995246 15 7
-2.5395947 5.5959082 -1.6466069 13 0
-2.7704012 6.1129856 -1.5494629 21 1
-2.7967143 6.1796498 -1.3184903 28 2
-26.659494 58.96188 5.6612883 11 10
-3.7178071 8.2263699 -1.4298111 12 3
-3.7482781 8.3092442 -1.1192482 20 4
-2.7765336 6.1636724 -0.59143883 58 5
-8.1419687 18.099789 -1.0401249 19 6
-2.4841456 5.5742455 -1.6352189 12 0
-2.7382348 6.1530662 -1.5548617 17 1
-2.7471287 6.1846704 -1.3154373 26 2
-26.158903 58.919827 5.6400228 11 10
-3.7515926 8.4579754 -1.4654782 6 3
-3.6948481 8.3418264 -1.120223 21 4
-2.7237682 6.1610394 -0.58934712 58 5
-4.7663336 10.796511 -0.61850643 17 6
-5.9780736 13.56051 -0.25867957 24 7
-2.4474943 5.5967607 -1.6367717 15 0
-2.6983342 6.1791754 -1.5566614 15 1
-25.197964 57.758278 3.3025038 7 9
-2.6960402 6.1857009 -1.3116212 18 2
-25.715099 59.02795 5.63305 11 10
-3.6695926 8.4314346 -1.456405 9 3
-3.562145 8.1962824 -1.0973117 28 4
-2.6759324 6.1689377 -0.58830124 56 5
-4.724185 10.906497 -0.62290263 8 6
-2.3961728 5.5853066 -1.6284895 15 0
-2.6551268 6.1978636 -1.5566614 19 1
-2.6435282 6.1827097 -1.3070416 18 2
-25.236612 59.052139 5.6184077 10 10
-3.5167873 8.2370243 -1.418548 13 3
-3.5009446 8.2118216 -1.0960929 21 4
-2.622659 6.1636362 -0.58603519 59 5
-5.5961027 13.170804 -0.74997431 8 6
-2.3556254 5.5983357 -1.6274542 15 0
-2.6027374 6.1946888 -1.5512625 21 1
-2.5858753 6.166615 -1.299791 13 2
-24.7729 59.105602 5.6069031 10 10
-3.4782693 8.3069267 -1.4263695 9 3
-25.066246 59.922722 7.9753742 8 11
-3.4940691 8.3569384 -1.1121798 16 4
-2.5672882 6.1523757 -0.58324623 59 5
-4.4915538 10.779657 -0.61201674 9 6
-2.3238497 5.632504 -1.6326306 16 0
-2.6039615 6.3208189 -1.5782566 34 1
-2.5330589 6.1609111 -1.2948298 12 2
-3.3796844 8.2323284 -1.4094746 12 3
-24.467993 59.659153 7.9173646 7 11
-3.4235985 8.3517389 -1.1082799 23 4
-2.5152209 6.1480203 -0.58115447 63 5
-5.3942909 13.205129 -0.74756688 17 6
-4.3992925 10.785519 -0.20332053 21 7
-2.2975111 5.6808267 -1.6419481 15 0
-2.5962582 6.4291911 -1.6007516 25 1
-2.5068648 6.2203269 -1.3036071 5 2
-3.4261036 8.5141163 -1.4535893 4 3
-24.375229 60.635227 8.0241222 9 11
-4.3140049 10.736843 -1.420753 6 4
-2.4648232 6.1469374 -0.57941139 59 5
-4.3042316 10.750465 -0.60688782 18 6
-2.2651985 5.7124958 -1.6466069 12 0
-2.5337839 6.3996048 -1.5890542 11 1
-3.0178168 7.6377048 -1.5963081 10 2
-23.222462 58.803082 5.5312519 8 10
-3.3774989 8.5611267 -1.4576566 2 3
-24.11915 61.198662 8.0767698 10 11
-4.3106647 10.943267 -1.4441519 7 4
-2.4170969 6.1487374 -0.57801688 59 5
-5.1642823 13.1574 -0.74076319 17 6
-5.8174448 14.844354 -0.27829608 28 7
-2.2308588 5.7425766 -1.6507479 12 0
-2.4523997 6.3226619 -1.5656594 25 1
-2.962296 7.6530952 -1.5951633 10 2
-3.1851985 8.2417793 -1.3994628 9 3
-22.893429 59.298859 7.8047566 6 11
-3.2394052 8.3951101 -1.1048675 13 4
-2.3640881 6.139431 -0.57557648 60 5
-7.0791373 18.412973 -1.0338446 9 6
-2.1797225 5.7291217 -1.6424657 13 0
-2.4898565 6.5545931 -1.6187478 14 1
-2.9324551 7.7360058 -1.6081383 4 2
-21.999641 58.067047 5.4325919 5 10
-3.141567 8.300766 -1.4057202 3 3
-22.547686 59.639214 7.8286438 6 11
-3.1779108 8.4100933 -1.1038926 14 4
-2.3131008 6.1311479 -0.57331049 54 5
-4.0652642 10.798283 -0.60468972 18 6
-2.1450672 5.7586823 -1.6466069 13 0
-2.3394277 6.2905321 -1.5494629 19 1
-2.8851967 7.7705112 -1.6111913 4 2
-21.668549 58.420963 5.4514174 12 10
-2.275465 6.1382079 -1.0368477 8 3
-22.317682 60.26786 7.8910403 7 11
-3.1129215 8.4153185 -1.1016989 18 4
-2.2654092 6.1340637 -0.57209027 57 5
-4.9175525 13.336772 -0.74495006 8 6
-4.9528961 13.46157 -0.25037223 23 7
-2.1124423 5.7912974 -1.6517832 13 0
-2.3339007 6.4088507 -1.5746574 8 1
-2.8315485 7.7923093 -1.6115729 4 2
-21.264946 58.552116 5.4500227 6 10
-2.2251465 6.1335177 -1.0334063 14 3
-3.0663843 8.466176 -1.1055988 21 4
-2.2144041 6.1272445 -0.56999856 57 5
-3.8793886 10.751856 -0.59903741 18 6
-2.0693598 5.7986269 -1.6497126 12 0
-2.3453448 6.5828605 -1.613349 3 1
-2.781682 7.8248358 -1.6142441 10 2
-20.640898 58.094616 5.3938947 4 10
-2.1802902 6.1433177 -1.0324676 21 3
-21.582808 60.880436 7.9310136 8 11
-2.1669252 6.1294055 -0.5687784 54 5
-3.8201857 10.823879 -0.60154951 18 6
-4.7428966 13.460683 -0.24911566 22 7
-2.0173712 5.7801003 -1.6403952 13 0
-2.2775333 6.5365052 -1.5980524 2 1
-2.7256975 7.8403568 -1.6134809 10 2
-20.216482 58.184616 5.3890138 4 10
-2.1328151 6.1453261 -1.0302775 32 3
-2.9602261 8.5438023 -1.1102298 7 4
-4.2129154 12.17303 2.0402186 1 12
-2.1192918 6.1270671 -0.56720954 57 5
-4.5941644 13.312225 -0.7380417 17 6
-3.7616456 10.918421 -0.20157529 14 7
-1.9688593 5.7702751 -1.6336659 15 0
-2.0986371 6.1611767 -1.502673 2 1
-19.938301 58.568329 3.2424221 4 9
-2.6526732 7.8011074 -1.6016507 10 2
-19.707289 58.022472 5.3611236 3 10
-2.0801411 6.127902 -1.0249587 36 3
-19.888496 58.656826 7.6048918 3 11
-2.0688105 6.1190624 -0.56511784 58 5
-4.499619 13.331833 -0.7374137 8 6
-1.9234229 5.7652178 -1.6284895 18 0
-2.2087443 6.6319966 -1.6137989 7 1
-2.5727694 7.7430482 -1.5860044 12 2
-19.443745 58.552357 5.3977294 4 10
-2.0360689 6.1385241 -1.024333 49 3
-19.564661 59.054287 7.6385274 4 11
-3.562201 10.758493 -1.3915043 14 4
-2.0239849 6.1235442 -0.5642463 61 5
-4.3826613 13.290845 -0.73343617 35 6
-4.4223056 13.434717 -0.24688175 22 7
-1.8843243 5.7821789 -1.6295248 18 0
-2.1485252 6.6046324 -1.6034511 3 1
-2.5218236 7.7659836 -1.5871494 21 2
-19.333239 59.607735 5.4824448 6 10
-1.985101 6.1240535 -1.01964 38 3
-19.552343 60.391003 7.7940326 6 11
-3.4674604 10.722658 -1.3837045 11 4
-1.9750619 6.1185656 -0.56250316 68 5
-4.2614646 13.225319 -0.72820258 8 6
-4.3100529 13.408148 -0.24583459 22 7
-1.8472669 5.8022342 -1.6315954 15 0
-2.1076503 6.6321044 -1.6066004 3 1
-19.101946 60.180508 3.3089933 7 9
-2.4924641 7.8620009 -1.6031773 10 2
-1.937531 6.1226969 -1.0171371 38 3
-3.3692803 10.66651 -1.3734676 5 4
-1.9287082 6.1208024 -0.56145728 61 5
-3.3504505 10.652188 -0.58522069 19 6
-1.8067145 5.8149891 -1.6315954 18 0
-2.0532169 6.6205993 -1.6003017 7 1
-2.4224305 7.8304458 -1.5932552 18 2
-18.311806 59.229061 5.4238758 5 10
-1.892408 6.1285243 -1.0158856 40 3
-3.3192892 10.769447 -1.3837045 19 4
-1.8783184 6.1093607 -0.55919123 58 5
-4.0570636 13.220518 -0.72474837 17 6
-1.7627125 5.8163681 -1.6284895 16 0
-2.010896 6.6478291 -1.6034511 4 1
-2.375644 7.8734798 -1.5985978 16 2
-1.8455894 6.128346 -1.0136955 43 3
-3.2474518 10.803764 -1.385167 14 4
-1.8264661 6.0917897 -0.55640227 58 5
-3.9698215 13.26574 -0.72569048 17 6
-1.7357509 5.8748484 -1.6414305 12 0
-1.9958574 6.7682471 -1.6290956 1 1
-4.2233601 14.340512 0.78346932 4 9
-2.3189571 7.8842235 -1.597453 10 2
-1.7933013 6.1088595 -1.0083766 42 3
-17.530134 59.793297 7.6507144 4 11
-3.1942744 10.902373 -1.3949165 12 4
-1.7838928 6.1043921 -0.55640227 55 5
-3.9005997 13.373661 -0.73008668 17 6
-1.6807991 5.8385549 -1.6279719 13 0
-1.9356391 6.7370653 -1.6182978 1 1
-2.2676477 7.9134302 -1.6001244 15 2
-1.7478942 6.1117339 -1.0068123 45 3
-17.093708 59.849335 7.642427 4 11
-3.0646901 10.73734 -1.3710303 19 4
-1.7357501 6.0933995 -0.5543105 56 5
-3.0451653 10.718533 -0.58396471 29 6
-1.6259178 5.7999229 -1.6139956 14 0
-1.9032627 6.8029609 -1.6308951 1 1
-2.2095063 7.9135547 -1.5970714 13 2
-1.700953 6.1044607 -1.0036837 45 3
-16.975426 61.004665 7.7750211 6 11
-2.9439456 10.593987 -1.3500687 19 4
-1.6899732 6.0938492 -0.55326468 53 5
-3.6210089 13.083539 -0.71145505 8 6
-1.5864012 5.8108554 -1.6139956 14 0
-1.8538387 6.8044772 -1.6281958 1 1
-1.9560289 7.1993766 -1.4501485 3 2
-16.557268 60.982887 5.5284629 8 10
-1.6562237 6.108561 -1.0024322 45 3
-3.1709194 11.719423 -1.490706 9 4
-1.6453158 6.0978036 -0.55256736 53 5
-4.9233499 18.284782 -0.99239457 9 6
-1.5314182 5.767642 -1.5989841 13 0
-1.7993019 6.7908812 -1.6218971 1 1
-2.064697 7.8145604 -1.5711213 4 2
-16.131124 61.096992 5.5284629 8 10
-1.6085047 6.1008735 -0.99930352 45 3
-16.326218 62.011272 7.8734913 7 11
-3.0016532 11.409155 -1.4485391 15 4
-1.5946156 6.0783067 -0.5497784 56 5
-4.0864258 15.609837 -0.84564447 8 6
-2.8176746 10.78635 -0.19459434 13 7
-1.4964249 5.798769 -1.6046782 14 0
-1.5939151 6.1899447 -1.4756789 1 1
-2.0296206 7.9048476 -1.586386 9 2
-15.271431 59.521397 5.3761148 4 10
-1.55999 6.0889912 -0.99554908 43 3
-15.890932 62.116043 7.8725162 7 11
-1.8619124 7.2833209 -0.92303848 5 4
-1.5507425 6.0793672 -0.54890686 59 5
-2.7593868 10.849226 -0.58668613 28 6
-1.4634197 5.839057 -1.6129603 11 0
-1.7033645 6.8115602 -1.6209973 1 1
-15.083169 60.36063 3.2606349 5 9
-1.5185411 6.08601 -1.2192695 6 2
-14.885414 59.746422 5.3869219 4 10
-1.4979872 6.0170436 -0.98209572 43 3
-1.4829608 5.9744744 -0.75583369 30 4
-1.4828776 5.9875455 -0.53966838 51 5
-2.6567268 10.75142 -0.58040577 29 6
-1.4158736 5.8169737 -1.6041605 14 0
-1.4556917 6.0125051 -1.2024784 36 2
-14.429635 59.64497 5.3687935 3 10
-1.4475976 5.9927912 -0.97646403 45 3
-1.4445878 5.9940791 -0.75705242 39 4
-1.4410405 5.9977522 -0.53966838 54 5
-1.3743414 5.8229556 -1.6031252 14 0
-1.4136528 6.0035725 -1.4239402 42 1
-1.4127809 6.0186992 -1.2017151 36 2
-13.991074 59.651138 5.3604264 3 10
-1.413379 6.0354495 -0.98178285 31 3
-1.4189612 6.0736084 -0.76582706 18 4
-1.4122417 6.0639386 -0.54472339 48 5
-3.0939629 13.316538 -0.7164793 8 6
-3.4312134 14.803231 -0.26524168 25 7
-1.3345202 5.836175 -1.6041605 14 0
-1.7690182 7.7800827 -1.5508956 6 2
-13.54604 59.623016 5.3492708 3 10
-1.3786376 6.0779185 -0.98710161 42 3
-13.775455 60.829319 7.6580262 4 11
-1.8948026 8.373826 -1.0541699 5 4
-1.3676782 6.0639334 -0.54385179 54 5
-4.0890474 18.174112 -0.97627503 9 6
-1.3050151 5.8962765 -1.6181368 10 0
-1.4027959 6.3538318 -1.5022231 1 1
-1.7193048 7.813334 -1.5550934 9 2
-3.8060296 17.310831 1.550675 1 10
-1.334481 6.0796766 -0.98585016 36 3
-13.358949 60.962788 7.6629009 4 11
-2.3500395 10.733228 -1.3490938 13 4
-1.3244611 6.0694404 -0.54350317 54 5
-2.3495443 10.794086 -0.57894039 9 6
-1.2573509 5.8750186 -1.6098546 12 0
-1.4605179 6.8418264 -1.6151485 1 1
-1.6839159 7.9153996 -1.5730294 12 2
-12.819947 60.313042 5.3945918 4 10
-1.2920043 6.0888453 -0.98585016 36 3
-12.926413 61.023499 7.6590018 4 11
-1.7834585 8.4266529 -1.0575823 12 4
-1.2790047 6.0588202 -0.54176009 51 5
-3.3234122 15.798059 -0.84606314 17 6
-3.1097593 14.820961 -0.26433414 25 7
-1.2245178 5.9233818 -1.6207249 9 0
-1.3226024 6.4147873 -1.512121 1 1
-1.6236676 7.8959107 -1.5669236 12 2
-12.464272 60.721149 5.4231787 10 10
-1.2473509 6.0820179 -0.98334718 40 3
-1.7098798 8.3669376 -1.0485638 9 4
-1.236675 6.0676017 -0.54176009 51 5
-2.6616058 13.093888 -0.70025522 17 6
-2.6989696 13.325347 -0.23731782 20 7
-1.1784971 5.9031625 -1.6129603 11 0
-1.5597103 7.8268914 0.13930511 5 8
-1.215362 6.1044669 -1.4369874 1 1
-1.5769122 7.9494195 -1.5753192 3 2
-1.2033296 6.0828266 -0.98209572 39 3
-12.128442 61.421829 7.6872749 4 11
-1.6467408 8.3472223 -1.0446641 18 4
-1.1919767 6.0643587 -0.5407142 54 5
-3.0676272 15.650304 -0.83580536 17 6
-2.5851808 13.225658 -0.23522353 20 7
-1.1350695 5.8998632 -1.6098546 10 0
-1.1686791 6.0917497 -1.4320384 8 1
-1.5114254 7.9081688 -1.5650156 18 2
-11.245474 58.89497 5.2457299 0 10
-1.1578757 6.0755553 -0.97959268 45 3
-11.439706 60.139908 7.5166578 2 11
-1.5784197 8.3058605 -1.0380832 14 4
-1.1473897 6.0607858 -0.53966838 54 5
-2.5092757 13.292669 -0.70894295 8 6
-2.7827971 14.784086 -0.26258892 25 7
-1.093853 5.9076443 -1.6098546 12 0
-1.1261193 6.0997605 -1.4320384 15 1
-1.4433998 7.8490148 -1.5512772 9 2
-10.914677 59.410992 5.2847753 3 10
-1.1140071 6.0757189 -0.97834122 43 3
-11.637714 63.596428 7.9383259 8 11
-1.5118276 8.2698107 -1.0322334 19 4
-1.1032503 6.0527744 -0.53827387 51 5
-2.8423996 15.656236 -0.83392119 17 6
-2.4123845 13.327365 -0.23641029 20 7
-1.048519 5.8923135 -1.6036428 12 0
-1.0790823 6.0825295 -1.4261897 25 1
-10.56173 59.594265 3.1718733 1 9
-1.409084 7.9669209 -1.5726478 9 2
-10.505185 59.517139 5.2875648 3 10
-1.0705669 6.0714884 -0.97646403 39 3
-10.52958 59.838356 7.4601107 1 11
-1.4564601 8.2938509 -1.0339396 21 4
-1.058562 6.0465913 -0.53705364 48 5
-2.3048141 13.205985 -0.70255798 17 6
-2.309695 13.288717 -0.23543297 20 7
-1.0142487 5.9335895 -1.6129603 12 0
-1.038967 6.0974178 -1.4279894 37 1
-1.3422638 7.9107542 -1.5596728 19 2
-10.141107 59.830845 5.3091793 2 10
-1.0261773 6.0671287 -0.97458684 39 3
-10.178996 60.309715 7.5098333 2 11
-1.4006319 8.3074865 -1.0344272 21 4
-1.0173126 6.0597291 -0.53757662 54 5
-2.2148705 13.235543 -0.70329064 26 6
-2.4666052 14.787408 -0.26168138 25 7
-0.97186315 5.9348063 -1.6114074 14 0
-0.99354839 6.0872126 -1.4239402 42 1
-1.2882669 7.9276824 -1.5611992 18 2
-0.98190373 6.0624442 -0.97270966 37 3
-10.060438 62.252758 7.7428474 5 11
-1.9484214 12.069931 -1.5011867 15 4
-0.97466689 6.0647163 -0.53740233 48 5
-1.3655603 8.5254803 -0.45249674 12 6
-2.3557439 14.756876 -0.26084366 25 7
-0.93130046 5.9471731 -1.6129603 12 0
-0.95162547 6.0978518 -1.42484 66 1
-1.2325885 7.9345436 -1.5608176 3 2
-9.3536501 60.281612 5.337069 2 10
-0.93834716 6.0613432 -0.9714582 39 3
-9.4765081 61.356247 7.6229281 4 11
-1.2784543 8.2869949 -1.0295522 23 4
-0.92928231 6.0516796 -0.53565919 48 5
-1.2782182 8.3531723 -0.44286692 13 6
-2.2526712 14.772961 -0.26084366 25 7
-0.89090365 5.9611716 -1.6150309 11 0
-0.90702492 6.0908542 -1.4216906 47 1
-1.1811905 7.9701438 -1.5661603 3 2
-8.6805115 58.642578 5.1864638 0 10
-0.89254236 6.0442963 -0.9677037 43 3
-9.0838337 61.664436 7.653152 4 11
-1.2277892 8.3448172 -1.0356457 22 4
-0.88470173 6.0422487 -0.53426468 48 5
-1.5548954 10.658398 -0.56449568 30 6
-2.1350999 14.689383 -0.25909844 24 7
-0.84872073 5.9634209 -1.6139956 12 0
-0.86338639 6.0893202 -1.419891 52 1
-1.1299115 8.0093002 -1.5722662 3 2
-0.84922671 6.0425553 -0.96645224 35 3
-8.6145296 61.451126 7.6190281 4 11
-1.1667529 8.3335257 -1.0332084 21 4
-0.84276938 6.0502515 -0.53443903 51 5
-1.4829136 10.686799 -0.56543773 20 6
-2.0461802 14.802975 -0.26084366 25 7
-0.80732638 5.9711151 -1.6145133 13 0
-0.81929338 6.0836115 -1.4171916 56 1
-1.0661484 7.9586167 -1.5608176 3 2
-7.9644451 59.532185 5.2547941 0 10
-0.80597585 6.040504 -0.96520072 39 3
-1.1560878 8.6875982 1.0761064 2 11
-1.1007001 8.2824335 -1.0258962 20 4
-0.80155736 6.0638881 -0.53513628 51 5
-1.0891838 8.273159 -0.43731928 26 6
-1.9261546 14.690003 -0.25860977 24 7
-0.76218677 5.949779 -1.6072664 14 0
-0.77631152 6.0853167 -1.4162918 56 1
-1.0155022 8.004818 -1.56845 3 2
-0.76378566 6.0459838 -0.96520072 33 3
-7.8003511 61.919926 7.6629009 4 11
-1.0510274 8.3549128 -1.0339396 12 4
-0.75679618 6.0415268 -0.53269589 48 5
-1.0336215 8.2983999 -0.43826136 39 6
-1.8393042 14.8301 -0.26084366 25 7
-0.71993178 5.9492021 -1.6057135 12 0
-0.73333991 6.086719 -1.415392 56 1
-0.95631528 7.9725604 -1.5608176 3 2
-7.3203211 61.20834 5.3931971 4 10
-0.72167718 6.0431972 -0.96394926 39 3
-0.98893338 8.3305073 -1.0300398 20 4
-0.71249825 6.0288548 -0.5311271 46 5
-1.5665997 13.315762 -0.70266259 8 6
-0.6833654 5.988513 -1.6150309 12 0
-0.69189471 6.0915694 -1.415392 59 1
-0.90063304 7.9790425 -1.5608176 3 2
-6.8740659 60.995411 5.3701878 7 10
-0.67858803 6.0402365 -0.9626978 33 3
-0.92448175 8.2679977 -1.0215088 19 4
-1.0238751 9.1859035 1.4639139 1 12
-0.67258883 6.0534844 -0.53287023 46 5
-2.0035079 18.118549 -0.95534068 9 6
-1.6289679 14.802371 -0.25993615 24 7
-0.63249373 5.9086199 -1.5922549 11 0
-0.6481123 6.0846243 -1.4126925 52 1
-0.8308633 7.852375 -1.5348676 3 2
-6.5627661 62.127701 5.4657106 13 10
-0.63599193 6.0408969 -0.96207207 35 3
-0.87232566 8.3275557 -1.0280899 27 4
-0.62928021 6.0481238 -0.53199863 48 5
-1.6223729 15.67263 -0.82575679 17 6
-0.5946852 5.9474921 -1.6015723 12 0
-0.60407192 6.0734878 -1.4090934 59 1
-0.78374088 7.9361339 -1.5501324 3 2
-6.2684617 63.587704 5.590169 9 10
-0.59303057 6.0373259 -0.96082056 33 3
-0.80663919 8.2563906 -1.0185841 15 4
-0.5862745 6.0444369 -0.53130138 51 5
-1.7541801 18.184515 -0.95743406 9 6
-1.278151 13.322791 -0.23361792 19 7
-0.55297345 5.9495749 -1.6010547 22 0
-0.56165922 6.0775566 -1.4090934 56 1
-0.71935207 7.8436594 -1.5310514 3 2
-5.8392758 63.79261 5.6044626 10 10
-0.55086476 6.0413189 -0.96082056 39 3
-0.97587204 10.764685 -1.3271573 6 4
-0.54406208 6.0483828 -0.53130138 51 5
-0.51125878 5.9513659 -1.6005371 14 0
-0.5188846 6.077446 -1.4081936 56 1
-5.2406235 61.634712 3.2417941 4 9
-0.6670602 7.8778348 -1.5367758 9 2
-5.2612481 62.263428 5.4667568 6 10
-0.50834662 6.041081 -0.96019489 35 3
-0.69260573 8.2826738 -1.020534 13 4
-0.50056958 6.0241485 -0.52886105 51 5
-1.2788677 15.522033 -0.81623167 17 6
-0.87696373 10.712528 -0.18761338 12 7
-0.47501472 6.0221953 -1.6186544 12 0
-0.47553003 6.0692639 -1.4054942 52 1
-1.1140635 14.250904 0.74913698 4 9
-0.61875337 7.9506993 -1.5501324 3 2
-0.46690995 6.040462 -0.9595691 33 3
-0.63052005 8.2318878 -1.0137093 11 4
-0.45940763 6.0394163 -0.52990693 48 5
-1.0034853 13.283871 -0.69816172 17 6
-0.80663198 10.778213 -0.18866052 25 7
-0.43373427 6.0214357 -1.6176192 13 0
-0.43392882 6.0684729 -1.4045944 52 1
-0.56115592 7.9254498 -1.5444082 7 2
-0.42390016 6.0317512 -0.95769191 39 3
-0.80891794 11.62637 -1.43099 13 4
-0.41695881 6.0385008 -0.5295583 51 5
-1.2188926 17.787817 -0.93440622 9 6
-0.39063478 6.0243855 -1.6176192 9 0
-0.38999239 6.0636435 -1.4027947 56 1
-4.0399714 63.158073 3.3167393 8 9
-0.50668323 7.9428892 -1.5470794 3 2
-0.38097581 6.0385728 -0.95831764 37 3
-0.72302616 11.556447 -1.4217279 19 4
-0.3743014 6.0333104 -0.52886105 48 5
-0.80911291 13.191072 -0.69261408 17 6
-0.34945941 6.0423942 -1.6217602 9 0
-0.34765068 6.0662184 -1.4027947 59 1
-0.45027986 7.9541512 -1.5486058 3 2
-0.33880648 6.0410857 -0.95831764 35 3
-0.58279002 10.522728 -1.2940087 3 4
-0.33111557 6.0358348 -0.52886105 51 5
-0.8441056 15.535735 -0.81539428 17 6
-0.30572343 6.0350938 -1.6191721 11 0
-0.30442807 6.0724435 -1.4036945 49 1
-0.39220554 7.9061193 -1.5386838 12 2
-0.29518571 6.0354638 -0.95706618 39 3
-0.50979304 10.536455 -1.2952274 18 4
-0.28821036 6.0220785 -0.5274666 51 5
-0.62311703 13.213162 -0.69324213 8 6
-0.62160832 13.329482 -0.23291981 19 7
-0.26413196 6.025455 -1.6160662 11 0
-0.26241544 6.0587997 -1.4000953 56 1
-0.33984643 7.9753547 -1.5516587 3 2
-0.25359544 6.0254917 -0.95518899 39 3
-0.43921071 10.567448 -1.2986398 21 4
-0.24704634 6.0199184 -0.52711791 48 5
-0.53187525 13.185167 -0.69156742 8 6
-0.4276019 10.739855 -0.18761338 12 7
-0.22227328 6.0329437 -1.6176192 13 0
-0.21968625 6.0487995 -1.397396 52 1
-0.28555194 7.9774828 -1.5516587 3 2
-0.6780892 19.130865 1.6747848 1 10
-0.21257812 6.0270777 -0.95518899 39 3
-0.36680216 10.609936 -1.3035146 7 4
-0.20501623 6.0214968 -0.52711791 51 5
-0.43844 13.078695 -0.68581045 17 6
-0.18149301 6.0439715 -1.6202073 10 0
-0.17839327 6.0462584 -1.3964962 52 1
-0.22984785 7.9792824 -1.5516587 3 2
-0.17060481 6.0323639 -0.95581466 39 3
-0.22929886 8.2607574 -1.0146842 15 4
-0.16286547 6.0187979 -0.52676928 51 5
-0.21997161 8.2897024 -0.43459785 26 6
-0.2157384 8.293931 -0.14482006 75 7
-0.13956074 6.0566797 -1.6233131 10 0
-0.13635357 6.0551496 -1.3982958 66 1
-0.17431147 7.988544 -1.5531853 3 2
-0.1284897 6.0334082 -0.95581466 37 3
-0.17162625 8.2621574 -1.0146842 13 4
-0.1208395 6.0197883 -0.52676928 51 5
-0.20760852 10.619394 -0.55664527 20 6
-0.20446329 10.746418 -0.18761338 12 7
-0.096253 5.993763 -1.6062311 14 0
-0.093959138 6.0481601 -1.3964962 49 1
-0.11818717 7.9660096 -1.5486058 3 2
-0.086252354 6.0262575 -0.9545632 37 3
-0.14571792 10.567627 -1.2976649 7 4
-0.079652682 6.0045338 -0.52537483 48 5
-0.19543816 15.551428 -0.81508023 17 6
-0.05449396 6.0039473 -1.6088192 18 0
-0.051699404 6.0447712 -1.3955964 52 1
-0.063457042 7.9038067 -1.536394 3 2
-0.045141887 6.014853 -0.95268601 41 3
-0.056926478 8.3630009 -1.0268712 13 4
-0.037768744 6.0109205 -0.52589774 46 5
-0.07506071 13.031899 -0.68298429 26 6
-0.01363533 6.0099754 -1.6103721 13 0
-0.010529382 6.0332904 -1.392897 56 1
-0.085722871 61.377712 3.2166729 3 9
-0.0082559623 7.8844256 -1.532578 12 2
-0.0031512652 6.0189724 -0.95331174 41 3
9.9375015e-08 8.3334179 -1.0232152 18 4
0.0031482975 6.0130305 -0.52607203 48 5
0.015818445 12.94822 -0.67858809 8 6
0.018465266 10.580373 -0.18468137 24 7
0.028255951 5.9964013 -1.6067487 14 0
0.031608712 6.0371141 -1.3937967 59 1
0.33276403 61.500698 3.2231624 3 9
0.045329012 7.8705564 -1.5299066 13 2
0.037815869 6.0188546 -0.95331174 43 3
0.058081314 8.3193188 -1.0215088 15 4
0.045127086 6.0128622 -0.52607203 48 5
0.1625133 20.241568 -1.0608499 9 6
0.12754454 14.615218 -0.25511929 35 7
0.069319233 6.0173192 -1.6124427 12 0
0.07270427 6.0367594 -1.3937967 56 1
0.73708636 59.479801 3.1174438 0 9
0.10004964 7.8523798 -1.526472 13 2
0.079939269 6.0263443 -0.9545632 39 3
0.11476995 8.2194662 -1.009322 19 4
0.087187394 6.0183773 -0.526595 54 5
0.15893574 10.588274 -0.5549705 20 6
0.16681793 10.619073 -0.18537946 52 7
0.11230425 6.0128055 -1.6114074 13 0
0.11590046 6.0360847 -1.3937967 45 1
0.15521936 7.8691564 -1.5299066 10 2
1.2743745 63.484665 5.5553069 17 10
0.12289942 6.0177183 -0.95331174 39 3
0.17239928 8.2303734 -1.0107845 16 4
0.12881655 5.9996943 -0.5250262 48 5
0.28883722 13.028913 -0.68298429 17 6
0.33167779 14.616011 -0.25518909 23 7
0.15496975 6.0389123 -1.6186544 12 0
0.15803458 6.0351286 -1.3937967 52 1
0.20957354 7.7952299 -1.5157868 11 2
0.16469438 6.0088153 -0.95206028 43 3
0.22930355 8.2091255 -1.008347 19 4
0.17081539 6.0026321 -0.52537483 51 5
0.3811861 13.074493 -0.68549639 8 6
0.39135224 13.186185 -0.23026705 19 7
0.19737768 6.0454059 -1.6207249 12 0
0.20003465 6.029983 -1.392897 56 1
0.26348504 7.8191309 -1.5207478 19 2
0.20558849 6.007555 -0.95206028 41 3
0.28466475 8.1517763 -1.0015223 15 4
0.21342039 6.0212045 -0.52711791 51 5
0.37885195 10.532725 -0.55235374 21 6
0.4841387 13.203115 -0.23061611 19 7
0.23867245 6.0477834 -1.6217602 13 0
0.24076343 6.0206928 -1.3910973 56 1
0.32237655 7.9230285 -1.5413551 7 2
2.4894066 60.920261 5.33428 5 10
0.2476868 6.0099206 -0.95268601 39 3
0.34155294 8.1833668 -1.005666 24 4
0.25280216 5.981791 -0.52380598 46 5
0.45340371 10.553768 -0.55360979 10 6
0.46261659 10.638324 -0.18586813 18 7
0.27999446 6.0266724 -1.6165838 13 0
0.28315577 6.0266519 -1.392897 56 1
0.3768585 7.9324169 -1.5436448 13 2
2.9213166 61.040703 5.3464818 3 10
0.28858939 6.0080953 -0.95268601 41 3
0.40244362 8.2581091 -1.0151716 15 4
0.29524294 5.9938102 -0.5250262 48 5
0.64340496 12.924236 -0.67816937 8 6
0.53989953 10.69475 -0.18691526 12 7
0.31997958 6.0053358 -1.6114074 13 0
0.32416853 6.0245848 -1.392897 63 1
3.0842135 56.948277 2.9889069 0 9
0.43094575 7.9060688 -1.5390654 7 2
3.3330419 60.951767 5.3405552 3 10
0.33030969 6.0019894 -0.95206028 39 3
0.58561283 10.540466 -1.2962024 20 4
0.33696851 5.9896135 -0.52485186 46 5
0.7426759 13.078955 -0.68654317 8 6
0.61497229 10.730756 -0.18761338 12 7
0.36329198 6.0260959 -1.6176192 13 0
0.365747 6.0143943 -1.3910973 70 1
3.461472 56.594433 2.9715312 0 9
0.4875727 7.9263821 -1.5436448 4 2
3.7653542 61.038376 5.3503165 3 10
0.37171128 5.9916506 -0.95080876 41 3
0.51489902 8.2299824 -1.0124906 20 4
0.37940463 5.997057 -0.5257234 48 5
0.67325062 10.554035 -0.55423784 31 6
0.40483716 6.0157022 -1.6155485 13 0
0.40852049 6.0233598 -1.3937967 77 1
3.8518455 56.501141 2.9679723 0 9
0.54262894 7.9188681 -1.5428816 4 2
4.1790719 60.831711 5.3346286 2 10
0.41407615 5.9967928 -0.95206028 43 3
0.5737204 8.2459898 -1.014928 20 4
0.42098054 5.9902873 -0.52537483 51 5
0.75509161 10.66463 -0.56030881 30 6
0.44667879 6.0108032 -1.6150309 14 0
0.44939521 6.0048146 -1.3901975 59 1
4.3058052 57.265545 3.0096319 0 9
0.59805155 7.9168439 -1.5432632 3 2
4.6018496 60.77721 5.3325367 2 10
0.45653376 6.0016346 -0.95331174 43 3
0.63294584 8.2635555 -1.0176091 18 4
0.46309745 5.9911757 -0.5257234 51 5
1.0099053 12.976899 -0.68214691 17 6
0.48925769 6.0152402 -1.6171014 15 0
0.49225974 6.0131845 -1.392897 63 1
4.7382193 57.632195 3.0305662 0 9
0.64764899 7.8439956 -1.5299066 10 2
4.8850794 59.039955 5.1829777 1 10
0.49841908 5.9983015 -0.95331174 41 3
0.88663638 10.603088 -1.3064394 20 4
0.50336915 5.9819283 -0.52520049 60 5
0.91371983 10.768473 -0.56637979 10 6
0.90925181 10.649628 -0.18656623 12 7
0.53004968 5.9982076 -1.6134779 13 0
0.53457278 6.0134835 -1.3937967 47 1
4.9517851 55.593311 2.9250569 0 9
0.70522314 7.8863358 -1.5390654 16 2
5.2771845 58.782158 5.1634545 0 10
0.53923678 5.9947696 -0.95331174 41 3
0.96511889 10.646066 -1.3125329 11 4
0.54493487 5.976284 -0.5250262 51 5
1.8709261 20.400274 -1.07362 9 6
0.57086599 5.9944606 -1.6134779 13 0
0.57586455 6.0135851 -1.3946966 52 1
2.2683311 23.600704 1.2425604 5 9
0.75479251 7.8245497 -1.5279986 10 2
5.416914 56.051762 4.9267397 1 10
0.58031499 5.9829941 -0.95206028 43 3
0.80327171 8.2367744 -1.0161467 13 4
0.58703345 5.9762998 -0.52537483 51 5
1.0430615 10.562056 -0.55622661 20 6
0.61486363 6.0114698 -1.6191721 14 0
0.61743456 6.0055413 -1.3937967 43 1
5.7246165 55.490944 2.9235916 0 9
0.81364858 7.8600979 -1.5360124 22 2
5.8010831 55.945198 4.9208131 1 10
0.62329376 5.9905858 -0.95393753 41 3
0.88511449 8.4639368 -1.0449078 13 4
0.62957311 5.9799819 -0.52607203 48 5
1.1182493 10.568419 -0.55695927 20 6
0.65408403 5.9820657 -1.6124427 13 0
0.66019464 6.0088334 -1.3955964 52 1
2.2693977 20.588881 1.0855525 3 9
0.87648636 7.9264269 -1.5501324 3 2
6.1735554 55.740948 4.9065194 1 10
0.66597331 5.9939418 -0.95518899 39 3
1.1934975 10.690802 -1.32082 5 4
0.67219847 5.9833603 -0.52676928 48 5
1.5163764 13.434138 -0.70852429 8 6
0.69516063 5.9715967 -1.6108898 15 0
0.70212805 6.0040779 -1.3955964 52 1
0.9317981 7.920115 -1.5501324 3 2
2.229327 18.920343 1.6667664 1 10
0.70733613 5.9852228 -0.9545632 43 3
1.5081996 12.704714 -1.5708959 7 4
0.71466261 5.9844565 -0.52729225 46 5
1.2880543 10.738183 -0.56679851 10 6
0.73659927 5.9646802 -1.6103721 13 0
0.74355048 5.9951611 -1.3946966 66 1
0.9788062 7.8471799 -1.5371574 3 2
2.099592 16.808672 1.4819963 1 10
0.74959469 5.9840593 -0.95518899 39 3
1.3196021 10.489927 -1.2981523 16 4
0.75517434 5.9694386 -0.52642071 51 5
1.3544314 10.661563 -0.56323957 10 6
0.77972072 5.9708862 -1.6134779 13 0
0.78741324 6.0052814 -1.3982958 70 1
7.4378977 56.572842 2.9903722 0 9
1.0494748 7.9608331 -1.5608176 3 2
7.4344468 56.318428 4.9699688 0 10
0.79031903 5.9708467 -0.95393753 39 3
1.3975155 10.515878 -1.3025397 23 4
0.79814678 5.9738955 -0.52729225 57 5
1.4267008 10.636011 -0.56240225 20 6
0.82191342 5.9691248 -1.6145133 12 0
0.82824862 5.9919171 -1.3964962 59 1
7.8480225 56.630325 2.9962339 0 9
1.1050303 7.9533114 -1.5608176 3 2
0.83416706 5.980835 -0.95644045 39 3
1.4901631 10.643479 -1.3196013 12 4
0.83907163 5.9702973 -0.5274666 51 5
1.4880747 10.534822 -0.55758733 31 6
0.86218137 5.9536815 -1.611925 14 0
0.87174177 5.9975595 -1.3991956 63 1
1.1591374 7.9456058 -1.5608176 3 2
0.87599999 5.9828372 -0.95769191 37 3
1.5566252 10.57979 -1.3130203 13 4
0.88218415 5.9741492 -0.52833807 48 5
1.9236933 12.980219 -0.68769449 17 6
0.89862859 5.9209356 -1.6046782 19 0
0.89904833 5.9028668 -1.3785001 49 1
0.90128362 5.8899183 -1.1582106 34 2
8.7943602 57.40443 5.0808311 0 10
0.90335536 5.8828564 -0.94267422 45 3
2.0102723 13.060962 1.6225686 0 11
0.9060564 5.8799229 -0.7304849 42 4
0.90802008 5.8654604 -0.51927388 49 5
2.024996 13.035548 -0.69135809 17 6
0.94449073 5.9431362 -1.6124427 37 0
0.94023615 5.8964467 -1.3785001 66 1
0.94362301 5.8912368 -1.1597371 38 2
9.2188787 57.491142 5.0940785 0 10
0.94440353 5.8764062 -0.94267422 45 3
0.94581985 5.8656149 -0.72950995 31 4
0.95053935 5.8688121 -0.52014548 52 5
3.2897367 20.244301 -1.074876 9 6
0.98627514 5.9383035 -1.6129603 18 0
0.98714352 5.9243393 -1.3865983 59 1
0.98926508 5.9116144 -1.1650798 14 2
9.9419298 59.347164 5.2645555 0 10
0.99848759 5.9475942 -0.95518899 43 3
1.7621651 10.462966 -1.3027834 21 4
1.0057337 5.9525752 -0.52816379 57 5
2.2149723 13.012826 -0.23040667 19 7
1.0316633 5.9541159 -1.6191721 13 0
1.0404896 5.9864221 -1.4027947 70 1
1.3724133 7.8717027 -1.5531853 3 2
10.395812 59.503975 5.2847753 1 10
1.0430293 5.9640102 -0.95894337 35 3
1.8324207 10.434767 -1.3008335 21 4
1.0514135 5.9689546 -0.5302555 54 5
2.7248015 15.421641 -0.82073259 17 6
1.3193264 7.4367275 -0.13183548 6 7
1.0690857 5.9298439 -1.6145133 13 0
1.0826038 5.9868712 -1.4045944 63 1
1.4168174 7.8039784 -1.5417367 3 2
1.0846432 5.9565825 -0.95894337 35 3
1.518944 8.3169422 -1.0380832 5 4
1.0913007 5.9577403 -0.52990693 57 5
2.0240076 11.027947 2.1794205 2 13
2.370019 12.887912 -0.6867525 17 6
2.4202878 13.122641 -0.23291981 19 7
1.1122351 5.9317303 -1.6171014 15 0
1.4441509 7.6944566 0.13665235 4 8
1.1258113 5.9868283 -1.406394 59 1
1.4626243 7.755569 -1.5341043 4 2
1.1273632 5.9607081 -0.96082056 33 3
1.5769702 8.3061352 -1.0380832 2 4
1.1339849 5.9558477 -0.53042984 51 5
2.0463939 10.717405 -0.5718227 20 6
2.5013087 13.050433 -0.23194249 19 7
1.1525855 5.9240222 -1.6171014 15 0
1.170271 5.9981527 -1.410893 49 1
1.5214789 7.7838106 0.41565222 2 9
1.5023954 7.6719561 -1.5196029 13 2
1.1697106 5.9565697 -0.96144634 35 3
1.6287736 8.2637615 -1.0341833 13 4
1.1786246 5.9634233 -0.53182435 48 5
2.6032803 13.087567 -0.23291981 19 7
1.1972423 5.9269838 -1.6202073 14 0
1.21316 5.9896255 -1.410893 49 1
1.5664692 7.7132282 -1.5299066 13 2
1.625417 7.9891872 0.71328253 1 10
1.2123049 5.9480467 -0.96144634 33 3
1.6779904 8.2255478 1.030771 0 11
2.5894566 12.670991 -1.5879577 12 4
1.2186285 5.9472423 -0.5311271 48 5
1.9517306 9.5080805 1.8867195 2 13
1.701674 8.2752562 -0.44276223 26 6
2.977241 14.440024 -0.25735319 24 7
1.2437356 5.9430628 -1.6269366 13 0
1.2549459 5.98101 -1.410893 52 1
1.6592417 7.8804865 -1.5653971 3 2
1.2578807 5.958766 -0.96457505 35 3
2.2655916 10.704705 -1.3434877 9 4
1.2625999 5.950284 -0.53217298 51 5
1.7423514 8.1830826 -0.43847069 26 6
2.2856281 10.707095 -0.19110386 13 7
1.2827421 5.9229069 -1.6238307 12 0
1.2991515 5.9835291 -1.4135925 49 1
1.7182723 7.8939476 -1.5703582 3 2
1.2967269 5.9423461 -0.96332359 35 3
1.7942632 8.1948738 -1.0300398 5 4
1.3083816 5.9607849 -0.53391606 51 5
2.3258333 10.534664 -0.18831147 12 7
1.3242909 5.9196944 -1.6253836 14 0
1.341553 5.9821544 -1.415392 52 1
1.732832 7.7017155 -1.5344861 12 2
1.3407884 5.9447098 -0.96520072 39 3
1.8570067 8.2134504 -1.0339396 9 4
1.3490822 5.947619 -0.53356743 48 5
2.4067781 10.584928 -0.56889194 10 6
2.433038 10.674564 -0.19110386 13 7
1.3616717 5.8933644 -1.6207249 13 0
1.3850452 5.9802361 -1.4171916 52 1
1.805215 7.7697482 -1.550514 4 2
1.3831509 5.9390531 -0.96582651 39 3
1.9138469 8.1983528 -1.0336958 11 4
1.3914802 5.9419355 -0.53391606 51 5
2.457339 10.468702 -0.56355363 20 6
3.3923397 14.418037 -0.25853994 24 7
1.4054731 5.894989 -1.6238307 12 0
1.4267614 5.9704208 -1.4171916 52 1
1.9170772 7.9975114 -1.5985978 3 2
1.4255027 5.933094 -0.96645224 37 3
2.5315378 10.512275 -1.3276447 19 4
1.4318935 5.9323263 -0.53391606 54 5
4.3129845 17.814173 -0.96057421 9 6
1.4465908 5.8850341 -1.6238307 12 0
1.4702698 5.9678841 -1.4189912 52 1
1.4687022 5.9347582 -0.96832943 37 3
2.028132 8.1708307 -1.0336958 15 4
1.478084 5.9415197 -0.53565919 51 5
3.2609875 13.079103 -0.70643085 8 6
2.6560574 10.621268 -0.19110386 13 7
1.4766637 5.835722 -1.6129603 15 0
1.5118159 5.9615159 -1.419891 49 1
1.9477992 7.6582794 -1.5360124 3 2
1.5130262 5.9358449 -0.97020662 43 3
2.0787854 8.1376047 -1.0312586 18 4
1.519033 5.9291258 -0.53548485 48 5
2.7005489 10.517939 -0.56910127 30 6
3.7239325 14.472292 -0.26084366 25 7
1.5251601 5.8551822 -1.6212426 11 0
1.5553672 5.9583583 -1.4216906 47 1
1.9882896 7.5951142 -1.5260904 6 2
1.5584396 5.9404235 -0.97270966 45 3
2.1340313 8.1171341 -1.0305272 21 4
1.5649577 5.9357166 -0.53705364 48 5
2.7769682 10.510416 -0.56972927 10 6
3.8248703 14.445943 -0.26084366 25 7
1.5514998 5.790277 -1.6062311 13 0
1.5989479 5.9548826 -1.4234902 47 1
2.0213614 7.5071135 -1.5112073 8 2
1.601935 5.937027 -0.97396111 41 3
2.1901336 8.1001205 -1.0302836 18 4
1.6074015 5.9284925 -0.53740233 48 5
3.5477915 13.058054 -0.70915228 8 6
3.9046168 14.34171 -0.25944749 37 7
1.6077892 5.8370419 -1.6222779 12 0
1.6435927 5.9548459 -1.4261897 45 1
2.0360141 7.3565869 -1.4837308 11 2
1.6470366 5.939024 -0.97615117 48 3
2.2620392 8.1401005 -1.0373518 21 4
1.6482191 5.9152064 -0.53722799 51 5
2.2810769 8.1698904 -0.44454166 26 6
4.0423665 14.448902 -0.2618908 25 7
1.6516535 5.8368287 -1.6253836 12 0
1.6840594 5.9394774 -1.4252899 52 1
2.1431568 7.538589 -1.523419 14 2
5.185605 18.228355 1.6580508 2 10
1.6868351 5.9216814 -0.97521257 45 3
2.4234207 8.4906111 -1.0841498 7 4
1.69605 5.9265418 -0.53931969 54 5
4.4575515 15.545339 -0.84752852 8 6
1.6858945 5.8028941 -1.6191721 12 0
1.729841 5.9425445 -1.428889 52 1
2.1616282 7.4065981 -1.4997588 8 2
1.7358969 5.9363041 -0.97959268 39 3
3.3533463 11.445302 -1.4643822 16 4
1.7446837 5.9394078 -0.54158574 57 5
3.0874014 10.490092 -0.57307881 10 6
3.1023216 10.52045 -0.19145289 13 7
1.7296795 5.8020902 -1.6222779 12 0
1.7735192 5.9377909 -1.4306886 59 1
2.3253555 7.7655945 -1.5757008 3 2
5.1536751 17.199898 1.5708951 1 10
1.7807008 5.9353938 -0.98146993 39 3
1.7849563 5.9232678 -0.54123718 48 5
3.1628697 10.47593 -0.57349747 30 6
3.178009 10.506191 -0.19159251 26 7
1.7757888 5.8083482 -1.6274542 11 0
1.8240613 5.9550776 -1.4378871 35 1
2.4140942 7.8617759 -1.5985978 3 2
1.8255821 5.934145 -0.98334718 40 3
3.1707778 10.287601 -1.321795 7 4
1.8297913 5.9220843 -0.542283 57 5
3.2642725 10.545177 -0.57852173 9 6
4.4619861 14.387701 -0.26293796 25 7
1.8214948 5.8124008 -1.632113 9 0
1.8725932 5.9645104 -1.4432859 33 1
1.8693419 5.928791 -0.98459864 40 3
2.5728509 8.1451626 -1.0488076 6 4
1.8766744 5.9303861 -0.54420048 54 5
4.8681288 15.34628 -0.84376043 8 6
3.3704185 10.605634 -0.19424528 13 7
1.8578948 5.7866673 -1.6284895 11 0
1.9094139 5.9364505 -1.4396867 32 1
2.4608419 7.6371436 -1.5596728 3 2
1.9132929 5.9272099 -0.98647583 38 3
3.0305431 9.3659801 -1.2087002 1 4
1.9192563 5.9209313 -0.54454905 54 5
3.411824 10.506765 -0.57894039 19 6
3.4357126 10.555223 -0.19375661 26 7
1.8924159 5.7592044 -1.6243484 12 0
1.9534338 5.934422 -1.4423862 21 1
5.1105027 15.507194 0.85569292 2 9
2.546087 7.7167263 -1.579517 3 2
1.9558687 5.9174585 -0.98710161 35 3
3.4399047 10.389135 -1.3437315 13 4
1.9655662 5.9225163 -0.54594356 56 5
3.4498062 10.376556 -0.57307881 30 6
3.5137942 10.550568 -0.19410567 26 7
1.948589 5.7934594 -1.6378069 11 0
2.0091271 5.9631147 -1.4527339 14 1
2.0009279 5.9148884 -0.98897886 40 3
3.4970555 10.319747 -1.3378818 19 4
2.0119913 5.9237418 -0.54733807 56 5
3.5556221 10.450541 -0.57852173 9 6
1.9801867 5.7541409 -1.63056 11 0
2.0492795 5.921309 -0.99242038 43 3
3.2126992 9.2672615 -1.204313 3 4
2.0532978 5.9095511 -0.54733807 56 5
6.1730924 17.736681 -0.9842301 18 6
2.0312102 5.7711558 -1.6393598 9 0
2.3092458 6.550169 -1.6034511 1 1
2.7071369 7.6617126 -1.579517 3 2
2.0872724 5.8975468 -0.99085599 38 3
3.6447816 10.28114 -1.3393443 19 4
2.1025088 5.9176016 -0.54942977 53 5
3.741363 10.512777 -0.58480203 9 6
2.0779946 5.7750115 -1.6445363 9 0
2.3958883 6.6475515 -1.631345 1 1
4.9897232 13.829184 0.77049005 4 9
2.7332101 7.5669198 -1.5638705 4 2
2.1398163 5.9144106 -0.99617481 43 3
3.7144346 10.249846 -1.3386129 28 4
2.1434169 5.9050269 -0.54960412 50 5
3.7955475 10.433848 -0.58187127 9 6
3.8316605 10.515981 -0.19536224 20 7
2.1155941 5.7531109 -1.6424657 9 0
2.4435856 6.6343207 -1.6322449 2 1
2.8016448 7.5941873 -1.573411 3 2
2.1766045 5.8904424 -0.99461043 42 3
3.8224418 10.322325 -1.351531 18 4
2.1963708 5.9216747 -0.55256736 53 5
4.781805 12.871635 -0.71961951 8 6
3.9077687 10.496472 -0.19550186 27 7
2.157419 5.7458124 -1.6445363 9 0
2.4873123 6.6138868 -1.631345 2 1
2.8442051 7.5468874 -1.5676868 10 2
2.2281358 5.9028258 -0.99930352 43 3
3.4526477 9.1275263 -1.1982195 3 4
2.2362468 5.9024706 -0.55221879 53 5
7.6222925 20.086941 -1.1259559 10 6
3.9980161 10.513794 -0.19633958 13 7
2.1984797 5.730227 -1.6445363 9 0
2.5457606 6.6250238 -1.6385435 2 1
2.927145 7.6056333 -1.5840963 3 2
2.2738724 5.895946 -1.0008678 42 3
3.9998059 10.354984 -1.3629869 18 4
2.2802718 5.8941483 -0.55291605 53 5
4.0680933 10.493599 -0.58982629 9 6
2.2468858 5.7363248 -1.6507479 9 0
2.5976434 6.6216021 -1.6421427 1 1
2.9728761 7.5625677 -1.579517 3 2
2.3243856 5.9038224 -1.0049351 45 3
5.0091372 12.709938 1.6774098 3 11
4.4863358 11.377586 -1.5016742 5 4
2.3257563 5.8892045 -0.55396187 53 5
4.1250806 10.424088 -0.58752352 28 6
2.2861609 5.7187052 -1.6502303 10 0
2.6343913 6.5797873 -1.6362939 1 1
3.0045555 7.4929562 -1.5692132 10 2
2.3718796 5.9061947 -1.0080638 43 3
4.2618237 10.59094 -1.4017414 14 4
2.3772404 5.8986955 -0.55640227 58 5
4.2123852 10.436513 -0.58982629 19 6
2.3264925 5.7065883 -1.6512655 10 0
2.6945868 6.5995908 -1.6457419 1 1
3.0805812 7.5299439 -1.581425 4 2
2.4182973 5.902287 -1.0102539 42 3
3.3134735 8.0750704 -1.0717192 15 4
2.4271817 5.9063344 -0.55866832 52 5
8.2242908 19.973394 -1.1320268 10 6
2.3684978 5.69556 -1.6528184 9 0
2.7390935 6.5770211 -1.6448421 1 1
3.1355395 7.5178618 -1.5833331 3 2
2.4713573 5.916678 -1.0155727 43 3
3.3774304 8.0700521 -1.0741564 19 4
2.4745176 5.9039454 -0.56006277 52 5
4.3875742 10.452948 -0.59411782 19 6
2.4087224 5.6828628 -1.6538538 9 0
2.7822788 6.554636 -1.6439424 2 1
3.2340536 7.6041865 -1.6062301 3 2
2.5157022 5.906549 -1.0168241 43 3
3.431505 8.0450506 -1.0739127 21 4
2.5133231 5.881031 -0.55953985 58 5
7.6045909 17.768555 -1.0129101 9 6
2.4383726 5.6428552 -1.6471245 10 0
2.8357072 6.5529385 -1.6484413 1 1
3.245671 7.4859576 -1.5860044 9 2
2.5592368 5.8942776 -1.0177628 38 3
3.5113332 8.075511 -1.0812249 20 4
2.5678496 5.8943925 -0.56250316 61 5
4.5330939 10.390668 -0.59411782 19 6
2.4722574 5.6133189 -1.643501 9 0
2.8876774 6.5472455 -1.6520406 1 1
3.2550001 7.366147 -1.5653971 18 2
2.603519 5.8834944 -1.0190142 42 3
3.7268655 8.4101467 -1.1294852 20 4
2.6135693 5.8895249 -0.56372333 55 5
4.6030898 10.353293 -0.59380382 19 6
4.6450391 10.432927 -0.1993414 14 7
2.5169222 5.6082597 -1.6471245 12 0
2.6681027 5.936801 -1.502673 2 1
3.3646879 7.4763026 -1.5936368 7 2
2.6467528 5.8728399 -1.0202657 40 3
3.6310916 8.0419827 -1.0834185 19 4
2.6685734 5.901999 -0.56668663 54 5
4.6775703 10.330821 -0.59432721 19 6
4.7706308 10.516794 -0.20157529 14 7
2.5630679 5.6085687 -1.6523008 10 0
2.7052081 5.9114141 -1.5008734 4 1
3.4356229 7.4936757 -1.6024141 3 2
2.7017024 5.8847365 -1.0255845 45 3
3.6832638 8.0116682 -1.0826874 20 4
2.7105455 5.8850341 -0.56686091 57 5
4.830718 10.473837 -0.60448033 18 6
2.5956392 5.5765276 -1.6481597 11 0
3.0444334 6.5317855 -1.663738 2 1
3.4787142 7.4499421 -1.5982162 6 2
2.7477372 5.8764691 -1.0274616 50 3
3.7348933 7.9767709 -1.0814687 18 4
2.7566445 5.8767896 -0.5679068 60 5
4.9079723 10.448895 -0.60500371 18 6
4.8811355 10.377637 -0.2001791 21 7
2.637814 5.5652542 -1.6502303 10 0
3.0899565 6.5103741 -1.663738 1 1
3.5171511 7.3971062 -1.5921104 6 2
2.8005841 5.882113 -1.0318419 43 3
3.84004 8.054431 -1.0956055 31 4
2.8010368 5.864594 -0.56860405 57 5
4.9713154 10.394558 -0.60385227 9 6
2.6732445 5.5397439 -1.6481597 11 0
2.9979842 6.2043905 -1.5908539 5 1
3.5558724 7.3458662 -1.586386 9 2
2.8484738 5.8766384 -1.0343448 47 3
3.8857753 8.0059948 -1.0926807 16 4
2.8541083 5.8699818 -0.57104445 57 5
8.5618935 17.585638 -1.0250521 28 6
5.1236959 10.509792 -0.20408843 14 7
2.7381353 5.5769105 -1.6647241 11 0
3.1287 6.3639703 -1.6371938 3 1
3.6231437 7.3567147 -1.5940183 9 2
2.8988931 5.8783731 -1.0380992 47 3
4.0544395 8.2107496 -1.1243666 6 4
2.9045987 5.8718481 -0.57313615 60 5
5.1638045 10.425252 -0.60971397 9 6
5.2199936 10.524835 -0.20506579 14 7
2.8020444 5.6077752 -1.6797357 9 0
3.2166505 6.4291115 -1.6596888 1 1
2.9540377 5.88624 -1.0431051 42 3
4.0287695 8.0172863 -1.1016989 18 4
2.951792 5.8638844 -0.57435632 67 5
10.026136 19.891491 -1.167406 10 6
5.242888 10.388164 -0.20311111 21 7
2.8533833 5.612185 -1.6869825 9 0
3.0802147 6.0504861 -1.567459 13 1
3.0031419 5.881309 -1.045921 35 3
4.0945792 8.0084085 -1.10438 19 4
3.0062816 5.8697348 -0.57697099 57 5
6.5948367 12.859755 -0.75740606 17 6
5.3591275 10.436694 -0.20478654 22 7
2.8995972 5.6058536 -1.6911237 9 0
3.0471015 5.8834767 -1.5296671 25 1
3.0368626 5.853703 -1.2818549 20 2
3.0286479 5.830399 -1.0406022 26 3
3.0099709 5.7870355 -0.80092543 26 4
3.0112805 5.7796941 -0.57017285 47 5
5.4308829 10.410447 -0.61536622 27 6
5.4614806 10.455747 -0.20590349 29 7
2.9179718 5.5461535 -1.6792181 10 0
3.0490434 5.7879238 -1.5103214 42 1
3.0575006 5.7941585 -1.2734593 36 2
3.0545156 5.7811661 -1.0355963 42 3
3.0549428 5.774653 -0.80214405 38 4
3.0505545 5.7590613 -0.57017285 54 5
5.5221515 10.407565 -0.61745965 8 6
5.5343428 10.417364 -0.20590349 22 7
2.9329231 5.48136 -1.6657594 10 0
3.1022604 5.790545 -1.5166199 71 1
3.1005785 5.7801337 -1.2749858 34 2
3.1050093 5.7811255 -1.0393507 40 3
4.5228562 8.406889 -1.1721394 5 4
3.144541 5.8376083 -0.58010858 59 5
5.5814881 10.34864 -0.61620361 26 6
5.644959 10.448845 -0.20729968 15 7
2.9830875 5.4850287 -1.6730064 11 0
3.2683487 6.0020514 -1.5778067 8 1
3.2113633 5.8876128 -1.3036071 3 2
4.3013453 7.8761392 -1.4213637 12 3
4.4037862 8.0536909 -1.1270478 5 4
3.2158458 5.8714323 -0.58568656 59 5
4.4473953 8.1098919 -0.48473567 12 6
4.4589968 8.1209583 -0.161714 9 7
3.0213077 5.4640689 -1.6730064 12 0
3.3686917 6.0847917 -1.6057006 11 1
3.2580979 5.8753524 -1.3058969 5 2
4.2977343 7.7405691 -1.4022788 17 3
4.5833621 8.244833 -1.1582464 9 4
3.2616043 5.857542 -0.58655816 56 5
5.7468314 10.308081 -0.61850643 26 6
5.8528113 10.485265 -0.2096034 15 7
3.0518076 5.4293709 -1.6688653 12 0
3.4617445 6.151134 -1.6295455 16 1
3.3086798 5.8695645 -1.309713 7 2
4.6109047 8.1696959 -1.4858147 7 3
4.5206881 8.0000601 -1.1282665 10 4
3.3072863 5.8456092 -0.58760399 56 5
5.8708448 10.359803 -0.62405401 17 6
5.8962703 10.39197 -0.20855626 15 7
3.09251 5.4129663 -1.6704183 13 0
3.5345953 6.179256 -1.6434923 12 1
3.3680673 5.8809814 -1.3173454 13 2
4.6732812 8.1501188 -1.4880048 8 3
4.6574979 8.1094589 -1.1482531 13 4
3.3579476 5.8396497 -0.58934712 54 5
7.3702292 12.801706 -0.77415353 17 6
5.9966416 10.39906 -0.20953359 22 7
3.1535285 5.4335604 -1.6833591 10 0
3.5344768 6.0826001 -1.6241466 16 1
3.4070668 5.8539314 -1.3165821 15 2
4.5604253 7.8324571 0.79294294 2 10
4.7290721 8.1155882 -1.4876919 7 3
4.5625353 7.8203778 -1.1116923 19 4
3.4116881 5.8407431 -0.59178752 54 5
6.0312753 10.308906 -0.62593812 17 6
6.1036668 10.420121 -0.21079017 23 7
3.1972709 5.4213982 -1.6864649 10 0
3.5253298 5.9705191 -1.6007516 20 1
4.474545 7.5750871 0.46107981 2 9
3.4658172 5.8627148 -1.3238329 22 2
4.1563706 7.0224476 -1.2924616 3 3
3.4747527 5.854476 -0.5956223 58 5
6.1533446 10.355177 -0.63127637 8 6
3.2400553 5.4094529 -1.6895708 11 0
3.5418353 5.9062743 -1.589954 18 1
3.5228357 5.865304 -1.3299388 22 2
7.9260302 13.191135 1.3463819 1 10
3.8123534 6.3398108 -1.1716943 11 3
4.8931332 8.1274719 -1.1648273 19 4
3.5217102 5.8403139 -0.59666818 58 5
6.2585154 10.366683 -0.63462585 8 6
4.2751894 7.0730977 -0.1442616 30 7
3.2626779 5.3619456 -1.6818062 9 0
3.5910933 5.8947172 -1.5935532 19 1
3.5739233 5.8573265 -1.3337549 24 2
