# .PCD v0.7 - Point Cloud Data file format
VERSION 0.7
FIELDS x y z intensity ring
SIZE 4 4 4 4 2
TYPE F F F F U
COUNT 1 1 1 1 1
WIDTH 1307
HEIGHT 1
VIEWPOINT 0 0 0 1 0 0 0
POINTS 1307
DATA ascii
-3.1918187 4.6441255 -1.5099503 8 0
-3.5680025 5.1973042 -1.4554334 14 1
-3.8650966 5.6384959 -1.3287939 7 2
-4.9170246 7.1757588 0.76104391 1 10
-4.220798 6.1643195 -1.1832705 11 3
-4.9287729 7.2036843 1.0717192 1 11
-4.7470903 6.9407425 -1.0324771 11 4
-4.8919797 7.1579471 1.3731819 2 12
-4.8560195 7.1133213 1.6741582 1 13
-4.7260075 6.9280658 -0.43951741 26 6
-4.8954692 7.1791787 2.0061135 2 14
-3.1560714 4.6614947 -1.5083975 9 0
-3.5218067 5.2075586 -1.4513842 16 1
-4.8960562 7.2423244 0.45814902 2 9
-3.826627 5.6646743 -1.3287939 5 2
-4.8757257 7.2231216 0.76243842 1 10
-4.1588531 6.1634326 -1.1776388 11 3
-4.839673 7.1778126 1.0629444 1 11
-4.7251396 7.013226 -1.0383269 10 4
-4.794591 7.118989 1.3594157 2 12
-4.7843294 7.1144671 1.6665258 1 13
-4.6386261 6.9004016 -0.4357492 26 6
-4.8256712 7.184063 1.9980152 2 14
-3.1189082 4.6748347 -1.5058093 8 0
-3.4754736 5.2151928 -1.4468851 16 1
-4.8453722 7.2763309 0.45814902 2 9
-3.754359 5.6422167 -1.3173454 7 2
-4.7690673 7.1698785 0.75337422 1 10
-4.1135354 6.1890264 -1.177013 11 3
-4.7543044 7.1585073 1.0551448 1 11
-4.6114154 6.9459977 -1.0237026 13 4
-4.7273054 7.1259475 1.3544097 2 12
-4.7227783 7.1272287 1.6619464 1 13
-4.558363 6.8843236 -0.43271375 26 6
-4.7194839 7.1330667 1.9746205 2 14
-3.0840735 4.6932659 -1.504774 8 0
-3.4314923 5.2279263 -1.4437358 15 1
-3.7138042 5.666646 -1.3169638 9 2
-4.6861453 7.1529989 0.74814492 1 10
-4.0702305 6.2175913 -1.177013 11 3
-4.6803026 7.1549797 1.0497826 0 11
-4.5823689 7.0079265 -1.0280899 6 4
-4.6623111 7.1356273 1.3500296 2 12
-4.6514459 7.1271448 1.654314 1 13
-4.4752779 6.8624449 -0.42936423 26 6
-4.6525478 7.1397181 1.9674219 2 14
-3.0407372 4.6984639 -1.4995975 8 0
-3.3811603 5.2304783 -1.4378871 16 1
-4.6349401 7.1755028 0.44768184 2 9
-3.6273074 5.6198564 -1.3001726 9 2
-4.6360941 7.1855402 0.74814492 1 10
-4.0245843 6.2425351 -1.1763873 11 3
-4.6001391 7.1407514 1.0429579 1 11
-4.4494982 6.9095683 -1.0090783 12 4
-4.5845933 7.1248097 1.341895 2 12
-4.5718575 7.1131992 1.6436287 1 13
-4.4207845 6.8834381 -0.42873621 27 6
-4.5962744 7.1621842 1.9647225 2 14
-3.0016317 4.7098031 -1.4964917 8 0
-3.3414228 5.2490239 -1.4365374 14 1
-3.6016762 5.6665826 -1.3051336 7 2
-4.5388036 7.1437368 0.74047518 1 10
-3.9385548 6.203773 -1.1638726 12 3
-4.5267773 7.1358161 1.0375956 0 11
-4.4415522 7.0041652 -1.0183402 19 4
-4.4882169 7.0832267 1.3281288 2 12
-4.4842858 7.0852251 1.6298906 1 13
-4.321383 6.833107 -0.42371196 27 6
-4.485785 7.0985479 1.9386281 2 14
-2.9651918 4.721427 -1.4939036 10 0
-3.281683 5.2314501 -1.4257398 15 1
-4.536828 7.2379341 0.44768184 2 9
-3.5660985 5.6936727 -1.3058969 5 2
-4.4680643 7.1365304 0.73664033 1 10
-3.859607 6.1694703 -1.1526093 15 3
-4.4435787 7.1084495 1.0293086 0 11
-4.2982221 6.8785911 -0.99591631 16 4
-4.4264965 7.0893779 1.3237487 2 12
-4.4184985 7.0848227 1.6230214 1 13
-4.2548423 6.8277154 -0.42161852 27 6
-4.4398475 7.1273699 1.9386281 2 14
-2.937238 4.7502289 -1.4964917 8 0
-3.2379124 5.2426271 -1.4225905 16 1
-3.4860301 5.6509795 -1.2906321 8 2
-4.395133 7.1302361 0.73280543 1 10
-3.8258133 6.2090526 -1.1551123 12 3
-4.3680301 7.0945807 1.0229713 0 11
-4.2334533 6.8813791 -0.99201655 13 4
-4.3595119 7.089056 1.318117 2 12
-4.3319478 7.0552669 1.6092831 1 13
-4.1957321 6.8360925 -0.42036244 27 6
-4.3247819 7.0518727 1.9098345 2 14
-2.906848 4.7734108 -1.497527 8 0
-3.1869638 5.2395697 -1.4158419 15 1
-3.4505701 5.6818905 -1.2921586 8 2
-4.3328447 7.1403074 0.73071378 1 10
-3.7864704 6.2423663 -1.1563637 12 3
-4.3039894 7.1011357 1.019559 0 11
-4.1575446 6.8649211 -0.98543561 20 4
-4.2902637 7.0896497 1.3124853 2 12
-4.2947741 7.1054997 1.6138625 1 13
-4.1198602 6.8214903 -0.41764098 13 6
-4.1955934 6.9606037 2.1777036 3 15
-2.8598647 4.774704 -1.4913154 8 0
-3.1484678 5.2627921 -1.4158419 13 1
-3.4057949 5.6996956 -1.2906321 8 2
-4.2571292 7.1300707 0.72653025 1 10
-3.7274528 6.247901 -1.1522964 11 3
-4.2294588 7.0949831 1.0141968 0 11
-4.0859585 6.8569798 -0.98007339 21 4
-4.1575632 6.9826875 1.287143 6 12
-4.1683354 7.01191 1.5856228 18 13
-4.0484948 6.8130231 -0.41533819 13 6
-4.1438236 6.9789929 1.8738421 9 14
-4.1407495 6.9821401 2.1751153 7 15
-2.815819 4.7784014 -1.4861389 8 0
-3.1067762 5.2784677 -1.4140424 14 1
-3.3649173 5.7262006 -1.2910137 10 2
-4.1474662 7.0607133 0.71642017 11 10
-3.6626503 6.2403421 -1.146039 11 3
-4.1233473 7.0308881 1.0007912 13 11
-4.0167079 6.8517923 -0.97519863 25 4
-4.0985041 6.9969182 1.284327 4 12
-4.1163073 7.0357571 1.584478 2 13
-3.9855266 6.8176794 -0.41387278 13 6
-4.1370244 7.0825057 1.8936379 2 14
-4.0731573 6.9815569 2.1657977 6 15
-2.7852983 4.8029566 -1.4876919 9 0
-4.1195488 7.1094499 0.14342389 11 8
-3.0581267 5.2797942 -1.4086435 15 1
-4.1348219 7.1444283 0.43260908 2 9
-3.3130677 5.729157 -1.2864343 10 2
-4.0881009 7.072247 0.7146771 2 10
-3.6071427 6.2452321 -1.1422846 11 3
-3.9380286 6.8263612 -0.96764266 19 4
-4.0495563 7.0253611 1.284327 2 12
-4.0889201 7.0993767 -0.7167688 10 5
-4.0406404 7.0183825 1.5741742 1 13
-3.9159234 6.80725 -0.41157001 13 6
-4.0874786 7.1112151 1.8936379 2 14
-4.1313186 7.1903901 -0.14475027 7 7
-4.0002718 6.9679384 2.1528571 5 15
-2.7564864 4.8306742 -1.4902802 8 0
-4.0955672 7.1832027 0.14433141 5 8
-3.0173349 5.2942419 -1.4068439 15 1
-3.2613361 5.7316718 -1.2818549 10 2
-4.0189309 7.0659766 0.71119088 1 10
-3.5429552 6.2341981 -1.1357143 13 3
-4.010078 7.0618782 0.99713504 0 11
-3.8706739 6.8191619 -0.9627679 18 4
-3.9906702 7.0362773 1.2811985 2 12
-4.089632 7.2137065 -0.72548437 10 5
-3.9741271 7.0156741 1.5673052 1 13
-3.8427286 6.7892284 -0.40884852 26 6
-3.9909992 7.0540686 1.871143 2 14
-3.9306264 6.9586897 2.1414688 3 15
-2.7170208 4.8396931 -1.4871743 8 0
-2.9783947 5.3117785 -1.4059441 15 1
-3.2097781 5.7314687 -1.2768939 8 2
-3.9733946 7.1008158 0.71188807 1 10
-3.521656 6.2960963 -1.1425974 9 3
-3.9541688 7.0751476 0.99518514 0 11
-3.7939405 6.7940207 -0.95545572 15 4
-3.9330513 7.0460305 1.2780697 2 12
-3.9059405 7.0089459 1.5596728 1 13
-3.7672684 6.7628841 -0.40570837 13 6
-3.8961635 7.0000257 1.8495475 2 14
-3.8756599 6.971776 2.1373277 3 15
-2.6858835 4.8614573 -1.4882096 8 0
-2.9346373 5.3182788 -1.4023448 14 1
-3.1658976 5.7468591 -1.2753674 6 2
-3.8922925 7.0683579 0.70596153 1 10
-3.4595225 6.2876453 -1.1366529 11 3
-3.8740761 7.0469151 0.98738551 0 11
-3.731355 6.790113 -0.95131218 20 4
-3.8562534 7.0319276 1.5589095 1 13
-3.725718 6.7995305 -0.4063364 26 6
-3.8472023 7.0270538 1.8495475 2 14
-3.7990882 6.9478126 2.1217985 3 15
-2.6481891 4.8732996 -1.4861389 8 0
-3.6726091 6.7641039 0.13434863 4 8
-2.89186 5.3283601 -1.3996454 14 1
-3.8835773 7.1615982 0.42695674 2 9
-3.1126056 5.7446547 -1.2700247 8 2
-3.8200788 7.0533128 0.70177799 1 10
-3.388278 6.2612624 -1.1275797 9 3
-3.7964604 7.0214043 0.98007339 0 11
-3.6196783 6.6972461 -0.93473798 21 4
-3.7986252 7.0342083 1.2661808 2 12
-3.62356 6.715632 -0.66761297 45 5
-3.7735169 6.9964724 1.5451714 1 13
-3.5900443 6.6618605 -0.39660192 26 6
-3.6013558 6.691237 -0.13263829 43 7
-3.7267048 6.9299278 2.1083403 3 15
-2.6141024 4.8916688 -1.4861389 8 0
-3.5895057 6.7225475 0.13302223 55 8
-2.838074 5.3174739 -1.3915472 15 1
-3.0631926 5.7489185 -1.2662085 8 2
-3.748266 7.0376058 0.69759458 1 10
-3.3194277 6.2376809 -1.1191323 11 3
-3.7343016 7.0231986 0.97666097 0 11
-3.5597911 6.6978116 -0.93132555 21 4
-3.7234831 7.0117059 1.2574203 2 12
-3.5516083 6.6908665 -0.6627323 39 5
-3.7025032 6.9810195 1.5360124 1 13
-3.543448 6.6867609 -0.39660192 26 6
-3.5554895 6.7179832 -0.13267319 34 7
-3.6746218 6.948945 2.1062696 1 15
-2.5798883 4.9097996 -1.4861389 8 0
-3.5659802 6.7893133 0.13385996 47 8
-2.7918262 5.3199024 -1.3870482 15 1
-3.0422177 5.8044138 -1.2738409 6 2
-3.6787086 7.0247712 0.69375974 1 10
-3.2814729 6.2688818 -1.1206967 9 3
-3.6716897 7.0203104 0.97276115 0 11
-3.5331712 6.7612066 -0.93668783 24 4
-3.655549 6.9983687 1.2505373 2 12
-3.5333874 6.7702532 -0.66813594 27 5
-3.637337 6.9753637 1.5291433 1 13
-3.5310843 6.7744851 -0.40037012 26 6
-3.6248069 6.9661551 -0.13707121 6 7
-3.6192138 6.9583716 2.1016109 1 15
-2.5517302 4.9375434 -1.4892448 8 0
-2.7457185 5.3197336 -1.3820993 17 1
-2.9800425 5.7836246 -1.2646821 8 2
-3.6253335 7.039021 0.69271386 1 10
-3.2276883 6.2723155 -1.1172551 12 3
-3.600805 7.0034027 0.96691149 0 11
-3.4789042 6.769208 -0.9344942 22 4
-3.6210394 7.0518346 1.2555431 2 12
-3.573647 6.9685159 1.5222743 2 13
-3.4518263 6.7367587 -0.39670658 13 6
-3.5631487 6.9570127 1.8045573 2 14
-3.5573552 6.9576678 2.0938461 1 15
-2.5084505 4.9380131 -1.4840684 8 0
-2.7076337 5.3370337 -1.3816494 14 1
-2.9299574 5.7827597 -1.2601026 8 2
-3.5491107 7.0108299 0.6874845 1 10
-3.1617303 6.2483134 -1.1091205 12 3
-3.5423028 7.0064912 0.96398658 0 11
-3.4136574 6.7578945 -0.92961943 19 4
-3.5141923 6.959938 1.2348938 2 12
-3.5054703 6.9547257 1.5138787 2 13
-3.3915122 6.7315602 -0.39503184 13 6
-3.514493 6.9817185 1.8045573 2 14
-3.4873526 6.9368443 2.0803876 1 15
-2.4765069 4.9584303 -1.4851037 8 0
-2.6590655 5.3309269 -1.3753507 12 1
-2.9017632 5.8276792 -1.2654454 6 2
-3.4871027 7.0062866 0.68469548 1 10
-3.1189082 6.2720051 -1.1094334 13 3
-3.4844694 7.0132732 0.96154922 0 11
-3.3446221 6.7347484 -0.92328221 18 4
-3.4655173 6.984302 1.2348938 2 12
-3.4545627 6.9713893 1.5123522 2 13
-3.3391206 6.7443323 -0.39440379 13 6
-3.4294274 6.9419699 2.0746937 1 15
-2.4333191 4.9582558 -1.4799274 8 0
-2.6166377 5.3388615 -1.3726513 14 1
-2.838578 5.8019428 -1.2555233 6 2
-3.4188485 6.9910836 0.68086064 1 10
-3.0672438 6.2776508 -1.1066176 12 3
-3.4110429 6.9874783 0.95472455 0 11
-3.2853391 6.7329559 -0.9198699 18 4
-3.4166765 7.0083241 1.2348938 2 12
-3.3817489 6.9459105 1.5016669 2 13
-3.2867095 6.7567043 -0.39377576 13 6
-3.3825965 6.9600005 1.7865613 3 14
-3.3606348 6.9240313 2.0622702 1 15
-2.4036784 4.9855638 -1.4830333 8 0
-2.5725386 5.3429523 -1.3690522 15 1
-3.4450805 7.1615443 0.41648957 2 9
-2.789499 5.8039236 -1.2517071 6 2
-3.373409 7.0219646 0.68155789 1 10
-3.0113759 6.2739792 -1.1022373 12 3
-3.3518777 6.9896421 0.95179963 0 11
-3.2245255 6.7270865 -0.91597003 18 4
-3.367666 7.0320063 1.2348938 2 12
-3.3213165 6.9445548 1.4963243 2 13
-3.2256846 6.7506509 -0.39210105 12 6
-3.2964177 6.9141917 2.0524352 1 15
-2.3621995 4.9882555 -1.4788921 8 0
-2.5351751 5.3607817 -1.3690522 14 1
-2.7422073 5.8090534 -1.2486541 8 2
-3.3056004 7.0057039 0.67772305 1 10
-2.9590788 6.2769814 -1.0991087 12 3
-3.2894657 6.984138 0.94789982 0 11
-3.1656456 6.7242904 -0.91255772 21 4
-3.2610679 6.9426951 1.4909816 2 13
-3.1835651 6.7838554 -0.39272904 13 6
-3.3181834 7.077126 1.8045573 2 14
-3.2488897 6.9387841 2.0529528 1 15
-2.3256881 5.0011215 -1.4778568 8 0
-2.4845552 5.350071 -1.3618537 14 1
-2.6817696 5.7853074 -1.2394953 8 2
-3.2365079 6.9852238 0.67353958 1 10
-2.9068866 6.2795606 -1.09598 12 3
-3.2272944 6.9781051 0.94400001 0 11
-3.1086285 6.7246041 -0.90963286 20 4
-3.2393374 7.0137806 1.2236305 2 12
-3.1878519 6.911809 1.479533 2 13
-3.1194134 6.7696357 -0.39063561 12 6
-3.1872017 6.9231029 1.7595671 3 14
-3.1777742 6.9121504 2.0384588 1 15
-2.282696 4.9996614 -1.4726803 8 0
-2.4536116 5.3814712 -1.3654529 14 1
-2.629117 5.7770848 -1.233771 10 2
-3.1827133 6.996767 0.6724937 1 10
-2.8523514 6.2763228 -1.0919127 10 3
-3.1555204 6.9498563 0.93717533 0 11
-3.0484803 6.7172198 -0.90573299 23 4
-3.1314225 6.9160113 1.4757168 2 13
-3.1095738 6.8901453 2.0255179 1 15
-2.2422032 5.0031362 -1.469057 9 0
-2.4096138 5.3842397 -1.3618537 14 1
-2.5959277 5.8114319 -1.2372056 8 2
-3.1321676 7.0151758 0.67214507 1 10
-2.8036368 6.2852588 -1.0900354 10 3
-3.0891476 6.9318266 0.93181306 0 11
-2.9853563 6.7020717 -0.90085822 20 4
-3.0896919 6.942822 1.2036068 2 12
-3.0766854 6.9233513 1.4726639 2 13
-3.0535722 6.8940229 2.0203414 1 15
-2.2017784 5.0062885 -1.4654335 8 0
-2.3609982 5.3759499 -1.3555551 14 1
-2.5507936 5.8163805 -1.2345343 10 2
-3.0463331 6.9529271 0.66412675 1 10
-2.7528679 6.2861009 -1.0869068 13 3
-3.0259786 6.9163198 0.9269383 0 11
-2.9225934 6.6863713 -0.89598346 20 4
-3.042362 6.9636922 1.2036068 2 12
-3.0235679 6.9338646 1.4703742 2 13
-2.9957907 6.8898463 2.0130947 1 15
-2.1638222 5.0122914 -1.4628453 9 0
-2.3220363 5.3865275 -1.3542054 16 1
-2.4984839 5.8069968 -1.2288101 8 2
-2.9800479 6.9295735 0.65994328 1 10
-2.7050138 6.2960925 -1.0853424 12 3
-2.9776232 6.9372749 0.9269383 0 11
-2.8707519 6.6915164 -0.89403361 20 4
-2.9936752 6.9847608 1.2036068 2 12
-2.9623959 6.9217963 1.4635051 2 13
-2.927911 6.8643918 1.9996361 1 15
-2.1167247 4.9988127 -1.4545631 9 0
-2.2729905 5.3756838 -1.3474568 14 1
-2.4512651 5.8057804 -1.2249938 8 2
-2.9377921 6.9648948 0.66133773 1 10
-2.6490519 6.2834144 -1.0800236 13 3
-2.9287925 6.9537234 0.92645079 0 11
-2.8131909 6.6857777 -0.89062124 18 4
-2.9215562 6.9467077 1.1935952 2 12
-2.9003234 6.9097247 1.456636 2 13
-7.5151258 17.912756 -1.0180391 9 6
-2.8706772 6.8592134 1.9923891 1 15
-2.0856142 5.0202408 -1.4566337 9 0
-2.2333601 5.383831 -1.3456572 15 1
-2.4211874 5.8481479 -1.2303365 8 2
-2.8826973 6.9663205 0.65959466 1 10
-2.5990837 6.2871509 -1.0775207 13 3
-2.8665357 6.9409747 0.92206353 0 11
-2.7554982 6.6754127 -0.88672143 17 4
-2.8503954 6.9121485 1.184209 2 12
-2.8263161 6.8639512 1.4428977 2 13
-2.822886 6.8692374 1.714577 3 14
-2.8139238 6.8576393 1.9861774 1 15
-2.0454147 5.0221548 -1.4530102 8 0
-2.1898463 5.38485 -1.3420579 14 1
-2.8408272 6.9926109 0.3955552 2 9
-2.362581 5.8212485 -1.2211776 6 2
-2.8130226 6.9345808 0.65471393 1 10
-2.5491924 6.2904963 -1.0750178 13 3
-2.8001308 6.916657 0.91621375 0 11
-2.6939363 6.6576843 -0.88184667 21 4
-2.7931867 6.909903 1.1804546 2 12
-2.7812672 6.8907976 1.4444242 2 13
-2.7573297 6.8556094 1.9799658 1 15
-2.0074389 5.0291352 -1.4509397 8 0
-2.1464279 5.3855247 -1.3384588 14 1
-2.3233349 5.8412495 -1.2219409 6 2
-2.7557092 6.9318328 0.65262216 1 10
-2.4979234 6.2897806 -1.071889 14 3
-2.7429907 6.9138956 0.91328895 1 11
-2.6386101 6.6541853 -0.87892181 20 4
-2.7259631 6.881485 1.17232 3 12
-2.7302041 6.9027443 1.4428977 2 13
-2.7009013 6.8531246 1.9737542 1 15
-1.9750946 5.0502243 -1.4530102 8 0
-2.0988538 5.3749652 -1.3321601 14 1
-2.2639649 5.8097653 -1.2120188 6 2
-2.7159257 6.9731808 0.65471393 1 10
-2.4510863 6.2997026 -1.0706376 14 3
-2.6802728 6.8958716 0.90841419 1 11
-2.5748391 6.6280351 -0.87307209 17 4
-2.6778548 6.9003482 1.17232 3 12
-2.6748543 6.9033298 1.4390815 2 13
-2.6376843 6.8321648 1.9623661 1 15
-1.9384093 5.0602803 -1.4519749 8 0
-2.0584962 5.3822055 -1.3303605 11 1
-2.22475 5.8290982 -1.212782 8 2
-2.6345127 6.9063406 0.64669561 1 10
-2.3986056 6.2945099 -1.0668832 14 3
-2.6207657 6.8847313 0.90451437 1 11
-2.5186214 6.6198745 -0.86965966 17 4
-2.6296163 6.9188752 1.17232 3 12
-2.6029129 6.8594275 1.4261066 2 13
-2.5954785 6.8542566 1.6920818 3 14
-2.5769422 6.8160787 1.9525309 1 15
-1.9043918 5.0773077 -1.4530102 8 0
-2.016768 5.3854961 -1.3276612 14 1
-2.1750672 5.8205805 -1.207821 10 2
-2.5750828 6.8946996 0.64390665 1 10
-2.3532221 6.3074007 -1.0662575 14 3
-2.5767968 6.914021 0.90597677 1 11
-2.469573 6.6298556 -0.86868477 15 4
-2.5702271 6.907443 1.1673142 3 12
-2.5535941 6.8737512 1.4253433 2 13
-2.5814314 6.9635711 1.714577 3 14
-2.5219181 6.8139739 1.9468369 1 15
-1.8635726 5.0759706 -1.448869 8 0
-2.6067562 7.1079216 0.13214962 4 8
-1.9804649 5.4031029 -1.3285609 13 1
-2.1316841 5.8282466 -1.2062945 10 2
-2.5173059 6.8863125 0.64146626 1 10
-2.3043911 6.3106861 -1.0640674 13 3
-2.5080612 6.8758941 0.89866465 1 11
-2.4164286 6.6282845 -0.86624736 16 4
-2.4746287 6.7952881 1.1454133 3 12
-2.4827392 6.8286772 1.4123683 2 13
-2.4690232 6.8168836 1.9426959 1 15
-1.8274372 5.0870395 -1.4483514 9 0
-1.9341438 5.392951 -1.3227122 16 1
-2.1048346 5.8818045 -1.2143085 6 2
-2.4611206 6.8812056 0.63937455 1 10
-2.2569551 6.3173184 -1.062503 14 3
-2.4559906 6.882019 0.89720219 1 11
-2.3540936 6.6001186 -0.86039764 17 4
-2.4509919 6.8793888 1.1566767 3 12
-2.4244754 6.8162489 1.4062624 2 13
-2.4839525 6.9989352 1.714577 3 14
-2.4187913 6.8266697 1.9406252 1 15
-1.7848339 5.0796247 -1.4426575 8 0
-2.4741504 7.0492811 0.13040438 4 8
-1.8906413 5.3897729 -1.3186631 14 1
-2.0442636 5.840765 -1.20286 8 2
-2.4130208 6.8982196 0.63937455 1 10
-2.2082355 6.3198671 -1.060313 13 3
-2.3908808 6.8502665 0.89086497 1 11
-2.3027282 6.6013975 -0.85844773 21 4
-2.3873091 6.8515615 1.1491677 3 12
-2.3768332 6.8330078 1.4062624 2 13
-2.3723311 6.8315892 1.6695868 3 14
-2.3533645 6.7922792 1.9261314 1 15
-1.7461896 5.0828261 -1.4400692 10 0
-1.8592894 5.4212742 -1.3231622 14 1
-2.0044594 5.8545446 -1.20286 8 2
-2.3622246 6.9073572 0.6386773 1 10
-2.1664443 6.3384905 -1.0609387 13 3
-2.3467624 6.8738966 0.89183992 1 11
-2.2501783 6.5985241 -0.85601032 16 4
-2.3227484 6.8308487 1.4024462 2 13
-2.3245764 6.8479857 1.6695868 3 14
-2.3014963 6.7916741 1.9214727 1 15
-1.7121665 5.096426 -1.4405869 8 0
-2.3449128 6.9879341 0.12865914 4 8
-1.8149092 5.411633 -1.3177633 12 1
-1.9616693 5.8628097 -1.2017151 10 2
-2.2924056 6.8552523 0.63240206 1 10
-2.1171339 6.3384714 -1.0584357 13 3
-2.2748437 6.8185568 0.8825779 1 11
-2.2020721 6.6042719 -0.85479164 11 4
-2.2926142 6.8838253 1.1491677 3 12
-2.368407 7.1155438 -0.65610844 8 5
-2.2600977 6.7980614 1.3925241 2 13
-5.9331098 17.866802 -0.98663753 9 6
-2.2443128 6.7782316 1.9131904 1 15
-1.6729305 5.0972414 -1.437481 8 0
-2.2972932 7.0037336 0.12865914 4 8
-1.7734443 5.4130602 -1.3150638 13 1
-1.9070708 5.8312435 -1.1925563 12 2
-2.2543898 6.901392 0.63519108 1 10
-2.0727139 6.3489795 -1.0578099 13 3
-2.2333014 6.8489809 0.8845278 1 11
-2.1448462 6.5855093 -0.85040432 11 4
-2.2298076 6.8504333 1.1410331 3 12
-2.201669 6.7800641 1.385655 2 13
-2.1969335 6.7896757 1.9121553 1 15
-1.6293471 5.0809169 -1.4297165 10 0
-1.7323989 5.412015 -1.3119146 17 1
-1.8734809 5.8668571 -1.1971357 12 2
-2.1831341 6.8406529 0.62821859 1 10
-2.0271394 6.3595314 -1.0571842 13 3
-2.170979 6.8190088 0.87867808 1 11
-2.1005723 6.6018486 -0.85064811 9 4
-2.1819282 6.8658333 1.1410331 3 12
-2.1709018 6.8435478 1.3955771 2 13
-2.1343501 6.7569523 1.8986967 1 15
-1.5944154 5.0940113 -1.4302342 12 0
-2.1694481 6.9396963 0.12691391 4 8
-1.6905085 5.4109559 -1.3087653 15 1
-1.821965 5.8460546 -1.1902666 12 2
-2.1495407 6.9013829 0.63240206 1 10
-1.9738905 6.3452349 -1.0524912 14 3
-2.1268544 6.8453732 0.88014042 1 11
-2.0473678 6.5936022 -0.84772325 9 4
-2.1339426 6.880899 1.1410331 3 12
-2.1021721 6.7910204 1.3818389 2 13
-5.5017767 17.795355 -0.9761703 9 6
-2.0859876 6.7679954 1.8976613 1 15
-1.5571213 5.0994754 -1.4286813 10 0
-2.1139505 6.9317183 0.12649503 4 8
-1.6538279 5.4263544 -1.3096651 15 1
-1.7879572 5.8811731 -1.1948459 12 2
-2.0816181 6.8514047 0.62647545 1 10
-1.9421632 6.4004464 -1.0593743 11 3
-2.067498 6.8220592 0.87526566 1 11
-2.0329335 6.7122278 -0.86112887 2 4
-2.057256 6.8010907 1.1253897 3 12
-2.0524406 6.7980127 1.3803123 2 13
-2.0247846 6.7361417 1.8847204 1 15
-1.5148671 5.0880032 -1.4224695 11 0
-1.6109086 5.4209557 -1.3056159 17 1
-1.7333722 5.8442693 -1.184924 12 2
-2.014493 6.8008199 0.6205489 1 10
-1.9007976 6.4210939 -1.0606258 9 3
-2.0153856 6.8169374 0.8728283 1 11
-2.8921902 9.7952404 -1.2540357 2 4
-1.982962 6.7202058 1.1097462 3 12
-1.9905229 6.7632074 1.3703903 2 13
-5.2198267 17.746891 -0.96947134 9 6
-1.9712802 6.7238131 1.8774734 1 15
-1.4780443 5.090776 -1.4203991 11 0
-2.0248594 6.983254 0.12691391 4 8
-1.566921 5.4074626 -1.2997673 14 1
-1.6936194 5.8599997 -1.1856872 14 2
-1.9991176 6.9215655 0.6303103 1 10
-1.8466166 6.4019413 -1.055307 13 3
-1.9600556 6.8041353 0.86941594 1 11
-2.8133674 9.7727318 -1.2486733 2 4
-1.9360009 6.7338848 1.1097462 3 12
-1.9433581 6.7728257 1.3696271 2 13
-1.9179215 6.7151217 1.8712618 1 15
-1.4408909 5.0953937 -1.4188461 12 0
-1.948884 6.9009976 0.12516867 4 8
-1.5233092 5.3976398 -1.2948182 17 1
-1.6516039 5.8679013 -1.184924 12 2
-1.9226944 6.8356194 0.6212461 1 10
-1.8034804 6.420383 -1.0562457 14 3
-1.9049997 6.790895 0.86600363 1 11
-2.6979191 9.6239319 -1.2272245 2 4
-1.9027888 6.7966952 1.1178808 3 12
-1.8939142 6.7786646 1.3681006 2 13
-4.9790535 17.844971 -0.97093672 9 6
-1.8704801 6.7264853 1.8707441 1 15
-1.4063085 5.1090536 -1.4198813 12 0
-1.4845573 5.4043846 -1.2939185 16 1
-1.6043735 5.8565664 -1.1803445 12 2
-1.874926 6.8488755 0.6212461 1 10
-1.7492372 6.398519 -1.050614 14 3
-1.8512702 6.7810483 0.86307877 1 11
-2.445709 8.9645863 -1.1409409 2 4
-1.8417919 6.7602596 1.1097462 3 12
-1.8393332 6.7651982 1.3627579 2 13
-4.8281851 17.782925 -0.96570319 9 6
-1.8184258 6.7207327 1.8655677 1 15
-1.3636109 5.0926213 -1.4126344 12 0
-1.8523402 6.927536 0.12516867 4 8
-1.4467914 5.4146171 -1.2939185 16 1
-1.5594038 5.8524475 -1.1772915 14 2
-1.8168131 6.8232918 0.61775988 1 10
-1.6984333 6.3876667 -1.0468596 14 3
-1.7987902 6.7746215 0.86064136 1 11
-2.6091025 9.8333473 -1.2491609 2 4
-1.7945515 6.7729526 1.1097462 3 12
-1.7840289 6.7475057 1.356652 2 13
-1.7645838 6.7071075 1.8583208 1 15
-1.328027 5.1020164 -1.4126344 13 0
-1.8039318 6.940299 0.12516867 4 8
-1.4084677 5.422699 -1.2934686 14 1
-1.5140781 5.8460875 -1.173857 14 2
-1.7691333 6.8358097 0.61775988 1 10
-1.6617059 6.4299688 -1.0518655 14 3
-1.7415302 6.7485719 0.85576659 1 11
-1.7348999 6.7277317 -0.85308552 4 4
-1.7472236 6.785316 1.1097462 3 12
-1.7251532 6.7141609 1.3474932 2 13
-1.7464378 6.8167386 1.6245965 3 14
-1.7028838 6.661242 1.8422741 1 15
-1.2985297 5.1355119 -1.4193637 11 0
-1.7554355 6.9527235 0.12516867 4 8
-1.365806 5.4135051 -1.2889696 15 1
-1.469878 5.8431869 -1.1711857 14 2
-1.7213672 6.8479939 0.61775988 1 10
-1.6138932 6.4299164 -1.0499883 14 3
-1.6914783 6.7490125 0.85430413 1 11
-2.4667342 9.8495588 -1.2467235 2 4
-1.6998106 6.7973485 1.1097462 3 12
-1.6867927 6.7603288 1.3543624 2 13
-1.6526148 6.657968 1.8381329 1 15
-1.2525172 5.1031756 -1.4079756 17 0
-1.6830579 6.8676977 0.12342342 3 8
-1.3284454 5.4248004 -1.2894194 17 1
-1.4276493 5.8475847 -1.1700408 14 2
-1.664073 6.8211317 0.61427367 1 10
-1.5656891 6.4275928 -1.0477982 13 3
-1.6424468 6.7529407 0.85332924 1 11
-2.3913434 9.8395367 -1.2433112 2 4
-1.652318 6.8090491 1.1097462 3 12
-1.633091 6.745225 1.3490196 2 13
-1.604284 6.6618309 1.8360624 1 15
-1.2168598 5.1117959 -1.4079756 14 0
-1.6581883 6.9765563 0.12516867 4 8
-1.2873887 5.4206705 -1.2862701 15 1
-1.3809135 5.8325729 -1.1650798 14 2
-1.6136599 6.8209496 0.61322778 1 10
-1.5203266 6.4364429 -1.0474852 14 3
-1.5998188 6.7835636 0.85576659 1 11
-2.3271499 9.8753099 -1.2457485 2 4
-1.5796765 6.7297044 1.343677 2 13
-4.1708989 17.796694 -0.95795745 9 6
-1.5810977 6.7569437 1.6021013 4 14
-1.5551047 6.6615801 1.8329566 1 15
-1.1759527 5.0936079 -1.4007287 14 0
-1.5657499 6.7928205 0.12167817 3 8
-1.252211 5.4369035 -1.2880697 15 1
-1.3446919 5.8571458 -1.1681327 12 2
-1.5565054 6.7851682 0.60904431 1 10
-1.4703027 6.4196858 -1.0431051 14 3
-1.5456426 6.7594638 0.85137933 1 11
-2.2536817 9.8638306 -1.2423362 2 4
-1.5294791 6.7211571 1.3398608 2 13
-4.0381675 17.774033 -0.95523596 9 6
-1.5110005 6.6776638 1.8345095 1 15
-1.135307 5.0790696 -1.3945172 13 0
-1.2125273 5.4379053 -1.2862701 14 1
-1.305475 5.8740559 -1.1696591 10 2
-1.5021874 6.7647491 0.60625535 1 10
-1.4151911 6.3835087 -1.0355963 14 3
-1.4992728 6.7739654 0.85186678 1 11
-1.4629422 6.6152892 -0.83188021 5 4
-1.4757633 6.700994 1.3337549 2 13
-3.9139743 17.801792 -0.95523596 9 6
-1.4602162 6.669178 1.8293331 1 15
-1.1043113 5.1076422 -1.4002111 11 0
-1.471176 6.8159747 0.12171309 3 8
-1.1720691 5.4348083 -1.2835708 14 1
-1.269385 5.9060602 -1.1742386 10 2
-1.4532508 6.7672796 0.6055581 1 10
-1.3689349 6.3855066 -1.0343448 14 3
-1.4428055 6.7415624 0.84650451 1 11
-2.1203113 9.9156876 -1.2450173 3 4
-1.4248571 6.6919317 1.3299388 2 13
-3.7630315 17.70365 -0.94853693 9 6
-1.4068209 6.6470799 1.8205333 1 15
-1.0654683 5.1000981 -1.3960699 11 0
-1.1309208 5.4275951 -1.2799715 14 1
-1.2257272 5.9032445 -1.1719489 12 2
-1.4035425 6.7655554 0.60451221 1 10
-1.3243223 6.394908 -1.0343448 16 3
-1.3932943 6.7398071 0.84504211 1 11
-2.0438075 9.895256 -1.24063 2 4
-1.3796824 6.7094083 1.3314652 2 13
-1.3317224 6.4876399 -0.34709209 11 6
-1.3171116 6.4335608 -0.11462741 25 7
-1.3592207 6.6510611 1.8189803 1 15
-1.0321257 5.1187754 -1.3991758 11 0
-1.2930062 6.424171 0.11438307 48 8
-1.0937673 5.4391804 -1.2808713 14 1
-1.1875734 5.9270573 -1.1750019 10 2
-1.3515829 6.7517452 0.60242045 1 10
-1.2753904 6.382689 -1.0309032 22 3
-1.3399948 6.7182217 0.8411423 1 11
-1.2670543 6.3582945 -0.79605067 23 4
-1.3283947 6.6782885 1.0784594 4 12
-1.2672536 6.3825541 -0.56930131 57 5
-1.3213514 6.6611047 1.3200166 2 13
-1.2607939 6.3674703 -0.34018376 34 6
-1.3137648 6.6471858 1.5643097 4 14
-1.2570568 6.3660884 -0.11326612 64 7
-1.3015441 6.6035271 1.8034512 2 15
-0.99525887 5.1201673 -1.3976228 10 0
-1.2477477 6.431078 0.11434817 51 8
-1.053543 5.4352045 -1.2781719 14 1
-1.138718 5.8966517 -1.1673695 10 2
-1.3021524 6.7492776 0.60137457 1 10
-1.2240732 6.3565235 -1.0252717 24 3
-1.284817 6.684526 0.83578002 2 11
-1.2218823 6.3630862 -0.79556316 16 4
-1.2189234 6.3716755 -0.56755817 43 5
-1.2777644 6.6855941 1.3230697 2 13
-1.2237978 6.4153543 -0.3422772 11 6
-1.2797225 6.7212825 1.5796063 4 14
-1.222675 6.4277492 -0.11420855 33 7
-1.2536124 6.6029625 1.8008629 3 15
-0.86389786 4.6161904 -1.2583783 8 0
-1.1011117 5.9237595 -1.1711857 12 2
-1.2491816 6.7268624 0.59858567 1 10
-1.1865062 6.4018178 -1.0312161 14 3
-1.2381221 6.6933322 0.83578002 1 11
-1.2575123 6.8048148 -0.84967309 4 4
-1.2268012 6.6711798 1.3184903 2 13
-1.2327678 6.7300529 1.5796063 4 14
-1.2050549 6.5982504 1.7972395 1 15
-0.82480758 4.5840821 -1.2480254 13 0
-1.2324038 6.8631663 0.12171309 3 8
-1.200085 6.7236509 0.59753978 1 10
-1.1410943 6.406055 -1.0305904 11 3
-1.1851097 6.6666322 0.83139277 1 11
-1.7465895 9.8351021 -1.2264931 3 4
-1.1882459 6.7046432 1.0784594 4 12
-1.181564 6.6873155 1.3200166 2 13
-3.1179149 17.682579 -0.94100064 9 6
-1.1582935 6.6026969 1.7962043 1 15
-0.78982526 4.5725961 -1.2433668 18 0
-1.184463 6.8716021 0.12171309 3 8
-1.1537918 6.7357922 0.59788835 1 10
-1.0973424 6.4197063 -1.0315289 8 3
-1.1385357 6.6747441 0.83139277 1 11
-1.1517121 6.7590885 -0.84187353 4 4
-1.1414064 6.7127762 1.0784594 4 12
-1.1269718 6.6489468 1.3108579 2 13
-2.9850647 17.648775 -0.93806982 9 6
-1.1236255 6.6503353 1.5571113 4 14
-1.112173 6.6106224 1.7962043 1 15
-0.75788325 4.5779986 -1.2433668 16 0
-1.1259167 6.8084812 0.12045651 3 8
-0.75257266 4.5607376 -1.0671679 243 1
-1.1022217 6.7161584 0.59544802 1 10
-1.0584097 6.4562678 -1.0362221 9 3
-1.0917971 6.6745024 0.83041775 1 11
-1.0897871 6.6768422 -0.83066154 9 4
-1.0956907 6.7203894 1.0784594 4 12
-1.0824132 6.6682792 1.3131475 2 13
-2.8693395 17.696285 -0.9395352 9 6
-1.0927316 6.7542038 1.5796063 4 14
-1.0671468 6.6180396 1.7962043 1 15
-0.72488892 4.5716033 -1.240261 16 0
-0.72333616 4.5773034 -1.0698671 238 1
-1.066632 6.7650304 0.35892001 2 9
-0.72031772 4.5789328 -0.90100008 173 2
-1.0546219 6.7116961 0.59440213 1 10
-1.0139257 6.467402 -1.0368477 14 3
-1.0482415 6.7015743 0.83285517 1 11
-1.0495234 6.7174482 -0.83480507 11 4
-1.03881 6.6871324 1.3154373 2 13
-2.7304311 17.617201 -0.93430161 9 6
-1.0455549 6.7616673 1.5796063 4 14
-1.0138602 6.5795045 1.7837809 1 15
-0.69527131 4.5918322 -1.2444019 14 0
-0.69630766 4.6149993 -1.0775156 148 1
-1.0077429 6.718895 0.59440213 1 10
-0.96670377 6.4606476 -1.0346577 13 3
-0.99498576 6.6655359 0.82749295 1 11
-1.0023084 6.7226481 -0.83456135 4 4
-0.98749143 6.6631498 1.3093314 2 13
-2.5857656 17.489624 -0.92655581 9 6
-0.97071069 6.6055355 1.7889572 1 15
-0.66926438 4.6386399 -1.2557901 6 0
-0.98308253 6.8305674 0.12045651 3 8
-0.97604477 6.8069415 0.36038542 2 9
-0.96137518 6.7297115 0.59475076 1 10
-0.92659545 6.50244 -1.0402893 13 3
-0.94842404 6.6723199 0.82749295 1 11
-1.4051249 9.8976841 -1.2274681 3 4
-0.9547081 6.7418618 1.0784594 4 12
-0.93711352 6.6426644 1.3039887 2 13
-0.92349851 6.6044989 1.7868867 1 15
-0.69986814 5.1025434 -1.3800232 11 0
-0.91802865 6.7104645 0.1182226 3 8
-0.74312526 5.4390702 -1.2673743 16 1
-0.80776638 5.943099 -1.165843 12 2
-0.90954566 6.7007213 0.59161317 1 10
-0.88408941 6.5302835 -1.0437309 14 3
-0.90022546 6.666975 0.82603049 1 11
-1.3253803 9.8285608 -1.2177186 3 4
-0.90761769 6.7483625 1.0784594 4 12
-0.8855027 6.6101274 1.2963563 2 13
-0.87584603 6.5992942 1.7837809 1 15
-0.66572589 5.1187987 -1.383129 10 0
-0.88401878 6.8158641 0.11996785 3 8
-0.70738816 5.4615197 -1.2714233 18 1
-0.76424664 5.9330163 -1.1627901 10 2
-0.85918814 6.6792426 0.58917278 1 10
-0.83445644 6.5049472 -1.038725 14 3
-0.85466689 6.6809731 0.82700545 1 11
-1.2511976 9.7942543 -1.2123563 3 4
-0.84450668 6.6291242 1.0584357 4 12
-0.8462519 6.670682 1.3070416 2 13
-2.2374701 17.686569 -0.93430161 9 6
-0.82806742 6.5918307 1.7801574 1 15
-0.62761611 5.1041479 -1.3779527 11 0
-0.82541573 6.7224846 0.1182226 3 8
-0.66782409 5.4547186 -1.268724 15 1
-0.72432208 5.9419785 -1.1635534 12 2
-0.81397647 6.6969452 0.59021866 1 10
-0.78540236 6.4712563 -1.0324676 14 3
-0.80630922 6.6629872 0.82408053 1 11
-1.1863574 9.8323126 -1.2160125 4 4
-0.79936397 6.6347189 1.0584357 4 12
-0.79172605 6.6101508 1.2940667 2 13
-2.1084912 17.629997 -0.93053341 9 6
-0.78113246 6.5800486 1.7754986 1 15
-0.59419245 5.1198158 -1.3810586 10 0
-0.78398317 6.7757573 0.11906032 3 8
-0.63201869 5.4707537 -1.2714233 15 1
-0.77217203 6.7044182 0.35368642 2 9
-0.67923838 5.9156833 -1.1574475 12 2
-0.7670145 6.6904535 0.58917278 1 10
-0.74738312 6.5393853 -1.0424794 16 3
-0.75932378 6.6645098 0.82359308 1 11
-1.1174666 9.8383818 -1.2157687 3 4
-0.74501216 6.5694771 1.0471724 4 12
-0.74599576 6.6194186 1.2948298 2 13
-0.7341013 6.5757427 1.7729106 1 15
-0.55545098 5.1047316 -1.3758821 11 0
-0.7314772 6.7333531 0.1182226 3 8
-0.58991766 5.4480119 -1.2651247 17 1
-0.63960236 5.9358974 -1.1605004 10 2
-0.71997011 6.7036948 0.58987004 1 10
-0.70141017 6.5524225 -1.0437309 14 3
-0.71362519 6.6775436 0.82456803 1 11
-1.0508569 9.8656826 -1.218206 3 4
-0.69811553 6.6088467 1.291777 2 13
-0.68702757 6.5808272 1.7729106 1 15
-0.52175772 5.1277037 -1.3810586 9 0
-0.6832757 6.7384152 0.1182226 3 8
-0.55226415 5.4558754 -1.2660246 17 1
-0.67731583 6.7146645 0.35368642 2 9
-0.59357822 5.9051609 -1.1536313 10 2
-0.67195839 6.6966634 0.58882421 1 10
-0.6519112 6.519814 -1.0377864 13 3
-0.66385537 6.6627254 0.82213068 1 11
-0.98430878 9.8964825 -1.221131 3 4
-0.65206951 6.5793524 1.0471724 4 12
-0.64965189 6.5901132 1.2871976 2 13
-1.7818133 18.139685 -0.95523596 9 6
-0.63975775 6.5720038 1.7692871 1 15
-0.48412549 5.1119885 -1.3758821 10 0
-0.63739288 6.7429099 0.1182226 3 8
-0.51343066 5.4518371 -1.264225 22 1
-0.63159478 6.7191191 0.35368642 2 9
-0.55574894 5.9344749 -1.1585923 6 2
-0.62111884 6.6575484 0.58498931 1 10
-0.6045897 6.4926295 -1.0327804 13 3
-0.61335397 6.6117458 0.81530601 1 11
-0.80705583 8.7329245 -1.0768377 2 4
-0.61198741 6.6347809 1.055307 4 12
-0.60398638 6.5983982 1.2879608 2 13
-0.59100789 6.5319543 1.7573814 1 15
-0.44746095 5.0939965 -1.370188 12 0
-0.59030294 6.7471957 0.1182226 3 8
-0.47597277 5.4513226 -1.2633251 21 1
-0.58467108 6.7233648 0.35368642 2 9
-0.51142502 5.9049592 -1.1521047 12 2
-0.57510155 6.6536822 0.58429211 1 10
-0.55094647 6.4002562 -1.0174499 15 3
-0.57192802 6.6712456 0.82213068 1 11
-0.83829343 9.7983541 -1.2074816 3 4
-0.56005228 6.6140943 1.2902504 2 13
-0.54731953 6.5590224 1.763593 1 15
-0.412974 5.1104755 -1.3738115 11 0
-0.54318422 6.7511525 0.1182226 3 8
-0.4385249 5.4622827 -1.2651247 21 1
-0.46956801 5.900557 -1.1505783 12 2
-0.52737439 6.6416454 0.5828976 1 10
-0.50687653 6.4118223 -1.0187013 15 3
-0.523471 6.6513281 0.81920576 1 11
-0.77220327 9.8336515 -1.2111377 4 4
-0.51528817 6.5914755 1.0471724 4 12
-0.51112783 6.5826106 1.2833813 2 13
-0.50033486 6.5472741 1.759452 1 15
-0.37941849 5.1421332 -1.3815762 8 0
-0.49604228 6.7547798 0.1182226 3 8
-0.39952603 5.4535503 -1.2624253 21 1
-0.49074373 6.7308726 0.35368642 2 9
-0.4277918 5.8958597 -1.1490518 12 2
-0.48099726 6.645165 0.5828976 1 10
-0.4635174 6.4349089 -1.0218301 15 3
-0.47304925 6.5993805 0.81238109 1 11
-0.70451909 9.852664 -1.2128438 3 4
-0.46460679 6.5781846 1.2818549 2 13
-1.2688454 18.05463 -0.94853693 9 6
-0.46368241 6.6309605 1.5346161 4 14
-0.45354727 6.5351901 1.7553109 1 15
-0.34222579 5.125381 -1.3763998 8 0
-0.44622236 6.7181716 0.1175245 3 8
-0.36273405 5.4756513 -1.2669244 18 1
-0.44374141 6.7341347 0.35368642 2 9
-0.38867497 5.9300475 -1.1551577 10 2
-0.43459359 6.6483612 0.5828976 1 10
-0.41717216 6.4163041 -1.0183885 14 3
-0.42773709 6.6144075 0.81384355 1 11
-0.42466322 6.5847673 -0.81018746 2 4
-0.42211783 6.6172218 -0.58010858 7 5
-0.42016995 6.6047792 1.2864343 2 13
-1.1382211 17.991291 -0.94476873 9 6
-0.40731046 6.5285563 1.7527226 1 15
-0.3078185 5.1507864 -1.3826115 8 0
-0.39859504 6.709146 0.11731508 3 8
-0.32495892 5.4858313 -1.268724 16 1
-0.34680992 5.9247766 -1.1536313 10 2
-0.38630825 6.6194091 0.58010858 1 10
-0.37111244 6.3973675 -1.0149469 17 3
-0.38040671 6.5974145 0.8114062 1 11
-0.56438297 9.8179398 -1.2074816 3 4
-0.37713578 6.600821 1.0471724 4 12
-0.36415273 6.3931775 -0.56023711 6 5
-0.37116468 6.5565886 1.2765123 2 13
-0.36279407 6.5505295 1.757899 1 15
-0.27042681 5.1258011 -1.3753644 8 0
-0.3522912 6.6997228 0.11710566 3 8
-0.28624606 5.4801822 -1.2669244 14 1
-0.30565923 5.911315 -1.1505783 12 2
-0.3400898 6.6219449 0.58010858 1 10
-0.32694939 6.3879089 -1.0130697 17 3
-0.3342813 6.5760608 0.80848128 1 11
-0.49492624 9.8037968 -1.2052879 2 4
-0.3211017 6.427403 -0.56302613 6 5
-0.32732433 6.5982375 1.2841446 2 13
-0.31650788 6.5181155 1.7485816 1 15
-0.23553024 5.1275229 -1.3753644 8 0
-0.30459911 6.6820426 0.1167566 3 8
-0.24946734 5.4936838 -1.2696238 15 1
-0.2631582 5.8858466 -1.1452357 12 2
-0.29500768 6.6241064 0.58010858 1 10
-0.28130203 6.3663535 -1.0093153 17 3
-0.29045004 6.6258307 0.814331 1 11
-0.42697009 9.7791739 -1.2018756 2 4
-0.28608921 6.6053934 1.0471724 4 12
-0.28767827 6.6962218 -0.58638382 7 5
-0.28240705 6.6003127 1.2841446 2 13
-0.27123576 6.5259562 1.7501343 1 15
-0.20002833 5.136764 -1.377435 8 0
-0.25639999 6.6440415 0.1160585 3 8
-0.20983636 5.4621873 -1.2619754 14 1
-0.2567158 6.7438545 0.35368642 2 9
-0.22220883 5.8914642 -1.145999 14 2
-0.24845654 6.6180401 0.57941139 1 10
-0.23530786 6.3267083 -1.002745 24 3
-0.24155475 6.5562816 0.80555642 1 11
-0.36101592 9.845397 -1.2096752 2 4
-0.23547854 6.5785789 1.2795652 2 13
-0.23314342 6.6430631 1.5346161 4 14
-0.22507182 6.5103145 1.7454758 1 15
-0.16397946 5.1322432 -1.3758821 9 0
-0.21139909 6.6896415 0.11682641 3 8
-0.17127214 5.4498844 -1.2588261 16 1
-0.20962855 6.745482 0.35368642 2 9
-0.18119383 5.8967962 -1.1467621 14 2
-0.20249122 6.6275792 0.58010858 1 10
-0.1904774 6.306478 -0.99930352 15 3
-0.19672205 6.5895557 0.80945623 1 11
-0.29415777 9.9111729 -1.2174748 2 4
-0.19383174 6.6087441 1.0471724 4 12
-0.18515505 6.3889036 -0.55919123 6 5
-0.18897721 6.5604382 1.275749 2 13
-0.53551418 18.818546 -0.98663753 9 6
-0.17993537 6.523314 1.7485816 1 15
-0.12795036 5.1255374 -1.3738115 10 0
-0.16469145 6.6909542 0.11682641 3 8
-0.13307515 5.4451027 -1.2574763 14 1
-0.13983844 5.8900666 -1.1452357 14 2
-0.15546604 6.5969629 0.57731962 1 10
-0.14667749 6.3175282 -1.0008678 22 3
-0.1499905 6.5590153 0.80555642 1 11
-0.14943442 6.5848413 -0.808725 2 4
-0.14414012 6.5533767 -0.57348478 6 5
-0.14360353 6.5812254 1.2795652 2 13
-0.14036515 6.6456709 1.5346161 4 14
-0.14142463 6.7514906 -0.11787355 5 7
-0.13434675 6.52248 1.7480639 1 15
-0.09174753 5.1031275 -1.3676 10 0
-0.11706249 6.639957 0.11591888 3 8
-0.094853863 5.4342084 -1.254777 15 1
-0.11419916 6.6758609 0.34991825 2 9
-0.098909169 5.9026775 -1.1475254 12 2
-0.10914563 6.5819502 0.57592511 1 10
-0.10237387 6.3065472 -0.9989906 29 3
-0.10438545 6.5718122 0.80701888 1 11
-0.15446804 9.8329353 -1.2074816 3 4
-0.09629517 6.4147716 -0.56128299 6 5
-0.097246669 6.554585 1.2742226 2 13
-0.27271193 18.82419 -0.98663753 9 6
-0.093969375 6.6464887 1.5346161 4 14
-0.088495523 6.5000787 1.7418523 1 15
-0.056057453 5.0978489 -1.366047 12 0
-0.071214959 6.6886024 0.1167566 3 8
-0.057140701 5.4561739 -1.2597259 16 1
-0.057621542 5.8953719 -1.145999 14 2
-0.063154034 6.5785666 0.57557648 1 10
-0.05797793 6.267602 -0.99273324 24 3
-0.058506142 6.5723805 0.80701888 1 11
-0.085003249 9.7404766 -1.1960258 2 4
-0.055388179 6.6113539 1.0471724 4 12
-0.051090326 6.3634872 -0.55675089 6 5
-0.051176287 6.515841 1.2665902 2 13
-0.043127071 6.50247 1.7423699 1 15
-0.020497415 5.1058431 -1.3681176 12 0
-0.024353551 6.6449432 0.11598869 3 8
-0.018959595 5.4311061 -1.2538772 15 1
-0.020949429 6.6688156 0.34949955 2 9
-0.016465496 5.8956304 -1.145999 12 2
-0.017357914 6.6306496 0.58010858 1 10
-0.014229366 6.2718053 -0.99335897 24 3
-0.012567486 6.5448375 0.80360651 1 11
-0.017128021 9.8142815 -1.2050442 2 4
-0.0091622993 6.5602202 1.0390378 4 12
-0.0077546979 6.3477483 -0.55535638 6 5
-0.00571643 6.5474515 1.2726961 2 13
-0.0097519699 18.626436 -0.9761703 9 6
-0.0023232445 6.6471524 1.5346161 4 14
0.0022664089 6.4929528 1.7397816 1 15
0.015148588 5.1058617 -1.3681176 12 0
0.02083694 6.632957 0.11577927 3 8
0.018984342 5.4389009 -1.2556767 14 1
0.023586441 5.8759732 -1.1421827 14 2
0.028707128 6.5788069 0.57557648 1 10
0.028440956 6.2678056 -0.99273324 24 3
0.032024115 6.5527115 0.80458146 1 11
0.05090623 9.7228489 -1.1938322 3 4
0.036397457 6.3197546 -0.55291605 9 5
0.039948683 6.5394783 1.2711695 2 13
0.04631051 6.4715371 1.7340877 1 15
0.049865045 5.1017766 -1.3670822 12 0
0.067143202 6.6326499 0.11577927 3 8
0.056025464 5.4405942 -1.2561266 20 1
0.064351648 5.8521075 -1.1376033 12 2
0.073127873 6.5465837 0.57278752 1 10
0.072155282 6.263505 -0.99210751 28 3
0.077484071 6.5285091 0.80165666 1 11
0.11795176 9.7937346 -1.2026067 3 4
0.080694467 6.3332925 -0.55413622 15 5
0.084711097 6.5586858 1.2749858 2 13
0.091762334 6.4903727 1.739264 1 15
0.085642777 5.1109619 -1.3696705 10 0
0.11412704 6.6720076 0.11647736 3 8
0.094006613 5.4400706 -1.2561266 15 1
0.11768819 6.6758003 0.34991825 2 9
0.10432043 5.8024421 -1.1280628 14 2
0.11876065 6.5419292 0.5724389 1 10
0.11580496 6.2588978 -0.99148178 29 3
0.12320942 6.535748 0.80263156 1 11
0.18654396 9.8045816 -1.2040691 3 4
0.127083 6.5589957 1.0390378 4 12
0.1240458 6.2887502 -0.55030131 15 5
0.12893492 6.4794202 1.259721 2 13
0.13633406 6.4548092 1.7299466 1 15
0.1211361 5.1025147 -1.3676 11 0
0.1600326 6.6430607 0.11598869 3 8
0.13216968 5.4470744 -1.2579263 14 1
0.16114904 6.547029 0.34321922 2 9
0.14497355 5.8074608 -1.1292077 14 2
0.16532715 6.5767922 0.57557648 1 10
0.15929615 6.2500377 -0.99023032 26 3
0.16893707 6.5386972 0.803119 1 11
0.25431728 9.7772427 -1.2009006 2 4
0.1708923 6.4829102 1.0271488 4 12
0.16610628 6.2598767 -0.54786098 18 5
0.17511949 6.5136881 1.2665902 2 13
0.1816109 6.4614244 1.7320172 1 15
0.15711141 5.1131301 -1.3707057 10 0
0.20462607 6.6218305 0.11563965 3 8
0.16958807 5.4265409 -1.2534273 15 1
0.20884639 6.6455946 0.34845284 2 9
0.18499921 5.8220372 -1.1322607 10 2
0.21072602 6.5595469 0.57418203 1 10
0.20170766 6.2448602 -0.98960453 26 3
0.21292254 6.5215235 0.80116916 1 11
0.32158703 9.7454691 -1.1972445 3 4
0.21685001 6.5368767 1.0359092 4 12
0.20953742 6.2505999 -0.54716372 18 5
0.21885823 6.4612913 1.2566681 2 13
0.63040781 18.515846 -0.97093672 9 6
0.22545345 6.4561768 1.7309818 1 15
0.19205675 5.1158032 -1.3717409 10 0
0.25115302 6.6282334 0.11577927 3 8
0.20659563 5.4272084 -1.2538772 14 1
0.22647676 5.8421836 -1.1364584 14 2
0.25474733 6.5420346 0.57278752 1 10
0.24545519 6.2472472 -0.99023032 24 3
0.26001871 6.5595489 0.80604392 1 11
0.38649353 9.7073507 -1.1928571 3 4
0.25373426 6.2629194 -0.54838395 28 5
0.26347238 6.4753447 1.259721 2 13
0.27100596 6.4660263 1.7340877 1 15
0.22785307 5.1162677 -1.3722585 8 0
0.29616854 6.598351 0.1152906 3 8
0.2436876 5.408113 -1.2498281 14 1
0.29708365 6.5422707 0.34321922 2 9
0.26689839 5.8326154 -1.134932 14 2
0.3005991 6.5440764 0.57313615 1 10
0.28888056 6.2414351 -0.98960453 26 3
0.30543363 6.5496426 0.80506897 1 11
0.45184091 9.6528597 -1.18652 3 4
0.29735696 6.2590055 -0.54820961 37 5
0.3086693 6.4733477 1.259721 2 13
0.3155745 6.4523993 1.7309818 1 15
0.26187563 5.0817537 -1.3634588 11 0
0.34429869 6.6360626 0.11598869 3 8
0.28285575 5.4335251 -1.2561266 14 1
0.30771187 5.8325706 -1.1353136 12 2
0.3448036 6.5139637 0.57069582 1 10
0.33244398 6.2392664 -0.98960453 26 3
0.34796506 6.4878831 0.79775679 1 11
0.52369463 9.7327242 -1.1967571 3 4
0.35006949 6.4638371 1.0252717 4 12
0.33811334 6.2230163 -0.54524636 31 5
0.35299978 6.4553523 1.2566681 2 13
0.35963944 6.4326801 1.7263231 1 15
0.29689744 5.0720878 -1.3613882 16 0
0.38828591 6.6136031 0.11563965 3 8
0.32009521 5.4197459 -1.2534273 14 1
0.34740865 5.8303409 -1.1353136 14 2
0.3881225 6.4755993 0.56755817 1 10
0.37467164 6.2329154 -0.98897886 26 3
0.3928344 6.4972525 0.79921919 1 11
0.59428 9.7724228 -1.2021192 3 4
0.40247375 6.5993247 1.0471724 4 12
0.38301364 6.2443671 -0.54733807 40 5
0.39854154 6.4605689 1.2581946 2 13
0.40511364 6.4570756 1.7335701 1 15
0.33216888 5.0815158 -1.3644941 16 0
0.43575943 6.6306849 0.11598869 3 8
0.35595125 5.4018855 -1.2498281 15 1
0.43289012 6.5346894 0.34321922 2 9
0.38810086 5.8277736 -1.1353136 10 2
0.4353804 6.5205188 0.5717417 1 10
0.41764426 6.2222638 -0.98772728 26 3
0.4365806 6.4705849 0.79629439 1 11
0.66356915 9.7838802 -1.2040691 3 4
0.42578605 6.2296147 -0.54629219 31 5
0.44443941 6.4693813 1.2604843 2 13
1.2702523 18.44294 -0.96884334 9 6
0.44789037 6.4374552 -0.11263783 4 7
0.4487009 6.4328909 1.7278759 1 15
0.36852288 5.0790086 -1.3644941 14 0
0.47681749 6.5556817 0.11473212 3 8
0.39488128 5.4030871 -1.2507279 15 1
0.47963709 6.531425 0.34321922 2 9
0.42964169 5.8366694 -1.1376033 10 2
0.47849888 6.4695492 0.56755817 1 10
0.46245185 6.2230558 -0.98835307 22 3
0.48469231 6.5069718 0.80116916 1 11
0.72607487 9.7018061 -1.1945634 2 4
0.47016203 6.2384109 -0.54733807 40 5
0.48722169 6.4347987 1.2543784 2 13
1.3976498 18.373632 -0.96570319 9 6
0.49664885 6.4545555 1.7346053 1 15
0.40550458 5.0955701 -1.3696705 10 0
0.5294525 6.6238618 0.11598869 3 8
0.43259227 5.4001989 -1.2507279 14 1
0.47297829 5.8530149 -1.1414195 10 2
0.52719134 6.5097404 0.57139301 1 10
0.50652629 6.2275515 -0.98960453 21 3
0.52801031 6.4637666 0.79629439 1 11
0.79135913 9.6668243 -1.1909074 3 4
0.54174238 6.589354 1.0471724 4 12
0.51353925 6.2329912 -0.54716372 34 5
0.53375208 6.4508057 1.2581946 2 13
0.53862673 6.4143548 1.7247702 1 15
0.4385657 5.0637455 -1.3619058 12 0
0.57279867 6.6001825 0.11563965 3 8
0.469603 5.3892817 -1.2489282 14 1
0.51383346 5.8613944 -1.1437092 10 2
0.56948072 6.4701767 0.56825542 1 10
0.54786301 6.2121525 -0.98772728 21 3
0.57479697 6.4916606 0.8001942 1 11
0.85021412 9.5641766 -1.1789641 2 4
0.55562156 6.2133784 -0.54576921 37 5
0.57912534 6.4508333 1.2589579 2 13
0.57358193 6.3270869 -0.11089259 4 7
0.58367652 6.425931 1.7289113 1 15
0.47284606 5.0587192 -1.3613882 10 0
0.61400276 6.5442581 0.11473212 3 8
0.50737274 5.3976011 -1.2516277 15 1
0.61517584 6.5200553 0.34321922 2 9
0.55548441 5.8654819 -1.1452357 10 2
0.61501116 6.4820185 0.56964993 1 10
0.5904696 6.2003107 -0.98647583 26 3
0.62123662 6.4993467 0.80165666 1 11
0.91491735 9.5542154 -1.1784766 2 4
0.59809291 6.2114358 -0.54594356 40 5
0.62188828 6.4350166 1.2566681 2 13
1.7789339 18.340643 -0.96570319 9 6
0.62168533 6.3747821 -0.11180011 4 7
0.62701523 6.4063191 1.7247702 1 15
0.50892144 5.0629835 -1.3634588 9 0
0.66574949 6.6115537 0.11598869 3 8
0.54543197 5.3978062 -1.2525275 16 1
0.65954536 6.5157166 0.34321922 2 9
0.58725953 5.7814837 -1.1295893 14 2
0.66550517 6.5291018 0.57418203 1 10
0.63225591 6.1922178 -0.98585016 28 3
0.66222471 6.4633713 0.79775679 1 11
0.98849869 9.6147346 -1.1867638 2 4
0.66720778 6.4785509 1.0315289 4 12
0.6410327 6.203145 -0.54559493 40 5
0.66638994 6.4266129 1.2559049 2 13
1.903725 18.32811 -0.96570319 9 6
0.67422688 6.4364867 1.7340877 1 15
0.54363549 5.053545 -1.3619058 12 0
0.58268356 5.3899913 -1.2516277 15 1
0.63392514 5.8259268 -1.1391298 10 2
0.70891201 6.5044899 0.5724389 1 10
0.6782679 6.2032442 -0.98835307 14 3
0.71061999 6.4781995 0.8001942 1 11
1.0514743 9.5701084 -1.1821327 3 4
0.6827898 6.1846561 -0.54437476 42 5
0.71124297 6.4218035 1.2559049 2 13
0.71553791 6.3892608 1.7226996 1 15
0.57846498 5.0457878 -1.3608706 12 0
0.75662529 6.5896945 0.11577927 3 8
0.62030119 5.3857918 -1.2516277 15 1
0.75045228 6.5058727 0.34321922 2 9
0.67582566 5.8409791 -1.1429459 10 2
0.75108588 6.4716749 0.56999856 1 10
0.71660209 6.1651268 -0.98303431 20 3
0.75102121 6.4416647 0.79629439 1 11
1.1145716 9.5309877 -1.1782329 3 4
0.76908422 6.5667024 1.0471724 4 12
0.72780985 6.195569 -0.54576921 50 5
0.76065296 6.455677 1.2635372 2 13
0.74892139 6.3087354 -0.11089259 4 7
0.76129544 6.4034247 1.7278759 1 15
0.61302793 5.0436516 -1.3613882 9 0
0.79511058 6.5227165 0.11469722 3 8
0.65552735 5.3698387 -1.2489282 19 1
0.71132034 5.7932491 -1.1345503 10 2
0.79755145 6.4861879 0.5717417 1 10
0.76107299 6.1717372 -0.98491156 21 3
0.79743612 6.4480853 0.79775679 1 11
1.1764934 9.4995394 -1.175308 3 4
0.80273598 6.4631577 1.0315289 4 12
0.76957071 6.1784739 -0.54472339 48 5
0.79922885 6.4074912 1.2551417 2 13
0.79932368 6.3630147 -0.11193974 4 7
0.80235946 6.3692036 1.7201115 1 15
0.64921021 5.0469127 -1.3634588 10 0
0.84062839 6.5170069 0.11469722 3 8
0.69250065 5.3612661 -1.2480285 17 1
0.75351751 5.8017707 -1.1372217 14 2
0.83510548 6.4211888 0.56651235 1 10
0.80516315 6.174109 -0.98616302 19 3
0.83831453 6.4108677 0.79385698 1 11
1.2505159 9.5501432 -1.1826202 3 4
0.81164551 6.1650491 -0.54402614 45 5
0.84342885 6.3978624 1.2543784 2 13
0.84267396 6.3493495 -0.11180011 4 7
0.85317302 6.4113212 1.7330524 1 15
0.68364656 5.0365152 -1.3619058 12 0
0.7314887 5.367887 -1.2507279 15 1
0.79000652 5.7671919 -1.1314974 10 2
0.88857716 6.4783673 0.57209027 1 10
0.84717035 6.1605091 -0.98491156 19 3
0.88305342 6.4048581 0.79385698 1 11
1.3101001 9.4900532 -1.176283 3 4
0.8544085 6.1653028 -0.54454905 39 5
0.8880769 6.391818 1.2543784 2 13
2.5146484 18.052689 -0.95523596 9 6
0.8869772 6.3433123 -0.11180011 4 7
0.89147502 6.3592935 1.7206291 1 15
0.71770096 5.0239697 -1.3598353 13 0
0.93606323 6.5443883 0.11539531 3 8
0.76894838 5.362649 -1.2507279 14 1
0.93068141 6.4825449 0.34321922 2 9
0.82644755 5.742249 -1.1276813 10 2
0.93719721 6.4956698 0.57418203 1 10
0.8890841 6.1545997 -0.98491156 17 3
0.93402362 6.449779 0.8001942 1 11
1.3780278 9.4924631 -1.1777455 3 4
0.89886898 6.1690459 -0.54542065 43 5
0.9355129 6.4048886 1.2581946 2 13
0.92368108 6.2855258 -0.11089259 4 7
0.93586564 6.360723 1.7226996 1 15
0.75302392 5.0266104 -1.3619058 15 0
0.96807212 6.4467278 0.11378969 3 8
0.80427152 5.3495822 -1.2489282 15 1
0.86592937 5.7324567 -1.126918 12 2
0.97364402 6.4379201 0.56964993 1 10
0.93202966 6.1482434 -0.98491156 19 3
0.97425437 6.4117002 0.79629439 1 11
1.4415785 9.4649487 -1.1755519 2 4
0.94131017 6.1586809 -0.54507202 43 5
0.98079932 6.4020834 1.2589579 2 13
2.7826951 18.142649 -0.96193498 9 6
0.96753979 6.278924 -0.11089259 4 7
0.98672903 6.3960385 1.7340877 1 15
0.78807461 5.015368 -1.3603529 14 0
1.0211347 6.4911728 0.11469722 3 8
0.84404916 5.3533149 -1.2511778 14 1
0.90960705 5.7495413 -1.1314974 12 2
1.0228049 6.4504662 0.57139301 1 10
0.97538149 6.1375141 -0.98428577 21 3
1.0189958 6.4047422 0.79629439 1 11
1.5116848 9.4801378 -1.1787205 3 4
0.98333859 6.1460571 -0.54454905 39 5
1.0217403 6.3718176 1.2543784 2 13
1.0113513 6.2720165 -0.11089259 4 7
1.0269253 6.354486 1.7247702 1 15
0.8243221 5.0173693 -1.3624235 15 0
1.0675584 6.4836993 0.11469722 3 8
0.87981707 5.337678 -1.2489282 16 1
0.94944674 5.7351379 -1.1299709 10 2
1.0632553 6.4156504 0.56895268 1 10
1.0162637 6.1188631 -0.98240852 22 3
1.0700127 6.4286175 0.8001942 1 11
1.5755479 9.4556465 -1.1770141 2 4
1.0288502 6.1547642 -0.54594356 40 5
