# .PCD v0.7 - Point Cloud Data file format
VERSION 0.7
FIELDS x y z intensity ring
SIZE 4 4 4 4 2
TYPE F F F F U
COUNT 1 1 1 1 1
WIDTH 1299
HEIGHT 1
VIEWPOINT 0 0 0 1 0 0 0
POINTS 1299
DATA ascii
6.8079796 -12.9563 -2.8449624 4 2
20.645657 -39.324181 3.8857517 1 10
9.0792751 -17.300806 -3.0945871 10 3
21.758049 -41.495747 5.7529645 0 11
14.825199 -28.297813 -3.922487 7 4
5.6047406 -10.702673 1.9135066 7 12
5.4774184 -10.477336 2.2981036 22 13
6.5904703 -12.622499 3.2874346 2 14
6.0524998 -11.606951 3.5075159 7 15
3.8100221 -7.3534169 -2.2191145 7 0
5.4067478 -10.448521 -2.716059 13 1
18.889565 -36.535252 2.1555088 0 9
6.7561083 -13.078515 -2.8613718 8 2
20.061226 -38.851269 3.8254397 0 10
8.9238548 -17.29706 -3.0826981 13 3
18.651896 -36.183857 4.9983497 0 11
14.644967 -28.422775 -3.9258993 7 4
5.6799774 -11.033087 1.9654428 4 12
5.4876666 -10.673262 2.3328309 11 13
6.1391277 -11.960848 3.1038747 2 14
5.5333414 -10.794507 3.2502496 0 15
3.7594695 -7.3815584 -2.2196321 6 0
5.328372 -10.47559 -2.7133596 16 1
19.819427 -38.998718 2.2926292 0 9
6.7081928 -13.211139 -2.8800712 11 2
19.858036 -39.125404 3.8386874 1 10
8.7894812 -17.33251 -3.0780048 12 3
18.345001 -36.206944 4.9837251 1 11
5.6835837 -11.222364 -1.5445722 3 4
5.4387069 -10.748159 1.9078751 10 12
5.4502106 -10.784905 2.3488588 6 13
6.0879521 -12.067792 3.1205211 8 14
5.4926167 -10.901883 3.2709551 5 15
3.7225449 -7.4369926 -2.2284322 5 0
5.235939 -10.474186 -2.7034619 18 1
19.06299 -38.167686 2.2358968 0 9
6.5710921 -13.168057 -2.8606086 8 2
18.961891 -38.015049 3.7166693 1 10
8.728179 -17.513674 -3.0992799 6 3
18.115673 -36.382111 4.9903064 2 11
13.527595 -27.179661 -3.7277398 6 4
5.9493241 -11.963857 2.1162457 12 12
5.5223632 -11.119854 2.4133523 9 13
14.824363 -29.876572 -1.7479165 8 6
5.9646053 -12.03143 3.1002755 2 14
5.4712315 -11.050766 3.3040841 15 15
3.682472 -7.4870687 -2.2356789 7 0
5.1386318 -10.461509 -2.6908646 12 1
17.847511 -36.367008 2.1230607 0 9
6.450479 -13.15544 -2.8480153 11 2
18.568016 -37.8853 3.6912198 1 10
8.6508732 -17.666431 -3.1155491 12 3
18.460569 -37.7327 5.1577549 1 11
13.909601 -28.443266 -3.8876324 11 4
5.4892964 -11.234813 1.9804606 13 12
6.061893 -12.423219 2.6869724 1 13
14.515648 -29.774675 -1.7359838 16 6
5.8958254 -12.104313 3.1083736 19 14
5.4995813 -11.305845 3.368789 30 15
3.6259098 -7.5038972 -2.2330909 6 0
5.0586967 -10.483087 -2.6872652 12 1
6.3559256 -13.194847 -2.8468704 9 2
18.238251 -37.879368 3.6781466 1 10
8.5144854 -17.699696 -3.1108563 10 3
18.129622 -37.721104 5.1387429 1 11
5.3837028 -11.206522 -1.5265356 1 4
5.583395 -11.632596 2.0436602 1 12
5.5778699 -11.636698 2.5083752 3 13
5.7661777 -12.045732 3.083179 6 14
5.401361 -11.303873 3.356883 16 15
3.5742624 -7.5307727 -2.2336085 7 0
4.9737024 -10.493494 -2.6809666 12 1
16.986954 -35.855164 2.0793078 0 9
6.2886415 -13.285715 -2.8571742 4 2
17.620729 -37.260098 3.6059816 1 10
8.3912773 -17.751883 -3.1099176 12 3
17.992817 -38.098522 5.1733541 1 11
5.2926297 -11.216904 -1.5228794 2 4
5.3271322 -11.295137 1.9779577 12 12
5.8477082 -12.421385 2.6686549 1 13
5.6156144 -11.944608 3.0471869 12 14
5.4055748 -11.513498 3.4081292 15 15
3.5237367 -7.5566783 -2.2341261 6 0
4.8955798 -10.512973 -2.6773674 12 1
16.493589 -35.451351 2.0491624 1 9
6.1634645 -13.259861 -2.8422909 9 2
5.7841415 -12.449487 1.2010062 1 10
8.2396955 -17.750906 -3.0995929 13 3
17.721401 -38.212402 5.1718917 1 11
13.981269 -30.161407 -4.0818925 6 4
5.3012772 -11.44677 1.9979812 12 12
5.7267618 -12.382498 2.6518636 5 13
5.3189073 -11.521731 2.9297624 11 14
5.366312 -11.640429 3.4345288 14 15
3.4797413 -7.6004162 -2.23982 7 0
4.8188257 -10.539806 -2.6755679 11 1
16.195902 -35.456627 2.0428817 0 9
6.0430303 -13.241841 -2.8293159 11 2
5.7169333 -12.533069 1.2051896 13 10
8.1139336 -17.804401 -3.0989671 9 3
5.660131 -12.43152 1.6771661 1 11
13.885481 -30.511227 -4.1160154 2 4
19.053503 -41.905964 7.2910981 1 12
13.738351 -30.286026 -1.7428923 8 6
5.4378366 -11.998775 3.0413382 4 14
5.6075063 -12.390411 3.6441724 23 15
3.4281812 -7.628047 -2.2408552 7 0
5.5869756 -12.443199 0.23808572 18 8
4.7259779 -10.53052 -2.6647701 14 1
5.5295358 -12.332546 0.7083149 24 9
5.0459146 -11.264454 -2.3992324 3 2
5.5071697 -12.299909 1.1790429 18 10
4.9985404 -11.174377 -1.9388491 2 3
5.0059099 -11.20659 -1.5070363 3 4
5.6156526 -12.60112 2.6816299 27 13
5.4590483 -12.261225 -0.70339531 17 6
5.5913548 -12.56429 3.1749592 17 14
5.4617171 -12.284524 -0.23466507 20 7
4.5868707 -10.326523 3.0276654 13 15
3.3678277 -7.6358867 -2.2361965 6 0
5.4021254 -12.254047 0.23375754 36 8
4.6444921 -10.545422 -2.6602712 13 1
5.4164929 -12.304091 0.70454675 34 9
5.3279552 -12.114434 -2.5724869 19 2
5.4203644 -12.336233 1.1788685 20 10
4.9175987 -11.19729 -1.9369718 1 3
5.3940763 -12.293877 1.648405 20 11
5.3499355 -12.204854 -1.636218 19 4
5.4460931 -12.430115 2.1494098 22 12
5.347209 -12.216025 -1.1666667 29 5
5.2923455 -12.102183 2.5675259 23 13
5.3402667 -12.217575 -0.69878972 35 6
5.5066242 -12.610162 3.1767588 6 14
5.3486347 -12.260037 -0.23347829 49 7
4.5597172 -10.45667 3.056653 13 15
3.3288231 -7.6887717 -2.2449965 7 0
5.327558 -12.317158 0.23424621 54 8
4.5633259 -10.555327 -2.6548724 15 1
5.3138337 -12.303102 0.70234865 22 9
5.2370296 -12.136914 -2.5694342 22 2
5.3283792 -12.354546 1.1771255 22 10
5.2551556 -12.196471 -2.1034181 18 3
5.3206758 -12.360408 1.6523046 17 11
5.3357787 -12.413386 2.1400237 28 12
5.2586503 -12.245734 -1.1659695 29 5
5.2896051 -12.323748 2.6068327 30 13
5.2493324 -12.24171 -0.69805706 52 6
4.8766861 -11.383649 2.859128 17 14
5.2666349 -12.299836 -0.2335481 59 7
4.3619976 -10.196957 2.9717603 37 15
3.2811053 -7.7260494 -2.2491376 7 0
5.243 -12.357732 0.23431601 54 8
4.4727864 -10.547457 -2.6449745 13 1
5.2317071 -12.349093 0.70287192 30 9
4.7335997 -11.184212 -2.3606889 3 2
5.2621813 -12.439153 1.1816576 29 10
5.1891046 -12.278351 -2.1112397 16 3
5.2828979 -12.512465 1.6676602 34 11
4.7111206 -11.163651 -1.487781 2 4
5.3502831 -12.690605 2.1813223 24 12
5.2349033 -12.429042 -1.1799145 20 5
5.1554508 -12.24638 2.5827906 18 13
5.1978135 -12.359065 -0.70266259 26 6
4.2536006 -10.12386 2.5351985 23 14
5.2054143 -12.395304 -0.23466507 30 7
4.2630515 -10.161249 2.9526079 16 15
3.2308009 -7.7576842 -2.2517259 6 0
5.2165165 -12.538043 0.23703858 18 8
4.3810844 -10.535242 -2.634177 12 1
5.2059021 -12.531025 0.71114105 22 9
4.6162715 -11.122694 -2.3408449 3 2
5.0668058 -12.21426 1.1569053 28 10
7.6019502 -18.343676 -3.1449587 8 3
5.1756744 -12.501354 1.6613231 60 11
4.6277556 -11.18343 -1.4860748 3 4
5.3483448 -12.937585 2.2173023 21 12
4.097456 -9.9461002 2.4834597 12 14
5.1811881 -12.582965 -0.23752725 20 7
4.1986232 -10.206842 2.9572666 15 15
3.181675 -7.7925701 -2.2553494 7 0
4.3015418 -10.551134 -2.6305776 14 1
15.146203 -37.18882 2.104429 0 9
5.5432839 -13.624167 -2.8590822 11 2
5.1735535 -12.721811 1.201529 34 10
7.4974966 -18.454865 -3.1549706 13 3
12.178698 -30.02257 -3.9780595 7 4
5.0494184 -12.460162 2.1293862 28 12
4.6400633 -11.467269 2.4045751 8 13
4.0651331 -10.066618 2.5064046 17 14
4.1185946 -10.214405 2.9510548 15 15
3.1307855 -7.8235593 -2.2579374 6 0
4.216207 -10.551954 -2.6233792 14 1
4.1937561 -10.506403 0.59286177 20 9
5.4407625 -13.644299 -2.8552659 13 2
7.3816266 -18.539789 -3.1606023 13 3
5.3381066 -13.420888 1.7734429 15 11
11.924805 -29.996183 -3.9634354 7 4
5.5601759 -14.000545 2.3859386 4 12
4.9586411 -12.504962 2.6148465 15 13
14.038243 -35.438484 -1.9976636 2 6
4.7182021 -11.916819 2.9590061 16 14
4.028728 -10.196196 2.9375963 37 15
3.0838478 -7.8650093 -2.2636313 7 0
4.1324954 -10.555726 -2.6170807 15 1
4.1075883 -10.497507 0.59076834 12 9
5.028985 -12.865495 -2.6850643 3 2
4.1163521 -10.541584 0.99008924 7 10
7.2466431 -18.567522 -3.1568477 8 3
5.1427951 -13.190585 1.7383444 9 11
11.803714 -30.306219 -3.9934149 10 4
5.4382353 -13.969957 2.3743625 6 12
4.6984658 -12.094581 2.5221133 3 13
13.741756 -35.391716 -1.9897085 4 6
3.8167229 -9.8400965 2.4366698 11 14
3.9271383 -10.140514 2.913785 12 15
3.028163 -7.8804083 -2.2620785 6 0
4.02386 -10.482512 0.19599053 12 8
4.0437942 -10.539945 -2.6062829 15 1
4.0484986 -10.563227 0.59286177 12 9
5.2612491 -13.741851 -2.8602271 11 2
4.0907874 -10.69031 1.0014194 10 10
7.1274214 -18.64534 -3.161541 6 3
4.0974016 -10.730034 1.4102721 3 11
11.498767 -30.128069 -3.9595354 7 4
5.8141818 -15.249789 2.5849233 13 12
4.596477 -12.074907 2.5114281 5 13
13.600825 -35.766815 -2.0054092 2 6
3.7790732 -9.9484806 2.4569156 15 14
3.8569348 -10.169488 2.9143026 18 15
2.9853196 -7.9339018 -2.2713959 6 0
3.9449513 -10.495374 0.19571128 12 8
3.9550381 -10.527783 -2.596385 12 1
4.0300927 -10.738957 0.6011309 14 9
5.1644955 -13.776408 -2.8598454 11 2
3.9510438 -10.545097 0.98520851 13 10
7.0095444 -18.727942 -3.1671724 11 3
5.1493015 -13.772434 1.8053726 5 11
11.328456 -30.315464 -3.9736724 7 4
4.0544381 -10.861422 1.836228 9 12
4.1726842 -11.196079 2.3225272 14 13
13.237907 -35.557674 -1.9884526 2 6
3.7570779 -10.102476 2.4884086 12 14
3.8174503 -10.281286 2.9386315 14 15
2.9338639 -7.9654269 -2.2745018 6 0
3.8733728 -10.533191 -2.5909863 15 1
4.0114927 -10.920563 0.60971397 6 9
5.1155334 -13.941143 -2.8865585 13 2
3.852632 -10.505082 0.97893327 14 10
6.8854227 -18.794971 -3.1703012 14 3
4.0631609 -11.103109 1.4517077 15 11
4.0796337 -11.154154 -1.4582887 3 4
4.6523323 -12.733749 2.1472197 6 12
4.4846201 -12.294681 2.5438657 9 13
3.6677957 -10.077186 2.4758112 19 14
3.8181565 -10.507412 2.9955716 15 15
2.8853886 -8.0057068 -2.280196 7 0
3.9470518 -10.963354 0.20339034 13 8
3.7878668 -10.52697 -2.5828879 13 1
3.9824476 -11.079868 0.61704099 14 9
5.0300241 -14.009776 -2.8934276 13 2
3.7630486 -10.486715 0.97474986 16 10
6.762042 -18.864895 -3.1740556 14 3
3.8911967 -10.867688 1.4173405 13 11
3.9869504 -11.141244 -1.4529265 3 4
5.1537662 -14.417693 2.4250474 9 12
3.6548803 -10.264098 2.5154026 19 14
4.1006074 -11.534952 3.2802727 14 15
2.837137 -8.0475187 -2.2864075 7 0
3.7052245 -10.527422 -2.5765893 14 1
3.9261956 -11.167695 0.62039047 2 9
4.9262409 -14.027882 -2.8899932 9 2
3.7577102 -10.706366 0.99270386 14 10
6.6406326 -18.941471 -3.1790614 14 3
10.656996 -30.448633 -3.9609978 5 4
5.012569 -14.337709 2.4056494 4 12
4.2439466 -12.159616 2.5034142 14 13
3.7433562 -10.74945 2.6278782 15 14
3.9501977 -11.362578 3.2233324 13 15
2.7928486 -8.1018305 -2.2962427 6 0
3.6164212 -10.508807 -2.5657916 15 1
12.413109 -36.111694 2.0012226 1 9
4.8511405 -14.128776 -2.9037313 9 2
3.5955718 -10.477929 0.96917188 4 10
6.5088749 -18.989239 -3.1793745 13 3
3.708858 -10.832689 1.4058849 20 11
10.550849 -30.834068 -4.0014586 7 4
4.9436564 -14.463946 2.42098 10 12
4.1044316 -12.029153 2.4705951 11 13
3.727881 -10.950576 2.670619 11 14
3.7999151 -11.18136 3.1643219 60 15
2.7479386 -8.1559143 -2.306078 9 0
3.5479393 -10.548576 -2.569391 15 1
12.231936 -36.409523 2.0129457 2 9
4.7623801 -14.19208 -2.9098375 9 2
4.9319019 -14.705773 1.3570149 4 10
6.4244647 -19.178442 -3.2034652 11 3
3.6287336 -10.84514 1.4041786 11 11
10.357991 -30.974747 -4.0102329 7 4
4.7486877 -14.217063 2.3740497 3 12
3.9948921 -11.981152 2.4549487 8 13
3.7357249 -11.223462 2.7309058 8 14
3.7643797 -11.335954 3.2005563 9 15
2.7102613 -8.2336197 -2.3226421 7 0
3.4717762 -10.565682 -2.5675914 14 1
4.6730103 -14.246553 -2.9144168 11 2
3.773968 -11.519232 1.060511 16 10
6.2993035 -19.238623 -3.2062812 14 3
3.5116355 -10.737516 1.387117 5 11
10.130408 -31.012341 -4.005846 7 4
3.6666374 -11.231366 1.8712693 15 12
3.5706809 -10.963375 2.2412426 6 13
3.9639626 -12.192577 2.9599061 5 14
3.6024528 -11.100389 3.1270518 12 15
2.6636193 -8.2813025 -2.3309245 6 0
3.4057362 -10.607624 -2.5720904 15 1
4.5776286 -14.291917 -2.917088 11 2
3.4033093 -10.631936 0.97666723 4 10
6.1931129 -19.370564 -3.2209859 15 3
9.9383907 -31.141088 -4.0136452 4 4
3.6199358 -11.356441 1.8878514 24 12
3.8269382 -12.027612 2.4534223 8 13
13.04775 -41.081959 9.9513845 1 14
3.5231187 -11.119742 3.1254988 11 15
2.6207855 -8.3476171 -2.344383 8 0
3.3269358 -10.616265 -2.568491 11 1
13.4327 -42.890026 2.3554323 0 9
4.4837584 -14.333987 -2.9193778 11 2
4.7781243 -15.293775 1.401813 1 10
6.0157871 -19.267078 -3.1968951 13 3
3.3455269 -10.728061 1.3798048 15 11
9.7142525 -31.188864 -4.0109644 4 4
3.4638796 -11.128078 1.8459269 25 12
3.6858237 -11.870291 2.4160237 3 13
3.7366335 -12.05621 2.914016 12 14
4.0337052 -13.038853 3.6571133 8 15
2.5706987 -8.3874283 -2.3505948 8 0
3.2545974 -10.638664 -2.568491 15 1
11.086812 -36.285988 1.9884526 3 9
4.3772759 -14.344285 -2.91518 9 2
3.51735 -11.533526 1.0549332 11 10
5.8886137 -19.333174 -3.2009625 14 3
3.381474 -11.115794 1.4266026 15 11
9.4965363 -31.237173 -4.0087705 7 4
3.3763504 -11.119856 1.8406081 16 12
3.9602633 -13.100495 3.1596625 15 14
3.6289594 -12.027277 3.3662007 0 15
2.5198255 -8.4310837 -2.3578417 8 0
3.1880445 -10.68727 -2.5747898 15 1
10.963242 -36.798916 2.0123177 1 9
4.2893467 -14.415891 -2.9235756 9 2
13.58571 -45.688831 4.170228 0 10
5.7619362 -19.402216 -3.2056553 14 3
3.5002239 -11.801426 1.5114237 22 11
9.2985363 -31.371227 -4.0175452 7 4
3.3115339 -11.186721 1.8478041 6 12
3.4823136 -11.786302 2.3889287 23 13
12.374945 -41.938328 -2.2915823 0 6
3.578954 -12.144592 2.9230139 13 14
3.8834233 -13.203248 3.687654 2 15
2.4630649 -8.4558887 -2.3599122 10 0
3.1155319 -10.716752 -2.5765893 15 1
10.625884 -36.598362 1.997245 1 9
4.1705575 -14.38326 -2.9109821 11 2
11.935005 -41.187847 3.7517059 2 10
5.6203027 -19.421095 -3.202214 11 3
4.2422862 -14.678511 1.8760569 15 11
9.0572672 -31.359089 -4.0077953 7 4
3.2278821 -11.190587 1.8446754 21 12
3.4352493 -11.932957 2.413734 17 13
12.059784 -41.946918 -2.2873955 0 6
3.8296702 -13.338073 3.203753 15 14
2.4398301 -8.5992556 -2.3951116 10 0
3.0321467 -10.708241 -2.569391 14 1
11.558165 -40.87291 2.2260578 1 9
4.0823159 -14.455482 -2.9197595 16 2
3.0899658 -10.948875 0.99531853 6 10
5.4840446 -19.457958 -3.201901 8 3
4.3247223 -15.3651 1.959903 6 11
8.811245 -31.326014 -3.9956088 7 4
3.1945519 -11.372598 1.8709565 25 12
3.3486781 -11.945307 2.4114442 25 13
11.800028 -42.149334 -2.2938852 0 6
3.7432821 -13.388881 3.2096016 8 14
3.3882253 -12.143436 3.3781064 2 15
2.3514493 -8.5136614 -2.3666413 11 0
2.9552438 -10.721633 -2.5675914 15 1
12.309312 -44.719158 2.4307961 0 9
3.9625647 -14.415478 -2.9060211 14 2
3.0408959 -11.070084 1.0043827 1 10
3.0408862 -11.085195 -1.8205845 11 3
4.113503 -15.015836 1.9116427 10 11
8.5981026 -31.407824 -3.9982898 5 4
3.2213466 -11.783336 1.9347818 6 12
3.2605524 -11.951347 2.4080098 45 13
3.4885666 -12.822366 3.0678825 2 14
3.2937479 -12.131371 3.3682714 19 15
2.2934594 -8.5354671 -2.3681943 10 0
2.866189 -10.6893 -2.5549941 13 1
3.8709595 -14.476931 -2.9128902 17 2
10.884136 -40.733887 3.6887796 1 10
5.1858649 -19.435293 -3.1859448 11 3
8.4343023 -31.676172 -4.024857 7 4
2.9364719 -11.043829 1.809947 15 12
3.1498494 -11.871348 2.3874023 18 13
3.7374156 -14.125585 3.3733659 8 14
3.2208104 -12.198899 3.3806944 8 15
2.2445576 -8.592391 -2.3795824 10 0
2.7875617 -10.693964 -2.5513949 15 1
11.370804 -43.684425 2.3656902 0 9
3.7495477 -14.425697 -2.897244 13 2
4.0801229 -15.708777 1.4199414 12 10
5.0629487 -19.520737 -3.1940794 14 3
8.2577181 -31.90724 -4.0467939 7 4
3.0276763 -11.740964 2.3568728 45 13
3.6110723 -14.033688 3.3454721 4 14
3.1744566 -12.372659 3.4226232 5 15
2.2101786 -8.7089653 -2.4075348 10 0
2.7080534 -10.694272 -2.5468957 15 1
11.043794 -43.644642 2.3594098 1 9
3.6392467 -14.403299 -2.8877034 17 2
11.032774 -43.729439 3.9457147 1 10
4.9299603 -19.554747 -3.1940794 14 3
2.9987452 -11.912098 1.5082551 6 11
2.7835903 -11.073756 -1.401985 4 4
2.9008634 -11.54882 1.8859742 24 12
2.7806122 -11.102879 2.224833 6 13
12.998929 -51.942696 -2.8061497 0 6
3.492696 -13.977259 3.3261261 9 14
2.1531584 -8.7331867 -2.4101231 11 0
2.6203008 -10.651903 -2.5324988 16 1
10.766464 -43.833172 2.3654807 1 9
3.5624535 -14.525599 -2.907166 11 2
12.290369 -50.15073 4.5174561 1 10
4.769846 -19.49275 -3.1784358 14 3
2.7435384 -11.228889 1.4192905 10 11
2.7072089 -11.088591 -1.4014976 4 4
2.8047292 -11.505458 1.8756495 8 12
12.669919 -52.171917 -2.8136859 0 6
3.3919618 -13.977983 3.3207276 2 14
3.0608013 -12.651839 3.4878457 6 15
2.0755136 -8.6784878 -2.3909705 16 0
2.5467782 -10.673727 -2.5333986 15 1
3.4789579 -14.614448 -2.920141 11 2
9.1857824 -38.647617 3.4754224 0 10
4.6407042 -19.540142 -3.180939 14 3
2.6743715 -11.278207 1.4231904 10 11
2.6246991 -11.085972 -1.3988165 3 4
2.7877443 -11.783794 1.9178867 24 12
2.8039181 -11.889208 2.3744273 13 13
12.30443 -52.21418 -2.8113832 0 6
2.9916906 -12.715198 3.0156939 2 14
2.9198711 -12.439169 3.4236584 8 15
2.0281794 -8.7432261 -2.4049468 12 0
2.4670355 -10.660439 -2.5262003 15 1
3.3909683 -14.699595 -2.9323528 13 2
8.8862543 -38.551987 3.461303 0 10
4.5254426 -19.664465 -3.1959565 14 3
7.3441601 -31.989302 -4.0299759 4 4
2.7023206 -11.789492 1.9156966 15 12
2.725553 -11.919501 2.3767169 18 13
12.050738 -52.785599 -2.8375511 0 6
9.2749987 -40.692535 9.6355534 1 14
2.9550331 -12.996123 3.5711854 20 15
1.9852977 -8.8382215 -2.4272051 10 0
2.3882935 -10.658386 -2.5217013 16 1
10.996211 -49.153912 2.6397214 0 9
3.289547 -14.728658 -2.9334977 16 2
8.8842106 -39.810936 3.5686791 1 10
4.3854733 -19.684011 -3.1940794 14 3
2.4795747 -11.147803 1.4022288 16 11
7.1116099 -31.999098 -4.024857 7 4
2.6229436 -11.821568 1.9178867 19 12
2.657546 -12.007246 2.3904552 32 13
2.8247814 -12.805204 3.0273912 17 14
2.9177876 -13.259824 3.6379607 20 15
1.9268284 -8.8669682 -2.4313462 10 0
2.3134127 -10.672895 -2.5212514 17 1
3.1990781 -14.808834 -2.9449463 17 2
8.5720129 -39.714237 3.5545597 1 10
4.2471137 -19.710287 -3.1934536 14 3
2.5828688 -12.007106 1.5080113 28 11
6.9018097 -32.112015 -4.0329008 4 4
2.5971243 -12.104198 1.9607497 9 12
2.5810506 -12.060062 2.3973243 33 13
2.9466939 -13.815668 3.2613404 9 14
2.8512762 -13.402691 3.6716073 40 15
1.8347038 -8.7365179 -2.3920057 1 0
2.2324533 -10.658268 -2.5140531 18 1
3.1749392 -15.184333 0.81298679 2 9
3.085187 -14.780839 -2.9350243 19 2
8.2746143 -39.67754 3.5460184 1 10
4.1094089 -19.739454 -3.1934536 9 3
2.3349962 -11.235756 1.4090534 28 11
6.7279034 -32.402367 -4.0633683 6 4
2.3702331 -11.435369 1.8496813 10 12
2.3398001 -11.318359 2.2465851 12 13
10.656048 -51.637604 -2.7632341 0 6
2.9146521 -14.148924 3.3351245 15 14
2.5558596 -12.440153 3.4029529 5 15
2.0127912 -9.9286633 -2.7144945 13 0
2.1506526 -10.637302 -2.5055048 16 1
3.0641155 -15.182635 0.8117308 6 9
2.9927778 -14.855906 -2.9457095 14 2
3.0652263 -15.229251 1.3591067 2 10
3.9508791 -19.665018 -3.1768715 6 3
6.4434242 -32.158535 -4.027051 4 4
2.337219 -11.686017 1.8875386 15 12
2.2150278 -11.105304 2.2011726 18 13
2.4796402 -12.477371 2.9369609 8 14
1.7132864 -8.7650738 -2.3930409 2 0
2.0726109 -10.63293 -2.5010059 15 1
7.8190832 -40.188232 2.1456697 0 9
2.8871217 -14.866801 -2.9438014 17 2
2.3216789 -11.966296 1.0664377 3 10
3.8442914 -19.851147 -3.2025266 13 3
2.3187897 -11.996195 1.5002117 9 11
6.242094 -32.323574 -4.0421629 4 4
2.2675419 -11.764117 1.8975502 15 12
2.2727036 -11.824205 2.3404634 16 13
2.5004005 -13.095131 3.5722208 7 15
1.6713499 -8.8793411 -2.4209933 10 0
1.9990487 -10.65097 -2.5019057 15 1
2.822413 -15.066888 0.80335701 6 9
2.7684684 -14.807472 -2.9281549 11 2
2.8321719 -15.162847 1.3495195 3 10
3.7204559 -19.957121 -3.2153544 15 3
5.9952397 -32.25317 -4.0280261 4 4
2.2015722 -11.867063 1.9116293 21 12
2.3535655 -12.773334 2.9985976 13 14
2.0766058 -11.303417 3.0794291 5 15
1.8040761 -9.9667368 -2.7139766 11 0
1.9197967 -10.637817 -2.4956071 14 1
2.6920218 -14.946666 0.79592532 8 9
2.6639853 -14.820642 -2.9270103 11 2
2.7262466 -15.182248 1.3495195 12 10
3.5838284 -19.998163 -3.2178574 15 3
2.5938663 -14.503227 1.8090287 9 11
5.8467426 -32.724148 -4.0816483 4 4
2.1127777 -11.849084 1.9063107 15 12
2.1785188 -12.254905 2.4194582 2 13
9.6231623 -54.243404 -2.8871658 0 6
2.2639935 -12.787535 2.9981477 4 14
1.7308956 -9.9483337 -2.7056944 11 0
1.8426816 -10.623758 -2.4893084 15 1
2.6144075 -15.104369 0.80335701 6 9
2.5677207 -14.865516 -2.9323528 11 2
2.6177609 -15.171002 1.3469048 2 10
3.4663935 -20.131111 -3.235378 15 3
2.0910041 -12.168932 1.5160547 15 11
1.9001437 -11.069756 -1.3790736 2 4
2.03074 -11.855401 1.9050591 13 12
2.0623369 -12.07786 2.3816779 7 13
9.64153 -56.583679 -3.0081666 0 6
2.1317198 -12.523708 2.9329119 5 14
1.9099067 -11.26812 3.0623472 2 15
1.4439918 -8.6567965 -2.35163 1 0
1.768469 -10.636364 -2.4893084 15 1
2.5036831 -15.07453 0.80084491 6 9
2.47418 -14.929133 -2.9415116 11 2
2.4874034 -15.041481 1.3338314 7 10
3.3279996 -20.146444 -3.2341266 15 3
1.8980339 -11.514977 1.4329399 13 11
5.4111028 -32.899593 -4.0938354 4 4
1.9134889 -11.646736 1.8693922 10 12
2.2156675 -13.545091 2.6678915 2 13
2.0429814 -12.530592 2.9311123 2 14
2.0695901 -12.735778 3.457305 15 15
1.5889938 -9.9426384 -2.6979299 12 0
1.6843815 -10.575025 -2.4722121 15 1
2.3870969 -15.020631 0.7970767 2 9
2.3837304 -15.033298 -2.9586844 13 2
2.3865218 -15.067904 1.3347031 10 10
3.1946695 -20.216015 -3.2416353 15 3
2.3747187 -15.061435 1.872157 13 11
1.7414694 -11.057644 -1.3744426 3 4
1.8900862 -12.028631 1.9285244 19 12
1.8060135 -11.53296 2.2691007 4 13
2.1078835 -13.506925 3.1560633 6 14
2.0956883 -13.49059 3.6581485 8 15
1.5175015 -9.9401217 -2.6943064 11 0
1.6128575 -10.601938 -2.4758112 15 1
2.2719324 -14.987061 -2.9464726 13 2
2.2928894 -15.161027 1.3415012 12 10
3.0640728 -20.284168 -3.2491441 15 3
2.2916687 -15.206802 1.8882437 5 11
1.6559663 -11.014567 -1.3676178 3 4
1.7477386 -11.638802 1.8640733 16 12
1.7242934 -11.537521 2.2675743 8 13
1.7023922 -11.431916 2.6683693 15 14
1.7866164 -12.04077 3.2616377 20 15
1.4436791 -9.9081631 -2.6829183 11 0
1.5367367 -10.585671 -2.4695127 16 1
2.1593878 -14.948151 -2.9357874 13 2
2.199029 -15.241359 1.3472534 4 10
2.9381468 -20.414558 -3.266665 15 3
1.672869 -11.652125 1.4453706 15 11
1.5806735 -11.023619 -1.3673741 4 4
1.6479819 -11.521658 1.843424 9 12
1.7149624 -12.034895 2.3629787 12 13
1.8099376 -12.765191 2.9765522 8 14
1.7122396 -12.121813 3.2802727 8 15
1.3718201 -9.8988647 -2.677742 11 0
1.4638633 -10.603864 -2.4713123 14 1
2.0677996 -15.056221 -2.9541049 13 2
6.0302577 -43.964863 3.8824396 1 10
2.7899315 -20.393473 -3.2600944 14 3
2.1035497 -15.416301 1.910424 4 11
1.5020673 -11.022583 -1.3659117 4 4
1.5103095 -11.112045 1.776157 4 12
1.7765549 -13.12244 2.5740135 19 13
1.2406439 -9.212327 2.146033 8 14
1.7190071 -12.815104 3.4645519 12 15
1.3011699 -9.8967085 -2.6746361 11 0
1.3905576 -10.619622 -2.472662 17 1
1.9588356 -15.041088 -2.9483807 16 2
5.4926896 -42.233643 3.7260823 0 10
2.6462228 -20.402658 -3.2585304 12 3
1.9912888 -15.395175 1.9060366 15 11
1.4225358 -11.013114 -1.3634744 4 4
1.6386288 -12.721019 2.0314584 9 12
1.3034579 -10.160999 1.9912828 17 13
5.3299966 -41.664818 -2.2013552 0 6
1.4060822 -11.006679 2.5617425 8 14
1.5496444 -12.198197 3.2947667 1 15
1.2299013 -9.888298 -2.6699774 12 0
1.3099192 -10.576854 -2.4605148 15 1
5.3652611 -43.383507 2.2909544 0 9
1.8753908 -15.208003 -2.9785285 13 2
5.39078 -43.841091 3.8644857 0 10
2.5024698 -20.380985 -3.2522728 12 3
1.8560554 -15.160104 1.8753256 9 11
1.3460975 -11.026717 -1.3639618 4 4
1.2709057 -10.425903 1.6635244 10 12
1.1713133 -9.665061 1.8924437 3 13
5.2631841 -43.492577 -2.2959785 0 6
1.2005837 -9.950201 2.3138466 9 14
1.164819 -9.9156265 -2.6751537 12 0
1.2401577 -10.604879 -2.4650135 14 1
5.0659571 -43.451649 2.2926292 0 9
1.7605633 -15.146621 -2.9640269 13 2
5.0922379 -43.876766 3.8644857 0 10
2.3578522 -20.378336 -3.2491441 10 3
1.7262897 -14.965631 1.849733 2 11
1.2672707 -11.020069 -1.3620119 4 4
1.0946622 -9.533742 1.5199175 3 12
1.0241237 -8.9746904 1.7558244 5 13
1.0998594 -9.6833878 2.2499604 19 14
1.3585256 -12.016844 3.2404146 6 15
1.0965861 -9.9486713 -2.6818831 11 0
1.1663655 -10.632854 -2.4695127 13 1
1.6594641 -15.20148 -2.9724228 13 2
2.2311399 -20.571432 -3.2773025 10 3
1.1890272 -11.016807 -1.3605494 4 4
1.2275523 -11.411102 1.8177687 6 12
0.93302447 -8.716135 1.7039244 1 13
0.99487048 -9.3400927 2.1685281 4 14
1.1426077 -10.798656 2.9096439 0 15
1.0255187 -9.940711 -2.677742 11 0
1.0925035 -10.644614 -2.4704125 12 1
1.2368153 -12.092232 0.63703334 8 9
1.2637867 -12.420181 1.0922357 8 10
2.0946465 -20.657259 -3.2885659 13 3
1.2271692 -12.144489 1.4987493 28 11
1.1110915 -11.014963 -1.3593308 3 4
0.84993041 -8.4554615 1.3459623 14 12
0.86629283 -8.6638317 1.6924759 18 13
0.87216544 -8.7689371 2.0344574 4 14
0.87904191 -8.9011736 2.3966644 8 15
0.95646638 -9.9514732 -2.6787772 11 0
1.1530621 -12.018977 0.21075526 58 8
1.0192761 -10.663623 -2.4731119 15 1
1.1504937 -12.058617 0.63483518 26 9
1.047624 -11.021112 -2.1519439 3 2
1.1578878 -12.226384 1.074456 17 10
1.0356454 -10.955984 -1.742993 2 3
1.1420574 -12.126868 1.4955807 17 11
1.0336093 -11.016522 -1.3585995 4 4
0.78848726 -8.4197483 1.3393921 8 12
1.119531 -11.999854 -1.0544101 22 5
0.78834563 -8.4820042 1.6558405 1 13
1.1141243 -12.009882 -0.63211375 26 6
0.83047223 -8.9863224 2.0834966 17 14
1.1111205 -12.069116 -0.21155807 31 7
1.0991411 -11.961862 3.2186739 1 15
0.88801849 -9.950058 -2.6767068 11 0
1.0685946 -12.02076 0.21065055 58 8
0.94735759 -10.678078 -2.4749115 15 1
1.0597757 -11.992744 0.63096237 20 9
0.95929712 -10.899082 -2.1267571 3 2
0.95500237 -10.91572 -1.7354842 2 3
1.0673628 -12.249247 1.5097176 37 11
0.95894194 -11.027259 -1.359087 4 4
0.73105282 -8.4407921 1.341895 12 12
1.031106 -11.953782 -1.0497037 37 5
0.73177069 -8.5008659 1.6585119 9 13
1.0251342 -11.957667 -0.6289736 52 6
0.75843322 -8.8831682 2.0583022 6 14
1.0197769 -11.968806 -0.20967323 53 7
0.81726831 -9.9406109 -2.6725655 11 0
0.98497546 -12.031913 0.21072036 43 8
0.87469137 -10.707739 -2.4803104 15 1
0.97877872 -12.033691 0.63274175 30 9
0.88667148 -10.948564 -2.1351528 3 2
0.97845209 -12.108129 1.062777 24 10
0.88384253 -10.985129 -1.745496 3 3
0.976273 -12.187143 1.5011867 33 11
0.87908816 -10.998066 -1.3546997 4 4
0.94634068 -11.891706 1.8894157 15 12
0.9479425 -11.964661 -1.0500524 37 5
0.67627472 -8.5546961 1.6680523 7 13
0.94209915 -11.970506 -0.6292876 61 6
0.68924439 -8.796936 2.0371568 8 14
0.93401212 -11.947722 -0.20918456 45 7
0.73341513 -9.4240541 2.5328033 16 15
0.74582201 -9.9191046 -2.6653185 11 0
0.88871533 -11.874977 0.20785816 56 8
0.80340075 -10.760224 -2.4911079 14 1
0.89637208 -12.06214 0.63389313 30 9
0.8093456 -10.942739 -2.132863 3 2
0.89536387 -12.134535 1.0645202 23 10
0.80481678 -10.95951 -1.7404901 2 3
0.87394834 -11.958064 1.4721818 39 11
0.80228573 -11.003935 -1.3546997 4 4
0.86301184 -11.894081 1.8887899 6 12
0.86878228 -12.002631 -1.0528414 38 5
0.61625308 -8.5552931 1.6672891 18 13
0.85922021 -11.986753 -0.62981093 35 6
0.6328252 -8.8500185 2.0484045 13 14
0.84830761 -11.922037 -0.20862606 37 7
0.64059079 -9.0473938 2.430311 22 15
0.67668676 -9.9259968 -2.6658361 12 0
0.81017184 -11.914669 0.20845154 57 8
0.72957593 -10.785013 -2.4956071 13 1
0.82231539 -12.187527 0.64017349 22 9
0.73037279 -10.881393 -2.1198881 3 2
0.81872392 -12.261756 1.0751532 18 10
0.72915024 -10.948966 -1.7379872 2 3
0.78990918 -11.924122 1.4673071 37 11
0.7251845 -11.005306 -1.3542123 4 4
0.57217795 -8.706459 1.3819423 20 12
0.79055679 -12.093894 -1.0603367 23 5
0.56466293 -8.6847696 1.6917126 15 13
0.78588146 -12.11988 -0.63650995 17 6
0.57353336 -8.893115 2.0574024 17 14
0.77427292 -12.071352 -0.21113922 31 7
0.6027931 -9.4236317 2.530215 27 15
0.60981774 -9.9419422 -2.668942 12 0
0.73878133 -12.113646 0.21183731 29 8
0.65567577 -10.781949 -2.4938073 12 1
0.74408102 -12.306607 0.6461398 14 9
0.65533102 -10.901905 -2.122941 3 2
1.2439377 -20.876287 -3.3123438 11 3
0.71896911 -12.137416 1.4928997 32 11
0.65002412 -11.006024 -1.3537248 4 4
0.53233689 -9.0671692 1.4385715 28 12
0.52400982 -9.0059223 1.7535348 25 13
2.317323 -40.067966 -2.1033823 1 6
0.52753943 -9.1770573 2.1221881 13 14
0.55324823 -9.7130613 2.6068256 17 15
0.54008061 -9.9401712 -2.6673892 11 0
0.67187214 -12.44598 0.21756171 15 8
0.58352882 -10.844642 -2.5073044 15 1
0.80878443 -15.229099 -2.9644089 11 2
1.0971262 -20.864735 -3.3092151 11 3
0.64705896 -12.387954 1.5231231 26 11
0.57461649 -11.038049 -1.3571371 4 4
0.64080107 -12.39276 1.9654428 9 12
0.45480153 -8.8858376 1.7294928 22 13
2.0310547 -39.955505 -2.0966833 0 6
0.46414647 -9.1941414 2.1253376 27 14
0.45988226 -9.2053843 2.4696515 22 15
0.47067198 -9.9436989 -2.6673892 11 0
0.50561786 -10.801732 -2.4965067 14 1
0.70172387 -15.218685 -2.9613557 11 2
0.94676113 -20.769274 -3.2929459 11 3
0.56208396 -12.425883 1.5272667 5 11
0.49557656 -10.998163 -1.3517749 4 4
0.40180656 -8.9868889 1.4248053 20 12
0.39180341 -8.8672218 1.7252951 24 13
1.7291466 -39.445934 -2.0692592 1 6
0.39156732 -9.0044136 2.0807972 15 14
0.4009313 -9.9390211 -2.6653185 11 0
0.4306604 -10.816682 -2.4992063 12 1
0.59515524 -15.215365 -2.9598293 8 2
0.80791134 -20.935265 -3.3182883 9 3
0.47016299 -12.294617 1.5106926 7 11
0.41833103 -10.989452 -1.3503125 4 4
0.35357463 -9.3743992 1.4858147 16 12
0.33543563 -9.0188446 1.754298 23 13
1.4671035 -39.820301 -2.0883095 0 6
0.33281714 -9.1198788 2.1068916 20 14
0.33114776 -9.9299936 -2.6622128 11 0
0.35513783 -10.819425 -2.4992063 12 1
0.49398011 -15.293629 -2.9743307 8 2
0.43112487 -13.493546 1.1811346 2 10
0.66292393 -20.977909 -3.3242328 11 3
0.38977131 -12.402689 1.5236107 1 11
0.34190828 -11.002025 -1.351531 3 4
0.29128331 -9.4259491 1.4936365 18 12
0.27317527 -9.0445147 1.7588774 23 13
1.2122115 -40.368382 -2.1165709 1 6
0.30062214 -10.128989 2.3394909 8 14
0.33639061 -11.537911 3.0928879 10 15
0.26313865 -9.9165678 -2.6580718 11 0
0.28138262 -10.817696 -2.4983065 11 1
1.0523926 -40.732491 2.135412 0 9
0.38916957 -15.26916 -2.9689882 8 2
0.33826563 -13.456333 1.1776484 1 10
0.52496105 -21.029236 -3.3317416 13 3
0.31657439 -12.861488 1.5796705 4 11
0.80777073 -33.051846 -4.0594683 6 4
0.25718248 -10.675789 1.6913697 16 12
0.22118542 -9.3856764 1.8248973 33 13
0.93666226 -40.34375 -2.1148963 1 6
0.21350528 -9.265749 2.1397343 11 14
0.21974137 -9.8345337 2.6358132 24 15
0.19728656 -9.9142323 -2.6570365 11 0
0.21057421 -10.868032 -2.5095539 7 1
0.28992873 -15.379367 -2.9899771 6 2
0.24842389 -13.426407 1.1748594 8 10
0.38259846 -21.075773 -3.3386247 13 3
0.22159615 -12.325432 1.5136174 3 11
0.57987446 -32.891838 -4.039238 4 4
0.17444368 -9.993885 1.583117 7 12
0.15321624 -9.1435547 1.7775766 25 13
0.67642689 -40.792404 -2.1381333 0 6
0.16143854 -9.9450598 2.2963004 28 14
0.12979899 -9.9153452 -2.6570365 11 0
0.13593294 -10.816602 -2.4974065 10 1
0.53683412 -43.319221 2.2704387 0 9
0.18367922 -15.251418 -2.9647903 4 2
0.15991786 -13.674828 1.196474 1 10
0.2425846 -21.058096 -3.3354959 13 3
0.131199 -11.745058 1.442202 2 11
0.3609975 -32.82946 -4.0311947 7 4
0.10063107 -9.451642 1.4970781 16 12
0.093843259 -9.2700119 1.8020002 6 13
0.3837975 -39.266239 -2.0579548 0 6
0.095384225 -9.9361687 2.2940509 19 14
0.10877912 -12.220409 3.2745786 8 15
0.053558499 -9.8986626 -2.6523776 8 0
0.052930724 -10.830969 -2.5005558 15 1
0.19541433 -43.062462 2.2568314 0 9
0.064087741 -15.299507 -2.9739492 6 2
0.054706905 -13.627834 1.1922905 6 10
0.077396303 -21.116634 -3.3445692 15 3
0.041228034 -12.432567 1.5265356 0 11
0.10210779 -32.501759 -3.9907339 7 4
0.03285531 -11.765299 1.8634475 15 12
0.02195669 -9.676857 1.8809953 1 13
0.075648464 -39.403851 -2.0650723 1 6
0.01683221 -9.6443005 2.2265656 4 14
0.010363261 -9.8949385 2.6513424 2 15
-0.015539397 -9.8930006 -2.6508248 11 0
-0.022622468 -10.801843 -2.4938073 15 1
-0.090814732 -40.026966 2.0977299 0 9
-0.040573519 -15.497878 -3.0124927 8 2
-0.040789336 -13.747426 1.2027491 18 10
-0.066333435 -21.114697 -3.3442562 13 3
-0.043806218 -12.549678 1.5409162 5 11
-0.12534854 -32.644604 -4.0082831 7 4
-0.04542014 -11.314868 1.7921134 6 12
-0.05873828 -12.464564 2.4228928 17 13
-0.19361676 -39.619156 -2.0763769 0 6
-0.051456083 -9.8273621 2.2688563 2 14
-0.082748041 -9.8772106 -2.6466837 11 0
-0.096007854 -10.78585 -2.4902081 16 1
-0.36958835 -39.953461 2.0939617 0 9
-0.14733401 -15.348016 -2.9834895 11 2
-0.13646577 -13.961999 1.2215749 18 10
-0.2141576 -21.155199 -3.3508265 15 3
-0.13039982 -12.451801 1.5289729 10 11
-0.34501088 -32.404793 -3.9790344 7 4
-0.13044983 -11.863397 1.8790911 7 12
-0.1318423 -11.445014 2.224833 12 13
-0.46778816 -39.413132 -2.0657003 0 6
-0.15222563 -12.459315 2.8766742 4 14
-0.15643783 -12.277853 3.290108 27 15
-0.15199865 -9.895709 -2.65186 11 0
-0.17136684 -10.788814 -2.4911079 15 1
-0.66815186 -41.160084 2.157393 0 9
-0.25561905 -15.415318 -2.9968462 11 2
-0.36208007 -21.167019 -3.3530169 11 3
-0.2216557 -12.698687 1.5594403 15 11
-0.57154167 -32.41946 -3.9812284 10 4
-0.21834661 -12.144629 1.9238312 21 12
-0.21511802 -11.626366 2.2603235 3 13
-0.72553092 -38.48634 -2.0173419 1 6
-0.25147504 -13.097017 3.0242419 8 14
-0.22116636 -9.8982706 -2.6528955 11 0
-0.24632637 -10.771769 -2.4875088 15 1
-0.92655498 -39.908466 2.0920777 0 9
-0.36063999 -15.303246 -2.9754755 11 2
-0.95408177 -40.18713 3.5169084 1 10
-0.51017535 -21.177797 -3.355207 8 3
-0.30249533 -12.377326 1.5201983 14 11
-0.79990983 -32.498032 -3.9914653 10 4
-0.99471438 -38.500301 -2.0183887 1 6
-0.32257721 -12.401484 2.8640769 4 14
-0.32867485 -12.30537 3.2983899 7 15
-0.29015061 -9.892622 -2.65186 11 0
-0.32105628 -10.754204 -2.4839096 16 1
-0.46509576 -15.310248 -2.9773839 11 2
-0.40123534 -13.057934 1.1429603 5 10
-0.65370643 -21.154091 -3.3520782 9 3
-1.0177367 -32.20594 -3.9563665 10 4
-0.38727766 -12.187849 1.9313401 12 12
-0.40144962 -12.361985 2.4041934 12 13
-1.2893374 -39.490734 -2.0707247 0 6
-0.41075483 -12.447624 2.8753242 6 14
-0.35720071 -9.8826962 -2.6497896 11 0
-0.3938922 -10.742032 -2.4816601 17 1
-1.5006498 -40.538567 2.1259913 1 9
-0.57629365 -15.42238 -2.9998991 13 2
-0.53607923 -14.279359 1.250162 2 10
-0.80025178 -21.1194 -3.3473849 11 3
-0.47372642 -12.387848 1.5221483 9 11
-1.2431811 -32.360928 -3.9763534 10 4
-0.4735018 -12.214458 1.9360331 15 12
-0.46554443 -11.848915 2.3049729 14 13
-1.5313032 -38.630604 -2.0261343 1 6
-0.49431089 -12.415332 2.8685758 4 14
-0.52114111 -12.863308 3.4495404 6 15
-0.42685226 -9.895402 -2.6539307 11 0
-0.46709108 -10.698135 -2.4722121 16 1
-1.792817 -40.898544 2.1454604 0 9
-0.67917734 -15.371027 -2.9907403 13 2
-1.8320847 -41.137932 3.6026697 1 10
-0.94910377 -21.227921 -3.3655317 14 3
-0.59654999 -13.239043 1.6271995 15 11
-1.4681684 -32.331627 -3.9739158 10 4
-0.52065074 -11.421619 1.8108855 9 12
-2.3275621 -50.099136 -2.6284168 0 6
-0.49226937 -9.8536777 -2.6435778 11 0
-0.53655845 -10.628535 -2.4569156 12 1
-2.0888441 -41.092484 2.1563463 0 9
-0.78797609 -15.395322 -2.9964645 14 2
-0.74128515 -14.43377 1.2644554 13 10
-1.1022778 -21.317444 -3.3808622 16 3
-0.64757687 -12.43961 1.5294603 13 11
-1.6203867 -31.022421 -3.8142672 6 4
-0.59954345 -11.401926 1.8083826 7 12
-0.62116575 -11.696292 2.2767329 10 13
-2.1254082 -39.758591 -2.0866349 0 6
-0.56159717 -9.8596449 -2.6461661 12 0
-0.61119384 -10.632313 -2.458715 15 1
-2.5317564 -43.908714 2.3049805 0 9
-0.89979815 -15.511119 -3.0201249 4 2
-0.7692526 -13.181138 1.1551622 9 10
-0.63856721 -10.90911 -1.7307911 8 3
-0.80376738 -13.649673 1.6788722 11 11
-0.64971298 -10.968261 -1.3490938 6 4
-0.79663712 -13.408918 2.1275089 9 12
-0.73661238 -12.25411 2.3862574 1 13
-2.4178619 -40.106045 -2.105685 0 6
-0.74980313 -12.36543 2.8600278 19 14
-0.68285429 -11.164558 2.9971247 8 15
-0.62857372 -9.8536654 -2.6456482 11 0
-0.68229961 -10.608459 -2.454216 15 1
-0.94513327 -14.615374 0.76755917 6 9
-1.0056441 -15.467237 -3.0128741 11 2
-0.863491 -13.245183 1.1612631 3 10
-1.3900187 -21.207577 -3.3661573 18 3
-0.89551479 -13.590247 1.6722913 14 11
-2.1242249 -32.06638 -3.9458859 7 4
-0.75446826 -11.359069 1.8030639 12 12
-3.3621478 -49.960281 -2.6242297 1 6
-0.87010062 -12.763098 3.4277995 6 15
-0.69783664 -9.8315725 -2.6409895 12 0
-0.75763732 -10.59553 -2.4524164 13 1
-1.1182522 -15.524459 -3.0254676 11 2
-1.0514563 -14.526363 1.2742169 13 10
-1.5414517 -21.193144 -3.3655317 18 3
-1.0121672 -13.882619 1.7090958 15 11
-2.3544166 -32.137882 -3.9566107 7 4
-0.90766096 -12.330523 1.9582468 4 12
-4.4851069 -60.212326 -3.1643369 1 6
-0.83393604 -11.065176 2.9733133 6 15
-0.76600635 -9.8206835 -2.639437 11 0
-0.82975888 -10.566669 -2.4470174 13 1
-1.2302444 -15.527802 -3.0277574 11 2
-1.184543 -14.917882 1.3092535 4 10
-1.6904696 -21.195652 -3.3677218 16 3
-1.0376152 -12.952922 1.5955136 4 11
-2.5151811 -31.329166 -3.8591151 5 4
-0.90319306 -11.128436 2.1702616 6 13
-4.9030871 -60.151676 -3.1628714 4 6
-1.0177639 -12.352905 3.321166 8 15
-0.83618563 -9.8343449 -2.644613 11 0
-0.90251118 -10.548968 -2.4443181 15 1
-1.3338898 -15.495595 -3.0231779 8 2
-1.1464262 -13.263694 1.1647493 3 10
-1.8353841 -21.191525 -3.368973 16 3
-0.96857363 -11.138005 1.3727365 5 11
-2.7488568 -31.482895 -3.8803203 11 4
-1.0746568 -12.283381 1.9529281 6 12
-1.0291537 -11.669446 2.2771149 18 13
-1.1219151 -12.570823 3.3817298 15 15
-0.90239841 -9.8207302 -2.6425424 11 0
-0.97357649 -10.53482 -2.4425187 15 1
-1.448226 -15.552368 -3.0361528 9 2
-1.9796004 -21.138861 -3.3627155 16 3
-1.1689192 -12.435383 1.5336039 6 11
-2.8789628 -30.570143 -3.7701502 6 4
-1.2806619 -13.547976 2.1553543 3 12
-1.0537556 -11.085608 2.1645374 17 13
-3.8445208 -40.295467 -2.1213858 0 6
-1.0711491 -11.124311 2.9945364 12 15
-0.97283995 -9.833416 -2.6477189 11 0
-1.0497999 -10.554914 -2.4488173 13 1
-1.5485833 -15.487453 -3.0254676 9 2
-1.3874782 -13.827481 1.2158226 2 10
-2.1066468 -20.95783 -3.3361216 16 3
-1.4129192 -14.007195 1.7285949 15 11
-3.1150994 -30.77445 -3.7979364 6 4
-1.2281708 -12.112138 1.9282113 19 12
-1.221258 -11.960783 2.3370285 18 13
-4.1894364 -40.959805 -2.1578119 0 6
-1.2401335 -12.083024 2.8042397 6 14
-1.1502153 -11.14943 3.0033362 9 15
-1.0381241 -9.8111973 -2.6435778 11 0
-1.5374963 -14.482399 0.25421175 21 8
-1.1224436 -10.555275 -2.4506166 15 1
-1.5974401 -14.97236 0.78912163 8 9
-1.6664895 -15.568012 -3.0434036 11 2
-1.5268087 -14.239676 1.2529509 15 10
-2.2600925 -21.00939 -3.3467593 16 3
-1.1875345 -11.002992 1.3588433 14 11
-1.1911627 -11.018572 -1.3607932 1 4
-1.2360193 -11.39628 1.8155787 3 12
-1.2783967 -11.7297 2.2935243 32 13
-1.2862089 -11.72539 2.7232575 2 14
-1.1061593 -9.7998714 -2.6425424 11 0
-1.6385651 -14.471312 0.25421175 21 8
-1.1974236 -10.5588 -2.4533162 13 1
-1.6551976 -14.55006 0.7674545 10 9
-1.7648915 -15.466272 -3.0258491 11 2
-1.6888505 -14.776992 1.3012352 8 10
-2.3835368 -20.790962 -3.3145339 15 3
-3.5797708 -31.081573 -3.8415658 8 4
-1.3865064 -12.001581 1.9135066 7 12
-1.3661361 -11.771194 2.3034463 22 13
-6.7645884 -58.109303 -3.0659454 0 6
-1.2975212 -11.112221 2.5828879 2 14
-1.3102733 -11.170659 3.0136893 8 15
-1.1768479 -9.8110914 -2.6477189 11 0
-1.7242657 -14.332455 0.25197786 21 8
-1.2748371 -10.58114 -2.4605148 14 1
-1.7519422 -14.498493 0.76536107 10 9
-1.8633755 -15.375614 -3.0105846 11 2
-1.7461209 -14.387068 1.2679417 18 10
-2.5326793 -20.807148 -3.3198526 16 3
-1.5118335 -12.384368 1.5318978 1 11
-3.8226864 -31.268631 -3.8678894 8 4
-1.3938136 -11.368108 1.8140143 4 12
-5.0218382 -40.664864 -2.1473446 0 6
-1.4536291 -11.737232 2.7304559 2 14
-1.4013418 -11.266678 3.0421593 12 15
-1.2453136 -9.8026361 -2.6477189 11 0
-1.346209 -10.55265 -2.4560156 13 1
-1.8026845 -14.091667 0.74453139 6 9
-1.9741693 -15.389492 -3.0159271 11 2
-1.8592117 -14.473334 1.2766573 5 10
-2.6713173 -20.73802 -3.311718 13 3
-1.8014392 -13.946532 1.726645 8 11
-3.9787536 -30.76082 -3.8084173 9 4
-1.5539409 -11.981051 1.9135066 9 12
-1.494607 -11.476471 2.2496383 2 13
-7.5793991 -58.040878 -3.06762 0 6
-1.4804661 -11.260451 3.0431943 5 15
-1.3126913 -9.7860441 -2.6456482 11 0
-1.4208879 -10.55072 -2.4578152 14 1
-1.9659612 -14.559708 0.76996666 8 9
-2.0789263 -15.355882 -3.0121109 13 2
-2.7976744 -20.583809 -3.2901301 9 3
-1.5154674 -11.120929 1.3780986 15 11
-4.200922 -30.787367 -3.8152421 9 4
-1.5159889 -11.081367 1.7714641 9 12
-1.6086162 -11.712772 2.2981036 14 13
-8.7374344 -63.455376 -3.3569334 26 6
-1.5895026 -11.528818 2.6868153 8 14
-1.524038 -10.997252 2.9748662 11 15
-1.3809787 -9.7766418 -2.6456482 11 0
-1.4966998 -10.555979 -2.4614143 12 1
-2.023191 -14.251351 0.75437051 6 9
-2.1676328 -15.230585 -2.9903588 16 2
-2.0445058 -14.329593 1.2663729 2 10
-2.9203968 -20.443047 -3.2707322 8 3
-1.5967602 -11.149657 1.3829734 8 11
-4.4247832 -30.820166 -3.8230414 9 4
-1.6608037 -11.553745 1.8487427 6 12
-1.6319613 -11.297094 2.2187271 10 13
-6.2941308 -43.516834 -2.3043525 0 6
-1.6282839 -11.230083 2.6197801 5 14
-1.6311308 -11.208381 3.0349123 15 15
-1.449759 -9.7823048 -2.6497896 11 0
-1.5690897 -10.549402 -2.4623141 14 1
-2.1285253 -14.276389 0.756464 6 9
-2.269557 -15.185956 -2.9846346 13 2
-2.1346245 -14.266083 1.2620151 2 10
-3.0337446 -20.226807 -3.2394452 7 3
-4.584825 -30.459555 -3.7820935 9 4
-1.6547784 -10.967607 1.7567593 14 12
-6.3730054 -41.990849 -2.2258484 0 6
-1.7368896 -11.430668 2.6692691 12 14
-1.7854326 -11.695159 3.1700156 23 15
-1.5215743 -9.7948513 -2.6560011 11 0
-1.6481028 -10.572849 -2.4704125 14 1
-6.5272822 -41.825649 2.2185214 0 9
-2.3710496 -15.158518 -2.9823449 13 2
-1.8904029 -12.058095 1.0678321 2 10
-3.165226 -20.166658 -3.2331879 8 3
-1.9051933 -12.110992 1.5053302 15 11
-1.7542197 -11.125971 -1.3829734 2 4
-1.8384248 -11.646822 1.8675148 6 12
-1.7906401 -11.292911 2.2225432 8 13
-6.3931479 -40.273769 -2.1370866 0 6
-1.7701069 -11.125734 2.600884 9 14
-1.7724179 -11.102795 3.0126538 15 15
-1.5874394 -9.7687359 -2.65186 11 0
-1.7212467 -10.55724 -2.4695127 14 1
-6.5584445 -40.137901 2.1314344 1 9
-2.4737484 -15.10629 -2.9754755 11 2
-6.954392 -42.421539 3.7609444 0 10
-3.2870347 -20.007048 -3.2112873 8 3
-1.828298 -11.091907 -1.3802923 3 4
-1.8174075 -11.001904 1.7661453 13 12
-7.3101239 -44.013844 -2.3382661 0 6
-1.9091008 -11.482198 2.6872652 2 14
-1.9456849 -11.651941 3.1653571 11 15
-1.6588297 -9.7764616 -2.6570365 11 0
-1.7962148 -10.55265 -2.4713123 13 1
-6.881155 -40.383724 2.1469259 0 9
-2.5623052 -15.005886 -2.9590659 14 2
-2.0740337 -12.120862 1.0758505 2 10
-3.3794546 -19.729147 -3.1703012 11 3
-1.9179411 -11.173449 1.3919919 10 11
-1.908717 -11.09648 -1.382486 4 4
-1.994155 -11.581083 1.8612576 12 12
-1.9645312 -11.361601 2.2412426 6 13
-7.001842 -40.45216 -2.1515312 0 6
-1.9785581 -11.407148 2.6728685 2 14
-1.7236573 -9.7554321 -2.6544483 12 0
-1.8748045 -10.578557 -2.4803104 15 1
-7.1391668 -40.200977 2.1398082 0 9
-2.6508379 -14.896785 -2.9411299 13 2
-7.2514238 -40.709255 3.6176605 0 10
-3.5164092 -19.701187 -3.1696756 11 3
-2.1143744 -11.822222 1.4746192 16 11
-1.9894516 -11.112542 -1.386142 3 4
-1.9497416 -10.868861 1.7489375 3 12
-2.0376482 -11.324779 2.2366631 7 13
-1.796262 -9.7678614 -2.6611776 9 0
-1.9535581 -10.59204 -2.486609 13 1
-2.0785758 -11.247858 0.59945607 4 9
-2.7504833 -14.854751 -2.9365506 13 2
-2.0848286 -11.248731 1.0008965 11 10
-3.625371 -19.522724 -3.1449587 8 3
-2.0309134 -10.915292 1.3632306 14 11
-2.0677087 -11.102284 -1.3866295 3 4
-2.0944207 -11.223937 1.8083826 10 12
-7.5983515 -40.523205 -2.1607425 0 6
-1.8738399 -9.8044186 -2.6746361 11 0
-2.0296578 -10.589627 -2.4893084 15 1
-7.6846991 -40.018929 2.1356213 0 9
-2.8656199 -14.894952 -2.9483807 21 2
-2.1512527 -11.171296 0.99531853 6 10
-3.7245302 -19.304918 -3.1139848 9 3
-2.1530256 -11.138628 1.3929666 14 11
-5.6180072 -29.037413 -3.6314631 10 4
-2.1591952 -11.139228 1.7971194 3 12
-1.9429936 -9.7948875 -2.6756713 11 0
-2.1020172 -10.567554 -2.4875088 15 1
-8.3110247 -41.744289 2.2306633 0 9
-2.9561863 -14.821193 -2.9376955 16 2
-2.217087 -11.095439 0.98991495 4 10
-3.8264036 -19.131907 -3.0902069 9 3
-2.3235617 -11.596691 1.4521952 15 11
-5.8553596 -29.170704 -3.6531558 13 4
-2.3871026 -11.881514 1.9194511 15 12
-8.0472975 -39.874241 -2.1318531 0 6
-2.0119519 -9.7927885 -2.6787772 11 0
-2.1864803 -10.614079 -2.5019057 12 1
-2.3290789 -11.286374 0.603957 12 9
-3.0333538 -14.673301 -2.9125087 14 2
-2.422951 -11.710285 1.0462176 18 10
-3.951056 -19.062174 -3.0833237 10 3
-2.3310158 -11.226446 1.4078349 9 11
-5.7326722 -27.585035 -3.4593835 9 4
-2.4019511 -11.537728 1.8665762 13 12
-8.7788057 -41.985165 -2.2479343 1 6
-2.0818763 -9.7860622 -2.6808479 11 0
-2.4507649 -11.510189 0.20541482 13 8
-2.2897949 -10.735779 -2.5342987 16 1
-2.4554656 -11.502696 0.616413 6 9
-3.1306968 -14.640795 -2.910219 16 2
-2.4741819 -11.550866 1.0334928 15 10
-4.0355802 -18.824305 -3.0492208 12 3
-2.511991 -11.697472 1.4690132 0 11
-6.1292539 -28.493343 -3.5785718 13 4
-2.4459224 -11.360827 1.8406081 6 12
-8.8875341 -41.106483 -2.2040768 0 6
-1.8323332 -8.3339348 -2.2864075 1 0
-2.3686893 -10.746586 -2.5405972 13 1
-2.4973874 -11.311697 0.60709715 14 9
-3.21206 -14.524652 -2.8915195 13 2
-2.5273449 -11.418984 1.0232084 5 10
-4.1818643 -18.863171 -3.0601714 13 3
-2.4713798 -11.12929 1.3997915 9 11
-6.0650873 -27.290215 -3.4325724 6 4
-2.5131567 -11.289487 1.8318479 4 12
-8.8849983 -39.749191 -2.1345747 0 6
-1.8780582 -8.2663069 -2.2713959 2 0
-2.4445212 -10.733588 -2.541497 15 1
-2.626699 -11.52422 0.61944842 14 9
-2.5426736 -11.137623 -2.2206352 3 2
-2.6567447 -11.618594 1.0427313 7 10
-2.5809863 -11.278226 -1.8324735 1 3
-6.502872 -28.324867 -3.5683346 16 4
-2.3032403 -9.8276348 -2.7046592 9 0
-2.5291142 -10.766025 -2.5531945 13 1
-9.4967699 -40.362926 2.1730938 0 9
-2.6140616 -11.092848 -2.2152925 3 2
-2.6173179 -11.09799 0.99758458 4 10
-2.7096112 -11.471405 -1.8668892 3 3
-6.9187655 -29.200157 -3.684598 10 4
-1.9991962 -8.263689 -2.2781253 4 0
-2.6152725 -10.785528 -2.5621924 13 1
-9.6119013 -39.579704 2.1345747 0 9
-2.6761401 -11.011374 -2.2026992 4 2
-2.7925634 -11.45556 -1.8675148 3 3
-6.6494126 -27.215063 -3.4398844 9 4
-9.9965744 -40.698772 -2.196331 0 6
-2.4550273 -9.8465776 -2.7191529 11 0
-2.6933393 -10.778352 -2.5648918 16 1
-2.7605946 -11.014793 -2.2072787 4 2
-2.794992 -11.12733 -1.817143 4 3
-3.1080465 -12.355399 1.564315 3 11
-2.7903628 -11.084335 -1.4034475 4 4
-14.586076 -57.643612 -3.1161878 0 6
-2.5294735 -9.8516531 -2.7253647 9 0
-2.7772617 -10.793257 -2.5729902 15 1
-10.206504 -39.636829 2.1450417 0 9
-2.8438387 -11.028066 -2.2137661 3 2
-3.153486 -12.211211 1.1033916 21 10
-2.9413469 -11.381541 -1.8618832 3 3
-7.0043454 -27.025412 -3.4279413 12 4
-15.013316 -57.678291 -3.1235149 0 6
-2.602391 -9.8566217 -2.7315764 6 0
-2.8337164 -10.71005 -2.5576935 16 1
-3.2492969 -12.263427 0.66487604 8 9
-2.9197531 -11.004148 -2.2130029 3 2
-3.0237789 -11.372184 -1.8637605 3 3
-3.2658448 -12.265334 1.5584654 37 11
-3.0385008 -11.403506 -1.4490266 3 4
-3.118351 -11.670426 -1.0568506 15 5
-15.423887 -57.602943 -3.1251898 0 6
-2.2125349 -8.149106 -2.2625961 4 0
-3.3330083 -12.259051 0.22175027 16 8
-2.9063711 -10.682485 -2.5558939 13 1
-3.2917821 -12.082427 0.65629297 12 9
-3.0864146 -11.313058 -2.2794044 6 2
-3.3037095 -12.101221 1.0974652 7 10
-3.1062236 -11.362229 -1.8656377 9 3
-3.3147018 -12.108211 1.5414037 16 11
-3.1085973 -11.347553 -1.4446392 11 4
-3.3178527 -12.094846 1.9864051 15 12
-3.1015868 -11.291024 -1.0244286 14 5
-3.3048255 -12.02268 2.423656 19 13
-3.2709272 -11.88313 -0.64593047 17 6
-3.3353279 -12.100586 2.8978195 22 14
-3.2960353 -11.949885 -0.21637493 16 7
-2.2672958 -8.1260176 -2.2605255 5 0
-3.3496354 -11.988964 0.21728246 15 8
-2.9787779 -10.654427 -2.5540941 15 1
-3.3491309 -11.962987 0.65105933 20 9
-3.1176236 -11.121101 -2.2450588 12 2
-3.3601282 -11.978108 1.088401 18 10
-3.1272399 -11.132975 -1.8315349 14 3
-3.3679774 -11.97394 1.5272667 30 11
-3.1371861 -11.145955 -1.4217279 13 4
-3.3705921 -11.95921 1.9679458 25 12
-3.1489494 -11.157883 -1.0143185 14 5
-3.3913455 -12.008762 2.4255641 32 13
-3.3467424 -11.83502 -0.64456969 17 6
-3.3937089 -11.98513 2.8757741 31 14
-3.3815598 -11.934279 -0.21651454 16 7
-3.4311578 -12.093226 3.3682714 15 15
-2.3260996 -8.1174192 -2.2625961 5 0
-3.4266312 -11.942222 0.2168636 31 8
-3.056314 -10.644609 -2.5567937 14 1
-3.4259429 -11.91628 0.64980328 20 9
-3.1984463 -11.110386 -2.2473485 12 2
-3.435395 -11.925641 1.0857862 20 10
-3.2092664 -11.126057 -1.8340379 17 3
-3.4498367 -11.944414 1.5265356 33 11
-3.2237391 -11.154296 -1.4256277 10 4
-3.457845 -11.94867 1.9701359 42 12
-3.2234423 -11.124145 -1.0132726 14 5
