# .PCD v0.7 - Point Cloud Data file format
VERSION 0.7
FIELDS x y z intensity ring
SIZE 4 4 4 4 2
TYPE F F F F U
COUNT 1 1 1 1 1
WIDTH 1307
HEIGHT 1
VIEWPOINT 0 0 0 1 0 0 0
POINTS 1307
DATA ascii
-18.068419 -9.1428547 -2.4863784 16 4
-18.237442 -9.2163925 -1.7877386 37 5
-17.837313 -8.998558 -1.0470332 28 6
-6.0577579 -3.0295339 -1.8148392 2 0
-7.0816379 -3.5369506 -1.8275024 4 1
-8.8192911 -4.3990598 -1.9157225 3 2
-12.205471 -6.0801072 -2.1597345 4 3
-18.43042 -9.1649828 -2.5273266 21 4
-18.197844 -9.0374479 -1.7776285 38 5
-18.19875 -9.0260229 -1.0646181 9 6
-6.0539665 -2.9762983 -1.8075923 2 0
-7.1107969 -3.4912419 -1.8288521 3 1
-8.7827969 -4.3045497 -1.9012209 3 2
-12.10568 -5.9252744 -2.1347051 5 3
-18.520908 -9.0532703 -2.5312264 21 4
-18.188868 -8.8752375 -1.7706561 38 5
-18.473179 -9.0019951 -1.0769694 9 6
-6.0345883 -2.9146354 -1.7956866 2 0
-7.1349974 -3.4415143 -1.8288521 6 1
-8.777257 -4.2260952 -1.8935887 3 2
-12.054178 -5.7961035 -2.1184359 5 3
-18.737558 -8.9976482 -2.5521882 14 4
-18.982347 -9.0866699 -1.102928 19 6
-6.06177 -2.8757486 -1.7977571 3 0
-7.1429992 -3.3841112 -1.824803 5 1
-8.7710505 -4.1479292 -1.8859563 3 2
-12.022901 -5.6780653 -2.105921 5 3
-18.731689 -8.8344393 -2.5429258 17 4
-18.725397 -8.8035231 -1.0844011 19 6
-6.0816989 -2.8333592 -1.7977571 3 0
-7.1593838 -3.3308711 -1.8230033 5 1
-8.7901783 -4.0839939 -1.8840481 4 2
-11.953757 -5.5462132 -2.0871489 4 3
-18.636194 -8.6308794 -2.5217206 26 4
-18.859228 -8.7101936 -1.0886927 9 6
-6.1008444 -2.7918968 -1.7977571 3 0
-20.694202 -9.4614429 0.39718187 41 8
-7.1641655 -3.2739635 -1.8185043 5 1
-8.7970409 -4.0127525 -1.8794687 4 2
-11.839384 -5.3930249 -2.060555 24 3
-18.57164 -8.4479342 -2.5051465 12 4
-18.426666 -8.3703461 -1.7706561 38 5
-19.901846 -9.0236902 -1.1452155 20 6
-6.0990405 -2.7397377 -1.7915455 3 0
-7.1886253 -3.2246659 -1.8189542 3 1
-8.8402758 -3.9600029 -1.8829032 3 2
-11.863196 -5.3066649 -2.0583651 18 3
-18.468842 -8.2460403 -2.4834535 10 4
-18.948336 -8.4363413 -1.0870179 9 6
-6.1316872 -2.7043972 -1.7956866 3 0
-7.1890063 -3.1662357 -1.8135554 3 1
-8.828166 -3.8808105 -1.8745077 3 2
-11.813133 -5.1856027 -2.0433471 5 3
-18.131836 -7.9479995 -2.4308062 9 4
-19.427721 -8.4877644 -1.1110924 19 6
-6.1078672 -2.6431105 -1.7832633 3 0
-7.1912584 -3.1074667 -1.8086064 3 1
-8.8381548 -3.8136265 -1.8710731 4 2
-11.784661 -5.0777149 -2.0323968 3 3
-18.088406 -7.778873 -2.4176443 9 4
-20.336769 -8.7205524 -1.1596602 10 6
-6.1292725 -2.6029861 -1.7842987 4 0
-7.2230072 -3.0630119 -1.8113058 2 1
-8.8500996 -3.7457125 -1.8680203 4 2
-11.772514 -4.975328 -2.0242622 3 3
-18.053146 -7.6185255 -2.4059448 9 4
-19.487667 -8.1958628 -1.1079522 9 6
-6.1401625 -2.5571599 -1.782228 3 0
-7.2406173 -3.011013 -1.8104061 3 1
-8.872406 -3.6823304 -1.8672569 4 2
-11.719368 -4.8567185 -2.0092444 3 3
-17.999508 -7.4482818 -2.391808 9 4
-19.987551 -8.2423592 -1.1330736 10 6
-6.1542878 -2.5127723 -1.7811928 4 0
-7.2398067 -2.9515641 -1.8050072 3 1
-8.890624 -3.6173403 -1.8657305 4 2
-11.716386 -4.7599134 -2.0029871 3 3
-17.957253 -7.2843843 -2.3793771 11 4
-19.678001 -7.9704123 -1.8574631 36 5
-6.1645069 -2.4668736 -1.7791222 4 0
-7.2457595 -2.8951626 -1.8014081 3 1
-8.9332743 -3.5640142 -1.8695467 4 2
-11.689791 -4.6566591 -1.9929754 2 3
-17.981842 -7.1485786 -2.3759649 11 4
-20.589474 -8.1602716 -1.160707 10 6
-6.1775575 -2.4234462 -1.7780869 4 0
-7.2544107 -2.8415124 -1.7987086 3 1
-8.8902826 -3.4751179 -1.8554269 3 2
-11.626324 -4.5375915 -1.9767061 2 3
-17.979519 -7.0026908 -2.3691401 11 4
-20.4188 -7.9281316 -1.1479371 20 6
-6.1767068 -2.3722541 -1.7729106 5 0
-7.2618208 -2.7846458 -1.7955593 3 1
-8.9069929 -3.4101596 -1.8539003 3 2
-11.610518 -4.4359488 -1.9685715 2 3
-17.866606 -6.8154507 -2.347935 9 4
-20.415266 -7.7591081 -1.1445875 10 6
-6.1786523 -2.323633 -1.7687694 4 0
-7.2628412 -2.7270291 -1.7910603 3 1
-8.953229 -3.3546035 -1.8584797 3 2
-11.567197 -4.3271027 -1.9560568 2 3
-17.616211 -6.5794291 -2.3089368 9 4
-20.656124 -7.6860504 -1.1550547 10 6
-6.2019749 -2.2831123 -1.77084 4 0
-7.2743855 -2.6735711 -1.7892607 3 1
-8.8916426 -3.2609193 -1.8409253 3 2
-11.515508 -4.2163558 -1.9422905 3 3
-17.378323 -6.3526855 -2.2718885 9 4
-21.341724 -7.7719727 -1.1903291 20 6
-6.1995878 -2.2332115 -1.7656636 4 0
-7.2965403 -2.6240401 -1.7901604 3 1
-8.9141912 -3.1987665 -1.8409253 3 2
-11.50375 -4.1212058 -1.9354074 3 3
-17.345613 -6.2038021 -2.2618952 11 4
-21.395462 -7.6227894 -1.1903291 20 6
-6.2077384 -2.1873076 -1.763593 4 0
-7.3036523 -2.5691569 -1.7874612 3 1
-8.9135294 -3.1302092 -1.8363459 3 2
-11.449513 -4.014051 -1.9216411 3 3
-17.375387 -6.0779638 -2.2601891 8 4
-21.494001 -7.4934149 -1.1929458 10 6
-6.2188306 -2.1437445 -1.7625577 5 0
-7.322813 -2.5200188 -1.7879109 5 1
-8.9128828 -3.0602541 -1.8317665 3 2
-11.454834 -3.9263341 -1.9178867 3 3
-16.931782 -5.7937446 -2.1973045 4 4
-24.90328 -8.4874735 -1.3788432 11 6
-6.2153378 -2.0941086 -1.7573814 13 0
-7.33284 -2.4663479 -1.7861114 5 1
-8.9856186 -3.0170121 -1.8424517 3 2
-11.443835 -3.8357172 -1.9116293 3 3
-16.792971 -5.6155906 -2.1741493 5 4
-25.297754 -8.4301586 -1.3974749 11 6
-6.2422919 -2.0559855 -1.7610049 19 0
-7.3402014 -2.4133339 -1.7838619 7 1
-8.976615 -2.9444191 -1.8363459 3 2
-11.436543 -3.7446692 -1.9059978 4 3
-16.660988 -5.4456534 -2.1522129 5 4
-25.732029 -8.375742 -1.4181999 11 6
-6.2417808 -2.007622 -1.7568637 14 0
-7.345737 -2.3584585 -1.7811624 6 1
-8.9745159 -2.8744926 -1.8317665 3 2
-11.428538 -3.6539073 -1.9003662 4 3
-16.532181 -5.2760897 -2.1307638 5 4
-25.751802 -8.1838017 -1.4161065 11 6
-6.2648597 -1.9668922 -1.759452 4 0
-7.3508654 -2.3036232 -1.778463 7 1
-8.9606361 -2.8012245 -1.8248973 3 2
-11.442455 -3.5705018 -1.8984889 4 3
-26.506502 -8.2203484 -1.4544164 23 6
-6.2858281 -1.9253689 -1.7615224 3 0
-7.3630424 -2.251107 -1.7775632 7 1
-8.9682283 -2.7367282 -1.8226075 3 2
-11.455156 -3.489079 -1.8966117 4 3
-26.902113 -8.1427193 -1.473048 11 6
-6.2876816 -1.8792202 -1.7584167 4 0
-7.3669896 -2.1975956 -1.7748638 6 1
-8.9946432 -2.6762931 -1.8241341 3 2
-11.452723 -3.4011519 -1.8922316 4 3
-16.28228 -4.8261256 -2.0851846 3 4
-27.352915 -8.0711555 -1.4946103 11 6
-6.3117766 -1.8385199 -1.7615224 4 0
-7.3746667 -2.1439347 -1.7730643 7 1
-8.9829388 -2.6046855 -1.8180283 3 2
-11.449623 -3.3134263 -1.8878514 3 3
-16.170633 -4.6704731 -2.0666604 3 4
-27.043888 -7.7751527 -1.4747227 23 6
-6.3021564 -1.788083 -1.7553109 4 0
-7.3782048 -2.0892122 -1.7703648 7 1
-8.9328861 -2.522701 -1.8042899 3 2
-11.453463 -3.2280533 -1.8847226 3 3
-16.114941 -4.532742 -2.0554485 3 4
-27.174444 -7.6076927 -1.4789096 11 6
-6.3182096 -1.745072 -1.7563461 3 0
-8.9914951 -2.4732957 -1.8126855 3 2
-11.45612 -3.1447909 -1.8815941 2 3
-16.014082 -4.3839617 -2.0386305 2 4
-27.568592 -7.5160627 -1.4975412 23 6
-6.318748 -1.699015 -1.7532402 4 0
-7.3724298 -1.9781958 -1.7622666 25 1
-8.995266 -2.4069107 -1.8100141 4 2
-11.485431 -3.0667708 -1.8828454 2 3
-15.920791 -4.2421451 -2.0230312 2 4
-28.292223 -7.5015478 -1.533967 11 6
-6.3267169 -1.653885 -1.752205 3 0
-7.3992596 -1.9301232 -1.7654159 14 1
-8.9905424 -2.3401859 -1.8058165 3 2
-11.444858 -2.9726295 -1.8728336 1 3
-15.802048 -4.0925751 -2.0042634 2 4
-28.768106 -7.4185205 -1.5569949 12 6
-6.3602958 -1.616492 -1.7584167 3 0
-7.4103365 -1.8792341 -1.7649659 7 1
-9.0275974 -2.2826569 -1.8100141 4 2
-11.438516 -2.8858945 -1.8684534 2 3
-15.744838 -3.9635961 -1.993539 3 4
-37.487236 -9.3883219 -2.0252969 1 6
-6.3789287 -1.5739007 -1.7604873 3 0
-7.3854308 -1.8181376 -1.7559679 7 1
-9.02806 -2.2158351 -1.8069613 4 2
-11.435361 -2.800333 -1.8646991 2 3
-15.656421 -3.825314 -1.9789146 3 4
-6.3409123 -1.5176375 -1.7470287 3 0
-7.4093165 -1.769249 -1.7586673 7 1
-8.9879236 -2.1395667 -1.7958944 4 2
-11.481539 -2.7268183 -1.8690792 2 3
-15.620936 -3.7012694 -1.971115 3 4
-37.618553 -8.864934 -2.0255065 1 6
-6.3682895 -1.4772614 -1.7516873 2 0
-7.4290819 -1.7192366 -1.7604669 7 1
-8.9869757 -2.0748074 -1.7928416 3 2
-11.449783 -2.637078 -1.8609446 2 3
-15.619306 -3.5859091 -1.9677025 3 4
-38.215412 -8.7314491 -2.0543959 0 6
-6.3744283 -1.4330323 -1.7506521 2 0
-7.3968778 -1.6588205 -1.7501192 4 1
-9.0069885 -2.0133007 -1.7939863 4 2
-11.39465 -2.5407426 -1.8490556 2 3
-15.538715 -3.4562342 -1.9545406 3 4
-38.158432 -8.4385672 -2.0481155 1 6
-6.3899403 -1.3897285 -1.752205 2 0
-7.4197044 -1.6096209 -1.7528186 5 1
-8.9901228 -1.9437329 -1.7878804 4 2
-11.415972 -2.4619641 -1.8496813 3 3
-15.543059 -3.3434949 -1.9521034 3 4
-38.200783 -8.1686239 -2.0472779 1 6
-6.3843622 -1.3419071 -1.7480639 2 0
-7.4155035 -1.5545819 -1.7492194 5 1
-8.9977074 -1.8797201 -1.7867355 4 2
-11.436749 -2.3830142 -1.8503071 3 3
-15.534925 -3.2284434 -1.9482036 3 4
-38.174732 -7.8847647 -2.0428817 1 6
-6.3860021 -1.295765 -1.7459934 2 0
-7.4242649 -1.5023892 -1.7487694 3 1
-8.9814272 -1.8126053 -1.7810113 4 2
-11.402354 -2.2949774 -1.8421725 3 3
-15.529837 -3.1144423 -1.9447912 3 4
-38.313702 -7.6419244 -2.0474875 1 6
-6.3567572 -1.2448416 -1.7356406 2 0
-7.4362326 -1.4521925 -1.7492194 3 1
-9.0169878 -1.7543603 -1.7855908 4 2
-11.394827 -2.2108057 -1.8384181 4 3
-15.484411 -2.995841 -1.936504 3 4
-24.681669 -4.757411 -2.1991136 27 5
-38.96629 -7.4896255 -2.0795171 0 6
-6.3880734 -1.2047304 -1.7418523 2 0
-7.4481039 -1.4006042 -1.7496693 3 1
-8.9981403 -1.6855813 -1.7794847 4 2
-11.363381 -2.1224935 -1.8309091 4 3
-15.501046 -2.8869433 -1.9360166 3 4
-39.528255 -7.3118615 -2.1067319 0 6
-6.3811212 -1.1573459 -1.7377111 2 0
-7.4442773 -1.3461453 -1.74652 2 1
-8.9922981 -1.6195915 -1.7760502 3 2
-11.368199 -2.0413675 -1.8293447 5 3
-15.444614 -2.7650158 -1.9265107 2 4
-39.188984 -6.9665098 -2.0860066 0 6
-6.4118843 -1.1167468 -1.7439228 2 0
-7.4611735 -1.2954751 -1.7483196 2 1
-8.972434 -1.5514197 -1.7699443 3 2
-11.364655 -1.95893 -1.826529 4 3
-15.414631 -2.6487164 -1.9204172 2 4
-39.646179 -6.7626119 -2.1077785 0 6
-6.427146 -1.0732304 -1.7459934 1 0
-7.4815698 -1.2452744 -1.751019 2 1
-9.0024147 -1.4919546 -1.7737606 3 2
-11.342972 -1.8737497 -1.8208973 4 3
-15.407284 -2.5368488 -1.9172486 2 4
-40.338951 -6.5912952 -2.1421108 0 6
-6.4039593 -1.0234563 -1.7377111 2 0
-7.4823833 -1.1917887 -1.7492194 2 1
-8.9813385 -1.4257177 -1.7676547 3 2
-11.322294 -1.7912496 -1.8155787 4 3
-15.365792 -2.4199593 -1.9099365 2 4
-40.876202 -6.3937373 -2.1682787 0 6
-6.3649454 -0.97283703 -1.7252878 2 0
-7.4594975 -1.1361352 -1.742021 2 1
-9.0104828 -1.3659261 -1.7714708 3 2
-11.320852 -1.710096 -1.8133886 3 3
-15.377982 -2.3147204 -1.9094491 2 4
-6.3754053 -0.9289363 -1.7263231 2 0
-7.4711037 -1.0845921 -1.7429208 2 1
-9.0120268 -1.301865 -1.7699443 3 2
-11.30123 -1.62652 -1.8083826 4 3
-15.305342 -2.1946297 -1.8984808 3 4
-6.4353147 -0.89182866 -1.740817 2 0
-7.4862161 -1.0334717 -1.7447205 2 1
-9.0675755 -1.2453283 -1.7791032 3 2
-11.300568 -1.5459765 -1.8065054 4 3
-15.265216 -2.0802197 -1.891656 3 4
-47.477398 -6.4107542 -2.5107656 0 6
-6.4183989 -0.84385955 -1.7346053 2 0
-7.4932485 -0.9811846 -1.7447205 2 1
-9.0408001 -1.1790107 -1.772234 3 2
-11.295156 -1.4669873 -1.8040025 4 3
-15.241961 -1.9687663 -1.8870251 4 4
-6.4163265 -0.79919618 -1.7325348 2 0
-7.4881501 -0.92871779 -1.742021 2 1
-8.9942541 -1.1091353 -1.7615488 3 2
-11.305122 -1.3880938 -1.8040025 3 3
-15.235305 -1.8625627 -1.8845876 4 4
-6.398726 -0.75167763 -1.7263231 2 0
-7.4828377 -0.8750599 -1.7393216 2 1
-9.0173769 -1.0481319 -1.7646016 3 2
-11.279217 -1.3050512 -1.7983708 3 3
-15.143417 -1.7441207 -1.8716695 3 4
-6.4364614 -0.71059161 -1.735123 2 0
-7.4577708 -0.81939328 -1.7321231 2 1
-9.0361853 -0.98643374 -1.7668914 3 2
-11.272343 -1.2245691 -1.7958679 2 3
-15.125621 -1.6351533 -1.8680135 4 4
-6.4451079 -0.66603798 -1.7361581 2 0
-7.4826946 -0.76930302 -1.7366221 2 1
-9.0428524 -0.92332309 -1.7668914 3 2
-11.22952 -1.1406531 -1.7877333 2 3
-15.079391 -1.5237327 -1.860945 3 4
-6.4380627 -0.61991543 -1.7330524 2 0
-7.4568453 -0.714073 -1.7294236 2 1
-9.0647125 -0.86165804 -1.7699443 3 2
-11.272609 -1.0655774 -1.793365 2 3
-15.054087 -1.4150811 -1.8565578 3 4
-6.4152946 -0.57255 -1.7258054 2 0
-7.4655313 -0.66234148 -1.7303236 2 1
-9.023572 -0.79422015 -1.7607856 3 2
-11.252224 -0.9844408 -1.7889848 2 3
-15.041845 -1.3080541 -1.8538766 2 4
-6.4056582 -0.52664077 -1.722182 2 0
-7.4699731 -0.61020613 -1.7303236 2 1
-9.0249825 -0.7308895 -1.7600222 3 2
-11.266697 -0.90649784 -1.7902362 2 3
-15.044674 -1.2025393 -1.8531454 3 4
-6.4245901 -0.48306835 -1.7263231 3 0
-7.4507313 -0.55630159 -1.7249247 3 1
-9.0336647 -0.66973168 -1.7607856 3 2
-11.245027 -0.8277564 -1.785856 2 3
-15.046762 -1.0970454 -1.8524141 2 4
-6.4084554 -0.43800893 -1.7211467 2 0
-7.4660106 -0.50636429 -1.7276241 3 1
-9.0655432 -0.60848922 -1.7661282 3 2
-11.234763 -0.74818116 -1.7833531 2 3
-15.018228 -0.99224401 -1.8480269 2 4
-6.4094291 -0.39314204 -1.7206291 2 0
-7.4771442 -0.45470428 -1.7294236 3 1
-8.9637461 -0.53882581 -1.7455208 3 2
-11.235768 -0.66949719 -1.7827275 2 3
-14.987137 -0.8851527 -1.8433958 2 4
-6.4216633 -0.34890878 -1.7232174 3 0
-7.4606771 -0.40144405 -1.7249247 3 1
-8.9868937 -0.4772751 -1.749337 3 2
-11.240169 -0.59104043 -1.7827275 2 3
-14.969164 -0.77926284 -1.840471 2 4
-6.416223 -0.30370477 -1.7211467 3 0
-7.4360456 -0.34807503 -1.718626 2 1
-8.98209 -0.41573113 -1.7478106 3 2
-11.196571 -0.51235265 -1.7752185 2 3
-14.926645 -0.67259479 -1.8346213 1 4
-6.4335842 -0.26064944 -1.7252878 3 0
-7.4518723 -0.29799637 -1.7217753 3 1
-8.9730024 -0.35254958 -1.7455208 3 2
-11.172241 -0.43309942 -1.7708384 2 3
-14.95468 -0.57188684 -1.8375461 2 4
-6.4159393 -0.21508093 -1.7201115 3 0
-7.4518242 -0.24590097 -1.7213255 4 1
-8.9555712 -0.29082891 -1.7417046 3 2
-11.190725 -0.35754955 -1.7733413 2 3
-14.894817 -0.46548891 -1.8297465 2 4
-6.4288421 -0.17171344 -1.7232174 3 0
-7.4357924 -0.1947131 -1.7172763 3 1
-8.9573841 -0.22830015 -1.7417046 3 2
-11.169251 -0.27882326 -1.7695868 2 3
-14.897641 -0.36409211 -1.8297465 2 4
-6.4182949 -0.12660043 -1.7201115 3 0
-7.4174867 -0.14242439 -1.7127774 3 1
-8.9234276 -0.16510651 -1.7348354 3 2
-11.143275 -0.20034325 -1.7652067 2 3
-14.870048 -0.25955841 -1.8260905 2 4
-6.3977737 -0.081518456 -1.7144175 2 0
-7.4319406 -0.090801992 -1.7159266 4 1
-8.9165106 -0.1027169 -1.733309 3 2
-11.104897 -0.12211189 -1.7589493 2 3
-14.857601 -0.15559407 -1.8243842 2 4
-6.4155731 -0.036951728 -1.7190762 3 0
-7.4304442 -0.038906619 -1.7154768 3 1
-8.9012976 -0.041947622 -1.7302561 3 2
-11.121274 -0.046586476 -1.7614522 3 3
-14.85634 -0.051857736 -1.8241404 2 4
-6.4156761 0.0067186379 -1.7190762 3 0
-7.4227424 0.011659571 -1.7136772 3 1
-8.9013729 0.020194046 -1.7302561 3 2
-11.113427 0.031031074 -1.7602009 3 3
-14.723349 0.048826504 -1.8078099 2 4
-6.4096775 0.051460277 -1.7175232 2 0
-7.4283261 0.063528024 -1.7150269 3 1
-8.9010296 0.080783427 -1.7302561 3 2
-11.116909 0.10671779 -1.7608266 3 3
-14.716695 0.15154883 -1.8070788 2 4
-6.4323587 0.095432371 -1.7237349 2 0
-7.421876 0.11399988 -1.7136772 3 1
-8.9238033 0.14330274 -1.7348354 3 2
-11.111942 0.18426032 -1.7602009 3 3
-14.73517 0.25205842 -1.8095162 2 4
-6.3948383 0.13953565 -1.7138997 2 0
-7.4306407 0.16602921 -1.7159266 2 1
-8.9068842 0.20523521 -1.7317824 3 2
-11.094586 0.26145685 -1.7576978 2 3
-14.713206 0.35444158 -1.8070788 2 4
-6.4130197 0.18473136 -1.7190762 2 0
-7.4215088 0.21767229 -1.7141271 2 1
-8.9366331 0.26835483 -1.7378885 3 2
-11.068798 0.33818144 -1.7539434 2 3
-14.726246 0.45764375 -1.8090287 2 4
-6.3691001 0.22797938 -1.7076882 2 0
-7.4159131 0.26933742 -1.7132272 2 1
-8.8875122 0.32744366 -1.7287296 3 2
-11.078084 0.41395926 -1.7558208 2 3
-14.681036 0.55885541 -1.8039103 2 4
-6.406003 0.2729722 -1.7180409 2 0
-7.4216962 0.32014576 -1.7150269 2 1
-8.9477739 0.3922314 -1.7409414 3 2
-11.063084 0.49076086 -1.7539434 2 3
-14.680858 0.65894783 -1.8043977 2 4
-6.3576331 0.31538913 -1.7056175 2 0
-7.4543138 0.37370571 -1.7231251 2 1
-8.8663893 0.45070237 -1.7256767 3 2
-11.027822 0.5663653 -1.7489375 2 3
-14.640216 0.75957566 -1.8000103 2 4
-6.4015675 0.36238503 -1.7180409 1 0
-7.4087205 0.42329025 -1.7132272 2 1
-8.8473473 0.51168358 -1.7226238 3 2
-11.027544 0.64356774 -1.7495633 2 3
-14.622666 0.86106145 -1.7985479 1 4
-6.3834572 0.40608788 -1.7138997 2 0
-7.417253 0.47575274 -1.7159266 2 1
-8.9180059 0.57826245 -1.7371252 3 2
-11.01884 0.7202785 -1.7489375 2 3
-14.624223 0.96364462 -1.7995229 2 4
-6.4112997 0.45281908 -1.722182 2 0
-7.4020877 0.52669173 -1.7132272 2 1
-8.8863363 0.63853991 -1.7317824 3 2
-11.017484 0.79747486 -1.7495633 2 3
-14.585461 1.0634114 -1.7956231 2 4
-6.3694611 0.49457625 -1.7118292 2 0
-7.4176583 0.57987398 -1.7177262 2 1
-8.8620911 0.69901681 -1.7279664 3 2
-11.023462 0.87530738 -1.7514404 2 3
-14.585596 1.1658403 -1.796598 2 4
-6.3504534 0.53772742 -1.7076882 2 0
-7.4017797 0.63065225 -1.7150269 2 1
-8.8765545 0.76254708 -1.7317824 3 2
-11.021019 0.95258725 -1.7520663 2 3
-14.55337 1.2655783 -1.7936732 2 4
-6.3734775 0.58451742 -1.7149351 2 0
-7.4088397 0.68338317 -1.7177262 2 1
-8.8553762 0.8230471 -1.7287296 3 2
-10.990499 1.0272965 -1.7483118 2 3
-14.524417 1.3652879 -1.7912358 2 4
-6.3577065 0.62785923 -1.7118292 2 0
-7.396131 0.73432165 -1.7159266 2 1
-8.8298798 0.88289386 -1.7249134 3 2
-10.955543 1.1012311 -1.7439317 2 3
-14.496756 1.4648545 -1.7890421 2 4
-21.320055 2.1693704 -1.8748943 35 5
-6.3531685 0.67222911 -1.7118292 2 0
-7.3675714 0.78346395 -1.7105279 2 1
-8.8195963 0.94410074 -1.7241502 3 2
-10.959373 1.1789588 -1.7458088 2 3
-14.494071 1.5668823 -1.790017 2 4
-6.336802 0.71526611 -1.7087234 2 0
-7.3735394 0.83619767 -1.7132272 2 1
-8.8205938 1.0065384 -1.7256767 3 2
-10.970499 1.257688 -1.7489375 2 3
-14.484751 1.6682553 -1.7902608 3 4
-6.3585076 0.76270896 -1.7159703 2 0
-7.3636527 0.88718814 -1.7123275 2 1
-8.8330269 1.0689136 -1.7294928 3 2
-10.945996 1.3304261 -1.7464346 2 3
-14.456988 1.7674103 -1.7883109 3 4
-6.3340044 0.80353963 -1.710794 2 0
-7.3497114 0.93630373 -1.7105279 2 1
-8.8370342 1.1320505 -1.7317824 3 2
-10.94428 1.4078194 -1.7476861 3 3
-6.2976041 0.84363568 -1.7025118 2 0
-7.3236823 0.98499399 -1.7060288 2 1
-8.7900057 1.188454 -1.7241502 3 2
-63.896797 8.6505318 5.6412425 22 10
-10.930269 1.4836565 -1.7470603 3 3
-63.904575 8.6970329 7.9188271 7 11
-6.3183417 0.89135873 -1.7097588 2 0
-7.3089085 1.0350059 -1.7042291 2 1
-8.8125925 1.2542168 -1.7302561 3 2
-10.888357 1.5554584 -1.7420545 3 3
-14.39162 2.063607 -1.7851423 4 4
-6.3004994 0.93374658 -1.7066529 2 0
-7.2976503 1.0854315 -1.7033294 2 1
-8.7844334 1.3112726 -1.7264398 3 2
-10.869702 1.6283637 -1.7408029 9 3
-14.370974 2.1631427 -1.7844112 3 4
-6.2787256 0.97424155 -1.7025118 2 0
-7.3035712 1.1371785 -1.7064787 3 1
-8.778944 1.3731763 -1.727203 3 2
-10.838554 1.7011487 -1.7376742 24 3
-14.397097 2.2673981 -1.7895297 4 4
-6.2965603 1.0220754 -1.709241 2 0
-7.2896848 1.1871997 -1.705129 3 1
-8.7497692 1.4312603 -1.723387 3 2
-10.853705 1.7812507 -1.7420545 4 3
-14.437718 2.3772027 -1.796598 3 4
-6.2930813 1.0666546 -1.7102764 2 0
-7.2658491 1.235449 -1.7015297 3 1
-8.7647219 1.4966083 -1.728348 4 2
-10.829323 1.854982 -1.7401772 4 3
-14.788578 2.5411437 -1.8424209 7 4
-6.2569456 1.1055192 -1.7025118 2 0
-7.2493715 1.2847837 -1.6997302 4 1
-8.7038059 1.5488163 -1.7184259 24 2
-10.835554 1.934008 -1.7433058 4 3
-14.809558 2.6513183 -1.8472956 7 4
-37.430351 6.7482748 -1.9932674 2 6
-6.2737746 1.1537161 -1.709241 2 0
-7.2517242 1.3374833 -1.7024295 5 1
-8.6773376 1.606681 -1.715373 25 2
-10.80431 2.0063589 -1.7404901 4 3
-14.782881 2.75319 -1.8463207 7 4
-37.06039 6.9490495 -1.9761013 2 6
-6.2712603 1.1985751 -1.710794 3 0
-7.246038 1.3888093 -1.7033294 5 1
-8.7028313 1.6727494 -1.7226238 3 2
-10.813679 2.0843415 -1.7442445 4 3
-14.736014 2.8510478 -1.8429084 7 4
-36.149609 7.033318 -1.9300456 3 6
-6.2781167 1.2442377 -1.7149351 3 0
-7.2287712 1.4365799 -1.7015297 5 1
-8.6851645 1.7323136 -1.7214788 4 2
-10.816297 2.1632712 -1.7470603 4 3
-14.747407 2.9575286 -1.8468081 7 4
-35.962585 7.2578521 -1.9227186 4 6
-6.2389998 1.2818178 -1.7066529 3 0
-8.7151566 1.8016492 -1.7298744 4 2
-10.88217 2.255569 -1.7602009 3 3
-14.776935 3.0709145 -1.8531454 7 4
-35.308903 7.3828478 -1.8904796 4 6
-6.2336783 1.3261455 -1.7076882 3 0
-7.1832328 1.5320841 -1.6956811 42 1
-8.6754894 1.8566965 -1.7245318 4 2
-11.043849 2.369612 -1.7889848 7 3
-14.774543 3.1781771 -1.8555828 7 4
-35.112049 7.5979042 -1.8827339 4 6
-6.2091742 1.3663111 -1.703547 3 0
-7.2009063 1.5884937 -1.7024295 6 1
-8.6473141 1.9123144 -1.7214788 4 2
-11.110391 2.4631147 -1.8024381 8 3
-14.817878 3.2958992 -1.8638699 7 4
-34.548836 7.7225776 -1.8553097 5 6
-6.2110333 1.4111121 -1.7066529 9 0
-7.1842265 1.6361721 -1.7010798 6 1
-8.6643772 1.9796323 -1.7275848 4 2
-11.069818 2.5353253 -1.7986836 8 3
-14.829926 3.4046772 -1.8682572 7 4
-6.1690574 1.4469395 -1.6978531 18 0
-7.1498647 1.6809357 -1.6956811 6 1
-8.6694546 2.0445771 -1.7314008 4 2
-11.003789 2.6011872 -1.7908621 9 3
-14.84829 3.518199 -1.8736194 7 4
-33.260258 7.9237041 -1.7918787 7 6
-6.1588058 1.4899709 -1.6978531 19 0
-7.1379561 1.7308085 -1.6956811 6 1
-8.6435232 2.1022696 -1.7291112 4 2
-10.960413 2.6718602 -1.7867948 8 3
-14.869649 3.6330781 -1.8794692 7 4
-31.846401 7.8222299 -1.7186083 17 6
-24.356129 5.9914508 5.7906899 7 14
-6.1651235 1.5371373 -1.7025118 3 0
-7.137042 1.7834332 -1.6983805 6 1
-8.6933842 2.178787 -1.7420862 4 2
-10.933829 2.7463856 -1.7855432 8 3
-14.855474 3.7397034 -1.8809316 7 4
-6.1504998 1.5791796 -1.7014765 3 0
-7.1319666 1.8351583 -1.7001802 6 1
-8.8471479 2.2830875 -1.7760502 4 2
-10.93925 2.8290837 -1.7896105 9 3
-14.925082 3.8682282 -1.8931185 7 4
-29.625441 7.7168412 -1.6044112 22 6
-6.1355896 1.6210928 -1.7004411 5 0
-7.1057944 1.8814126 -1.6970307 5 1
-8.8465834 2.3472812 -1.7791032 6 2
-10.933104 2.9070296 -1.7918006 8 3
-14.93224 3.9815331 -1.8975059 7 4
-29.006943 7.7669549 -1.5737424 24 6
-6.1355987 1.665856 -1.703547 7 0
-7.1135077 1.9353642 -1.7019798 6 1
-8.8110418 2.4038179 -1.775287 6 2
-10.941124 2.9910998 -1.7964935 9 3
-14.941169 4.0930467 -1.9021369 9 4
-28.031555 7.7159166 -1.5237092 23 6
-6.1312633 1.7107253 -1.7056175 4 0
-7.1148372 1.9891746 -1.7055789 7 1
-8.7732506 2.4594402 -1.7710892 7 2
-10.921878 3.067945 -1.7968066 8 3
-15.059365 4.2386689 -1.9209048 7 4
-20.359814 5.7765985 5.6707258 2 15
-6.1043139 1.7492306 -1.7014765 5 0
-7.1213808 2.044713 -1.7105279 5 1
-8.7370005 2.515198 -1.7672729 7 2
-10.930562 3.1528761 -1.8018124 8 3
-15.014151 4.3392868 -1.9189547 7 4
-6.1178999 1.7994356 -1.7087234 3 0
-7.1835718 2.1169651 -1.7289737 7 1
-8.6928682 2.5683444 -1.7619303 7 2
-10.927225 3.2347159 -1.8049411 8 3
-14.968266 4.4394841 -1.9170049 7 4
-6.0755968 1.8331726 -1.7004411 4 0
-7.2283101 2.1851072 -1.7433707 9 1
-8.6484222 2.6209979 -1.7565877 7 2
-10.889256 3.3063323 -1.8024381 8 3
-14.948303 4.5473409 -1.9184674 7 4
-21.261541 6.48002 -1.9446188 34 5
-29.684713 9.0698586 -1.6267064 10 6
-6.0921793 1.8846803 -1.7087234 4 0
-7.264997 2.2516723 -1.7559679 9 1
-8.6603813 2.6891203 -1.7626936 7 2
-10.868384 3.3809633 -1.8027509 9 3
-14.950304 4.6622262 -1.9228547 7 4
-21.215786 6.6282959 -1.9446188 34 5
-6.0755272 1.9249364 -1.7076882 4 0
-7.2234993 2.2928159 -1.7496693 9 1
-8.6769419 2.7608232 -1.7699443 6 2
-10.868983 3.4645531 -1.8068182 8 3
-14.946589 4.7729363 -1.9265107 9 4
-29.568251 9.4819422 -1.6273344 10 6
-6.0876651 1.9756534 -1.7149351 4 0
-7.2017565 2.341382 -1.7483196 10 1
-8.6406565 2.81586 -1.7665098 7 2
-10.882088 3.5526121 -1.8130757 8 3
-14.877053 4.8654466 -1.9218796 11 4
-6.0663919 2.0156672 -1.7128645 3 0
-7.1889338 2.3928318 -1.7492194 11 1
-8.6170635 2.8748698 -1.7657466 7 2
-10.842032 3.6234851 -1.8105727 8 3
-14.84649 4.9704461 -1.9223672 13 4
-22.093193 7.4265981 -1.2215214 20 6
-6.1143579 2.0791152 -1.7304642 4 0
-7.1572962 2.4379351 -1.7456201 11 1
-8.6042156 2.9374931 -1.7672729 7 2
-10.827687 3.7029212 -1.8124499 8 3
-14.980445 5.1318698 -1.9443036 10 4
-21.515757 7.4000669 -1.1924225 20 6
-6.185451 2.1515808 -1.7547932 6 0
-7.1437821 2.4891255 -1.74652 10 1
-8.6168604 3.0091431 -1.7741421 7 2
-10.807166 3.7803817 -1.8133886 9 3
-14.949872 5.2383008 -1.9450349 9 4
-20.985014 7.3817506 -1.1658359 20 6
-6.1903014 2.2018325 -1.7604873 9 0
-7.1097088 2.5330515 -1.7424709 9 1
-37.424679 13.341048 2.0822387 0 9
-8.585084 3.0637655 -1.7718524 9 2
-10.807224 3.8631625 -1.8177687 9 3
-14.813892 5.307056 -1.9321167 13 4
-20.423048 7.3406672 -1.1373651 40 6
-6.1896954 2.2491958 -1.7646283 9 0
-7.0923023 2.581387 -1.7424709 9 1
-37.368164 13.615663 2.084332 0 9
-8.5782413 3.1290081 -1.7749053 9 2
-10.809678 3.9493632 -1.8227745 9 3
-14.792339 5.4132257 -1.9340667 12 4
-6.1557326 2.2856271 -1.759452 9 0
-7.0741086 2.6308362 -1.7424709 9 1
-37.365784 13.911061 2.0895655 0 9
-8.5635471 3.1915617 -1.7764318 7 2
-10.807753 4.0344043 -1.8271548 9 3
-14.661218 5.4816046 -1.9218796 13 4
-26.457516 9.928916 -1.481003 23 6
-6.11795 2.3203256 -1.7532402 9 0
-7.0774302 2.6884644 -1.7478697 9 1
-8.5704136 3.2624416 -1.7825377 7 2
-10.797783 4.1167932 -1.8302835 9 3
-14.298059 5.4598942 -1.8792255 16 4
-25.83552 9.9018078 -1.4500202 11 6
-6.0907931 2.3587947 -1.7501343 9 0
-7.0548549 2.7363975 -1.7469698 9 1
-8.548008 3.3207033 -1.7825377 7 2
-10.765827 4.1887631 -1.8296577 9 3
-14.328022 5.5862641 -1.8882437 15 4
-18.171003 7.1065083 -1.02254 9 6
-6.0781898 2.4016187 -1.7511697 9 0
-7.043314 2.7872233 -1.7487694 9 1
-8.5355682 3.3846388 -1.7848274 7 2
-10.747338 4.2681928 -1.8315349 9 3
-14.43354 5.7408881 -1.9072554 15 4
-18.131777 7.2228451 -1.7075553 37 5
-18.228537 7.2761335 -1.0286109 9 6
-6.0827765 2.4526615 -1.7573814 9 0
-7.0363336 2.8414335 -1.7519189 10 1
-8.5196123 3.4456046 -1.7863539 7 2
-10.718036 4.3412514 -1.8315349 9 3
-14.25332 5.7847748 -1.8887312 15 4
-24.442217 9.9498081 -1.3830301 22 6
-6.0587935 2.4910707 -1.7553109 9 0
-7.0078192 2.8855524 -1.7496693 9 1
-8.5026102 3.5079942 -1.7878804 7 2
-10.691119 4.4174805 -1.8321607 9 3
-14.033856 5.8072758 -1.8648449 16 4
-17.524878 7.2662048 -1.6597939 36 5
-23.433281 9.7303476 -1.3297521 21 6
-14.21632 5.9176812 4.1260934 1 15
-6.0341282 2.5303199 -1.7532402 7 0
-7.0162511 2.9464786 -1.7568678 9 1
-8.4634342 3.5611761 -1.7848274 9 2
-10.650918 4.488173 -1.8305963 8 3
-13.824714 5.8340993 -1.8424209 19 4
-17.117712 7.2378483 -1.6259774 35 5
-23.236036 9.8391905 -1.3224251 21 6
-6.0127645 2.5708642 -1.752205 7 0
-7.0223823 3.0068939 -1.7636162 10 1
-8.4564095 3.6279161 -1.7886436 9 2
-10.633843 4.5686593 -1.8330992 8 3
-13.546596 5.8284793 -1.8107349 19 4
-16.75573 7.2230897 -1.5963445 34 5
-23.403326 10.103281 -1.3359277 10 6
-6.0088367 2.6189549 -1.7563461 7 0
-6.9851441 3.0488315 -1.7595671 9 1
-8.4830408 3.7096763 -1.7997105 6 2
-10.616165 4.6491256 -1.8356022 8 3
-13.409223 5.8806548 -1.7978168 21 4
-15.882658 6.9885345 -0.90938967 18 6
-5.9833455 2.6577024 -1.7542756 7 0
-6.9797144 3.1046491 -1.7636162 10 1
-8.4515562 3.7664092 -1.7985657 7 2
-10.617723 4.7384224 -1.8415467 9 3
-13.492893 6.0300121 -1.8146347 18 4
-15.879833 7.106719 -1.5220878 48 5
-15.849883 7.1065998 -0.91033173 36 6
-5.996326 2.7137451 -1.763593 9 0
-6.9596448 3.1541054 -1.7640662 9 1
-8.43645 3.8287182 -1.8008554 7 2
-10.664352 4.8465466 -1.8553129 9 3
-13.450469 6.1240597 -1.8146347 18 4
-21.484253 9.8090515 -1.2377455 10 6
-5.9671884 2.7496474 -1.7604873 7 0
-6.9557095 3.2095685 -1.7685652 9 1
-8.4309006 3.897408 -1.8054349 9 2
-10.65894 4.934154 -1.8603188 9 3
-13.444492 6.2321696 -1.8195094 18 4
-21.223278 9.8695345 -1.2266502 31 6
-5.9548411 2.7945232 -1.7625577 9 0
-6.9542966 3.2679975 -1.7739639 8 1
-8.4212475 3.9645317 -1.809251 9 2
-10.624235 5.0084448 -1.8603188 9 3
-13.337827 6.2962155 -1.8109785 20 4
-20.37767 9.649889 -1.1816413 10 6
-5.9561043 2.8460209 -1.7687694 9 0
-6.931313 3.3164663 -1.7739639 9 1
-8.414609 4.033412 -1.8138304 7 2
-10.530241 5.0542884 -1.8499942 13 3
-13.170093 6.3298469 -1.7941607 18 4
-17.459587 8.4064846 -1.6953535 37 5
-20.18387 9.7312002 -1.1743144 30 6
-5.9430394 2.8909135 -1.77084 7 0
-6.9044867 3.3630688 -1.7730643 8 1
-8.4038906 4.100666 -1.8176465 7 2
-10.469852 5.1155376 -1.845614 13 3
-13.038209 6.3788867 -1.7822174 21 4
-17.457722 8.5562286 -1.7009314 37 5
-19.934351 9.7830009 -1.1637425 20 6
-5.9365621 2.9391906 -1.774981 9 0
-6.9087758 3.4250383 -1.7802627 9 1
-8.3856087 4.1644735 -1.8199363 7 2
-10.47987 5.2113771 -1.8537486 14 3
-12.972033 6.4591403 -1.7792926 20 4
-17.334887 8.6428576 -1.6946561 37 5
-19.406363 9.6925726 -1.1368417 10 6
-5.9193492 2.982301 -1.7760164 9 0
-6.8777366 3.4696743 -1.778463 9 1
-8.3693342 4.2276525 -1.8226075 6 2
-10.509377 5.3155766 -1.8653249 10 3
-12.933708 6.5531311 -1.7802675 21 4
-13.61035 6.904923 -1.3352259 25 5
-13.549174 6.8828092 -0.79644865 52 6
-5.9023504 3.0242856 -1.7770516 9 0
-6.8574281 3.5181885 -1.7793628 9 1
-8.3291397 4.2805943 -1.820318 6 2
-10.347302 5.3246427 -1.843111 14 3
-12.78469 6.5873713 -1.7658869 18 4
-13.552962 6.9952006 -1.3343544 64 5
-13.598382 7.0276661 -0.80220562 17 6
-5.8947983 3.0725615 -1.7811928 9 0
-6.8568854 3.5785995 -1.7856615 8 1
-8.2973118 4.3377285 -1.8199363 7 2
-10.203122 5.3408661 -1.8240261 12 3
-12.676853 6.6442084 -1.7573562 20 4
-18.396498 9.6706676 -1.089216 19 6
-18.702301 9.8439245 -0.36890897 38 7
-5.869791 3.1118288 -1.7801574 7 0
-6.8678837 3.6455681 -1.7951094 10 1
-8.2772274 4.4010792 -1.8222259 9 2
-10.284156 5.4750905 -1.8453012 22 3
-12.568847 6.6998653 -1.7488252 18 4
-18.118938 9.6868029 -1.0767601 19 6
-5.8751302 3.1674016 -1.7884396 9 0
-6.8491235 3.6971304 -1.796909 10 1
-8.2868032 4.4787889 -1.8310033 6 2
-10.349152 5.6004348 -1.8637605 17 3
-12.415311 6.7297444 -1.7339572 21 4
-17.503302 9.5114279 -1.0439978 19 6
-5.8703761 3.2166021 -1.7936161 9 0
-6.8374677 3.7511642 -1.8005083 10 1
-8.2467318 4.5318031 -1.8290951 7 2
-10.313264 5.6744509 -1.8643861 17 3
-12.480494 6.8753958 -1.7495564 23 4
-17.270393 9.5416355 -1.0340539 19 6
-5.8646545 3.2669063 -1.7987925 9 0
-6.8009024 3.7931104 -1.7978089 10 1
-8.2286024 4.5969272 -1.8321481 9 2
-22.67918 12.674962 2.2730217 2 10
-10.287189 5.7540302 -1.8668892 17 3
-12.246867 6.8585758 -1.7234763 15 4
-12.518977 7.031065 -0.75248641 8 6
-5.8215322 3.2963457 -1.7925807 7 0
-6.7810373 3.8443396 -1.7996083 10 1
-17.20273 9.7605991 1.0365661 2 9
-8.2065535 4.6600761 -1.8344377 9 2
-22.752983 12.925491 2.289407 2 10
-10.215858 5.8081317 -1.8612576 18 3
-12.150383 6.9164081 -1.7166517 19 4
-16.845821 9.6164818 -1.0165738 19 6
-5.8218184 3.3503993 -1.7998277 9 0
-6.7709179 3.9013171 -1.8041074 10 1
-8.1976271 4.7309923 -1.8397803 9 2
-10.1648 5.8733778 -1.8593802 17 3
-12.098367 6.9990749 -1.7161642 19 4
-16.08737 9.3217697 -1.6266748 35 5
-16.574423 9.6155844 -1.0042225 18 6
-5.8082924 3.3968115 -1.8029336 9 0
-6.7721062 3.9652295 -1.8117559 9 1
-8.1762514 4.7950611 -1.8424517 10 2
-10.096292 5.9281979 -1.8543743 17 3
-11.896902 6.9938331 -1.6944715 20 4
-16.162779 9.528203 -0.98328799 18 6
-5.7944012 3.4431994 -1.8060393 9 0
-6.7643552 4.0243673 -1.8171545 9 1
-8.1501722 4.8546209 -1.8439783 10 2
-19.896538 11.860713 2.0265453 2 10
-10.035348 5.9846401 -1.85062 19 3
-11.696112 6.9861202 -1.6727787 18 4
-15.840511 9.4841003 -0.96758723 18 6
-5.7708297 3.4825609 -1.8060393 7 0
-6.7334695 4.0683026 -1.8162549 9 1
-8.1311979 4.9205489 -1.8474127 7 2
-19.84602 12.014448 2.0296829 4 10
-10.128482 6.1364417 -1.8756495 13 3
-10.960897 6.6486168 -1.5740645 7 4
-15.635693 9.5103893 -0.95910877 27 6
-5.7727294 3.5389175 -1.8143215 7 0
-6.7148695 4.1213264 -1.8189542 8 1
-8.0741005 4.9613914 -1.8420701 7 2
-10.110033 6.2197304 -1.8800297 18 3
-11.389113 7.0175934 -1.6425551 11 4
-11.312177 6.9865403 -0.69680101 8 6
-5.7386661 3.5720046 -1.8112158 9 0
-6.67343 4.1586928 -1.8153551 9 1
-8.0559206 5.0280352 -1.8458863 16 2
-9.996006 6.2461977 -1.8668892 18 3
-11.287229 7.0612636 -1.6347555 11 4
-11.24959 7.0568533 -0.69596362 8 6
-5.729919 3.6223021 -1.8163921 9 0
-6.6574073 4.2135181 -1.8189542 8 1
-7.9045501 5.0105753 -1.8191731 15 2
-10.015535 6.35605 -1.8787781 11 3
-11.418614 7.2548594 -1.6610793 19 4
-14.868829 9.4724874 -0.92393911 18 6
-5.7044897 3.6622176 -1.8163921 9 0
-6.6278291 4.2598925 -1.8189542 8 1
-7.8858862 5.0762615 -1.8229893 16 2
-9.9875212 6.4365168 -1.8819069 17 3
-11.506132 7.423728 -1.6813096 21 4
-18.55868 12.006143 -1.1584041 10 6
-5.6658387 3.693512 -1.812251 9 0
-6.6044574 4.3103185 -1.8207539 8 1
-7.958715 5.2020869 -1.8481761 21 2
-19.813725 12.955861 2.0711691 4 10
-9.9654837 6.5212297 -1.886287 16 3
-11.512144 7.5419469 -1.6898406 11 4
-18.369242 12.066333 -1.1518098 20 6
-5.665689 3.7500386 -1.8205333 9 0
-6.5888233 4.3660107 -1.824803 10 1
-7.9189324 5.2553496 -1.8474127 15 2
-19.812428 13.15338 2.0805819 2 10
-9.9394598 6.6037579 -1.8900415 16 3
-11.771602 7.8299155 -1.7359071 10 4
-14.356308 9.5636091 -1.5091888 31 5
-14.125501 9.420536 -0.88981605 17 6
-5.6393714 3.7894998 -1.8205333 9 0
-6.5727358 4.4216914 -1.8288521 8 1
-7.9048438 5.3258653 -1.8527553 15 2
-9.8898382 6.6707811 -1.8894157 14 3
-11.734746 7.9241295 -1.7385882 14 4
-14.029618 9.498765 -0.88793194 8 6
-5.6351218 3.8440173 -1.8277801 9 0
-6.5384874 4.4652715 -1.8279523 8 1
-7.7702417 5.3144207 -1.8298583 15 2
-9.7191553 6.6548424 -1.8656377 15 3
-10.975085 7.5232391 -1.6337806 7 4
-13.84116 9.5127659 -0.8801862 17 6
-5.6049709 3.8810661 -1.8267449 7 0
-6.547194 4.5385661 -1.8391999 10 1
-7.761981 5.3886886 -1.8367275 19 2
-9.6335306 6.6954737 -1.8581288 17 3
-11.150418 7.7584071 -1.667904 19 4
-17.271664 12.048876 -1.1036608 19 6
-5.5840621 3.9245434 -1.8288155 7 0
-6.5041938 4.5763121 -1.8360505 15 1
-7.640718 5.3839445 -1.8168833 18 2
-9.6059208 6.7762308 -1.8618832 18 3
-9.8247213 6.9382854 -1.4768128 3 4
-9.830761 6.9605656 -0.63127637 8 6
-5.5974197 3.9926 -1.8422741 9 0
-6.4451261 4.6023564 -1.8284022 17 1
-7.7220807 5.5203152 -1.8451231 19 2
-9.5467234 6.8322601 -1.8593802 17 3
-11.634769 8.338891 -1.7575998 10 4
-16.820019 12.081957 -1.0853431 29 6
-5.5763731 4.0351377 -1.8443446 9 0
-6.3978682 4.6346879 -1.8239032 17 1
-13.52335 9.8036661 0.87537134 2 9
-7.8263745 5.6778493 -1.8794687 9 2
-9.5083838 6.9057078 -1.8612576 17 3
-11.510303 8.3688631 -1.7473627 15 4
-15.716719 11.444032 -1.7009314 37 5
-16.493166 12.022615 -1.0696424 28 6
-5.5605245 4.0831156 -1.8484857 9 0
-6.5113802 4.786582 -1.8657441 14 1
-7.7612486 5.713726 -1.8733629 15 2
-9.4599409 6.971921 -1.8612576 18 3
-11.59696 8.5562649 -1.7695429 10 4
-15.636444 11.553473 -1.7009314 37 5
-16.11338 11.918919 -1.0503827 9 6
-5.5225878 4.114912 -1.8453798 9 0
-6.5027962 4.8505673 -1.8729424 11 1
-7.7809381 5.8124175 -1.8878642 13 2
-9.3762331 7.0117664 -1.8543743 18 3
-10.599368 7.935111 -1.6257372 4 4
-15.475698 11.602596 -1.6922158 37 5
-15.954701 11.974771 -1.0454632 19 6
-5.496809 4.155695 -1.8464152 9 0
-6.4780993 4.9029021 -1.8756418 13 1
-7.8371782 5.9401212 -1.9115247 10 2
-9.1885719 6.9719791 -1.8268418 17 3
-10.421993 7.9164586 -1.6069694 2 4
-15.805564 12.036253 -1.0411717 28 6
-5.4921894 4.21278 -1.8546973 9 0
-6.4313493 4.9385118 -1.8720427 13 1
-7.7301521 5.9444246 -1.8954966 13 2
-9.1271534 7.0263152 -1.8243389 18 3
-11.044154 8.5112839 -1.7120206 9 4
-15.474593 11.955811 -1.0248427 28 6
-5.453496 4.2439027 -1.8515915 9 0
-6.3721166 4.9641304 -1.8648442 14 1
-7.7142816 6.016223 -1.9016025 15 2
-9.0760021 7.0858483 -1.8237133 19 3
-10.125913 7.9169221 -1.5782082 3 4
-15.337829 12.017753 -1.0211793 19 6
-5.4366145 4.2904997 -1.8557327 9 0
-6.3595867 5.024302 -1.871143 12 1
-7.7290611 6.1150012 -1.9157225 10 2
-8.9210148 7.0656366 -1.8024381 18 3
-8.3514204 6.621624 -1.3086332 19 4
-8.349391 6.6295161 -0.93274075 39 5
-8.2959595 6.5941753 -0.55538923 41 6
-5.3974805 4.3211045 -1.8526268 9 0
-6.2863407 5.0381093 -1.8598953 16 1
-7.6218739 6.1172013 -1.8996944 12 2
-17.068026 13.703432 1.9149859 1 10
-8.2708998 6.6452227 -1.6804192 31 3
-8.2338333 6.6225386 -1.2974212 34 4
-8.2485991 6.6438999 -0.92663985 45 5
-8.2574959 6.6582003 -0.55591261 41 6
-5.3746805 4.3647695 -1.855215 6 0
-6.2706718 5.0978541 -1.8657441 14 1
-7.6109552 6.19629 -1.9077084 10 2
-8.2059326 6.6878247 -1.6766648 25 3
-8.2181625 6.7049565 -1.3022959 24 4
-8.2278728 6.7200575 -0.92942882 46 5
-8.2803812 6.7725878 -0.56062281 20 6
-14.88584 12.188257 -0.33581921 37 7
-5.3485508 4.4058704 -1.8567679 9 0
-6.1973429 5.1105118 -1.8544965 21 1
-7.5262089 6.2129574 -1.8970231 10 2
-8.1876287 6.7661767 -1.6822965 27 3
-8.1803274 6.7697625 -1.3037584 18 4
-14.435791 11.972063 -0.98286933 18 6
-5.3362308 4.4570346 -1.8629795 9 0
-6.1594238 5.1500759 -1.8535968 21 1
-7.5112514 6.2892962 -1.9042739 10 2
-8.0841789 6.7762208 -1.6707202 22 3
-8.0397768 6.7461734 -1.2886466 24 4
-14.289195 12.019836 -0.97857773 18 6
-5.2961402 4.4866872 -1.8598738 9 0
-6.120347 5.1904302 -1.8526968 17 1
-7.4462128 6.3237882 -1.8989313 10 2
-7.9493861 6.7582812 -1.6525738 21 3
-7.9350386 6.7532473 -1.2793844 23 4
-7.9276299 6.7564902 -0.91130042 12 5
-14.045397 11.983188 -0.96758723 18 6
-5.2852025 4.5411782 -1.8671206 9 0
-6.0174785 5.1758475 -1.8324513 23 1
-7.3691573 6.3474298 -1.8905357 10 2
-7.8481541 6.7671752 -1.6413106 21 3
-7.8185759 6.7488108 -1.2681725 29 4
-7.8075867 6.7464652 -0.90275919 31 5
-13.897963 12.026061 -0.96319103 18 6
-5.2650223 4.5881171 -1.8712618 7 0
-5.9723883 5.2100434 -1.829752 25 1
-7.3139529 6.3871107 -1.8874826 12 2
-7.7126789 6.7424302 -1.6225384 21 3
-7.6995769 6.740468 -1.2564731 22 4
-7.6913714 6.7404013 -0.89474088 37 5
-13.658138 11.982079 -0.95220047 18 6
-5.227879 4.6187329 -1.8691912 9 0
-5.9484639 5.2609038 -1.8333511 26 1
-7.2647729 6.4341125 -1.8863379 10 2
-13.248617 11.737885 1.5485833 1 10
-7.6092501 6.7463145 -1.6106495 21 3
-7.6000686 6.7452841 -1.2476985 27 4
-7.5946722 6.7476068 -0.88881427 37 5
-16.224226 14.434949 -1.1380978 10 6
-5.221405 4.6783223 -1.8785087 9 0
-6.0624623 5.4376278 -1.880141 14 1
-7.1521511 6.4217668 -1.8684019 10 2
-13.237484 11.894009 1.5569501 3 10
-7.4896955 6.7319274 -1.595006 20 3
-7.4642668 6.7184944 -1.2330741 23 4
-7.4378481 6.7017679 -0.87591517 36 5
-6.4592276 5.8240848 1.6905679 7 13
-16.119665 14.539696 -1.1376791 30 6
-6.3664961 5.7465177 1.9800191 20 14
-5.1751404 4.7007661 -1.8733324 7 0
-6.0310769 5.4840097 -1.8819405 12 1
-7.1797271 6.5376301 -1.8874826 12 2
-6.5074081 5.9275188 0.7701081 15 10
-7.3870416 6.7334819 -1.583117 18 3
-6.4061213 5.8434424 1.0646507 15 11
-7.374372 6.7290053 -1.225762 29 4
-6.36443 5.8115206 1.3650473 18 12
-7.3493981 6.7132726 -0.87086016 42 5
-15.764286 14.420018 -1.1196755 19 6
-6.2927303 5.7581453 1.9692216 20 14
-5.1336722 4.7289262 -1.8702265 9 0
-6.5277805 6.0152273 0.15494247 43 8
-5.9382052 5.4757814 -1.8648442 14 1
-6.45649 5.955791 0.46034712 22 9
-7.0672574 6.5237617 -1.8695467 9 2
-6.4102554 5.9214301 0.7634843 28 10
-6.6867266 6.1789813 -1.442013 10 3
-6.3501663 5.872088 1.0619696 28 11
-6.6103745 6.1169877 -1.1058425 24 4
-6.3015299 5.8332362 1.3600414 26 12
-6.5744548 6.0901418 -0.78405303 22 5
-6.3048825 5.844521 1.6711053 42 13
-6.4950628 6.0229197 -0.46421999 12 6
-6.2523766 5.8019385 1.9692216 24 14
-6.5046358 6.0402479 -0.15494247 26 7
-6.2291474 5.7864556 2.2781253 51 15
-5.0971289 4.7598047 -1.8686736 12 0
-6.4476385 6.025157 0.15403494 42 8
-5.9093375 5.5240574 -1.8675436 14 1
-6.3899565 5.9775248 0.45856768 24 9
-6.6101956 6.1878762 -1.7600222 12 2
-6.3508945 5.9472213 0.76121825 19 10
-6.5598249 6.147171 -1.4238666 19 3
-6.3220496 5.9284964 1.0641632 43 11
-6.5298729 6.1276703 -1.0995053 20 4
-6.2836967 5.8987198 1.3650473 28 12
-6.5012822 6.107245 -0.78039253 33 5
-6.2610669 5.885704 1.6703421 43 13
-6.4470367 6.0626445 -0.46380129 25 6
-6.24578 5.8774967 1.9800191 22 14
-6.4186335 6.0443864 -0.15389533 29 7
-6.2251611 5.8642416 2.2915838 35 15
-5.0727549 4.8054571 -1.872297 13 0
-6.4097743 6.0741482 0.15413967 49 8
-5.8753138 5.5715661 -1.8693433 13 1
-6.3615079 6.0368462 0.45961443 24 9
-6.5369358 6.2054868 -1.7520082 18 2
-6.3356204 6.0185876 0.76453012 17 10
-6.5099435 6.1885095 -1.4226153 16 3
-6.3020835 5.9930086 1.0678192 31 11
-6.4811826 6.167634 -1.0985304 21 4
-6.3157134 6.0143695 1.3813165 6 12
-6.4325209 6.1277471 -0.77725488 32 5
-6.4208298 6.1251664 -0.46505737 25 6
-6.3994198 6.1111441 -0.1544538 30 7
-5.0362968 4.838078 -1.8712618 13 0
-6.403626 6.1558914 0.15504719 50 8
-5.8503199 5.6259556 -1.8738421 10 1
-6.3652611 6.1254263 0.46296394 2 9
-6.506505 6.2657237 -1.7558244 16 2
-6.4722695 6.2392898 -1.4238666 17 3
-6.446538 6.2209997 -1.0999928 16 4
-6.4544134 6.2373075 -0.78527319 27 5
-6.4324622 6.222611 -0.46903491 12 6
-6.4456635 6.2419205 -0.15661789 9 7
-4.9927115 4.8636842 -1.8676383 12 0
-5.7690454 5.6258454 -1.8603452 14 1
-6.503336 6.3507724 -1.7668914 10 2
-7.7111568 7.5381498 -1.7079517 12 3
-6.8456097 6.6990347 -1.1760392 22 4
-6.8333473 6.696383 -0.8370437 47 5
-14.654035 14.375363 -1.0758181 19 6
-4.9517641 4.8916316 -1.8650501 13 0
-5.7518001 5.6879058 -1.8675436 14 1
-6.8675756 6.8007793 -1.8787055 16 2
-7.4493132 7.3845873 -1.6613343 7 3
-6.7719026 6.7200956 -1.1714082 9 4
-6.7254162 6.6809573 -0.82937407 47 5
-14.428715 14.353359 -1.0666069 19 6
-4.9256821 4.9342856 -1.868156 14 0
-5.7147026 5.7306843 -1.8684435 14 1
-6.789257 6.8153768 -1.8699282 12 2
-7.2247024 7.2600956 -1.6222256 14 3
-8.8432951 8.8990345 -1.5404286 2 4
-6.6421146 6.6909828 -0.82484198 46 5
-14.288489 14.408695 -1.0634668 19 6
-4.9312906 5.007617 -1.8831675 12 0
-5.6222658 5.7152691 -1.8508973 16 1
-6.7580233 6.8794141 -1.8745077 12 2
-7.2361031 7.3738003 -1.6363046 9 3
-8.8867416 9.0653381 -1.558709 1 4
-6.5367041 6.677393 -0.8175208 51 5
-14.14147 14.460975 -1.0600126 28 6
-4.9379325 5.0848851 -1.8992143 9 0
-5.6080093 5.7809567 -1.8594455 15 1
-6.7057343 6.922194 -1.8733629 10 2
-6.9069595 7.1373949 -1.5731052 9 3
-7.4793997 7.7370353 -1.3213075 3 4
-6.4373455 6.6683931 -0.81089705 50 5
-16.150288 16.747486 -1.2193232 10 6
-4.892961 5.1094666 -1.8955908 11 0
-5.56078 5.8129253 -1.857196 16 1
-6.6409702 6.951807 -1.8687835 7 2
-7.0206146 7.3569293 -1.6106495 11 3
-9.8673992 10.35093 -1.7558937 9 4
-6.3411794 6.6612201 -0.80462182 45 5
-13.62713 14.329917 -1.0363567 9 6
-4.8332968 5.1182194 -1.8862734 11 0
-5.5254097 5.857276 -1.8589954 16 1
-6.5343904 6.9365487 -1.8523737 10 2
-6.9013968 7.3338327 -1.595006 11 3
-7.2401209 7.7018561 -1.2979087 3 4
-6.2454305 6.6530337 -0.79834664 39 5
-15.906682 16.962608 -1.2186952 10 6
-4.6921239 5.038734 -1.8448622 11 0
-5.4764218 5.887146 -1.8562962 21 1
-6.4176588 6.9086423 -1.8329114 7 2
-6.4778309 6.9807439 -1.5083412 8 3
-7.3427176 7.9210911 -1.3261824 3 4
-6.1582294 6.6526079 -0.79311723 38 5
-15.585833 16.854746 -1.203099 20 6
-4.6424599 5.0557165 -1.8391682 13 0
-5.4325533 5.9223628 -1.8553963 18 1
-5.9966378 6.5464745 -1.7256767 12 2
-6.0062118 6.5638227 -1.4091618 24 3
-5.9773855 6.5391912 -1.0878059 19 4
-5.9988031 6.5718317 -0.77847505 53 5
-15.420682 16.911497 -1.1994356 30 6
-4.6122375 5.0937314 -1.8412387 16 0
-5.4146051 5.9861588 -1.8634945 16 1
-5.9336824 6.5692372 -1.7207156 24 2
-5.9456849 6.5894608 -1.4057202 30 3
-5.9448786 6.5955067 -1.0902432 31 4
-5.9805946 6.6421247 -0.78196126 55 5
-15.084576 16.776653 -1.182374 20 6
-4.6125917 5.1661553 -1.8557327 12 0
-5.3389587 5.9860005 -1.8517971 21 1
-5.9619665 6.6915617 -1.7420862 15 2
-6.1173892 6.8732491 -1.4573436 8 3
-9.7507048 10.970907 -1.802204 11 4
-5.9129148 6.6598749 -0.77917236 21 5
-14.673175 16.544231 -1.1589276 20 6
-4.611793 5.2365766 -1.8697089 14 0
-5.3392801 6.0690231 -1.866194 15 1
-5.9824839 6.8097167 -1.7619303 9 2
-6.0471072 6.8905482 -1.4520249 14 3
-6.5299325 7.4512033 -1.2164999 3 4
-5.9030242 6.7429667 -0.78405303 11 5
-14.648038 16.750004 -1.16615 20 6
-4.5539408 5.2461014 -1.8614267 14 0
-5.3250775 6.1409364 -1.8765416 14 1
-5.7728343 6.664341 -1.7138464 13 2
-5.9136429 6.8365359 -1.4316884 4 3
-9.6653624 11.185587 -1.8151222 11 4
-14.450867 16.765139 -1.1599742 20 6
-4.5674505 5.3364744 -1.8821322 14 0
-5.2580137 6.1498227 -1.8679937 16 1
-5.6816573 6.6547136 -1.7008715 22 2
-6.2118745 7.2834558 -1.516163 4 3
-9.634675 11.308695 -1.8241404 9 4
-14.305017 16.832132 -1.1576715 20 6
-4.5275946 5.3652759 -1.8810968 14 0
-5.2111869 6.1819081 -1.8666438 13 1
-5.5932326 6.6421742 -1.6878965 24 2
-6.3172889 7.5099945 -1.5543331 2 3
-9.5286722 11.343766 -1.8190219 10 4
-14.052829 16.765333 -1.1464715 20 6
-4.4823184 5.3855762 -1.8774734 13 0
-5.1739702 6.2232304 -1.8684435 13 1
-5.5015788 6.6266813 -1.6741582 21 2
-50.6647 61.047581 6.9407344 47 10
-5.731297 6.910737 -1.4219894 5 3
-9.5145636 11.484793 -1.8312089 11 4
-13.889649 16.807604 -1.1427034 30 6
-4.3968196 5.3584929 -1.8572855 16 0
-5.0426884 6.1521921 -1.8365004 23 1
-51.309814 62.643703 4.2437139 50 9
-5.4303117 6.6345434 -1.6665258 22 2
-50.686432 61.948761 7.00279 48 10
-6.0942812 7.4537139 -1.5249233 3 3
-9.4956818 11.626271 -1.843152 9 4
-15.750018 19.332098 -1.306829 21 6
-4.322854 5.3439989 -1.8417563 14 0
-5.0731025 6.2781911 -1.8634945 21 1
-5.3419452 6.6203442 -1.6535509 24 2
-49.20948 61.007751 6.8574133 44 10
-5.7420993 7.1238899 -1.4492091 7 3
-9.40308 11.678365 -1.8409585 10 4
-13.711152 17.071524 -1.1475183 10 6
-4.3372316 5.4389954 -1.8640147 13 0
-5.0485754 6.3378425 -1.8706928 16 1
-5.266264 6.6206017 -1.6443919 22 2
-48.841885 61.424667 6.8657804 45 10
-5.7684164 7.2596917 -1.4686069 4 3
-9.2645512 11.672204 -1.8297465 11 4
-15.116559 19.092875 -1.2762648 21 6
-4.345716 5.5283751 -1.8842027 14 0
-4.999392 6.3668036 -1.8688934 16 1
-5.1908417 6.6201267 -1.6352333 19 2
-5.7151575 7.2966757 -1.4679812 3 3
-9.3027153 11.889813 -1.8536329 11 4
-14.710101 18.848402 -1.2530276 10 6
-4.2691536 5.5097113 -1.8676383 14 0
-4.9595952 6.407712 -1.8706928 21 1
-13.283593 17.174572 1.1378884 3 9
-5.1156874 6.6189208 -1.6260743 19 2
-5.623033 7.2832341 -1.4573436 9 3
-9.2752476 12.026777 -1.8648449 10 4
-14.747428 19.170681 -1.2675769 21 6
-4.2596993 5.5754852 -1.8800616 14 0
-4.9182296 6.4444222 -1.8715929 21 1
-5.0348158 6.6067443 -1.6146259 25 2
-48.026554 63.043884 6.9337626 47 10
-5.0337033 6.6124692 -1.3162397 13 3
-9.28689 12.212884 -1.8838565 10 4
-14.615389 19.26903 -1.2674723 31 6
-4.2613435 5.659101 -1.8981789 13 0
-4.8696051 6.4739275 -1.870243 23 1
-4.9579139 6.6009183 -1.6047038 19 2
-48.099674 64.062721 7.0087156 48 10
-4.9530406 6.601625 -1.3071665 24 3
-9.2287893 12.313952 -1.8894625 9 4
-14.314286 19.148235 -1.2529229 21 6
-4.2182784 5.6840591 -1.8966261 15 0
-4.8242898 6.5077662 -1.870243 24 1
-4.8976936 6.6164346 -1.6001244 19 2
-47.769779 64.557121 7.0261474 48 10
-4.8821683 6.6026878 -1.3005962 25 3
-50.051971 67.740181 10.341589 39 11
-9.1367006 12.370096 -1.8882437 7 4
-14.201591 19.27664 -1.254807 21 6
-4.1876163 5.7258444 -1.9007671 14 0
-4.8419657 6.6278338 -1.8949877 21 1
-4.8236141 6.6123996 -1.5909655 16 2
-4.803381 6.5919094 -1.291836 27 3
-48.923489 67.189301 10.205096 38 11
-5.4204917 7.4469886 -1.1309476 2 4
-13.976316 19.250868 -1.2467473 31 6
-4.1610947 5.773747 -1.9069788 11 0
-4.8229012 6.6994328 -1.9057853 15 1
-4.7429562 6.5980902 -1.579517 18 2
-4.7318964 6.589982 -1.2849529 27 3
-8.9596233 12.491622 -1.8875126 5 4
-13.80788 19.300865 -1.2437118 21 6
-4.1027884 5.7774544 -1.8986967 10 0
-4.7963076 6.7615495 -1.9138836 15 1
-4.6740808 6.5989985 -1.5718845 10 2
-46.441849 65.592171 7.0313764 49 10
-4.6481242 6.5696411 -1.2746283 24 3
-48.422943 68.491501 10.299179 39 11
-8.861886 12.539276 -1.8853189 3 4
-13.56348 19.241709 -1.233768 21 6
-4.0612493 5.8043718 -1.8981789 9 0
-4.7244301 6.759727 -1.9039857 19 1
-4.7526112 6.8101759 -1.6142441 6 2
-4.5818124 6.572762 -1.2689966 22 3
-48.635723 69.821495 10.44786 41 11
-8.7934141 12.628532 -1.8894625 9 4
-13.377549 19.26211 -1.2290577 20 6
-4.0403614 5.8612151 -1.9074965 9 0
-4.6284919 6.7219253 -1.8841901 22 1
-36.625259 53.23037 3.3862414 11 9
-4.909615 7.1408582 -1.6844618 10 2
-4.5179243 6.5785322 -1.2639905 24 3
-48.106659 70.100418 10.439085 41 11
-8.6713533 12.640503 -1.8821504 9 4
-13.199891 19.292397 -1.2250801 20 6
-4.0167112 5.9148483 -1.9157786 9 0
-4.536602 6.6879506 -1.8657441 25 1
-4.7814713 7.0595517 -1.6573671 9 2
-4.4508533 6.5788302 -1.2580462 26 3
-38.341717 56.715683 8.405817 14 11
