# .PCD v0.7 - Point Cloud Data file format
VERSION 0.7
FIELDS x y z intensity ring
SIZE 4 4 4 4 2
TYPE F F F F U
COUNT 1 1 1 1 1
WIDTH 1299
HEIGHT 1
VIEWPOINT 0 0 0 1 0 0 0
POINTS 1299
DATA ascii
-1.2116218 4.2226405 -1.1771091 11 0
-1.3975215 4.8769426 0.088553511 1 8
-1.2532461 4.376348 -1.0509714 27 1
-1.3844792 4.8410072 0.26387793 1 9
-1.3727255 4.8062544 -0.9715994 3 2
-1.3802155 4.8356743 0.43996218 1 10
-1.3743376 4.8214564 -0.79406142 3 3
-1.2655811 4.4487505 -0.56791121 19 4
-1.3768849 4.8561015 0.9811399 2 13
-1.2926271 4.5741391 -0.082968742 4 7
-1.3458744 4.7689228 1.3277417 1 15
-1.2070647 4.3203049 -1.2019557 17 0
-1.3537663 4.8519101 0.087925225 1 8
-1.232082 4.4187794 -1.0590695 33 1
-1.3517225 4.8544021 0.26408726 1 9
-1.3307248 4.7854567 -0.96549362 3 2
-1.3304191 4.7876029 0.43473285 1 10
-2.2513137 8.1124649 -1.3334475 2 3
-1.2281363 4.4345202 -0.56498629 24 4
-1.3398151 4.8542404 0.97885019 2 13
-1.3443149 4.8771796 -0.26513401 6 6
-1.2426296 4.5174971 -0.081781976 3 7
-1.3074311 4.7595739 1.3225653 1 15
-1.0724659 3.9446056 -1.0953223 6 0
-1.3209085 4.8651032 0.087995037 1 8
-1.2032462 4.4347959 -1.0608691 29 1
-1.3052639 4.8174543 0.26157513 1 9
-1.3024088 4.8135819 -0.96930981 3 2
-1.3021655 4.8160071 0.43647596 1 10
-2.1884401 8.1051006 -1.3296931 2 3
-1.1899151 4.4161525 -0.56157398 24 4
-1.3072824 4.8584814 0.79687726 3 12
-1.2987659 4.8369308 0.97350752 2 13
-1.2286355 4.5917416 -0.082968742 3 7
-1.2741711 4.7685857 1.3225653 1 15
-1.1165036 4.2228093 -1.1703798 20 0
-1.2818067 4.8548713 0.087645985 1 8
-1.164302 4.4129395 -1.0536706 32 1
-1.2715999 4.8264494 0.26157513 1 9
-1.1508882 4.3744764 -0.8792479 2 2
-1.2766173 4.8558111 0.43926495 1 10
-1.2540036 4.7765765 -0.78217238 2 3
-1.1570454 4.4166703 -0.56059903 21 4
-1.2649662 4.8458796 0.97350752 2 13
-1.210644 4.6543956 -0.083946079 3 7
-1.2374518 4.7642756 1.318942 1 15
-1.061996 4.1332049 -1.1434625 8 0
-1.2429124 4.8443322 0.08729694 1 8
-1.1160425 4.353004 -1.0374742 17 1
-1.240846 4.8468189 0.26220316 1 9
-1.2000656 4.6943469 -0.94183326 3 2
-1.2269059 4.8028321 0.43368697 1 10
-1.225509 4.8043561 -0.78530115 3 3
-1.1203073 4.4015555 -0.55767417 21 4
-1.2075983 4.7584052 -0.4295035 4 5
-1.2146988 4.7898898 0.96053255 2 13
-1.2065814 4.7648602 -0.25759763 5 6
-1.1644067 4.608448 -0.082968742 3 7
-1.196597 4.7428288 1.3106596 1 15
-1.0546284 4.2267399 -1.167274 12 0
-1.1984292 4.8102026 0.086529031 1 8
-1.0785638 4.332324 -1.0307257 41 1
-1.2040876 4.8437333 0.26157513 1 9
-1.1776686 4.7445292 -0.95022881 3 2
-1.2029388 4.8499565 0.43717319 1 10
-2.0020766 8.0839605 -1.3190556 2 3
-1.0885988 4.4054146 -0.55718666 19 4
-1.2052467 4.8847933 0.79687726 3 12
-1.1699661 4.7525005 0.9513737 2 13
-1.1599356 4.7188616 -0.25466678 5 6
-1.1360136 4.6320028 -0.083247982 3 7
-1.1639185 4.752943 1.3111774 1 15
-1.025551 4.2358766 -1.1677916 9 0
-1.1684784 4.8299112 0.08673846 1 8
-1.0377702 4.2961798 -1.020378 29 1
-1.1617171 4.8129873 0.2594817 1 9
-1.1379889 4.7218976 -0.94412297 3 2
-1.1550665 4.8001237 0.43194386 1 10
-1.9599391 8.1511784 -1.327816 2 3
-1.1562099 4.815959 0.60812807 1 11
-1.0550405 4.4013252 -0.55572426 16 4
-1.1449642 4.7949257 0.95824283 2 13
-1.1046137 4.6295109 -0.24943319 4 6
-1.1284097 4.7475991 1.3075538 1 15
-1.004645 4.2766123 -1.1771091 9 0
-1.13108 4.8223753 0.086459227 1 8
-1.0271769 4.3828325 -1.0392739 38 1
-1.1153485 4.7665277 0.25655088 1 9
-1.0616695 4.5442858 -0.90710598 4 2
-1.1187451 4.7923522 0.43054935 1 10
-1.9038781 8.1685114 -1.3284416 3 3
-1.1099621 4.7697768 0.60130334 1 11
-1.0205611 4.3890696 -0.55328691 18 4
-1.1211613 4.8408604 0.96587521 2 13
-1.0758663 4.6526766 -0.25027055 4 6
-1.094373 4.7515955 1.3065187 1 15
-0.91603994 4.0254545 -1.1061926 8 0
-1.0902458 4.7948642 0.085830934 1 8
-0.99051613 4.3632908 -1.0329752 26 1
-1.0828755 4.7740097 0.25655088 1 9
-1.0792806 4.765861 -0.94984722 4 2
-1.0826247 4.7883859 0.4295035 1 10
-1.0812575 4.786222 -0.77716655 4 3
-1.0774693 4.7772217 0.60130334 1 11
-0.98640615 4.3805943 -0.55133694 21 4
-1.0610348 4.7158575 0.76559031 3 12
-1.0761687 4.7987623 0.95595312 2 13
-1.0310704 4.6014242 -0.24713041 4 6
-1.0514853 4.7117977 1.2935777 1 15
-0.94849515 4.3032632 -1.1807325 20 0
-1.0507306 4.7750168 0.085342273 3 8
-0.95911723 4.362319 -1.0311756 27 1
-1.0469533 4.7697482 0.25592285 1 9
-0.95689106 4.3667169 -0.86894423 3 2
-1.0448923 4.7722888 0.42741176 1 10
-1.7952936 8.2132816 -1.3315703 2 3
-1.0440918 4.7846274 0.60130334 1 11
-0.95403022 4.3755693 -0.54987448 19 4
-1.0280861 4.7231503 0.76559031 3 12
-1.025984 4.7253966 0.93992513 2 13
-0.96592003 4.4562597 -0.23896599 3 6
-1.0157121 4.7058058 1.2899542 1 15
-0.86971164 4.0811586 -1.1180983 9 0
-1.0182012 4.7861476 0.085412078 1 8
-0.92945158 4.3727212 -1.0320754 35 1
-1.009483 4.7574029 0.25487614 1 9
-1.001646 4.7286086 -0.93954355 3 2
-1.0082496 4.7638731 0.42601725 1 10
-0.99553943 4.7119484 -0.76277459 2 3
-1.0106634 4.7918 0.60130334 1 11
-0.92263907 4.3782392 -0.54938704 21 4
-0.9937759 4.7362871 0.94068843 2 13
-0.91759092 4.3807912 -0.23456979 10 6
-0.98204577 4.7089992 1.2889189 1 15
-0.88014293 4.27635 -1.169862 9 0
-0.97912878 4.7657166 0.084923409 1 8
-0.89341569 4.3523784 -1.0257769 30 1
-0.97143435 4.7408552 0.25362006 1 9
-0.96546239 4.7200994 -0.93649065 3 2
-0.97496694 4.7707958 0.42601725 1 10
-0.96656799 4.7381387 -0.76590323 2 3
-0.97718799 4.7987385 0.60130334 1 11
-0.88967609 4.3729019 -0.54792464 21 4
-0.96692419 4.7738962 0.94679433 2 13
-0.88539958 4.3792596 -0.23415108 16 6
-0.95067167 4.7233162 1.2909895 1 15
-0.81828797 4.1213274 -1.125863 8 0
-0.94583166 4.7724366 0.084923409 1 8
-0.85846645 4.3355694 -1.020378 27 1
-0.93831104 4.7475219 0.25362006 1 9
-0.92564875 4.6920533 -0.92962146 3 2
-0.94471687 4.7931252 0.42741176 1 10
-0.93499351 4.7525239 -0.76715469 4 3
-0.94366264 4.8054438 0.60130334 1 11
-0.8560704 4.3634224 -0.54597467 18 4
-0.92894787 4.7436447 0.76559031 3 12
-0.92980963 4.7612619 0.94297814 2 13
-0.84945536 4.3578892 -0.23268569 19 6
-0.91326028 4.7070799 1.2847778 1 15
-0.82216656 4.297709 -1.1724503 12 0
-0.90874249 4.7592807 0.084574364 1 8
-0.8281796 4.3414569 -1.020378 23 1
-0.90066367 4.730412 0.25236401 1 9
-0.88993722 4.6829715 -0.92656857 3 2
-0.9082607 4.7839437 0.42601725 1 10
-0.88928735 4.6929464 -0.75651717 2 3
-0.90049762 4.7612023 0.59496623 1 11
-0.82263863 4.3536882 -0.54402483 21 4
-0.90166342 4.7810736 0.77059627 3 12
-0.88928831 4.7290487 0.93534577 2 13
-0.82159179 4.3774538 -0.23341838 22 6
-0.87931234 4.707644 1.2832248 1 15
-0.78409696 4.2596459 -1.1605446 11 0
-0.8734349 4.7496219 0.084295124 1 8
-0.79292327 4.3202991 -1.0140793 26 1
-0.87060499 4.74822 0.25299203 1 9
-0.84673196 4.6271224 -0.91435677 2 2
-0.86410165 4.731369 0.4207879 1 10
-1.4969467 8.2045984 -1.3209327 2 3
-0.86807048 4.767221 0.59496623 1 11
-0.79115933 4.3534656 -0.5432936 13 4
-0.83973414 4.6345472 -0.41207233 4 5
-0.85625386 4.7351418 0.93534577 2 13
-0.78929102 4.3691869 -0.23268569 26 6
-0.85448188 4.7490048 -0.084225312 3 7
-0.84553909 4.7040133 1.2806368 1 15
-0.7432965 4.1983051 -1.1424273 15 0
-0.84095085 4.759542 0.084364928 1 8
-0.76688486 4.3447871 -1.0185784 29 1
-0.83397245 4.7345123 0.25194532 1 9
-0.82188582 4.6754608 -0.92275238 3 2
-0.83325475 4.7449908 0.42148519 1 10
-1.4382675 8.2070665 -1.3196814 3 3
-0.83134812 4.7536111 0.59252882 1 11
-0.76116621 4.3567948 -0.54304987 16 4
-0.83023101 4.7619143 0.76559031 3 12
-0.80735838 4.6402969 -0.41207233 4 5
-0.81727904 4.7021751 0.92771345 2 13
-0.75569713 4.3568792 -0.23174362 31 6
-0.65828919 3.8150537 1.0373468 7 15
-0.73532194 4.3290935 -1.1765914 12 0
-0.80435854 4.7455821 0.084015884 1 8
-0.72482419 4.2808647 -1.0023819 17 1
-0.80289316 4.7520356 0.25257334 1 9
-0.7931416 4.7043152 -0.92733175 3 2
-0.79216659 4.7035389 0.41730168 1 10
-1.3802813 8.2130108 -1.3190556 2 3
-0.73138744 4.3659182 -0.54353732 13 4
-0.79696864 4.7675939 0.76559031 3 12
-0.77494335 4.6458201 -0.41207233 4 5
-0.78443176 4.7077661 0.92771345 2 13
-0.72395164 4.3541684 -0.23132494 37 6
-0.77315885 4.6753345 1.2697662 1 15
-0.69422436 4.2673845 -1.1584741 13 0
-0.77184927 4.7550292 0.084085695 1 8
-0.69647789 4.2954383 -1.0046314 30 1
-0.76331854 4.7180929 0.25047991 3 9
-0.75402468 4.6709743 -0.91969937 3 2
-0.76438504 4.7404261 0.42009068 1 10
-0.69001132 4.2887001 -0.68799889 4 3
-0.76049072 4.7373152 0.58911645 1 11
-0.6974346 4.3493571 -0.54085618 12 4
-0.76366282 4.7730417 0.76559031 3 12
-0.75649267 4.7441473 0.93381923 2 13
-0.69102561 4.3433366 -0.23048759 36 6
-0.7377854 4.663445 1.2651075 1 15
-0.66203833 4.256856 -1.154333 10 0
-0.73066443 4.7089243 0.08317817 3 8
-0.67095006 4.3290825 -1.01138 33 1
-0.72731167 4.7035689 0.24943319 3 9
-0.69535476 4.507319 -0.88649869 4 2
-0.72338504 4.6944489 0.41555858 1 10
-0.7161839 4.6585188 -0.74650538 2 3
-0.72198236 4.70719 0.58472919 1 11
-0.66494703 4.340385 -0.53915 10 4
-0.72690111 4.7726035 0.93839866 2 13
-0.6600886 4.3441057 -0.23027822 36 6
-0.7080937 4.6875844 1.2702839 1 15
-0.62805271 4.2327099 -1.1465684 15 0
-0.69484395 4.6941295 0.082829125 1 8
-0.63615286 4.3028164 -1.0041815 25 1
-0.69620532 4.720387 0.25006124 3 9
-0.67615724 4.5955844 -0.90290827 2 2
-0.6894353 4.6915002 0.41486132 1 10
-0.67791122 4.6243162 -0.74024802 2 3
-0.68565762 4.6885448 0.58180428 1 11
-0.6374982 4.3645635 -0.54158741 10 4
-0.67829132 4.660912 -0.41207233 4 5
-0.67833591 4.6726465 0.91779137 2 13
-0.62688243 4.3288417 -0.22923151 43 6
-0.67122281 4.6637311 1.2625194 1 15
-0.6084848 4.3077674 -1.1657211 14 0
-0.66231728 4.6947899 0.082759313 1 8
-0.564551 4.0119038 -0.93534642 14 1
-0.66016698 4.6973267 0.2485958 3 9
-0.63913882 4.5592504 -0.89489418 4 2
-0.65390438 4.6764674 0.41311821 1 10
-0.60817111 4.3549275 -0.6964463 4 3
-0.66194165 4.7520871 0.58911645 1 11
-0.60592163 4.361043 -0.54061246 10 4
-0.64645183 4.6587348 0.744941 3 12
-0.65267861 4.7278328 0.92771345 2 13
-0.59549296 4.319159 -0.2284988 46 6
-0.6392023 4.6662784 1.2620018 1 15
-0.58429199 4.3501019 -1.1760738 10 0
-0.63005632 4.7032633 0.082829125 1 8
-0.5736652 4.2880001 -0.99878263 38 1
-0.62524414 4.6859837 0.24775843 3 9
-0.59667581 4.4838114 -0.8792479 2 2
-0.62520933 4.7045097 0.41520998 1 10
-0.57567674 4.3434014 -0.69394338 10 3
-0.62094784 4.6975527 0.58180428 1 11
-0.57544351 4.3591623 -0.53988123 7 4
-0.61546123 4.6748848 0.74681824 3 12
-0.61396545 4.6698208 -0.41207233 4 5
-0.61537725 4.6932335 0.92008096 2 13
-0.56584287 4.3271718 -0.22870816 100 6
-0.49407926 3.7835093 0.88090831 6 14
-0.60511488 4.659133 1.2588959 1 15
-0.56756097 4.4613938 -1.2050616 10 0
-0.59046936 4.6479301 0.081781976 1 8
-0.54445004 4.2977004 -1.0001323 45 1
-0.59433579 4.6980567 0.24817713 3 9
-0.53051203 4.2053361 -0.82391334 5 2
-0.59085834 4.6968994 0.4141641 1 10
-0.54215938 4.3158598 -0.68893749 12 3
-0.58895814 4.7016706 0.58180428 1 11
-0.54253626 4.3433752 -0.53744388 6 4
-0.58607101 4.6985679 0.74994689 3 12
-0.58134902 4.6739936 -0.41207233 4 5
-0.58066422 4.6818295 0.91702807 2 13
-0.53023857 4.2813702 -0.22609136 57 6
-0.57079583 4.6420517 1.2532018 1 15
-0.52349758 4.3578362 -1.1760738 10 0
-0.56099939 4.683805 0.082340457 1 8
-0.50841641 4.2510877 -0.98843491 42 1
-0.55786651 4.678391 0.24692108 3 9
-0.503187 4.2324185 -0.82849264 6 2
-0.55241865 4.6534252 0.4099806 1 10
-0.50522524 4.2686253 -0.68080288 27 3
-0.55529869 4.7057648 0.58180428 1 11
-0.49477875 4.1991978 -0.51916343 19 4
-0.54920727 4.6751752 0.74556679 3 12
-0.49206981 4.1951056 -0.36954033 33 5
-0.55434972 4.7403684 0.92771345 2 13
-0.48940945 4.1977673 -0.22148579 51 6
-0.48757532 4.2011571 -0.073823676 43 7
-0.53756344 4.6460171 1.2532018 1 15
-0.47591913 4.2097344 -1.1351804 20 0
-0.526411 4.6636705 0.0819216 1 8
-0.47131926 4.1886916 -0.97313827 40 1
-0.52243888 4.6503239 0.24524632 3 9
-0.46781313 4.1772137 -0.81704414 28 2
-0.52080017 4.6650896 0.41067785 2 10
-0.46675053 4.1875472 -0.66734952 28 3
-0.52456993 4.7212734 0.58326674 1 11
-0.51389784 4.6473904 0.74056083 3 12
-0.46189734 4.1905174 -0.36884311 43 5
-0.52124447 4.7441225 0.92771345 2 13
-0.46169791 4.2089424 -0.22190447 58 6
-0.45736927 4.196507 -0.073684059 51 7
-0.50320768 4.6246028 1.2464726 1 15
-0.44541577 4.1955867 -1.1305215 23 0
-0.49447307 4.6731973 0.08202631 1 8
-0.44218063 4.1859894 -0.97178853 32 1
-0.49121764 4.6657753 0.24587436 3 9
-0.43945882 4.1881886 -0.81857067 30 2
-0.48654521 4.6447477 0.40858611 1 10
-0.43627188 4.178915 -0.66547227 29 3
-0.48625523 4.6734853 0.57692951 1 11
-0.43478325 4.1858764 -0.51672608 31 4
-0.48144037 4.6508651 0.74056083 3 12
-0.43099701 4.177784 -0.3674486 43 5
-0.47888148 4.6499143 0.90863246 2 13
-0.43148902 4.2041159 -0.22148579 55 6
-0.42920214 4.2035017 -0.073753871 52 7
-0.47169399 4.6356902 1.2485431 1 15
-0.41878363 4.2255082 -1.1377686 17 0
-0.45672628 4.6247954 0.081118785 1 8
-0.41333053 4.192853 -0.97268838 25 1
-0.45941341 4.6770415 0.24629304 3 9
-0.41211942 4.2106938 -0.82238686 21 2
-0.4541069 4.6480312 0.40858611 1 10
-0.40880948 4.199554 -0.66828811 20 3
-0.45361853 4.6767664 0.57692951 1 11
-0.40899304 4.2243748 -0.52111334 13 4
-0.45275518 4.6934371 0.74681824 3 12
-0.40372628 4.2005239 -0.36919171 24 5
-0.36278975 3.7815347 0.73843086 3 13
-0.4063071 4.2507658 -0.22378856 47 6
-0.40249288 4.2342653 -0.07424254 20 7
-0.43713361 4.6157908 1.2423315 1 15
-0.39317009 4.2706504 -1.1491566 15 0
-0.42735001 4.6597323 0.081677265 3 8
-0.39346349 4.2984896 -0.99653322 15 1
-0.42565989 4.668201 0.245665 3 9
-0.41024226 4.5165243 -0.88153762 4 2
-0.42164424 4.6510882 0.40858611 1 10
-0.38374689 4.2495222 -0.67579699 27 3
-0.42095748 4.6798191 0.57692951 1 11
-0.41786647 4.6728735 0.74306375 3 12
-0.4178735 4.6914349 -0.41207233 4 5
-0.41599965 4.6796136 0.91321188 2 13
-0.37697363 4.2574778 -0.22399792 54 6
-0.40506738 4.6206546 1.2428491 1 15
-0.36727384 4.3194895 -1.16158 22 0
-0.39514598 4.6665869 0.08174707 1 8
-0.36393705 4.3069572 -0.9978829 9 1
-0.3920567 4.6591167 0.24503697 3 9
-0.38509464 4.5955782 -0.89642078 4 2
-0.39215392 4.6896567 0.41172373 2 10
-0.35439816 4.2560353 -0.67642272 22 3
-0.38335484 4.6232948 0.56961739 1 11
-0.85087049 10.283369 -1.2669538 2 4
-0.38068959 4.6205535 0.73430347 3 12
-0.38511094 4.6942382 -0.41207233 4 5
-0.38363782 4.6863179 0.91397518 2 13
-0.34594354 4.244081 -0.22316055 57 6
-0.37233564 4.6175933 1.2412962 1 15
-0.33515623 4.2969103 -1.1548507 34 0
-0.36039016 4.6413202 0.081258401 1 8
-0.34033245 4.3929381 -1.0172287 13 1
-0.35829177 4.6458101 0.2441996 3 9
-0.35465509 4.6196871 -0.90061849 5 2
-0.35544822 4.6406288 0.40719163 2 10
-0.3243764 4.2544661 -0.67579699 21 3
-0.35557321 4.6852403 0.57692951 1 11
-0.78235555 10.332606 -1.2723161 2 4
-0.34842277 4.6230984 0.73430347 3 12
-0.35233185 4.6968122 -0.41207233 4 5
-0.34886053 4.6614728 0.90863246 2 13
-0.31660455 4.2503753 -0.22336988 54 6
-0.33937836 4.6104469 1.238708 1 15
-0.30487639 4.2952914 -1.1538154 34 0
-0.3282606 4.6477127 0.081328213 2 8
-0.24460194 3.4718442 -0.80352521 3 1
-0.32501119 4.6362443 0.24357156 3 9
-0.31966501 4.5828805 -0.89298618 5 2
-0.3222121 4.631072 0.40614575 1 10
-0.29384619 4.244803 -0.67391974 23 3
-0.31958407 4.640079 0.57107979 1 11
-0.71182895 10.361581 -1.2752409 2 4
-0.3188352 4.6648335 0.74056083 3 12
-0.31551394 4.6520419 0.90634274 2 13
-0.28719255 4.2564678 -0.22357923 49 6
-0.30602783 4.595356 1.2340492 1 15
-0.27364898 4.2780356 -1.148639 21 0
-0.29504597 4.637917 0.081118785 1 8
-0.28908101 4.5567379 -1.0541207 8 1
-0.29112929 4.61448 0.2423155 3 9
-0.27094176 4.3185215 -0.84108603 8 2
-0.2888802 4.6173005 0.40475124 1 10
-0.26371613 4.2388649 -0.67266828 23 3
-0.28546643 4.6144586 0.56766742 1 11
-0.64021248 10.378185 -1.2767034 2 4
-0.28384197 4.6275125 0.73430347 3 12
-0.28207552 4.638454 0.90328985 2 13
-0.25722668 4.2543817 -0.22336988 47 6
-0.28438261 4.7447615 -0.082968742 3 7
-0.27279186 4.5780959 1.2288729 1 15
-0.24333858 4.2721272 -1.1465684 26 0
-0.26356411 4.6558352 0.081398018 1 8
-0.23124124 4.0975275 -0.94749385 14 1
-0.26002321 4.6363416 0.24336222 4 9
-0.25520715 4.5790563 -0.8914597 2 2
-0.25553086 4.5993114 0.40300813 1 10
-0.23389904 4.2366576 -0.67204249 24 3
-0.25585413 4.6639099 0.5735172 1 11
-0.57034481 10.429974 -1.2825531 1 4
-0.20265922 3.7299359 0.59163523 6 12
-0.2517432 4.6633711 -0.40858611 4 5
-0.24968614 4.6403103 0.90328985 2 13
-0.22666833 4.2401185 -0.22253251 49 6
-0.24062119 4.5760307 1.2278377 1 15
-0.21312201 4.2660041 -1.1444979 27 0
-0.23045717 4.6455789 0.081188597 1 8
-0.22581734 4.5681152 -1.0559202 2 1
-0.22706164 4.6260748 0.24273418 4 9
-0.22227749 4.5611172 -0.88764352 2 2
-0.22360867 4.6049633 0.40335676 2 10
-0.20412567 4.234241 -0.67141682 24 3
-0.22196135 4.6378231 0.57010484 1 11
-0.49846148 10.45353 -1.2849904 2 4
-0.21920362 4.6310244 0.73430347 3 12
-0.22187184 4.7047801 -0.41207233 4 5
-0.21581581 4.6105628 0.89718395 2 13
-0.19669043 4.2336173 -0.22211383 45 6
-0.21810941 4.7482696 -0.082968742 3 7
-0.20849267 4.5737391 1.2268023 1 15
-0.18266912 4.2519474 -1.1403568 26 0
-0.19934539 4.6590266 0.081398018 1 8
-0.19383559 4.5676341 -1.0554703 2 1
-0.19573849 4.6315041 0.24294353 3 9
-0.19229449 4.5880246 -0.89260459 4 2
-0.19128904 4.6024308 0.40300813 2 10
-0.17497259 4.2276382 -0.67016536 27 3
-0.18924572 4.6114583 0.56669247 1 11
-0.42523277 10.450804 -1.2842592 2 4
-0.18735623 4.6245141 0.73305202 3 12
-0.18694417 4.6544538 -0.40754023 4 5
-0.18534106 4.6551147 0.90557957 2 13
-0.16771232 4.2308669 -0.22190447 49 6
-0.17765465 4.5827737 1.2288729 1 15
-0.15316653 4.2376475 -1.1362157 37 0
-0.16524071 4.6163402 0.080630124 1 8
-0.16204862 4.5493722 -1.0509714 2 1
-0.16311812 4.6247735 0.24252485 3 9
-0.1596427 4.5715961 -0.88916999 2 2
-0.16078924 4.627521 0.4050999 2 10
-0.14497848 4.2149363 -0.66797519 28 3
-0.15623869 4.58886 0.56376767 1 11
-0.35381263 10.445521 -1.2832843 2 4
-0.15533341 4.6336064 0.73430347 3 12
-0.15698224 4.7073917 -0.41207233 4 5
-0.15222804 4.6131001 0.89718395 2 13
-0.13816917 4.2319345 -0.22190447 49 6
-0.14455214 4.5491467 1.2195554 1 15
-0.12385993 4.2482681 -1.1388038 31 0
-0.13393022 4.6213555 0.080699928 2 8
-0.13011675 4.544549 -1.0496217 3 1
-0.1314072 4.6177912 0.24210617 3 9
-0.12819229 4.5608025 -0.88688028 2 2
-0.12781352 4.6046305 0.40300813 2 10
-0.11628692 4.2158256 -0.66797519 28 3
-0.12521361 4.5977545 0.56474262 1 11
-0.27981853 10.40805 -1.2784096 2 4
-0.12241627 4.5832148 0.72616887 2 12
-0.12042722 4.6297512 0.9002369 2 13
-0.10905255 4.2207971 -0.22127645 46 6
-0.11435504 4.5809255 1.2278377 1 15
-0.094637886 4.2354937 -1.1351804 36 0
-0.10087233 4.5861926 0.080071643 2 8
-0.094461098 4.3290706 -0.99968249 12 1
-0.099851705 4.6505442 0.2437809 3 9
-0.096346594 4.5615859 -0.88688028 2 2
-0.09571892 4.5695395 0.39987054 1 10
-0.086850062 4.2165346 -0.66797519 28 3
-0.07494963 3.7014387 0.45457271 9 11
-0.20772652 10.348186 -1.2708536 2 4
-0.091431476 4.6353078 0.73430347 3 12
-0.088609129 4.6147604 0.89718395 2 13
-0.079282016 4.2054806 -0.22043908 51 6
-0.081607379 4.5391183 1.2164496 1 15
-0.064413518 4.1935549 -1.1237923 19 0
-0.069514729 4.6307735 0.080839552 1 8
-0.067502923 4.5498075 -1.0505214 13 1
-0.066977315 4.6231699 0.2423155 3 9
-0.06441728 4.5562582 -0.88573539 6 2
-0.063815184 4.5700965 0.39987054 2 10
-0.057305437 4.2091379 -0.66672373 28 3
-0.061008401 4.5990543 0.56474262 1 11
-0.13566434 10.363279 -1.2725598 2 4
-0.058313671 4.5765767 0.72491741 2 12
-0.056485813 4.6231189 0.89871037 2 13
-0.049870886 4.2019372 -0.22022973 51 6
-0.053922012 4.7529702 -0.082968742 3 7
-0.050215919 4.5666213 1.2236965 1 15
-0.035329618 4.2170844 -1.130004 35 0
-0.037021384 4.6111488 0.080490492 1 8
-0.035201952 4.4819646 -1.0347749 9 1
-0.034490023 4.5955639 0.24085009 3 9
-0.032761566 4.5781918 -0.88993317 4 2
-0.031963982 4.5783997 0.40056777 2 10
-0.02786631 4.2015338 -0.66547227 28 3
-0.028724844 4.571578 0.56133026 1 11
-0.063457221 10.387794 -1.2754847 2 4
-0.026703047 4.6361327 0.73430347 3 12
-0.025203846 4.6581383 -0.40754023 4 5
-0.024044506 4.5919895 0.89260459 2 13
-0.020575663 4.2101722 -0.22064841 53 6
-0.020182531 4.6252518 -0.080734834 3 7
-0.018147541 4.5204968 1.2112732 1 15
-0.00590616 4.2288198 -1.1331098 37 0
-0.0048118411 4.5952978 0.080211259 1 8
-0.0040067965 4.5892816 -1.0595194 5 1
-0.0024123737 4.6076765 0.24147813 3 9
-0.00079622207 4.5626035 -0.88688028 4 2
4.5284672e-08 3.7974946 0.33223769 1 10
0.0014638478 4.1937246 -0.66422081 26 3
0.0031970313 4.5796075 0.56230521 1 11
0.0090249646 10.342327 -1.2698786 2 4
0.0054708505 4.4781761 0.70927399 2 12
0.0072854105 4.6382771 -0.40579712 4 5
0.0080279158 4.5998979 0.894131 2 13
0.00880065 4.2022243 -0.22022973 48 6
0.01147974 4.6983986 1.0847139 5 14
0.01349216 4.5475588 1.21852 1 15
0.023575567 4.2210302 -1.1310393 35 0
0.027091503 4.5652246 0.079687685 1 8
0.023987239 3.9266384 -0.90655273 7 1
0.029729532 4.6035862 0.24126878 4 9
0.030867521 4.5350122 -0.88153762 2 2
0.025621347 3.6698923 0.32108176 20 10
0.030565782 4.1699085 -0.66046637 29 3
0.035229612 4.5874128 0.56328017 1 11
0.081394359 10.363848 -1.2725598 2 4
0.037382435 4.5570412 0.7217887 2 12
0.039455693 4.7098432 -0.41207233 4 5
0.039764151 4.55654 0.88573539 2 13
0.038028732 4.1900768 -0.21960169 50 6
0.045299601 4.5531492 1.220073 1 15
0.052387882 4.1686068 -1.117063 26 0
0.058010403 4.5529375 0.079478264 1 8
0.059052322 4.5109472 -1.0415233 3 1
0.060638465 4.5713239 0.23959403 4 9
0.06173788 4.5346971 -0.88153762 2 2
0.051350918 3.6775928 0.32177898 24 10
0.059062481 4.1775041 -0.66171783 27 3
0.066624738 4.5989766 0.56474262 1 11
0.15380952 10.366997 -1.2730472 2 4
0.068398252 4.5566807 0.7217887 2 12
0.072067231 4.5875597 0.89184129 2 13
0.066295095 4.1737452 -0.21876432 43 6
0.075965084 4.5334196 1.2148967 1 15
0.078963228 4.0754423 -1.0922165 17 0
0.090585381 4.5924077 0.080176361 1 8
0.089404978 4.4929056 -1.0374742 3 1
0.092310429 4.5588078 0.23896599 4 9
0.092826352 4.5066757 -0.87619489 2 2
0.088014968 4.1671157 -0.66015351 24 3
0.098474346 4.5864911 0.56328017 1 11
0.22419521 10.357771 -1.2720723 2 4
0.099773854 4.5363436 0.71866006 2 12
0.10298896 4.6092391 -0.40335676 4 5
0.10214298 4.5359311 0.88191921 2 13
0.095431715 4.1731806 -0.21876432 37 6
0.10719765 4.5153971 1.2102379 1 15
0.11051856 4.1925936 -1.1237923 24 0
0.12242846 4.5836673 0.080036737 1 8
0.12077133 4.4921718 -1.0374742 3 1
0.12413248 4.5580525 0.23896599 3 9
0.12417836 4.5019932 -0.87543172 2 2
0.12593403 4.5369158 0.39708155 2 10
0.11688278 4.1585016 -0.65890205 24 3
0.12959042 4.5539436 0.55938035 1 11
0.29638705 10.351986 -1.2715849 2 4
0.13087098 4.5157909 0.71553135 2 12
0.13364412 4.5566278 -0.39882466 4 5
0.13542847 4.590055 0.89260459 2 13
0.1244425 4.1684198 -0.21855497 46 6
0.14184146 4.6962709 1.0847139 5 14
0.13919312 4.5299864 1.2143791 2 15
0.14004324 4.1994429 -1.125863 20 0
0.15456019 4.5866976 0.080106542 1 8
0.15278724 4.5106959 -1.0419734 2 1
0.15540418 4.5411062 0.23812862 1 9
0.15560517 4.5010166 -0.87543172 2 2
0.15774299 4.5399089 0.39743021 2 10
0.14549606 4.1457391 -0.65702486 23 3
0.16250269 4.5846691 0.56328017 1 11
0.36900851 10.359582 -1.2728035 2 4
0.16366993 4.5503011 0.72116297 2 12
0.16631989 4.5794768 -0.40091643 4 5
0.16531967 4.530139 0.88115597 2 13
0.15339346 4.1634579 -0.21834564 41 6
0.16957933 4.4960856 1.2055792 1 15
0.16904598 4.1906414 -1.1237923 21 0
0.18755318 4.6094832 0.080525406 1 8
0.18300106 4.4783654 -1.0347749 2 1
0.15140975 3.6738353 0.19270101 20 9
0.18751357 4.51159 -0.87772143 2 2
0.18876898 4.5227714 0.39603567 2 10
0.17443521 4.1446223 -0.65702486 24 3
0.19383246 4.5675569 0.56133026 1 11
0.44072652 10.342871 -1.2710973 2 4
0.19543304 4.5490475 0.72116297 2 12
0.19949357 4.606071 -0.40335676 4 5
0.19745371 4.5406423 0.88344568 2 13
0.18193133 4.1503139 -0.2177176 48 6
0.20199925 4.517951 1.2117908 1 15
0.19829297 4.2048321 -1.1279335 20 0
0.21702676 4.568151 0.079827309 1 8
0.207909 4.3602238 -1.0077807 4 1
0.17612581 3.6667345 0.19238698 39 9
0.21802895 4.5062871 -0.87695819 2 2
0.21955021 4.5213819 0.39603567 2 10
0.20273925 4.1453118 -0.65733767 25 3
0.22472306 4.5621662 0.56084275 1 11
0.50945204 10.305927 -1.2669538 3 4
0.22560722 4.5318284 0.71866006 2 12
0.22776671 4.5274286 0.88115597 2 13
0.21017747 4.1489792 -0.2177176 46 6
0.23085621 4.4798155 1.2019557 1 15
0.22660068 4.1840549 -1.1227571 21 0
0.2478248 4.5465579 0.079478264 1 8
0.23834611 4.3586664 -1.0077807 3 1
0.20139091 3.6594329 0.19207297 14 9
0.24796142 4.477212 -0.87161553 2 2
0.25309947 4.5555463 0.39917332 1 10
0.23167208 4.1437955 -0.65733767 27 3
0.2563445 4.5565219 0.56035525 1 11
0.58082438 10.292209 -1.2657351 2 4
0.25723985 4.5301433 0.71866006 2 12
0.26139107 4.5750351 -0.40091643 4 5
0.25869244 4.5139685 0.87886631 2 13
0.23798798 4.127471 -0.21667089 40 6
0.27610165 4.7452507 -0.082968742 3 7
0.2642726 4.5147367 1.2117908 1 15
0.25509772 4.1708012 -1.1196512 25 0
0.27931198 4.5407248 0.079408452 2 8
0.27380896 4.4385877 -1.0266765 3 1
0.27945882 4.4792905 -0.87237877 2 2
0.28489485 4.5536685 0.39917332 1 10
0.26034951 4.1381345 -0.656712 25 3
0.28890079 4.5665083 0.56181771 1 11
0.655936 10.339412 -1.2720723 2 4
0.29062051 4.5558357 0.72304016 2 12
0.29150885 4.5572433 -0.39952192 4 5
0.2922157 4.5433993 0.88497216 2 13
0.26808426 4.1456404 -0.2177176 46 6
0.29140776 4.494101 1.0397238 4 14
0.2962119 4.5436621 -0.079478264 2 7
0.29325581 4.4742274 1.2014381 1 15
0.26712587 3.9183595 -1.0523583 20 0
0.31048822 4.5427089 0.079478264 1 8
0.30639014 4.4598985 -1.0320754 3 1
0.31193641 4.5290403 0.23791927 3 9
0.30966869 4.4733677 -0.87161553 2 2
0.31446594 4.5197673 0.39638433 1 10
0.28795913 4.1283836 -0.65546048 25 3
0.31997523 4.564436 0.56181771 1 11
0.72656804 10.312798 -1.2693912 2 4
0.32106772 4.5458698 0.7217887 2 12
0.3193675 4.4994497 -0.39464122 4 5
0.32169041 4.5099168 0.87886631 2 13
0.29487404 4.1237974 -0.21667089 38 6
0.32328579 4.4663472 1.1998851 2 15
0.30708811 4.0936823 -1.099981 35 0
0.27576783 3.6590643 0.064050332 17 8
0.28008074 3.7076325 -0.85841322 2 1
0.34354529 4.526752 0.23791927 3 9
0.34029409 4.4632664 -0.87008911 2 2
0.34431288 4.5056028 0.39533845 2 10
0.31601766 4.116425 -0.65389615 24 3
0.35122478 4.5541739 0.56084275 1 11
0.80053568 10.333204 -1.2725598 2 4
0.35004342 4.5080681 0.71615702 2 12
0.3532508 4.5288925 -0.39743021 4 5
0.3557747 4.540834 0.8853538 2 13
0.32209283 4.1017275 -0.21562417 37 6
0.35412514 4.489594 1.0397238 4 14
0.35537642 4.4755363 1.202991 1 15
0.34254548 4.1664696 -1.1201688 29 0
0.30294815 3.6769793 0.064399377 37 8
0.36750576 4.4415908 -1.0289261 3 1
0.37427533 4.5042744 0.23687255 4 9
0.37307447 4.4803467 -0.8739053 2 2
0.37853771 4.5268488 0.39743021 2 10
0.34480485 4.106185 -0.65264469 24 3
0.37868258 4.5001802 0.55450553 1 11
0.87432706 10.347144 -1.2749972 2 4
0.38362956 4.521194 0.71866006 2 12
0.38215691 4.4945521 -0.39464122 4 5
0.38813725 4.5460644 0.88688028 2 13
0.35211828 4.1072769 -0.21604285 30 6
0.39089188 4.5132961 1.2138613 1 15
0.34878442 3.9080577 -1.0513231 11 0
0.32871693 3.6687424 0.064294666 10 8
0.39885345 4.4427986 -1.0298259 3 1
0.40391916 4.4816589 0.23582584 2 9
0.40158734 4.4384575 -0.86627293 2 2
0.40833306 4.5042539 0.39568707 1 10
0.37471622 4.1174479 -0.65483475 25 3
0.41448751 4.5368929 0.55938035 1 11
0.9483518 10.360556 -1.2774346 2 4
0.42060664 4.5774183 0.72804612 2 12
0.41717851 4.531455 -0.39812744 4 5
0.41986531 4.5432439 0.88688028 2 13
0.38078192 4.1047192 -0.21604285 30 6
0.41716966 4.4546781 1.1988499 1 15
0.39531589 4.1055145 -1.1051573 32 0
0.43221146 4.4805164 0.078570738 1 8
0.43079934 4.4496045 -1.0320754 3 1
0.4386597 4.5225406 0.23812862 3 9
0.43140924 4.4317126 -0.86550963 2 2
0.43744391 4.4774976 0.39359534 2 10
0.40196449 4.1069379 -0.65358323 26 3
0.44302881 4.5102592 0.55645543 1 11
1.0179375 10.326025 -1.2740222 2 4
0.44126892 4.4682951 0.71115112 2 12
0.45037803 4.5442934 -0.39952192 4 5
0.44885039 4.5128512 0.88153762 2 13
0.40911105 4.1060061 -0.21625218 35 6
0.44979846 4.4748011 1.2050616 1 15
0.42523268 4.1219463 -1.1103338 24 0
0.4659538 4.5012584 0.078989588 2 8
0.46006978 4.4368773 -1.0298259 3 1
0.46815321 4.4995027 0.2370819 2 9
0.46600726 4.4637403 -0.87237877 2 2
0.47247016 4.5180111 0.39743021 2 10
0.428359 4.0824213 -0.65014172 24 3
0.47491908 4.5110049 0.55694294 1 11
1.0865307 10.303064 -1.2720723 2 4
0.47245491 4.4651055 0.71115112 2 12
0.48209003 4.5410385 -0.39952192 4 5
0.47374734 4.4550281 0.87085229 2 13
0.43606937 4.0871625 -0.21541482 35 6
0.3882179 3.6206925 -0.063561663 19 7
0.48102751 4.4715519 1.2050616 1 15
0.45696405 4.1457596 -1.1175808 24 0
0.50000453 4.5217466 0.079408452 1 8
0.49232307 4.4451785 -1.0325253 3 1
0.50175983 4.5159755 0.23812862 4 9
0.49498177 4.4408665 -0.86856258 2 2
0.49692661 4.4512401 0.39185223 2 10
0.45838618 4.0930729 -0.65233177 25 3
0.50595915 4.503634 0.55645543 1 11
1.1575453 10.287337 -1.2710973 2 4
0.50139797 4.44207 0.70802242 2 12
0.51871228 4.5811162 -0.40335676 4 5
0.51368463 4.5296426 0.88611698 2 13
0.46414101 4.0800495 -0.21520546 35 6
0.41257736 3.6099467 -0.063422047 33 7
0.51223522 4.4680843 1.2050616 1 15
0.48454544 4.1309566 -1.1144749 25 0
0.52454835 4.4585662 0.078361303 1 8
0.51992375 4.4126034 -1.0257769 3 1
0.53046 4.4885612 0.23687255 4 9
0.52597278 4.4373026 -0.86856258 2 2
0.53127819 4.4753609 0.39429256 2 10
0.48741916 4.0936961 -0.65295756 25 3
0.53691739 4.4960499 0.55596799 1 11
1.227686 10.265207 -1.2693912 2 4
0.53710246 4.4776874 0.71427983 2 12
0.54655617 4.5497856 -0.40091643 4 5
0.53965884 4.479166 0.87695819 2 13
0.49309301 4.0806756 -0.21541482 30 6
0.43608296 3.5930824 -0.063177712 28 7
0.54434741 4.4720702 1.207132 1 15
0.51289421 4.1236386 -1.1134396 32 0
0.55834723 4.4826732 0.078849971 1 8
0.55337381 4.4301362 -1.0307257 3 1
0.55852354 4.4650278 0.23582584 4 9
0.56203121 4.4803715 -0.87772143 2 2
0.56300437 4.4754968 0.39464122 2 10
0.51305079 4.0726447 -0.65014172 24 3
0.56850165 4.5001688 0.55694294 1 11
1.3010674 10.270173 -1.2710973 2 4
0.57104707 4.5013633 0.71866006 2 12
0.57327759 4.5063295 -0.39743021 4 5
0.57936311 4.5415034 0.88993317 2 13
0.52136415 4.0811872 -0.21562417 34 6
0.57576126 4.4759264 1.2092026 1 15
0.54095113 4.1200519 -1.1134396 36 0
0.59276068 4.5024567 0.079268835 1 8
0.57969338 4.3972869 -1.0239772 4 1
0.59282249 4.4847803 0.2370819 4 9
0.58091247 4.3829193 -0.85940373 2 2
0.59240866 4.4636598 0.39394394 2 10
0.54198986 4.0728798 -0.65076745 23 3
0.59938198 4.4921546 0.55645543 1 11
1.3685732 10.243371 -1.2689037 2 4
0.59669054 4.4541931 0.71177691 2 12
0.60711443 4.5260196 -0.39952192 4 5
0.60084194 4.4674077 0.87619489 2 13
0.54930961 4.0734887 -0.21541482 35 6
0.60543388 4.4603119 1.2060968 1 15
0.56626016 4.0912976 -1.1067102 31 0
0.61570609 4.4428563 0.078291491 1 8
0.61628026 4.4355969 -1.033875 2 1
0.62333357 4.4806414 0.2370819 2 9
0.61995542 4.4449739 -0.87237877 2 2
0.62079531 4.4396839 0.39220083 2 10
0.56860697 4.0612712 -0.64951599 22 3
0.63104689 4.4958348 0.55743045 1 11
0.62514752 4.4425392 -0.55084944 3 4
0.62589097 4.4422045 0.71052545 2 12
0.62365144 4.4151392 -0.39010909 4 5
0.63256621 4.4669924 0.87695819 2 13
0.575342 4.0577908 -0.21478678 34 6
0.65250725 4.5790391 -0.080734834 3 7
0.63359946 4.4407873 1.2019557 1 15
0.59826189 4.1160259 -1.1144749 37 0
0.6507467 4.4661531 0.078780167 1 8
0.64139247 4.3965898 -1.0257769 2 1
0.65575737 4.4840851 0.23750059 4 9
0.64726806 4.4152856 -0.86741769 3 2
0.65678984 4.474781 0.39568707 1 10
0.59694421 4.0572028 -0.64951599 22 3
0.66068041 4.4795365 0.55596799 1 11
1.5125765 10.243165 -1.2713411 3 4
0.64994621 4.3908291 0.70301658 2 12
0.65913862 4.4422107 -0.39289808 4 5
0.67276412 4.5286093 0.88993317 2 13
0.53540701 3.5953648 -0.1905029 25 6
0.67302221 4.5032926 -0.079478264 2 7
0.66401196 4.432435 1.2009205 1 15
0.62756306 4.1155686 -1.1155102 34 0
0.67888713 4.4417343 0.078431122 4 8
0.67501849 4.4112682 -1.0302758 2 1
0.67796022 4.4201732 0.23436043 4 9
0.68076164 4.428123 -0.87085229 2 2
0.68528366 4.452364 0.39411828 2 10
0.62404948 4.0451274 -0.64826447 23 3
0.69557971 4.4983559 0.55889291 1 11
1.573725 10.165658 -1.263054 3 4
0.6999709 4.5111132 0.72304016 2 12
0.69228381 4.446207 0.87466848 2 13
0.55926079 3.5836463 -0.19008422 26 6
0.69523954 4.4295998 1.2014381 1 15
0.65354097 4.0939174 -1.1108514 30 0
0.71556634 4.4724283 0.0790594 2 8
0.70518202 4.4025998 -1.029376 2 1
0.71133494 4.431109 0.23519783 2 9
0.70355088 4.3728662 -0.8609302 2 2
0.71920186 4.4651747 0.39568707 1 10
0.65227461 4.0406718 -0.64826447 24 3
0.72316062 4.4698753 0.55596799 1 11
1.6468778 10.168139 -1.2647601 2 4
0.72131699 4.4437208 0.71302837 2 12
0.718256 4.4102621 0.86856258 2 13
0.64282101 3.9384084 -0.2091345 17 6
0.72623664 4.4445968 1.0397238 4 14
0.73052925 4.4513268 1.2086849 1 15
0.68242377 4.0911603 -1.111369 33 0
0.73874462 4.4240618 0.078291491 1 8
0.73911715 4.4167895 -1.033875 2 1
0.7447778 4.4458623 0.23624454 2 9
0.7391507 4.4028273 -0.8677994 2 2
0.74903494 4.4521856 0.39498982 2 10
0.68107587 4.0439305 -0.64951599 24 3
0.74894428 4.4374456 0.55255568 1 11
1.7231216 10.187712 -1.2686601 2 4
0.7475906 4.4153366 0.70927399 2 12
0.75824267 4.4593339 0.8792479 2 13
0.68704152 4.0363269 -0.21457745 34 6
0.75755119 4.4272094 1.2035086 1 15
0.71157688 4.0940337 -1.1134396 35 0
0.77030081 4.4227366 0.078361303 1 8
0.7718398 4.4270144 -1.0374742 2 1
0.77511227 4.4366193 0.23603518 1 9
0.76919299 4.3936915 -0.8670361 2 2
0.77794695 4.4391336 0.39429256 1 10
0.70724124 4.0274034 -0.6476388 21 3
0.78540748 4.4633899 0.55645543 1 11
1.7979949 10.196937 -1.2713411 3 4
0.781142 4.4255729 0.71177691 2 12
0.79209691 4.4693961 0.88230079 2 13
0.71590132 4.0353651 -0.21478678 37 6
0.80527633 4.5299563 1.0622189 5 14
0.78810143 4.4199114 1.202991 1 15
0.73741078 4.0698285 -1.1082631 24 0
0.80686837 4.4487329 0.078919783 1 8
0.79862088 4.3945355 -1.0311756 2 1
0.80540895 4.4230995 0.23561651 1 9
0.80195814 4.3998036 -0.86932582 2 2
0.81470406 4.4608927 0.39673293 1 10
0.73746485 4.0300117 -0.64889026 21 3
0.82012749 4.477324 0.55889291 1 11
1.8770229 10.227092 -1.2767034 3 4
0.80278713 4.3654714 0.70301658 2 12
0.6571781 3.5701525 -0.31759554 15 5
0.81615609 4.4251442 0.87466848 2 13
0.74475944 4.0301385 -0.21478678 35 6
0.82182562 4.4255548 1.2060968 1 15
0.76330173 4.0512919 -1.1046398 18 0
0.83645654 4.4310551 0.078710355 2 8
0.83000469 4.3926826 -1.0320754 3 1
0.83626837 4.4173689 0.23561651 2 9
0.82829994 4.3669481 -0.86398321 2 2
0.8458271 4.4550967 0.39673293 1 10
0.7655797 4.024765 -0.64889026 19 3
0.84545612 4.4362407 0.55450553 1 11
1.9613898 10.281986 -1.2852342 2 4
0.8421461 4.4063263 0.71052545 2 12
0.6794641 3.5517793 -0.31637534 30 5
0.8455534 4.4116259 0.873142 2 13
0.77061701 4.013072 -0.21415874 33 6
0.848674 4.3988442 1.2004027 1 15
0.7941649 4.0591354 -1.1082631 24 0
0.86505914 4.4174094 0.078570738 1 8
0.85765183 4.3714819 -1.0284761 2 1
0.87709099 4.4664497 0.23854731 1 9
0.85800779 4.3612089 -0.86398321 2 2
0.86766005 4.4021688 0.39254946 2 10
0.79295963 4.0194607 -0.64889026 21 3
0.8802498 4.4537525 0.55743045 1 11
2.0277257 10.240781 -1.2818218 2 4
0.87058151 4.3927417 0.70927399 2 12
0.70773584 3.5645375 -0.31794414 19 5
0.87939572 4.4210186 0.87619489 2 13
0.80025339 4.0194874 -0.21478678 30 6
0.88617599 4.4308524 1.2107556 1 15
0.82177436 4.0536361 -1.1082631 31 0
0.8942855 4.4034243 0.078431122 1 8
0.88505661 4.3540859 -1.0257769 2 1
0.90267193 4.4328179 0.2370819 1 9
0.88960904 4.3608837 -0.86512804 3 2
0.90159249 4.4156814 0.39429256 2 10
0.82020783 4.0099568 -0.64826447 23 3
0.91371226 4.4591665 0.55889291 1 11
2.1264994 10.368698 -1.2996148 3 4
0.90758795 4.4175158 0.71427983 2 12
0.90708977 4.4033942 0.8739053 2 13
0.82829714 4.0138021 -0.21478678 35 6
0.91551924 4.4169908 1.2086849 1 15
0.8532303 4.0629249 -1.1124043 36 0
0.91601145 4.3580956 0.077733018 1 8
0.91864437 4.3630562 -1.029376 2 1
0.93117696 4.4187536 0.23666322 2 9
0.91805559 4.3489642 -0.86398321 2 2
0.92909819 4.3936858 0.39289808 1 10
0.84584773 3.9965503 -0.64701301 24 3
0.93663299 4.4178891 0.55450553 1 11
2.1398637 10.075924 -1.2647601 2 4
0.92285085 4.3416767 0.70301658 2 12
0.93938082 4.4118714 -0.39464122 4 5
0.94927782 4.4507155 0.88459057 2 13
0.85643107 4.0119781 -0.21499613 30 6
0.93665469 4.3691006 1.197297 1 15
0.88004625 4.0532475 -1.111369 19 0
0.96426326 4.4336634 0.079199016 1 8
0.87993288 4.0425162 -0.9551422 21 1
0.95604634 4.3848257 0.23519783 2 9
0.95509714 4.373138 -0.87008911 2 2
0.96919459 4.4339743 0.39708155 1 10
0.87457341 3.9944074 -0.6476388 23 3
0.96405089 4.3957305 0.55255568 1 11
0.78351563 3.5695765 -0.44872296 6 4
0.9616226 4.373714 0.70927399 2 12
0.97015858 4.4052057 -0.39464122 4 5
0.9761681 4.4288135 0.88153762 2 13
0.88355792 4.0020008 -0.21478678 32 6
0.97633266 4.4039478 1.2086849 1 15
0.89478362 3.9866858 -1.0948045 22 0
0.9943133 4.4229221 0.079129212 1 8
0.98170817 4.3632832 -1.0325253 2 1
0.99453634 4.413116 0.2370819 1 9
0.98473948 4.3625331 -0.86932582 2 2
0.99222106 4.3921185 0.39394394 1 10
0.90505397 3.9997644 -0.64951599 22 3
1.005246 4.4353571 0.5584054 1 11
0.99563456 4.3823042 0.71177691 2 12
1.0008912 4.398325 -0.39464122 4 5
1.0009599 4.3950906 0.87619489 2 13
0.91058916 3.9918399 -0.21457745 30 6
1.0079148 4.4007912 1.2097203 1 15
0.93655115 4.0405655 -1.111369 22 0
1.0269778 4.4236636 0.079268835 1 8
1.0081744 4.3392406 -1.0284761 2 1
1.0253235 4.4060645 0.2370819 1 9
1.0160631 4.3593764 -0.87008911 2 2
1.0228618 4.3850842 0.39394394 1 10
0.93385434 3.9971955 -0.65014172 19 3
1.0379932 4.4359627 0.55938035 1 11
0.8319208 3.5524902 -0.44799173 30 4
1.0352114 4.403286 0.8792479 2 13
0.93934894 3.989274 -0.21478678 30 6
1.0346136 4.3767271 1.2050616 1 15
0.96383816 4.0301709 -1.1103338 21 0
1.0598558 4.4282403 0.079478264 2 8
1.0366265 4.3245163 -1.0266765 3 1
1.0580844 4.4106369 0.23770994 1 9
1.0438763 4.3447242 -0.86856258 2 2
1.0720958 4.4553208 0.40091643 1 10
0.96011591 3.9869056 -0.64951599 22 3
1.0784055 4.4712491 0.56474262 1 11
1.0717435 4.4334421 0.72241443 2 12
1.0650038 4.3921347 0.87848467 2 13
0.96648133 3.9827878 -0.21478678 29 6
1.0652956 4.3733373 1.2060968 1 15
0.99124843 4.0235171 -1.1103338 32 0
1.0744578 4.3547225 0.078291491 1 8
1.0707101 4.3362789 -1.0311756 2 1
1.0821382 4.3759985 0.23624454 2 9
1.0784323 4.3544812 -0.87199712 3 2
1.0851403 4.3783007 0.39464122 1 10
0.9893539 3.9858565 -0.65045458 25 3
1.0980989 4.4173765 0.55889291 1 11
2.4239397 9.743619 -1.2328304 2 4
1.0730585 4.3070126 0.70301658 2 12
1.1055216 4.4307184 -0.39952192 4 5
1.109144 4.441927 0.88993317 2 13
0.99523193 3.9798183 -0.21499613 35 6
1.0915685 4.3489299 1.2014381 1 15
1.0207392 4.0221157 -1.1118866 25 0
1.109759 4.3664961 0.078640543 2 8
1.1028783 4.3362527 -1.0329752 2 1
1.1333694 4.449626 0.24064074 1 9
1.1092893 4.3487487 -0.87237877 2 2
1.1196246 4.3860617 0.39603567 2 10
1.0156868 3.9731119 -0.64951599 20 3
1.1289113 4.4096026 0.55889291 1 11
2.6037393 10.162977 -1.2881591 2 4
1.1542785 4.4923611 -0.40579712 4 5
1.1293694 4.3922448 0.88153762 2 13
1.022992 3.9727736 -0.21499613 30 6
1.1204531 4.3355918 1.1998851 1 15
1.0517237 4.0261068 -1.1149925 28 0
1.1513499 4.4012032 0.079408452 1 8
1.119799 4.2775469 -1.0208279 7 1
1.1461706 4.3720546 0.23687255 2 9
1.1466016 4.3674836 -0.87772143 2 2
1.1522429 4.3858461 0.39673293 1 10
0.93332988 3.5475535 -0.58099771 15 3
1.1566341 4.3900967 0.55743045 1 11
2.6452692 10.033222 -1.2740222 2 4
1.1672788 4.4148502 -0.39952192 4 5
1.151973 4.3538857 0.87543172 2 13
1.0486562 3.9578123 -0.21457745 30 6
1.1506919 4.3276644 1.1998851 1 15
1.0702807 3.983218 -1.1051573 34 0
1.1726955 4.3583002 0.078780167 1 8
1.1612902 4.3129039 -1.0311756 3 1
1.1756254 4.3600893 0.23666322 2 9
1.1698997 4.3328366 -0.87237877 2 2
1.1880286 4.3969293 0.39847603 1 10
0.95394629 3.5256968 -0.57849473 23 3
1.1841419 4.3704181 0.55596799 1 11
2.6871986 9.9110498 -1.2608603 2 4
1.1764823 4.3331594 0.71115112 2 12
1.1834337 4.3527613 -0.39464122 4 5
1.2019261 4.4177241 0.88993317 2 13
1.0794095 3.9619575 -0.21520546 30 6
1.1991938 4.3925548 -0.079478264 2 7
1.1859732 4.33816 1.2050616 1 15
1.1078348 4.0110297 -1.1149925 32 0
1.2062919 4.3615708 0.078989588 1 8
1.1981269 4.3291078 -1.0370244 3 1
1.199635 4.3286791 0.23540714 1 9
1.198018 4.3169971 -0.87085229 2 2
1.203769 4.3347759 0.39359534 1 10
0.9822433 3.5322726 -0.58068478 17 3
1.2178172 4.3735194 0.55743045 1 11
2.7861686 9.9991331 -1.2745097 2 4
1.2459884 4.465641 0.73430347 3 12
1.2242786 4.3789749 0.88382733 2 13
1.1059659 3.9504786 -0.21499613 35 6
1.2162302 4.3297744 1.2050616 1 15
1.1373919 4.0087733 -1.1165454 36 0
1.2541976 4.414598 0.080106542 1 8
1.2336495 4.3393822 -1.0415233 7 1
1.2429475 4.3663015 0.23791927 1 9
1.2324349 4.3236322 -0.8739053 2 2
1.2307209 4.3147712 0.39254946 2 10
1.1283972 3.9508002 -0.65076745 20 3
1.2603287 4.406899 0.56279266 1 11
2.8406105 9.9260025 -1.2676851 2 4
1.2575445 4.3884716 0.72304016 2 12
1.2440927 4.335813 -0.39464122 4 5
1.2634884 4.4005127 0.88993317 2 13
1.1368316 3.9541779 -0.21562417 35 6
1.2507094 4.3360286 1.2092026 1 15
1.1604863 3.9840424 -1.1118866 32 0
1.2648301 4.3366246 0.078849971 1 8
1.2289702 4.2109404 -1.0127296 7 1
1.2745224 4.361352 0.23812862 1 9
1.2625893 4.3149233 -0.8739053 2 2
1.2776116 4.3634367 0.39777881 1 10
1.1581746 3.9504089 -0.6520189 21 3
1.2832359 4.3713274 0.55938035 1 11
2.9601908 10.077345 -1.2896215 2 4
1.3024755 4.4225836 -0.40335676 4 5
1.2875195 4.3689866 0.8853538 2 13
1.1632768 3.9423139 -0.21541482 35 6
1.2847886 4.3401575 1.2128261 1 15
1.1976765 4.0073104 -1.1206865 36 0
1.2996631 4.3430142 0.079129212 1 8
1.2175303 4.065979 -0.97988683 2 1
1.3003505 4.3370428 0.23729126 2 9
1.3057504 4.3467784 0.39708155 1 10
1.1857255 3.9422269 -0.6520189 20 3
1.3160099 4.3698659 0.56035525 1 11
3.0241714 10.035526 -1.2869403 2 4
1.3186951 4.3704853 0.72304016 2 12
1.3134445 4.3448572 0.88230079 2 13
1.1919284 3.9379203 -0.21562417 34 6
1.3189861 4.3440223 1.2164496 1 15
1.2233609 3.991462 -1.1186159 39 0
1.3452044 4.3835397 0.080036737 1 8
1.2258672 3.9921775 -0.96414024 7 1
1.3188584 4.2896776 0.23519783 1 9
1.3431028 4.3604054 0.39917332 1 10
1.2155452 3.9414039 -0.65327036 20 3
1.3511729 4.3757453 0.56230521 1 11
3.1052885 10.050206 -1.2915714 2 4
1.3701916 4.4291096 0.73430347 3 12
1.3553694 4.3730869 0.88993317 2 13
1.2229427 3.9409478 -0.21625218 35 6
1.349281 4.3347082 1.2164496 1 15
1.2500389 3.9791381 -1.1175808 40 0
1.3697726 4.3549662 0.079687685 1 8
1.3514072 4.293951 -1.0392739 4 1
1.3703808 4.3489432 0.23896599 1 9
1.1081311 3.5124087 -0.71591538 35 2
1.3591145 4.3053246 0.39498982 2 10
1.2442244 3.9365885 -0.65389615 20 3
1.417623 4.4797606 0.57692951 1 11
3.1789768 10.039636 -1.2930338 2 4
1.3712311 4.3252854 0.71866006 2 12
1.3948081 4.3943372 -0.40335676 4 5
1.3858664 4.3635178 0.88993317 2 13
1.2504239 3.9323144 -0.21625218 33 6
1.3771621 4.317821 1.2143791 1 15
1.2801534 3.9776707 -1.1196512 41 0
1.4062755 4.3643308 0.080036737 1 8
1.3825455 4.2881217 -1.0401736 1 1
1.4019358 4.3430715 0.23917533 1 9
1.1320232 3.5027182 -0.71553379 6 2
1.3952686 4.3146882 0.39673293 1 10
1.2680259 3.9165301 -0.6520189 23 3
1.426825 4.4017739 0.56815493 1 11
3.2434773 10.000204 -1.2908403 2 4
1.4162935 4.3537374 0.88993317 2 13
1.2790852 3.9272871 -0.21646154 35 6
1.4120713 4.3227916 1.21852 1 15
1.3103104 3.975976 -1.1217217 41 0
1.4304444 4.3354168 0.079687685 1 8
1.3739605 4.1617832 -1.0118299 3 1
1.432224 4.3331776 0.23917533 3 9
1.4284441 4.3166914 -0.88382733 2 2
1.4291162 4.3161898 0.39777881 1 10
1.299065 3.9188333 -0.65389615 24 3
1.4575204 4.3917055 0.56815493 1 11
3.3275967 10.020648 -1.2964462 2 4
1.4314861 4.3057189 0.71866006 2 12
1.4245679 4.2799125 -0.39464122 4 5
1.4392098 4.3213916 0.8853538 2 13
1.3039447 3.9106829 -0.21604285 30 6
1.4354744 4.2926755 1.2128261 1 15
1.3380361 3.9667313 -1.1217217 40 0
1.4581171 4.3177462 0.079548068 2 8
1.4454018 4.2776308 -1.0424232 3 1
1.4662786 4.3344259 0.23980337 3 9
1.4497286 4.2805805 -0.87848467 2 2
1.4592121 4.3061085 0.39777881 1 10
1.3289304 3.9171507 -0.65514761 23 3
3.387892 9.9689808 -1.2927902 3 4
1.4615129 4.2956195 0.71866006 2 12
1.4769458 4.3335376 0.88993317 2 13
1.3325026 3.9052649 -0.21625218 38 6
1.4722877 4.3026552 1.21852 1 15
1.3719987 3.9755549 -1.1268982 36 0
1.5018325 4.3493052 0.080315977 1 8
1.4996654 4.33567 0.24043141 1 9
2.3088284 6.6674995 -1.3715351 3 2
1.4970702 4.3184061 0.39987054 1 10
1.3542682 3.9042819 -0.65452182 23 3
1.5088172 4.3449392 0.56474262 1 11
3.4561021 9.9413347 -1.2923026 3 4
1.5231656 4.378859 0.73430347 3 12
1.4981134 4.2971678 0.88459057 2 13
1.363001 3.9074194 -0.21688022 38 6
1.5047305 4.301652 1.2211083 1 15
1.3951716 3.9551928 -1.1237923 37 0
1.5201721 4.3047748 0.079687685 1 8
1.2289741 3.4782307 -0.85166472 36 1
1.5338918 4.3363929 0.24105945 1 9
2.3592517 6.662322 -1.3738248 3 2
1.5304204 4.3193846 0.40091643 1 10
1.3854544 3.9059026 -0.65639907 22 3
3.5276783 9.9288025 -1.2937651 3 4
1.5536987 4.3681183 0.73430347 3 12
1.5470957 4.3423524 0.89603907 2 13
1.3915887 3.901571 -0.21708956 35 6
1.5340743 4.2892227 1.2205906 1 15
1.4175055 3.9308186 -1.1196512 39 0
1.5501901 4.2940559 0.079687685 1 8
1.2538871 3.4713993 -0.85211456 22 1
1.5546217 4.2992826 0.23959403 3 9
1.5476711 4.2753935 -0.88382733 2 2
1.551041 4.2823677 0.39847603 1 10
1.4160558 3.9054208 -0.65796345 25 3
3.6050401 9.926322 -1.2966899 3 4
1.5666224 4.3019304 0.88993317 2 13
1.4201612 3.8955142 -0.21729892 38 6
1.5606649 4.2693367 1.2180026 1 15
1.4556016 3.9498298 -1.1279335 37 0
1.6008946 4.3394127 0.080734834 2 8
1.2915877 3.4991243 -0.86111259 3 1
1.5818294 4.2808304 0.23917533 1 9
2.4751983 6.6913376 -1.3867998 3 2
1.5864325 4.2863836 0.39987054 1 10
1.4398528 3.8861785 -0.65639907 23 3
1.6339966 4.4054475 0.57692951 1 11
3.6797712 9.915803 -1.2986398 3 4
1.5966502 4.2978544 0.72616887 2 12
1.6070528 4.3212347 -0.40335676 4 5
1.6212672 4.3571286 0.90367144 2 13
1.4473225 3.8855047 -0.21729892 35 6
1.5924581 4.2637668 1.2195554 1 15
1.4858656 3.9468026 -1.130004 38 0
1.6198648 4.2981915 0.080176361 1 8
1.5751958 4.1774502 -1.0307257 6 1
1.6243707 4.3033185 0.24105945 1 9
1.6210918 4.2900987 -0.8914597 2 2
1.6247711 4.2975678 0.40196225 1 10
1.4739406 3.8945065 -0.65952778 23 3
1.6295476 4.301116 0.56474262 1 11
3.7404637 9.8675985 -1.295715 3 4
1.6265365 4.2796369 0.88993317 2 13
1.4772521 3.8827732 -0.2177176 41 6
1.6569686 4.3482847 -0.081223503 3 7
1.6235652 4.256155 1.2205906 1 15
1.5133815 3.9363339 -1.130004 38 0
1.6641976 4.3241029 0.080874451 1 8
1.6358318 4.248188 -1.0509714 2 1
1.6558105 4.2955999 0.24126878 1 9
1.6064785 4.1632838 -0.86741769 3 2
1.6446882 4.2600989 0.39952192 2 10
1.5025195 3.8878057 -0.66015351 21 3
3.8149986 9.8560524 -1.2976649 3 4
1.6773155 4.3243818 -0.40579712 4 5
1.6563724 4.268178 0.88993317 2 13
1.5101087 3.887259 -0.21855497 33 6
1.6588482 4.2591171 1.2247318 1 15
1.4737715 3.7548347 -1.0808283 26 0
1.7148203 4.3644919 0.08185178 1 8
1.676144 4.2638683 -1.0577198 7 1
1.6828337 4.2765017 0.24085009 3 9
1.6736381 4.2487803 -0.88764352 2 2
1.6831557 4.2707562 0.40161365 1 10
1.5339726 3.8882475 -0.66203076 18 3
1.7258977 4.3702617 0.57692951 1 11
3.9201822 9.9214897 -1.3098518 2 4
1.7051965 4.3112345 0.73430347 3 12
1.7338705 4.3792548 -0.41207233 4 5
1.712159 4.3222198 0.90367144 2 13
1.5386844 3.8803341 -0.21876432 39 6
1.6814053 4.2294807 1.2195554 1 15
1.3844073 3.4577649 -0.99800628 30 0
1.723659 4.300746 0.080874451 1 8
1.6956999 4.228847 -1.0518711 2 1
1.7193439 4.283483 0.24189681 1 9
1.7127671 4.2627935 -0.89298618 2 2
1.7166458 4.2702923 0.40265954 1 10
1.5559791 3.8667207 -0.66015351 23 3
1.6814214 4.1721454 -0.5523119 4 4
1.725589 4.2752814 -0.40335676 4 5
1.7386 4.3031836 0.90214497 2 13
1.5665572 3.8734746 -0.21897365 44 6
1.7166883 4.2340503 1.2242141 1 15
1.4231243 3.4837832 -1.0083591 25 0
1.7498654 4.2815108 0.080734834 1 8
1.7237059 4.2132988 -1.0509714 2 1
1.749972 4.2753782 0.24210617 1 9
1.7387661 4.2437696 -0.8914597 2 2
1.744904 4.2545171 0.40231091 1 10
1.5882621 3.8706598 -0.66265643 22 3
