# .PCD v0.7 - Point Cloud Data file format
VERSION 0.7
FIELDS x y z intensity ring
SIZE 4 4 4 4 2
TYPE F F F F U
COUNT 1 1 1 1 1
WIDTH 1299
HEIGHT 1
VIEWPOINT 0 0 0 1 0 0 0
POINTS 1299
DATA ascii
-6.7967148 -10.145146 -2.3736639 10 2
-24.176649 -36.073784 3.799293 1 10
-10.805198 -16.11018 -3.0723734 12 3
-24.758167 -36.885757 5.4546285 1 11
-15.019887 -22.368813 -3.3082654 20 4
-25.058355 -37.290768 7.1158919 1 12
-27.108007 -40.29538 9.4400845 1 13
-26.981247 -40.046562 11.148125 1 14
-4.048315 -5.968112 -1.9323431 5 0
-5.6874423 -8.3751059 -2.3372414 12 1
-25.022213 -36.819073 2.3330326 0 9
-6.8695807 -10.100698 -2.3744273 10 2
-24.416695 -35.88765 3.79755 0 10
-10.922963 -16.042517 -3.0739377 9 3
-24.954712 -36.623428 5.4414668 1 11
-15.21929 -22.327377 -3.3177712 5 4
-25.508429 -37.39397 7.1693921 1 12
-27.723024 -40.594776 9.5553331 1 13
-27.196358 -39.763927 11.12203 1 14
-4.0745435 -5.9174275 -1.9250962 4 0
-5.6838365 -8.2453461 -2.312047 14 1
-6.9153914 -10.016949 -2.3660316 12 2
-7.4811273 -10.824291 -2.0840201 3 3
-25.248178 -36.50383 5.4497538 1 11
-15.392859 -22.246704 -3.321671 5 4
-25.762117 -37.205231 7.1675148 1 12
-27.08412 -39.070728 9.240881 1 13
-27.573046 -39.73159 11.16522 1 14
-4.1157541 -5.8888388 -1.9250962 5 0
-5.7848306 -8.2677383 -2.3295932 10 1
-25.658052 -36.657108 2.3449652 0 9
-7.021708 -10.024319 -2.3790066 12 2
-33.716858 -48.099041 5.1390514 0 10
-7.7928066 -11.112761 -2.1497226 4 3
-25.44133 -36.253124 5.4380541 1 11
-15.620812 -22.24267 -3.3372703 11 4
-26.335003 -37.484829 7.2557445 1 12
-27.70644 -39.378441 9.3591814 1 13
-11.827975 -16.80456 -1.0769694 9 6
-28.078682 -39.863136 11.257001 1 14
-28.795658 -40.835594 13.38871 0 15
-4.1456861 -5.8465047 -1.9204375 6 0
-5.8037481 -8.1757307 -2.3147464 15 1
-26.02207 -36.630138 2.3548043 0 9
-7.0471554 -9.9126501 -2.3641236 16 2
-26.175207 -36.804878 3.9512928 1 10
-7.6766195 -10.786102 -2.0968478 14 3
-26.391689 -37.054474 5.5857601 1 11
-15.700429 -22.035595 -3.3221586 11 4
-26.475634 -37.131176 7.2228928 0 12
-26.197886 -36.700977 8.7650023 1 13
-28.342695 -39.647114 11.251601 1 14
-4.1875296 -5.8189874 -1.9209551 4 0
-5.8515706 -8.122364 -2.311147 11 1
-7.1460533 -9.9046049 -2.3740456 13 2
-25.449713 -35.260956 3.8045223 1 10
-7.8812757 -10.911596 -2.1318891 13 3
-26.02643 -36.006992 5.4551158 0 11
-15.891105 -21.976925 -3.3299582 14 4
-26.700632 -36.899029 7.21382 1 12
-26.445406 -36.506058 8.762331 1 13
-30.653431 -42.252831 12.051528 1 14
-4.2007079 -5.7521682 -1.9085318 4 0
-5.8103733 -7.9475965 -2.2729053 8 1
-25.780924 -35.238068 2.288233 0 9
-7.2474999 -9.8988285 -2.3847308 16 2
-25.755301 -35.164398 3.8134122 1 10
-7.9012074 -10.779834 -2.1168714 13 3
-26.483803 -36.10614 5.498014 0 11
-8.2111454 -11.190397 -1.704221 4 4
-28.134941 -38.315086 7.5288787 1 12
-28.099663 -38.225075 9.2217989 1 13
-30.83213 -41.880867 12.006538 1 14
-31.627344 -42.913963 14.284224 1 15
-4.2338619 -5.7133889 -1.9054259 5 0
-5.6764627 -7.6517291 -2.1995716 9 1
-26.085829 -35.137405 2.2934666 0 9
-6.8293705 -9.1924028 -2.2259779 10 2
-8.1248112 -10.924127 -2.1562929 8 3
-27.344431 -36.738873 5.6232958 1 11
-16.215372 -21.778381 -3.333858 14 4
-31.599052 -42.408836 8.376441 1 12
-26.835146 -35.975899 8.7241697 1 13
-30.776211 -41.19936 11.872467 1 14
-31.840555 -42.577633 14.245918 1 15
-4.2666788 -5.674428 -1.90232 4 0
-5.5656657 -7.3939419 -2.136585 8 1
-26.11899 -34.673672 2.2750442 0 9
-6.9205589 -9.1805611 -2.234755 6 2
-31.76675 -42.125298 4.6159425 1 10
-11.874137 -15.734644 -3.1221194 10 3
-27.940006 -36.996967 5.6925178 1 11
-16.38377 -21.686821 -3.3372703 11 4
-32.131424 -42.500774 8.4387016 1 12
-27.919743 -36.889751 8.9928284 1 13
-31.114777 -41.066578 11.894961 1 14
-31.434044 -41.427845 13.9343 0 15
-4.3015022 -5.6383595 -1.9002496 5 0
-5.5296221 -7.2402997 -2.1032922 8 1
-27.043123 -35.396542 2.3344979 0 9
-6.9948125 -9.1488371 -2.2385712 10 2
-30.869957 -40.347042 4.4445944 1 10
-8.5039759 -11.110674 -2.2160509 9 3
-28.217737 -36.840603 5.6978798 0 11
-16.56496 -21.611305 -3.343364 8 4
-31.328558 -40.857712 8.1546164 0 12
-27.435274 -35.728512 8.7562256 1 13
-31.578865 -41.080105 11.962447 1 14
-31.519732 -40.958778 13.848372 1 15
-4.3421464 -5.6120048 -1.9012847 7 0
-5.5131454 -7.1177588 -2.0785477 10 1
-27.938076 -36.043522 2.3899739 0 9
-7.5663018 -9.7544193 -2.3996141 12 2
-32.40683 -41.763584 4.6248322 0 10
-8.5776987 -11.046356 -2.2151122 8 3
-29.458426 -37.909225 5.8948207 0 11
-16.728735 -21.519991 -3.3467762 8 4
-30.987179 -39.833469 7.993176 1 12
-31.060202 -39.884235 9.8262815 1 13
-31.167612 -39.978962 11.703303 1 14
-31.278254 -40.063156 13.619059 1 15
-4.3597479 -5.5542026 -1.8919673 27 0
-5.541029 -7.0515146 -2.0704496 11 1
-31.545 -40.129761 2.6751003 0 9
-7.6592278 -9.736639 -2.4080098 10 2
-28.230204 -35.861328 3.9929533 1 10
-8.6196928 -10.945812 -2.2066648 9 3
-27.113419 -34.405575 5.378582 0 11
-16.810959 -21.316948 -3.3333704 11 4
-28.519449 -36.150776 7.2929759 0 12
-30.737568 -38.864708 11.439661 1 14
-4.3866262 -5.5107937 -1.8873086 21 0
-5.5427494 -6.9557219 -2.0533531 10 1
-28.776054 -36.085888 2.4188635 0 9
-7.7490554 -9.7105522 -2.4148786 10 2
-27.972717 -35.040833 3.9227057 0 10
-8.6441126 -10.820548 -2.1935244 10 3
-27.385187 -34.255753 5.3849192 1 11
-8.9254045 -11.160676 -1.7546749 3 4
-28.995764 -36.231491 7.3499174 1 12
-29.896017 -37.31633 9.2943068 1 13
-31.249607 -38.950134 11.528742 1 14
-31.37402 -39.063267 13.424945 0 15
-4.4310584 -5.4875507 -1.8898968 23 0
-5.553196 -6.8698759 -2.0394061 9 1
-32.147442 -39.741318 2.6788685 0 9
-7.816659 -9.6562176 -2.4148786 10 2
-29.014116 -35.829456 4.0335679 0 10
-8.6572628 -10.683199 -2.177881 9 3
-27.713688 -34.174755 5.4024682 0 11
-17.127035 -21.112427 -3.3380015 8 4
-29.795801 -36.702988 7.4875803 1 12
-29.675381 -36.515568 9.1462393 1 13
-30.248867 -37.168175 11.063543 1 14
-32.412243 -39.783855 13.750021 1 15
-4.4790525 -5.4684401 -1.8940378 9 0
-5.5688939 -6.7917614 -2.027709 9 1
-26.821815 -32.688293 2.2160094 0 9
-7.9212575 -9.6469307 -2.4263272 12 2
-28.597086 -34.814667 3.9417055 1 10
-8.7441759 -10.637762 -2.1810095 9 3
-27.989439 -34.026432 5.409781 1 11
-17.188234 -20.888113 -3.3214273 8 4
-29.678375 -36.041172 7.3946576 1 12
-29.694824 -36.022697 9.0744944 1 13
-31.492641 -38.149349 11.420766 1 14
-32.497211 -39.324306 13.66927 1 15
-4.4874935 -5.4013734 -1.8816146 4 0
-5.6074529 -6.742228 -2.0245595 10 1
-27.080034 -32.53709 2.2185214 0 9
-8.0009756 -9.6064825 -2.4301436 12 2
-29.52813 -35.440762 4.0358338 1 10
-8.7954588 -10.549148 -2.1753781 9 3
-27.997383 -33.555843 5.3659077 1 11
-17.457027 -20.915438 -3.3450701 11 4
-29.998905 -35.916492 7.4118657 0 12
-30.125662 -36.029896 9.1290655 1 13
-31.925856 -38.128765 11.481051 1 14
-32.624527 -38.921761 13.608189 1 15
-4.517622 -5.3610506 -1.8785087 4 0
-5.6292534 -6.6731272 -2.0155613 10 1
-28.88604 -34.21833 2.3468492 0 9
-8.0703821 -9.5533886 -2.4309068 12 2
-29.426327 -34.82135 3.9885955 0 10
-8.8892994 -10.511621 -2.1803839 9 3
-28.202747 -33.326237 5.3605456 0 11
-17.393553 -20.546095 -3.3053408 8 4
-30.310207 -35.778534 7.4268837 0 12
-30.385349 -35.829178 9.1317377 1 13
-32.247704 -37.984856 11.503548 1 14
-31.716726 -37.306595 13.120574 0 15
-4.5474095 -5.3205686 -1.8754028 5 0
-5.6554346 -6.609972 -2.008363 10 1
-28.985809 -33.86615 2.3361726 0 9
-8.1709824 -9.5399837 -2.441592 10 2
-29.922832 -34.911575 4.0227604 1 10
-8.9786444 -10.471863 -2.1847639 12 3
-29.126961 -33.947029 5.4921641 1 11
-17.377504 -20.238918 -3.2753608 13 4
-30.5376 -35.55341 7.4231291 0 12
-32.388668 -37.655296 9.6545544 1 13
-14.062358 -16.343239 -1.1299334 10 6
-32.868134 -38.172287 11.629519 1 14
-31.992632 -37.116177 13.129891 0 15
-4.5759277 -5.2807331 -1.872297 4 0
-5.6658173 -6.531579 -1.9962157 9 1
-28.540716 -32.87867 2.2817433 0 9
-8.3236456 -9.5820131 -2.4671605 13 2
-29.893173 -34.400291 3.9872007 1 10
-9.0826416 -10.444702 -2.1922729 9 3
-29.292879 -33.661995 5.4790025 0 11
-17.535717 -20.144119 -3.2792606 11 4
-32.00473 -36.739464 7.7172256 0 12
-32.677769 -37.472443 9.6644764 1 13
-14.25491 -16.334953 -1.1362138 10 6
-32.481285 -37.207783 11.402769 1 14
-32.640045 -37.336983 13.288288 1 15
-4.6126828 -5.2486582 -1.872297 3 0
-5.6958323 -6.4743075 -1.9908168 9 1
-8.4042454 -9.5428133 -2.4717398 13 2
-33.752628 -38.298317 4.4662089 0 10
-9.2005529 -10.43598 -2.203536 9 3
-30.380219 -34.435356 5.6384077 0 11
-17.719276 -20.070314 -3.2873039 17 4
-32.002998 -36.236485 7.657155 1 12
-31.388222 -35.490417 9.2095871 1 13
-14.51664 -16.408073 -1.1481464 10 6
-33.541168 -37.884735 11.681708 1 14
-32.485966 -36.654194 13.123679 1 15
-4.6277394 -5.1940618 -1.8640147 3 0
-5.7410645 -6.4368424 -1.9912667 10 1
-8.498126 -9.514657 -2.4797537 12 2
-29.829664 -33.386108 3.9169533 1 10
-9.2903023 -10.390636 -2.2076035 8 3
-30.606638 -34.207634 5.6359701 1 11
-14.246522 -15.917088 -2.6228724 3 4
-32.256508 -36.01366 7.6574678 1 12
-32.365631 -36.097446 9.424057 1 13
-14.764214 -16.454987 -1.1586134 10 6
-32.345581 -36.037075 11.179617 1 14
-32.852119 -36.550076 13.168196 1 15
-4.6587076 -5.1558943 -1.8619443 4 0
-5.7636399 -6.3720374 -1.9836185 9 1
-8.5995913 -9.4973402 -2.4904392 12 2
-29.446617 -32.49789 3.8367701 1 10
-9.3621407 -10.328623 -2.2079163 9 3
-30.929464 -34.098492 5.6525445 0 11
-17.956957 -19.782944 -3.2804792 8 4
-35.933578 -39.573673 8.4662342 1 12
-32.952335 -36.239548 9.5209875 1 13
-14.908133 -16.38957 -1.1611257 10 6
-33.496254 -36.799 11.488251 1 14
-35.23925 -38.673161 14.019194 0 15
-4.6971993 -5.1260934 -1.8629795 4 0
-5.8000803 -6.3230271 -1.980919 9 1
-8.6885796 -9.4586954 -2.4965451 10 2
-29.760401 -32.386879 3.8481002 1 10
-9.4625502 -10.290447 -2.2141736 9 3
-31.108154 -33.806179 5.6408448 0 11
-17.926577 -19.474535 -3.2500119 11 4
-36.274727 -39.379456 8.4800005 1 12
-33.324303 -36.138519 9.5553331 1 13
-15.095464 -16.358795 -1.1665685 10 6
-4.7276106 -5.0875163 -1.8609091 4 0
-5.8201895 -6.2566991 -1.9728208 8 1
-8.7741661 -9.4223251 -2.5026507 12 2
-30.037394 -32.233711 3.8547239 0 10
-9.5189037 -10.211352 -2.211045 9 3
-36.076836 -38.674137 6.4939303 0 11
-10.468268 -11.214067 -1.8836126 4 4
-37.402092 -40.052746 8.6796103 0 12
-32.881191 -35.162193 9.3576555 1 13
-15.274683 -16.328596 -1.1718022 10 6
-35.010941 -37.400414 11.827477 1 14
-4.7435851 -5.035532 -1.853662 4 0
-5.8359027 -6.1885819 -1.9638227 7 1
-8.8572569 -9.3793936 -2.5076118 7 2
-30.371029 -32.150177 3.8693664 1 10
-9.5818205 -10.136034 -2.2091677 9 3
-10.424288 -11.01567 -1.8621637 4 4
-35.166668 -37.135746 8.1004906 1 12
-33.060329 -34.874874 9.3408642 1 13
-15.53126 -16.372259 -1.1826881 10 6
-4.7652802 -4.9883237 -1.8484857 5 0
-5.8708839 -6.1392379 -1.9611233 7 1
-7.5945296 -7.9305806 -2.1343896 15 2
-36.904446 -38.523949 4.6673641 0 10
-9.6578159 -10.0746 -2.2104194 9 3
-34.744362 -36.218426 6.1624455 0 11
-18.064631 -18.824472 -3.2034578 7 4
-35.716503 -37.19281 8.1671314 0 12
-34.347927 -35.730202 9.6339464 1 13
-15.681183 -16.300854 -1.1854095 10 6
-4.7999887 -4.9549341 -1.8484857 3 0
-5.8783283 -6.061729 -1.9494258 9 1
-33.222103 -34.234695 2.5000887 0 9
-7.7509251 -7.9815893 -2.1626294 10 2
-37.016998 -38.105324 4.6478415 0 10
-9.7582092 -10.038089 -2.2173023 11 3
-36.505119 -37.52594 6.4281211 0 11
-18.039175 -18.537134 -3.1759155 10 4
-36.140656 -37.112389 8.2046757 0 12
-15.794599 -16.190985 -1.1854095 10 6
-4.8263397 -4.9130354 -1.8453798 3 0
-5.9123054 -6.0122056 -1.9467264 9 1
-36.864456 -37.461208 2.7544415 0 9
-9.1812296 -9.3233376 -2.543484 7 2
-35.260288 -35.793568 4.3957868 1 10
-9.861331 -10.003484 -2.2248113 9 3
-36.3675 -36.866001 6.3584118 0 11
-18.173721 -18.416403 -3.1768904 13 4
-34.486206 -34.922325 7.7735424 1 12
-15.949389 -16.122917 -1.1885496 10 6
-4.8577948 -4.8764849 -1.8443446 4 0
-5.9403734 -5.9569869 -1.9422275 9 1
-9.2294464 -9.2423458 -2.5389047 9 2
-36.675224 -36.71365 4.5401168 0 10
-10.011926 -10.015426 -2.2429576 9 3
-36.528526 -36.515778 6.3418374 0 11
-18.262533 -18.249788 -3.1700656 10 4
-34.757126 -34.708633 7.7797999 1 12
-16.13228 -16.081682 -1.1937833 10 6
-4.8889751 -4.8397336 -1.8433093 3 0
-5.9679589 -5.9016671 -1.9377284 7 1
-9.235076 -9.1197462 -2.5228767 15 2
-39.729565 -39.219738 4.8842077 0 10
-10.146294 -10.009096 -2.2573495 10 3
-18.433329 -18.165041 -3.1776216 15 4
-16.306824 -16.030277 -1.1983888 10 6
-4.919879 -4.8027859 -1.8422741 3 0
-5.9922729 -5.8435321 -1.9323295 8 1
-9.4124451 -9.1659985 -2.5537877 10 2
-10.255567 -9.9765882 -2.2661099 9 3
-18.563961 -18.040064 -3.1783528 10 4
-16.564615 -16.057837 -1.2090654 10 6
-4.928237 -4.7442045 -1.8329566 3 0
-6.0188766 -5.7880492 -1.9278306 9 1
-9.477622 -9.1014233 -2.5541694 9 2
-10.401944 -9.9785919 -2.2830048 10 3
-18.665087 -17.886675 -3.1742091 7 4
-16.725401 -15.98873 -1.2126243 10 6
-4.9612365 -4.7096848 -1.8329566 3 0
-6.0365133 -5.7244329 -1.920632 6 1
-9.5352287 -9.0296354 -2.5526428 7 2
-10.548845 -9.9790354 -2.2998998 9 3
-18.796719 -17.762749 -3.1754279 10 4
-16.865685 -15.898972 -1.2147176 10 6
-4.9883537 -4.6696529 -1.830886 3 0
-6.0677881 -5.6741652 -1.9179326 7 1
-9.6079464 -8.9752455 -2.555696 7 2
-10.708955 -9.9932556 -2.3199234 12 3
-18.493298 -17.233213 -3.1037686 5 4
-17.037867 -15.84365 -1.2193232 10 6
-5.0200243 -4.6355906 -1.830886 3 0
-6.0690289 -5.5983782 -1.9062351 7 1
-44.045437 -40.601284 3.139425 0 9
-9.0740051 -8.3586035 -2.3980875 4 2
-10.816254 -9.9530277 -2.328058 10 3
-18.579481 -17.078722 -3.0986502 7 4
-17.209887 -15.781011 -1.2237195 10 6
-5.0436921 -4.592628 -1.8277801 3 0
-6.0877814 -5.5375152 -1.8999366 7 1
-9.0841808 -8.2514906 -2.3854942 9 2
-10.903029 -9.8932028 -2.3318124 9 3
-18.743851 -16.989929 -3.1062059 10 4
-17.370005 -15.706025 -1.2272782 10 6
-5.0468845 -4.5314903 -1.8174274 3 0
-6.1132374 -5.4831681 -1.8958875 10 1
-9.1035414 -8.1538153 -2.3755722 9 2
-11.004216 -9.8458233 -2.3386955 9 3
-18.092371 -16.170767 -2.9794621 9 4
-17.735641 -15.812993 -1.2452818 10 6
-5.0726104 -4.4910245 -1.8153569 3 0
-43.891575 -38.804668 3.0703416 0 9
-9.0646687 -8.0084686 -2.3511486 7 2
-11.12726 -9.820363 -2.3505845 9 3
-18.021643 -15.882626 -2.9494822 6 4
-5.0943317 -4.4487681 -1.812251 3 0
-6.1456695 -5.3612099 -1.8828404 42 1
-43.393589 -37.82798 3.016959 0 9
-8.9560423 -7.8018475 -2.308789 6 2
-44.970844 -39.161522 5.2171426 1 10
-11.246216 -9.7865276 -2.361222 9 3
-18.216228 -15.835123 -2.963619 6 4
-5.1281939 -4.415616 -1.8132863 3 0
-6.1932907 -5.3270702 -1.8859898 8 1
-8.4637136 -7.2696691 -2.168735 7 2
-44.529659 -38.233994 5.1348677 0 10
-11.353242 -9.7412224 -2.3693566 9 3
-18.336882 -15.716611 -2.9653251 9 4
-5.1500578 -4.3722062 -1.8101805 3 0
-6.2065492 -5.2635355 -1.8787912 6 1
-8.2430849 -6.9807591 -2.0996623 6 2
-11.481296 -9.7127562 -2.3818715 9 3
-18.515905 -15.647154 -2.9765372 11 4
-5.1826615 -4.33953 -1.8112158 3 0
-6.2347574 -5.2149167 -1.8765416 7 1
-8.1502781 -6.8074446 -2.0641718 9 2
-11.601747 -9.6799393 -2.3931346 10 3
-18.681452 -15.570323 -2.986043 14 4
-5.1524963 -4.2549477 -1.7905102 3 0
-6.243052 -5.1500359 -1.8684435 7 1
-45.391026 -37.417477 3.0829022 0 9
-8.1297522 -6.6968842 -2.0473807 9 2
-11.710076 -9.63589 -2.401895 9 3
-18.541231 -15.235363 -2.9465573 15 4
-19.032314 -15.605531 -1.2898722 10 6
-5.2037892 -4.2350402 -1.7977571 3 0
-6.2615991 -5.0904784 -1.8630446 7 1
-46.020363 -37.386398 3.1073954 0 9
-8.1305857 -6.6028366 -2.0359321 9 2
-11.88306 -9.6364565 -2.4231701 9 3
-19.032764 -15.417933 -3.0074918 14 4
-19.143501 -15.468935 -1.2898722 10 6
-5.2211733 -4.1889372 -1.7936161 4 0
-6.2909012 -5.0417666 -1.8612449 6 1
-45.89986 -36.759567 3.0818553 0 9
-8.1224442 -6.5003257 -2.0221939 9 2
-12.017934 -9.6075354 -2.4369364 10 3
-19.020044 -15.183503 -2.9882364 9 4
-19.407244 -15.459356 -1.3003392 10 6
-5.2449532 -4.1466761 -1.7915455 3 0
-6.305407 -4.9797115 -1.8549464 6 1
-46.7481 -36.892933 3.1210027 0 9
-8.10289 -6.3923931 -2.006166 10 2
-12.129825 -9.5555182 -2.4456968 9 3
-19.061623 -15.000017 -2.9782434 14 4
-19.67448 -15.443408 -1.3108065 10 6
-5.2662458 -4.1070466 -1.789475 4 0
-6.3259969 -4.9282026 -1.8513472 7 1
-50.512547 -39.322948 3.3548398 10 9
-8.1183214 -6.3153915 -1.9992968 10 2
-12.274039 -9.5378904 -2.461966 9 3
-19.170092 -14.880573 -2.9797056 14 4
-19.893332 -15.403063 -1.3185521 10 6
-5.2917271 -4.0678263 -1.7884396 4 0
-6.3478832 -4.874424 -1.847748 6 1
-8.1513071 -6.2501993 -1.9966254 10 2
-12.421878 -9.5144281 -2.478235 9 3
-19.268784 -14.742755 -2.9789743 9 4
-20.092464 -15.33409 -1.3246232 10 6
-5.3199959 -4.0307851 -1.7884396 5 0
-6.363111 -4.815877 -1.8423492 6 1
-8.1759472 -6.1789351 -1.992046 10 2
-12.585742 -9.5012693 -2.497633 9 3
-19.227005 -14.499115 -2.9567943 13 4
-28.623409 -21.530146 -1.8770815 5 6
-5.3356233 -3.9842994 -1.7842987 4 0
-6.3872046 -4.7643461 -1.8396497 6 1
-51.798649 -38.6236 3.3862414 11 9
-8.2067957 -6.1149306 -1.9893748 9 2
-12.738864 -9.4814281 -2.5151536 11 3
-19.233753 -14.294674 -2.9424136 11 4
-28.576782 -21.192057 -1.864521 5 6
-5.3688431 -3.9524701 -1.7863692 5 0
-6.3927975 -4.7011328 -1.8320013 5 1
-8.2113066 -6.0295997 -1.9802158 7 2
-12.925799 -9.48106 -2.5389318 10 3
-19.467607 -14.258571 -2.9628875 11 4
-28.717583 -20.98732 -1.8641022 10 6
-5.38135 -3.9026086 -1.7811928 4 0
-6.4215403 -4.6518369 -1.8306518 6 1
-8.2341146 -5.9583158 -1.9756364 9 2
-13.060562 -9.4369125 -2.5520723 10 3
-14.773193 -10.662606 -2.2370338 5 4
-28.698448 -20.659925 -1.8532163 11 6
-5.4210372 -3.8739319 -1.7853339 5 0
-6.4300685 -4.5899105 -1.8239032 4 1
-8.2333755 -5.8684745 -1.9653327 6 2
-13.222674 -9.4142437 -2.5708442 10 3
-14.950806 -10.632842 -2.2526331 11 4
-28.884338 -20.489122 -1.8559378 11 6
-5.4353137 -3.8270938 -1.7811928 5 0
-6.447608 -4.5348196 -1.819854 6 1
-8.2249374 -5.7784381 -1.9538842 4 2
-11.504575 -8.0735569 -2.2260628 9 3
-15.01817 -10.523651 -2.2516582 11 4
-29.157356 -20.385883 -1.864521 5 6
-5.4485397 -3.7811975 -1.7770516 5 0
-6.4639134 -4.4808331 -1.815805 5 1
-8.2650766 -5.7208786 -1.9538842 6 2
-13.528324 -9.3534927 -2.6049469 4 3
-15.154789 -10.466308 -2.2614079 11 4
-5.4716163 -3.740886 -1.7760164 4 0
-6.4692879 -4.4180145 -1.8086064 5 1
-8.2464209 -5.623219 -1.940146 4 2
-13.612886 -9.2721634 -2.6087015 5 3
-15.29314 -10.404915 -2.2711573 11 4
-29.376345 -19.934175 -1.8605435 5 6
-5.4847798 -3.6939633 -1.7718753 5 0
-6.4870377 -4.3640423 -1.8050072 5 1
-8.2724409 -5.5567541 -1.937093 6 2
-11.267604 -7.5601039 -2.149097 9 3
-15.474239 -10.370839 -2.2872441 11 4
-5.5104356 -3.6555812 -1.7718753 4 0
-6.4946051 -4.3035765 -1.7987086 5 1
-8.2651863 -5.4685354 -1.9264078 4 2
-12.452282 -8.2294941 -2.364038 4 3
-15.715241 -10.374108 -2.3121052 11 4
-30.806179 -20.282093 -1.9329764 3 6
-5.5293522 -3.6127965 -1.7698047 5 0
-6.5081711 -4.2474818 -1.7942096 4 1
-8.2538176 -5.3785424 -1.9149592 4 2
-11.732974 -7.6369615 -2.2173023 9 3
-15.787286 -10.264138 -2.3121052 11 4
-5.5479407 -3.5699265 -1.7677342 4 0
-6.5393047 -4.2029958 -1.7946595 6 1
-8.2267256 -5.2794371 -1.900076 24 2
-11.859177 -7.6017714 -2.2310686 9 3
-15.835151 -10.138691 -2.3086929 11 4
-5.5694656 -3.5290382 -1.7666988 4 0
-6.5437884 -4.1416082 -1.7879109 5 1
-8.2733393 -5.2281699 -1.9023658 21 2
-12.904203 -8.1450958 -2.4169128 9 3
-16.070112 -10.131641 -2.3325794 11 4
-5.5644636 -3.4716649 -1.7573814 4 0
-6.5609646 -4.0886102 -1.7847617 6 1
-8.3004007 -5.1665463 -1.9004576 6 2
-12.806685 -7.9621625 -2.3884416 8 3
-16.140451 -10.019208 -2.3325794 11 4
-5.6011333 -3.4417992 -1.7615224 4 0
-6.5919642 -4.0458946 -1.7856615 6 1
-8.2960949 -5.0838523 -1.8912989 4 2
-12.594073 -7.7085891 -2.3386955 7 3
-16.265862 -9.9443159 -2.3408666 11 4
-5.6283312 -3.4046121 -1.7625577 3 0
-6.581687 -3.9765973 -1.7753137 5 1
-8.2901649 -5.0029211 -1.88214 4 2
-12.208073 -7.3585715 -2.2576625 5 3
-16.384211 -9.8602047 -2.347935 12 4
-5.634778 -3.3563361 -1.7573814 4 0
-6.6136265 -3.9346938 -1.7766634 7 1
-8.3299532 -4.9479313 -1.8832849 4 2
-11.649249 -6.9113193 -2.1453426 7 3
-16.520967 -9.7899446 -2.3579283 11 4
-5.6714044 -3.3247335 -1.7615224 4 0
-6.6476603 -3.8923666 -1.778463 7 1
-8.298193 -4.8510146 -1.8684019 4 2
-11.468627 -6.6963553 -2.1034181 9 3
-16.666077 -9.7193689 -2.3688965 12 4
-5.6844373 -3.2792652 -1.7584167 4 0
-6.6611648 -3.8380775 -1.7748638 7 1
-8.2893114 -4.7684922 -1.8588613 4 2
-11.343816 -6.5177178 -2.0721312 9 3
-16.90053 -9.6986256 -2.3925393 11 4
-18.418425 -10.539796 -1.1121392 9 6
-5.6870313 -3.2280581 -1.752205 9 0
-6.6911874 -3.7934041 -1.7757636 7 1
-8.2942429 -4.6964803 -1.8527553 4 2
-11.281312 -6.3800621 -2.0527334 9 3
-17.069815 -9.6379795 -2.4069197 9 4
-29.111988 -16.397066 -1.7510566 7 6
-5.7358565 -3.2043478 -1.7604873 5 0
-6.7066426 -3.7420735 -1.7730643 7 1
-8.3113918 -4.6298652 -1.8493209 3 2
-11.273792 -6.2723365 -2.0433471 9 3
-15.962033 -8.8697605 -2.2421525 4 4
-5.7547002 -3.1623662 -1.759452 4 0
-6.7257695 -3.6914124 -1.7712647 7 1
-8.3013954 -4.5505347 -1.8401619 3 2
-11.239988 -6.1537132 -2.0295811 9 3
-17.408361 -9.5150099 -2.4359245 12 4
-29.528187 -16.099295 -1.7625705 7 6
-5.7590995 -3.1139338 -1.7542756 4 0
-6.7370224 -3.6381378 -1.7676654 7 1
-8.3260498 -4.4887424 -1.8386356 3 2
-11.237452 -6.0507469 -2.0214465 9 3
-17.603848 -9.4668083 -2.454205 10 4
-29.33359 -15.728534 -1.7443576 8 6
-5.7670517 -3.066396 -1.7501343 4 0
-6.755373 -3.5873601 -1.7658658 7 1
-8.3190231 -4.4102755 -1.8302399 3 2
-11.251488 -5.9573574 -2.0164404 9 3
-17.806385 -9.4160652 -2.4732165 10 4
-29.467415 -15.536405 -1.745823 16 6
-5.7985902 -3.0314312 -1.7532402 4 0
-6.7664328 -3.5328975 -1.7622666 7 1
-8.3356829 -4.344831 -1.8271869 3 2
-11.185921 -5.8230224 -1.9973555 5 3
-17.943901 -9.3290672 -2.4832101 12 4
-5.7818127 -2.9714475 -1.7418523 4 0
-6.7805309 -3.480232 -1.7595671 7 1
-8.2742157 -4.2414212 -1.8073429 3 2
-11.161998 -5.7143412 -1.9860923 8 3
-18.139397 -9.2704172 -2.5012465 12 4
-5.8260427 -2.9442229 -1.7490991 4 0
-6.7971034 -3.4304872 -1.7577676 7 1
-8.3176508 -4.1906223 -1.810396 3 2
-11.146915 -5.6087546 -1.9763933 6 3
-18.232231 -9.1618881 -2.5053902 10 4
-5.8395338 -2.9000406 -1.7470287 4 0
-6.8069201 -3.3760238 -1.7541683 6 1
-8.3283892 -4.1251941 -1.8065797 3 2
-11.121094 -5.5012193 -1.96513 6 3
-17.147705 -8.4674749 -2.3481789 5 4
-5.8556657 -2.8585312 -1.7459934 3 0
-6.8332453 -3.3313217 -1.7550682 7 1
-8.3252106 -4.051487 -1.7997105 3 2
-11.089937 -5.3897696 -1.9529281 5 3
-17.328165 -8.4103699 -2.3649967 2 4
-5.8754797 -2.8175812 -1.7459934 3 0
-6.8493056 -3.2801671 -1.7532685 7 1
-8.3444357 -3.9890337 -1.7978026 4 2
-11.04351 -5.2722173 -1.9382232 7 3
-18.941797 -9.0307169 -2.5765617 11 4
-21.396006 -10.168721 -1.2415137 10 6
-5.8880162 -2.7732015 -1.7439228 3 0
-6.8614578 -3.2272952 -1.7505691 6 1
-8.3720808 -3.9306831 -1.7978026 4 2
-10.96737 -5.1421633 -1.9185126 13 3
-19.157192 -8.9698067 -2.5972795 14 4
-5.889699 -2.7239184 -1.7387464 3 0
-6.8732066 -3.1744118 -1.7478697 7 1
-8.355855 -3.8538711 -1.7886436 4 2
-30.057941 -13.850544 2.895488 9 10
-11.043384 -5.0863976 -1.9257084 24 3
-19.38167 -8.9104776 -2.6192162 14 4
-5.9186568 -2.6885607 -1.7418523 3 0
-6.8875551 -3.1243353 -1.7460701 6 1
-8.3754025 -3.7922032 -1.7871171 4 2
-29.654173 -13.42054 2.8477266 4 10
-10.997627 -4.9725537 -1.9116293 6 3
-16.918013 -7.6387773 -2.2792008 13 4
-5.9231672 -2.6408801 -1.7377111 3 0
-6.8949575 -3.0698323 -1.7424709 6 1
-8.3830824 -3.7271299 -1.783301 4 2
-29.681591 -13.184071 2.8414514 5 10
-10.959002 -4.8655171 -1.8991146 4 3
-26.98488 -11.969325 3.6246383 3 11
-16.753143 -7.4239764 -2.2499521 9 4
-5.9233079 -2.592756 -1.7325348 3 0
-6.9139075 -3.0220499 -1.742021 5 1
-8.3945017 -3.662236 -1.780248 4 2
-29.673851 -12.939521 2.8322129 5 10
-10.963726 -4.7762699 -1.8941088 5 3
-27.122391 -11.804417 3.6319506 3 11
-18.321428 -7.97019 -2.4532301 4 4
-5.9448147 -2.552865 -1.7335701 3 0
-6.9169269 -2.9660282 -1.737522 5 1
-8.4379129 -3.6112661 -1.7840642 4 2
-29.671869 -12.69287 2.8234973 7 10
-10.935045 -4.6732159 -1.8834713 5 3
-27.211439 -11.617895 3.6329255 11 11
-18.038853 -7.6979423 -2.4081383 11 4
-5.9446883 -2.5038016 -1.7283937 3 0
-6.9195018 -2.9101117 -1.7330229 5 1
-8.4393854 -3.5423925 -1.7791032 4 2
-29.429054 -12.346676 2.7921214 5 10
-10.936432 -4.5837827 -1.8781524 3 3
-27.38344 -11.465976 3.6451125 11 11
-17.799162 -7.4492025 -2.3691401 6 4
-30.063848 -12.569819 5.1610866 2 12
-5.9584513 -2.4607654 -1.7273583 4 0
-6.9522595 -2.8669355 -1.7361722 7 1
-8.4360704 -3.4736547 -1.773379 4 2
-29.831457 -12.271281 2.8221028 5 10
-10.905262 -4.483695 -1.8675148 4 3
-27.648148 -11.356247 3.6699739 11 11
-16.645992 -6.8304133 -2.2092476 5 4
-29.541939 -12.116034 5.0572143 9 12
-5.9643202 -2.4157989 -1.7242525 4 0
-6.9679995 -2.8180852 -1.7352724 7 1
-63.652832 -25.717405 3.597888 21 9
-8.4382696 -3.4058578 -1.7687995 4 2
-29.72583 -11.99191 2.8043232 5 10
-10.921641 -4.4015455 -1.8650119 3 3
-27.10434 -10.91237 3.58759 3 11
-16.248278 -6.5383549 -2.1505065 8 4
-29.649626 -11.919081 5.0612812 12 12
-28.324213 -11.369045 5.9326334 6 13
-29.187746 -11.703823 -1.6480595 20 6
-5.98104 -2.3741026 -1.7242525 4 0
-6.9784455 -2.7657826 -1.7330229 5 1
-8.450305 -3.3440049 -1.7665098 4 2
-27.203701 -10.754236 2.5592413 6 10
-10.874187 -4.2966142 -1.8518714 3 3
-27.752237 -10.954288 3.6633928 15 11
-16.01652 -6.315537 -2.1139457 8 4
-29.634504 -11.679322 5.045012 15 12
-28.380974 -11.162399 5.9280539 10 13
-28.935867 -11.374819 -1.6294278 21 6
-5.9970613 -2.3333359 -1.7242525 4 0
-6.9734955 -2.7090437 -1.7271742 6 1
-64.034874 -24.850349 3.5997722 21 9
-8.4624596 -3.280673 -1.76422 4 2
-27.283703 -10.571696 2.5599384 6 10
-10.852335 -4.2006307 -1.843111 3 3
-28.40015 -10.981494 3.738708 18 11
-15.87875 -6.1334705 -2.0900595 8 4
-28.349798 -10.944964 4.8131762 3 12
-28.64324 -11.035284 5.9665976 5 13
-29.674379 -11.426593 -1.6664816 9 6
-5.9774976 -2.2766104 -1.7138997 5 0
-6.9799523 -2.6542249 -1.7240249 4 1
-63.867519 -24.260992 3.5805123 20 9
-8.4796505 -3.2194254 -1.7630752 4 2
-27.878407 -10.573312 2.6085713 6 10
-10.834087 -4.1046691 -1.8349764 4 3
-28.232929 -10.690866 3.7067783 22 11
-15.783788 -5.9704943 -2.0720227 8 4
-28.462502 -10.755085 4.8191209 11 12
-28.540575 -10.756135 -1.5984449 11 6
-6.0004864 -2.2375224 -1.7159703 4 0
-7.0129228 -2.6108687 -1.7276241 5 1
-64.196327 -23.874409 3.5895145 21 9
-8.474865 -3.1484084 -1.7573509 4 2
-27.669502 -10.273713 2.5822504 9 10
-10.825438 -4.0151963 -1.8287191 3 3
-27.975512 -10.36511 3.6631489 3 11
-15.705943 -5.8160424 -2.0564234 8 4
-28.768476 -10.641784 4.8582292 10 12
-29.083422 -10.729443 -1.6246129 10 6
-5.9941835 -2.1876304 -1.7097588 4 0
-7.0016828 -2.5511727 -1.7204256 5 1
-8.5274639 -3.1020584 -1.7638384 3 2
-27.989607 -10.170794 2.6054337 6 10
-10.819097 -3.9292789 -1.8230875 4 3
-27.995031 -10.156175 3.6565681 15 11
-15.678977 -5.6819005 -2.0476489 8 4
-29.25071 -10.59439 4.9273734 14 12
-29.279762 -10.576013 -1.6315212 10 6
-6.0052967 -2.1454785 -1.7087234 4 0
-29.709993 -10.60263 0.55062342 54 8
-7.0152149 -2.5021453 -1.7195259 5 1
-29.66993 -10.570822 1.6506763 30 9
-8.5211687 -3.0325763 -1.7581142 4 2
-29.113163 -10.355283 2.7033968 12 10
-10.782977 -3.8311658 -1.8124499 4 3
-28.224268 -10.01692 3.6772859 19 11
-15.560137 -5.5193019 -2.0271747 7 4
-29.435678 -10.429507 4.9461455 13 12
-27.345427 -9.6620502 -1.519941 11 6
-5.9873018 -2.0920329 -1.6994059 4 0
-7.0104313 -2.4454083 -1.7141271 5 1
-29.829834 -10.399521 1.6555958 7 9
-8.5193653 -2.9667566 -1.7535348 4 2
-29.681538 -10.324597 2.7494149 11 10
-10.77522 -3.7460036 -1.8068182 4 3
-28.623713 -9.9398403 3.7204278 15 11
-15.491385 -5.3734593 -2.0132816 5 4
-28.595181 -9.9131584 4.7934656 11 12
-29.154751 -10.078649 -1.6166579 11 6
-6.0273547 -2.0589254 -1.7066529 5 0
-7.0402436 -2.4008095 -1.7172763 6 1
-8.5124969 -2.896234 -1.7478106 3 2
-29.254908 -9.9477873 2.7033968 12 10
-10.784916 -3.6630871 -1.8040025 4 3
-28.643353 -9.7175322 3.7138467 18 11
-15.348045 -5.203989 -1.9898828 5 4
-28.581192 -9.6797609 4.7793865 27 12
-29.567646 -9.9965954 6.0669632 21 13
-29.774881 -10.05508 -1.6470127 10 6
-6.0269217 -2.0119026 -1.7025118 4 0
-7.0494375 -2.3491368 -1.7154768 7 1
-30.983923 -10.312989 1.7113858 32 9
-8.5623159 -2.8466446 -1.7539164 3 2
-28.801794 -9.5699196 2.6552868 6 10
-10.802728 -3.5852137 -1.8027509 4 3
-28.897038 -9.5791645 3.7379768 14 11
-15.248326 -5.0517592 -1.9723336 5 4
-28.445536 -9.4129677 4.7455964 15 12
-29.355223 -9.6969452 6.0093389 3 13
-29.946774 -9.8807678 -1.652665 10 6
-6.0040874 -1.9577998 -1.6921589 14 0
-7.0508418 -2.2950397 -1.7118775 7 1
-39.90826 -12.974693 2.1992619 0 9
-8.5315647 -2.7704277 -1.7436126 4 2
-30.190674 -9.797904 2.7769563 11 10
-10.816218 -3.506057 -1.8008738 4 3
-28.370192 -9.1852036 3.6614428 15 11
-28.758669 -9.2943449 4.7868953 15 12
-32.931118 -10.623775 6.726017 2 13
-6.002882 -1.9111485 -1.6880178 14 0
-7.0629773 -2.2445807 -1.7109778 7 1
-39.626362 -12.585456 2.1789556 0 9
-8.5258961 -2.7045755 -1.7386516 3 2
-31.337164 -9.9286957 2.8759651 4 10
-10.813468 -3.4240034 -1.7964935 5 3
-28.142475 -8.9002972 3.6241508 7 11
-15.118619 -4.775588 -1.9467411 6 4
-28.210934 -8.9057026 4.6855259 4 12
-33.255413 -10.472635 6.7771544 3 13
-6.0434232 -1.8788465 -1.6957825 12 0
-7.0483131 -2.1872118 -1.7037793 6 1
-39.44236 -12.224536 2.1640921 0 9
-8.5145645 -2.6356971 -1.7325459 3 2
-34.215332 -10.584868 3.1334233 1 10
-10.801249 -3.3373482 -1.790549 6 3
-28.033209 -8.6509342 3.6022143 7 11
-15.021784 -4.6327863 -1.9301667 3 4
-28.523502 -8.7858829 4.7271376 12 12
-33.659954 -10.348725 6.8450823 1 13
-6.0804257 -1.8438994 -1.7025118 5 0
-7.0708723 -2.1402085 -1.7055789 7 1
-34.343914 -10.388667 1.8804311 3 9
-8.5511007 -2.5833569 -1.736362 3 2
-32.035683 -9.6660471 2.9275613 4 10
-10.768867 -3.2472105 -1.7814759 5 3
-28.923983 -8.7106409 3.708972 7 11
-14.962514 -4.500361 -1.9184674 3 4
-28.187265 -8.472681 4.6617475 8 12
-6.0761638 -1.7975361 -1.6978531 6 0
-34.467602 -10.183609 0.62734425 26 8
-7.0553722 -2.0832009 -1.6983805 6 1
-32.595688 -9.6119814 1.7809929 5 9
-8.5463276 -2.5169423 -1.7317824 3 2
-31.301804 -9.2126236 2.8546991 4 10
-10.791275 -3.171953 -1.7814759 4 3
-27.841255 -8.1730146 3.5627286 11 11
-14.871654 -4.3600469 -1.902868 3 4
-28.482689 -8.3451166 4.7008562 12 12
-34.235001 -9.9980421 -1.8691264 5 6
-6.0833015 -1.7524059 -1.6963001 5 0
-7.0626068 -2.0305085 -1.6965809 6 1
-32.982307 -9.469985 1.7983685 10 9
-8.5485935 -2.4528866 -1.7287296 3 2
-32.533344 -9.3226423 2.9608548 2 10
-10.802301 -3.0913901 -1.7795987 4 3
-27.830837 -7.9593425 3.5541978 15 11
-14.813927 -4.2310424 -1.891656 3 4
-30.464085 -8.6894236 5.0174794 9 12
-34.605717 -9.8511639 6.9939137 2 13
-6.1139884 -1.7151101 -1.7014765 5 0
-7.0578446 -1.9758974 -1.6920818 7 1
-33.159172 -9.2706919 1.8044392 10 9
-8.5470181 -2.3863719 -1.7249134 3 2
-31.438507 -8.7718735 2.8555706 4 10
-10.779854 -3.0037084 -1.7724028 4 3
-29.625483 -8.243721 3.7757564 7 11
-14.781902 -4.1105037 -1.8838565 3 4
-34.128948 -9.4776268 5.6100535 3 12
-34.575264 -9.5820732 6.9740696 4 13
-6.1071763 -1.6672981 -1.6963001 4 0
-7.0564251 -1.9224799 -1.6884826 7 1
-33.425785 -9.1003838 1.8155346 9 9
-8.5706406 -2.330199 -1.7264398 3 2
-35.129185 -9.5378103 3.1846707 1 10
-10.786705 -2.9266417 -1.7702127 5 3
-34.352139 -9.3075275 4.3699913 4 11
-14.718263 -3.9823167 -1.872157 3 4
-30.733547 -8.3098202 5.0425091 6 12
-34.876366 -9.4038363 7.0213895 2 13
-6.122118 -1.6266814 -1.6973354 5 0
-7.0392094 -1.8664126 -1.6812842 15 1
-33.446022 -8.8555603 1.8132316 9 9
-8.5601273 -2.2632821 -1.7210972 3 2
-34.923618 -9.2272205 3.1602671 1 10
-10.774403 -2.8426981 -1.7648939 6 3
-34.312618 -9.0401678 4.3568292 4 11
-14.606812 -3.8456507 -1.8546078 3 4
-34.584976 -9.0925617 5.663867 3 12
-34.912979 -9.1592474 7.016047 1 13
-6.1258426 -1.5819706 -1.6952648 4 0
-7.0766001 -1.8235459 -1.687133 25 1
-32.94849 -8.4842567 1.7830863 10 9
-8.5582228 -2.2005627 -1.7176627 4 2
-32.557568 -8.3593712 2.940809 8 10
-10.801158 -2.7712567 -1.7661453 4 3
-34.442585 -8.8241434 4.3656039 3 11
-14.57176 -3.7278416 -1.8468081 3 4
-34.958023 -8.9366779 5.7148647 4 12
-35.269047 -8.9899712 7.0748167 1 13
-38.74213 -9.8680506 -2.0952177 0 6
-6.1364694 -1.5402352 -1.6952648 4 0
-7.1417785 -1.7885904 -1.6997302 7 1
-33.258801 -8.3170233 1.7966936 5 9
-8.5771856 -2.1417148 -1.7184259 4 2
-32.532524 -8.1173067 2.9334879 12 10
-10.795321 -2.6895771 -1.762078 4 3
-34.464828 -8.5738811 4.3607292 4 11
-14.504329 -3.6055818 -1.8351088 3 4
-35.125004 -8.7185888 5.7320724 4 12
-35.359909 -8.7572451 7.0809221 1 13
-6.1508265 -1.4982728 -1.6963001 4 0
-7.1218991 -1.7308658 -1.6920818 7 1
-43.01112 -10.445229 2.3196344 0 9
-8.5705767 -2.0781925 -1.714228 3 2
-32.35603 -7.8337212 2.9125707 8 10
-10.792259 -2.6109238 -1.7586365 4 3
-34.387318 -8.3064604 4.3436675 8 11
-14.475113 -3.4912026 -1.828284 3 4
-35.11248 -8.4621735 5.7204962 4 12
-6.1571217 -1.4554818 -1.6952648 4 0
-7.1259294 -1.6805593 -1.6902822 7 1
-40.97171 -9.6475582 2.2059608 0 9
-8.5600309 -2.0124691 -1.709267 4 2
-32.272827 -7.5814114 2.9003687 9 10
-10.790992 -2.5310025 -1.7555077 3 3
-34.291775 -8.0304394 4.3244119 7 11
-14.463751 -3.3844514 -1.8238968 3 4
-35.259186 -8.2375164 5.7348881 4 12
-6.1671324 -1.4124629 -1.6952648 3 0
-7.1298885 -1.6290354 -1.6884826 7 1
-38.812771 -8.8607969 2.0864253 0 9
-8.56779 -1.9528452 -1.7081223 4 2
-38.887489 -8.8492975 3.4891927 1 10
-10.800265 -2.4557428 -1.7542564 3 3
-34.061073 -7.7322364 4.2885828 5 11
-14.438624 -3.2724266 -1.8178033 4 4
-43.087067 -9.7179976 -2.3148196 0 6
-6.1652884 -1.3679411 -1.6921589 4 0
-7.1446171 -1.5813081 -1.6893824 7 1
-38.93219 -8.6025534 2.0895655 0 9
-8.5179482 -1.8790268 -1.6955289 4 2
-40.668755 -8.9639387 3.6434586 0 10
-10.778562 -2.3717923 -1.747999 4 3
-34.063812 -7.4831824 4.2822452 5 11
-14.414031 -3.163856 -1.8119535 4 4
-43.153862 -9.4169559 -2.3148196 0 6
-6.1860209 -1.3272977 -1.6952648 3 0
-7.1631045 -1.533022 -1.691182 7 1
-38.65926 -8.2595959 2.0717714 0 9
-8.538538 -1.8211546 -1.6970552 4 2
-36.494015 -7.7770114 3.2645054 0 10
-10.767808 -2.2907343 -1.7436188 3 3
-34.303581 -7.2851992 4.3058877 7 11
-14.377511 -3.050792 -1.8046414 4 4
-6.1837869 -1.2817277 -1.6921589 3 0
-7.1659989 -1.4814004 -1.6893824 6 1
-38.59079 -7.9636769 2.0650723 1 9
-8.5337381 -1.757935 -1.6936207 3 2
-43.568863 -8.9671822 3.8916781 0 10
-10.729358 -2.2043736 -1.7348584 4 3
-46.178822 -9.4707451 5.788063 0 11
-14.380957 -2.9467573 -1.8024478 3 4
-6.196373 -1.2392818 -1.6931943 3 0
-7.1799893 -1.4320968 -1.6902822 7 1
-38.295448 -7.6313348 2.0464408 0 9
-8.5705385 -1.7047859 -1.6985818 4 2
-43.7672 -8.6899681 3.9038801 0 10
-10.75574 -2.1335962 -1.7367356 4 3
-46.012436 -9.1107101 5.7593021 0 11
-14.375862 -2.8412838 -1.7992792 4 4
-22.714565 -4.4770112 -2.0254996 32 5
-6.2046652 -1.1970756 -1.6931943 3 0
-7.1780887 -1.380982 -1.6875829 6 1
-38.645927 -7.4210558 2.062351 0 9
-8.5976562 -1.6478693 -1.7016346 4 2
-44.013195 -8.4278126 3.9206138 0 10
-10.764551 -2.0573449 -1.735797 4 3
-46.792492 -8.9261446 5.8489981 0 11
-14.330996 -2.7285998 -1.7912358 3 4
-6.247262 -1.1589898 -1.7025118 3 0
-7.1877866 -1.3295832 -1.6875829 6 1
-38.611618 -7.1283665 2.0577452 1 9
-8.5973673 -1.5856677 -1.699345 4 2
-43.805885 -8.0636024 3.8969076 1 10
-10.740141 -1.9731243 -1.7295396 5 3
-47.927528 -8.7963562 5.9830542 1 11
-14.33017 -2.6249106 -1.7887983 3 4
-6.2437901 -1.1133128 -1.6994059 3 0
-7.1968937 -1.2793705 -1.6875829 6 1
-38.569981 -6.8425846 2.0529304 1 9
-8.5562963 -1.5148666 -1.6890413 3 2
-44.277042 -7.8311472 3.9338615 1 10
-10.73031 -1.8939755 -1.7257853 4 3
-48.376335 -8.5213537 6.0313144 0 11
-14.276247 -2.5095794 -1.77978 4 4
-48.350292 -8.4471722 -2.5723124 0 6
-6.2077994 -1.0611184 -1.6875002 2 0
-7.2135487 -1.2291473 -1.6893824 6 1
-38.617958 -6.5664182 2.0529304 0 9
-8.5860205 -1.4583831 -1.6928575 3 2
-44.284801 -7.5061274 3.929678 1 10
-10.681262 -1.8066009 -1.7157733 5 3
-14.299291 -2.4108448 -1.7805113 3 4
-6.2471085 -1.0252432 -1.6963001 3 0
-7.2080798 -1.1790777 -1.686233 5 1
-8.5996237 -1.4005373 -1.6936207 3 2
-44.085827 -7.1719441 3.9077148 0 10
-10.659862 -1.7303394 -1.7104547 4 3
-14.260097 -2.3070779 -1.7736866 3 4
-6.2331204 -0.97831023 -1.6906061 2 0
-7.1968827 -1.1257156 -1.6817341 4 1
-43.660885 -6.8136973 2.3158665 0 9
-8.6053123 -1.3398644 -1.6928575 3 2
-51.446659 -8.0011396 4.5551076 0 10
-10.658016 -1.6537597 -1.7082645 4 3
-14.217002 -2.1983705 -1.7663743 3 4
-6.2378874 -0.93448466 -1.6900884 3 0
-7.1930013 -1.0737182 -1.6790346 3 1
-43.889133 -6.5357857 2.3254962 0 9
-8.6222239 -1.2809072 -1.6943839 3 2
-10.675165 -1.5801777 -1.7092031 6 3
-14.16916 -2.0897911 -1.7585747 3 4
-6.2480841 -0.89146054 -1.6911237 3 0
-7.2118983 -1.0251207 -1.6817341 3 1
-8.6540689 -1.2254932 -1.6989634 3 2
-52.500301 -7.4158182 4.6387773 1 10
-10.715013 -1.5116189 -1.7138962 5 3
-14.171609 -1.9891689 -1.7571123 3 4
-6.2501788 -0.84839076 -1.6900884 3 0
-7.2399516 -0.97887921 -1.6866829 3 1
-8.6312819 -1.1608593 -1.6928575 3 2
-52.837864 -7.097023 4.6642265 0 10
-10.686148 -1.4315318 -1.7076389 4 3
-14.161208 -1.8895088 -1.7541875 3 4
-6.2712784 -0.80670744 -1.6942296 3 0
-7.2118158 -0.92385566 -1.6785848 3 1
-8.6430702 -1.1010717 -1.6936207 3 2
-62.883064 -7.9997306 5.5458941 8 10
-10.691961 -1.3563987 -1.7070131 5 3
-14.132697 -1.7853744 -1.7490689 4 4
-6.2460732 -0.75917804 -1.6859473 3 0
-7.2161555 -0.87325108 -1.6781349 4 1
-8.650547 -1.0407048 -1.6936207 3 2
-63.799862 -7.6641521 5.6218944 10 10
-10.707054 -1.2824265 -1.7079517 4 3
-14.065971 -1.6772676 -1.7393193 4 4
-6.2742529 -0.71818852 -1.6921589 3 0
-7.2433743 -0.82527816 -1.6830838 3 1
-62.28624 -7.0856085 3.2853377 6 9
-8.6340208 -0.97914338 -1.6890413 3 2
-10.75872 -1.2143905 -1.7148348 3 3
-13.976729 -1.5677427 -1.7268888 3 4
-6.2521057 -0.6725716 -1.6849121 3 0
-7.2313848 -0.77408808 -1.6790346 4 1
-62.342133 -6.6514435 3.2857563 6 9
-8.664073 -0.92133605 -1.6936207 3 2
-10.774794 -1.1400849 -1.7160863 3 3
-13.977463 -1.4690909 -1.7256701 4 4
-6.2606025 -0.62820262 -1.6859473 3 0
-7.232861 -0.72193462 -1.6781349 4 1
-8.6624794 -0.86004895 -1.6920942 3 2
-10.770881 -1.0617902 -1.7142091 3 3
-14.030841 -1.375739 -1.7310323 4 4
-6.2879176 -0.58663344 -1.6921589 3 0
-7.2299628 -0.67070377 -1.6763352 5 1
-8.6957827 -0.80056161 -1.697437 3 2
-10.766228 -0.98548907 -1.7123318 3 3
-14.048012 -1.2784681 -1.7320073 4 4
-6.2726121 -0.54106253 -1.6869825 3 0
-7.2538853 -0.62187904 -1.6808342 4 1
-8.6736431 -0.73902124 -1.6920942 3 2
-10.760877 -0.91118008 -1.7104547 3 3
-14.028901 -1.1780412 -1.7285949 4 4
-40.734116 -3.3775923 -2.1421108 0 6
-6.2722988 -0.49804777 -1.6859473 4 0
-7.246294 -0.57156956 -1.6781349 4 1
-8.6707621 -0.67783564 -1.6905679 3 2
-10.766975 -0.83603543 -1.7104547 2 3
-14.022739 -1.0814536 -1.7268888 3 4
-6.3064518 -0.45647818 -1.6942296 3 0
-7.2481637 -0.52082723 -1.6776849 3 1
-8.6555929 -0.61740506 -1.6867516 3 2
-10.756653 -0.76161128 -1.7079517 2 3
-14.081434 -0.98714262 -1.7332259 3 4
-6.2862802 -0.41202468 -1.6880178 3 0
-7.2554302 -0.47173125 -1.6785848 3 1
-8.6871204 -0.55872667 -1.6920942 3 2
-10.769594 -0.68700272 -1.7092031 3 3
-14.089808 -0.89139569 -1.7334697 2 4
-6.2890034 -0.36812964 -1.6880178 3 0
-7.2566018 -0.42095622 -1.6781349 4 1
-8.6594496 -0.49626833 -1.6859884 3 2
-10.758349 -0.6109041 -1.7067002 3 3
-14.099651 -0.79323155 -1.7339572 2 4
-6.3068542 -0.32500902 -1.6921589 3 0
-7.269094 -0.37077993 -1.6803844 3 1
-8.7019186 -0.43777469 -1.6936207 3 2
-10.77419 -0.53637111 -1.7085775 2 3
-14.112777 -0.69516873 -1.7349322 2 4
-6.3263392 -0.281746 -1.6968178 2 0
-7.253984 -0.31925362 -1.6763352 4 1
-8.7007742 -0.37836388 -1.6928575 3 2
-10.785485 -0.46336263 -1.7098289 3 3
-14.113319 -0.59645838 -1.7344446 2 4
-6.2740569 -0.23663865 -1.6823239 2 0
-7.2404099 -0.26929042 -1.672736 4 1
-8.7071266 -0.31775498 -1.6936207 3 2
-10.792405 -0.38819391 -1.7104547 2 3
-14.119036 -0.50044835 -1.7346883 3 4
-6.289073 -0.19324854 -1.6859473 3 0
-7.2596445 -0.21926749 -1.6767852 3 1
-8.7012825 -0.25672841 -1.6920942 3 2
-10.786955 -0.31261295 -1.7092031 3 3
-14.128139 -0.40203947 -1.7354196 2 4
-6.2748179 -0.1489695 -1.6818062 3 0
-7.2551537 -0.16844285 -1.6754354 2 1
-8.6989384 -0.19588944 -1.691331 3 2
-10.765176 -0.2367795 -1.7054487 2 3
-14.166325 -0.30416709 -1.7398069 2 4
-6.2911582 -0.10541982 -1.6859473 3 0
-7.2464099 -0.11763179 -1.6731859 3 1
-8.6608334 -0.13454266 -1.6836987 3 2
-10.786318 -0.16191255 -1.7085775 2 3
-14.160163 -0.20514166 -1.7388319 2 4
-6.2878771 -0.061458927 -1.6849121 3 0
-7.2412086 -0.066985369 -1.6718361 3 1
-8.6811943 -0.074245341 -1.6875149 3 2
-10.814839 -0.086830527 -1.7129576 2 3
-14.14537 -0.10616428 -1.7368821 2 4
-6.2804255 -0.017538192 -1.6828415 3 0
-7.2551413 -0.016461523 -1.6749856 3 1
-8.7129126 -0.013688789 -1.6936207 3 2
-10.779626 -0.011286778 -1.7073259 2 3
-14.155692 -0.0074102194 -1.7381008 2 4
-6.2688084 0.025163777 -1.6797357 4 0
-7.2531362 0.032912564 -1.6745356 4 1
-8.7010241 0.045558959 -1.691331 3 2
-10.807107 0.062244922 -1.711706 4 3
-14.175265 0.089066237 -1.7405381 1 4
-6.2916608 0.06918259 -1.6859473 3 0
-7.2546787 0.083570644 -1.6749856 3 1
-8.7279959 0.10511501 -1.6966736 3 2
-10.800508 0.13573082 -1.7107675 4 3
-14.186207 0.18818405 -1.7420006 2 4
-6.2987704 0.11214311 -1.6880178 3 0
-7.2539415 0.13294984 -1.6749856 3 1
-8.6799412 0.16514698 -1.6875149 3 2
-10.787448 0.21089503 -1.7088903 4 3
-14.164751 0.28434053 -1.7395632 2 4
-6.3055587 0.15630707 -1.6900884 3 0
-7.2625775 0.18383522 -1.677235 3 1
-8.6825409 0.22432716 -1.6882781 3 2
-10.777863 0.28410989 -1.7076389 4 3
-14.176311 0.38360149 -1.7412694 2 4
-6.2773161 0.19836836 -1.6828415 3 0
-7.2533669 0.23301385 -1.6754354 3 1
-8.6886101 0.28519276 -1.6898044 3 2
-10.78154 0.35954157 -1.7085775 3 3
-14.175356 0.48015168 -1.7415131 3 4
-6.2835002 0.24248545 -1.6849121 3 0
-7.2359848 0.28303686 -1.6718361 3 1
-8.6864071 0.34584579 -1.6898044 3 2
-10.774818 0.43464547 -1.7079517 2 3
-14.169675 0.57902157 -1.7412694 2 4
-6.2739348 0.28599477 -1.6828415 3 0
-7.2279925 0.33327737 -1.6704865 3 1
-8.7230053 0.40831387 -1.697437 3 2
-10.728112 0.50779998 -1.7010686 3 3
-14.212875 0.68020451 -1.7471191 2 4
-6.2524934 0.32877368 -1.6776651 4 0
-7.2371655 0.38435024 -1.6731859 3 1
-8.6808138 0.46557721 -1.6898044 3 2
-10.736242 0.58145326 -1.7029458 4 3
-14.201834 0.77908635 -1.7463878 3 4
-6.2771091 0.37292802 -1.6849121 3 0
-7.2382727 0.43383473 -1.6740857 3 1
-8.6538372 0.5247435 -1.6852252 3 2
-10.759525 0.65808052 -1.7073259 3 3
-14.202146 0.876104 -1.7471191 2 4
-6.2512217 0.41520655 -1.6787004 3 0
-7.2253456 0.4837077 -1.6718361 3 1
-8.6068687 0.5822286 -1.6768295 3 2
-10.699487 0.72941571 -1.6985657 3 3
-14.225389 0.97726971 -1.7507752 2 4
-6.267437 0.46025154 -1.6838769 3 0
-7.2412271 0.53557402 -1.6763352 3 1
-8.6613293 0.64668709 -1.6882781 3 2
-10.72171 0.80617046 -1.7029458 3 3
-14.194467 1.0747627 -1.7478503 2 4
-6.2794762 0.50523323 -1.6880178 3 0
-7.2140031 0.58422494 -1.6709365 3 1
-8.6252947 0.70458132 -1.6821721 3 2
-10.707946 0.88035238 -1.7016943 2 3
-14.202445 1.1751387 -1.7498002 1 4
-6.2392302 0.54586232 -1.6781827 2 0
-7.2136312 0.63491732 -1.6718361 2 1
-8.6436338 0.76686001 -1.6867516 3 2
-10.697605 0.95473284 -1.7010686 2 3
-14.229483 1.2774568 -1.7541875 2 4
-6.2064185 0.58667856 -1.6704183 2 0
-7.2245426 0.68673605 -1.6754354 2 1
-8.6732464 0.83055598 -1.6936207 3 2
-10.722138 1.0324247 -1.7060745 3 3
-14.196507 1.3744707 -1.7512627 2 4
-6.2310009 0.63292158 -1.6781827 2 0
-7.2176332 0.73695993 -1.6749856 3 1
-8.6164598 0.8858639 -1.6836987 3 2
-10.695021 1.1052212 -1.7029458 2 3
-14.210259 1.4760051 -1.7541875 2 4
-6.2398739 0.67786723 -1.6818062 3 0
-7.2006898 0.78605998 -1.6722862 3 1
-8.6102304 0.94449389 -1.6836987 3 2
-10.702958 1.1797258 -1.7054487 2 3
-14.23315 1.5788995 -1.7583311 2 4
-6.2370348 0.72054535 -1.6823239 2 0
-7.1700077 0.83213484 -1.6664374 3 1
-8.6268272 1.0073119 -1.6882781 3 2
-10.706233 1.2557986 -1.7073259 2 3
-14.265446 1.6808522 -1.7636933 2 4
-6.2395225 0.76501089 -1.6843945 2 0
-7.1717601 0.88312161 -1.668237 3 1
-8.6390676 1.069929 -1.6920942 3 2
-10.681522 1.3285609 -1.704823 3 3
-14.237604 1.7784344 -1.7617433 2 4
-20.867659 2.6213925 -1.8400321 36 5
-6.1976295 0.80383122 -1.6745592 2 0
-7.1615548 0.93266505 -1.6673372 2 1
-8.6274948 1.129703 -1.691331 3 2
-10.703323 1.4072171 -1.7098289 3 3
-14.234683 1.8790839 -1.7629621 3 4
-6.1803823 0.8455081 -1.6714535 2 0
-7.1587305 0.98316979 -1.668237 3 1
-8.5766125 1.1840004 -1.6829355 3 2
-10.677586 1.4797368 -1.7073259 3 3
-14.233014 1.9800559 -1.7644244 3 4
-6.2068353 0.89331323 -1.6802533 2 0
-7.1671219 1.035352 -1.6718361 2 1
-8.6147661 1.2506167 -1.6920942 3 2
-10.678723 1.5559533 -1.7092031 3 3
-14.224737 2.0802345 -1.7651558 4 4
-6.1813459 0.93373632 -1.6750768 2 0
-7.1481595 1.0836087 -1.6691369 4 1
-8.5711184 1.3039099 -1.6852252 3 2
-10.66398 1.6280062 -1.7085775 4 3
-54.627121 8.3591242 6.7854419 1 11
-6.2206435 0.98302692 -1.6875002 2 0
-7.1367683 1.1316292 -1.668237 4 1
-54.766621 8.7035713 2.9062159 0 9
-8.5618067 1.3637178 -1.6852252 3 2
-10.675761 1.7061586 -1.7123318 4 3
-14.253504 2.2855935 -1.7724679 4 4
-6.2002869 1.0242258 -1.6838769 3 0
-7.1402297 1.1833358 -1.6709365 4 1
-8.5678186 1.4245387 -1.6882781 3 2
-10.661951 1.7784617 -1.712019 4 3
-14.264609 2.3896344 -1.7758802 4 4
-6.1794729 1.0662684 -1.6802533 2 0
-7.1200576 1.2324054 -1.668237 4 1
-8.553278 1.4866332 -1.6875149 3 2
-10.644737 1.855889 -1.7113932 4 3
-14.262788 2.4943841 -1.7778301 4 4
-6.181385 1.1110935 -1.6828415 3 0
-7.1266227 1.2848506 -1.6718361 4 1
-8.5835304 1.5521554 -1.6955289 4 2
-10.614365 1.9251298 -1.7085775 24 3
-14.276275 2.5995865 -1.7817299 4 4
-35.458576 6.495069 -1.8892236 4 6
-6.1451941 1.1478212 -1.6750768 2 0
-7.1043034 1.3308187 -1.6686869 3 1
-8.52425 1.6029692 -1.6859884 3 2
-10.592902 1.9977182 -1.7073259 4 3
-14.29336 2.7033389 -1.7861173 4 4
-34.98465 6.6610212 -1.8664051 5 6
-6.1692715 1.19695 -1.6838769 3 0
-7.1082301 1.382987 -1.6718361 5 1
-8.5089979 1.6616902 -1.6852252 3 2
-10.629099 2.0814948 -1.7154605 4 3
-14.350105 2.8179808 -1.7956231 7 4
-6.1569772 1.2392266 -1.6828415 3 0
-7.1041327 1.433733 -1.6731859 6 1
-8.4894924 1.7194927 -1.6836987 3 2
-10.668512 2.1666548 -1.7242209 3 3
-14.262001 2.9042275 -1.7870922 9 4
-35.620003 7.2987823 -1.9055523 4 6
-6.1311545 1.278632 -1.6781827 2 0
-7.1053948 1.485689 -1.6758853 6 1
-8.4679842 1.775225 -1.6817905 22 2
-10.680582 2.2449114 -1.728601 3 3
-14.181166 2.9910212 -1.7795362 6 4
-35.432728 7.5120745 -1.8982253 4 6
-6.1430826 1.3248144 -1.6838769 3 0
-7.0817852 1.5311352 -1.672736 5 1
-8.4630594 1.8359622 -1.6833171 10 2
-10.641487 2.3143811 -1.7248467 4 3
-14.133325 3.0815632 -1.7761239 6 4
-6.1223707 1.3651464 -1.680771 3 0
-7.0956469 1.5860645 -1.6785848 7 1
-8.484519 1.9027338 -1.6901863 4 2
-10.611579 2.3855834 -1.7226565 4 3
-14.080482 3.1731713 -1.7722242 6 4
-34.124516 7.7341032 -1.8337474 6 6
-6.1352816 1.4130583 -1.6869825 3 0
-7.0730081 1.6329324 -1.6758853 7 1
-8.4385128 1.95439 -1.6836987 3 2
-10.611983 2.4636285 -1.7254723 6 3
-14.04252 3.2677951 -1.7702743 7 4
-6.1064725 1.4513876 -1.6818062 4 0
-8.4670248 2.0218134 -1.6920942 3 2
-10.656445 2.5505164 -1.7354842 7 3
-13.9962 3.3601897 -1.7673494 7 4
-32.799206 7.9107242 -1.7682229 22 6
-6.0926995 1.4920006 -1.680771 4 0
-7.0327883 1.7261162 -1.6718361 38 1
-8.4755793 2.0865088 -1.6966736 3 2
-10.634543 2.6239061 -1.7348584 7 3
-13.98842 3.4591932 -1.7692993 7 4
-31.847698 7.9169087 -1.7198645 8 6
-6.0783887 1.5335526 -1.6797357 4 0
-7.0432377 1.7809048 -1.677235 5 1
-8.4265518 2.1369398 -1.6898044 3 2
-10.594907 2.6927307 -1.7314169 8 3
-13.960083 3.5557833 -1.7688118 7 4
-30.646214 7.845808 -1.6578985 30 6
-6.0824924 1.5798371 -1.6838769 4 0
-7.0249753 1.8285596 -1.6758853 6 1
-8.4513206 2.2061274 -1.6978186 4 2
-10.55865 2.7621317 -1.728601 7 3
-13.923396 3.6501393 -1.7673494 7 4
-6.0601168 1.6192687 -1.680771 24 0
-7.0308633 1.8825974 -1.6803844 7 1
-8.4072704 2.2574401 -1.6920942 3 2
-10.520034 2.8306451 -1.7254723 7 3
-13.866909 3.738982 -1.7634495 7 4
-28.305201 7.6691337 -1.5368978 35 6
-6.0505276 1.6620486 -1.6812886 19 0
-7.0325794 1.9357754 -1.6839837 7 1
