# .PCD v0.7 - Point Cloud Data file format
VERSION 0.7
FIELDS x y z intensity ring
SIZE 4 4 4 4 2
TYPE F F F F U
COUNT 1 1 1 1 1
WIDTH 1283
HEIGHT 1
VIEWPOINT 0 0 0 1 0 0 0
POINTS 1283
DATA ascii
4.8154674 -11.494832 -2.4225113 12 2
6.6214237 -15.829022 -2.7175801 10 3
9.8437767 -23.566963 -3.1359422 13 4
2.7878811 -6.763907 -1.9602956 5 0
3.4546692 -8.3941288 -2.095644 16 1
4.7020392 -11.441996 -2.4045751 10 2
6.5427728 -15.944998 -2.7297816 11 3
9.6925554 -23.668177 -3.1403296 13 4
2.7490168 -6.8006368 -1.9654719 4 0
3.4047475 -8.4355202 -2.100143 14 1
4.6550541 -11.556491 -2.4217479 10 2
6.3804355 -15.863831 -2.7081938 10 3
9.5216093 -23.709654 -3.1371608 15 4
2.7064528 -6.8322358 -1.9690953 6 0
3.3457735 -8.4590845 -2.100143 14 1
4.5843534 -11.614273 -2.4270904 12 2
6.3339949 -16.071552 -2.7360392 7 3
9.3507681 -23.762619 -3.1354547 10 4
2.6845496 -6.9175997 -1.988248 9 0
3.2683301 -8.4349909 -2.0884457 16 1
4.4748368 -11.572749 -2.4118259 12 2
6.1981621 -16.054567 -2.7257147 6 3
9.1875019 -23.834732 -3.1364298 13 4
2.6389365 -6.9433966 -1.9903185 7 0
3.2176607 -8.4794664 -2.0938444 15 1
4.3800302 -11.566987 -2.4041934 12 2
6.0391245 -15.973648 -2.7047522 11 3
9.0292921 -23.920578 -3.1393547 10 4
2.5903983 -6.9616504 -1.9903185 7 0
3.1448128 -8.4651871 -2.0848465 15 1
4.2677822 -11.512604 -2.3866391 12 2
6.013854 -16.248842 -2.7441738 8 3
8.8675785 -23.997925 -3.1413045 10 4
2.5496659 -7.0013475 -1.9965302 9 0
3.0776472 -8.4649591 -2.0794475 18 1
4.1685581 -11.490442 -2.3759537 10 2
5.8208923 -16.071268 -2.7072554 8 3
8.6971321 -24.051779 -3.1403296 13 4
2.4994295 -7.0153375 -1.995495 9 0
3.008028 -8.4568615 -2.0722492 18 1
4.0678825 -11.461909 -2.3641236 10 2
5.8088288 -16.394531 -2.7548113 11 3
8.5634298 -24.209227 -3.1530039 13 4
2.4503922 -7.0326157 -1.995495 9 0
2.9412317 -8.4555683 -2.0668504 15 1
3.9922702 -11.503012 -2.3667948 12 2
5.6728907 -16.373091 -2.7444866 10 3
8.4039421 -24.29656 -3.1566598 15 4
2.4012365 -7.049551 -1.995495 9 0
2.863308 -8.4205465 -2.0533531 15 1
3.9068222 -11.515729 -2.3637419 12 2
5.4659333 -16.139132 -2.6988077 10 3
8.2220354 -24.318909 -3.1520288 10 4
2.354403 -7.0734744 -1.9975655 9 0
2.8032238 -8.4366312 -2.0524535 15 1
3.7966816 -11.453274 -2.3454244 12 2
5.4772472 -16.551968 -2.7613814 10 3
8.0526819 -24.377602 -3.1522727 15 4
2.3109376 -7.1081109 -2.0027418 9 0
2.7322268 -8.4189243 -2.0434554 17 1
3.6924415 -11.404788 -2.3301597 12 2
5.3961849 -16.696943 -2.7792151 11 3
7.901195 -24.491791 -3.1598287 13 4
2.2554126 -7.1056576 -1.9975655 9 0
2.6828022 -8.4675169 -2.0506537 15 1
3.6005192 -11.384732 -2.3210008 12 2
5.103416 -16.166283 -2.6850417 10 3
7.7246518 -24.529316 -3.157635 15 4
2.2104259 -7.1319165 -2.0006714 9 0
2.6216481 -8.4744129 -2.0479543 15 1
3.5255818 -11.424599 -2.3240535 12 2
5.0887022 -16.520561 -2.7379162 11 3
7.5884271 -24.681889 -3.170553 13 4
2.1650538 -7.1619682 -2.0048125 9 0
2.5658002 -8.5037022 -2.0506537 15 1
3.4760435 -11.542324 -2.3431346 12 2
5.0267429 -16.723183 -2.7657616 10 3
7.398828 -24.677221 -3.1632409 10 4
2.1150012 -7.1769085 -2.0048125 9 0
2.4981222 -8.4933643 -2.0439053 24 1
3.3961227 -11.576322 -2.3450427 13 2
4.9241519 -16.817495 -2.7754605 11 3
7.2107773 -24.674923 -3.1564164 10 4
2.0659127 -7.1952128 -2.0058477 9 0
2.4221251 -8.4525242 -2.0299582 15 1
3.3123879 -11.582182 -2.341608 12 2
4.8122778 -16.860121 -2.777025 10 3
7.038341 -24.724661 -3.1564164 13 4
2.0200121 -7.2202706 -2.0089536 9 0
2.3561506 -8.4387836 -2.0227599 16 1
3.1840539 -11.434808 -2.3072627 12 2
4.6986856 -16.908533 -2.7795279 10 3
6.8751869 -24.791124 -3.1588538 10 4
1.9588987 -7.1950526 -1.9980831 10 0
2.3114867 -8.5076828 -2.0353572 15 1
3.0866215 -11.384212 -2.2927611 10 2
4.5840011 -16.942028 -2.7798407 11 3
6.6750541 -24.738859 -3.1461792 10 4
1.9222486 -7.2549052 -2.011024 9 0
2.2455542 -8.4930754 -2.0281587 15 1
3.0050688 -11.397888 -2.2912345 12 2
4.4565673 -16.939232 -2.7742093 11 3
6.515285 -24.83478 -3.1525166 13 4
1.8741357 -7.2834415 -2.0151651 9 0
2.205076 -8.5882025 -2.0470545 15 1
2.9010627 -11.3235 -2.2721536 12 2
4.3342614 -16.966862 -2.7735834 11 3
6.3549852 -24.931595 -3.1590974 15 4
1.8115337 -7.2494931 -2.0022242 11 0
2.1592088 -8.6601133 -2.0605516 16 1
2.8185368 -11.338253 -2.2710087 15 2
4.2242641 -17.031218 -2.7792151 11 3
6.1650376 -24.911764 -3.1510539 10 4
1.7622451 -7.2675953 -2.0037773 13 0
2.0986972 -8.6749763 -2.0605516 15 1
2.73715 -11.339999 -2.2675743 10 2
4.0994534 -17.023088 -2.7732706 10 3
5.9872665 -24.938755 -3.1491041 13 4
1.713621 -7.2831831 -2.0048125 13 0
2.0556324 -8.7573586 -2.0767481 17 1
2.6811752 -11.458236 -2.2874184 5 2
3.9876947 -17.082069 -2.7782764 10 3
5.8218775 -24.998262 -3.1515415 10 4
1.6816229 -7.3778443 -2.0275886 9 0
2.0065436 -8.8247023 -2.0893452 14 1
2.5972133 -11.459441 -2.2839837 16 2
3.8657324 -17.097931 -2.7763994 10 3
5.6568232 -25.0809 -3.1569037 13 4
1.647554 -7.468637 -2.0493293 9 0
1.9298102 -8.7699804 -2.073149 14 1
2.5024281 -11.410176 -2.2706273 10 2
3.7450056 -17.118713 -2.7754605 8 3
5.4870949 -25.144991 -3.1600723 15 4
1.5953732 -7.4799571 -2.0493293 9 0
1.8685381 -8.7832394 -2.073149 14 1
2.4316325 -11.459594 -2.2771149 9 2
3.5760431 -16.896441 -2.7354133 8 3
5.2659431 -24.967087 -3.1330175 10 4
1.5342788 -7.4414496 -2.0358706 13 0
1.8024287 -8.765213 -2.0659504 15 1
2.3365946 -11.403205 -2.2626133 9 2
3.5106003 -17.178398 -2.777025 10 3
5.1466222 -25.251322 -3.1642158 10 4
1.4886984 -7.4841905 -2.0446706 10 0
1.7328511 -8.7355299 -2.0560527 19 1
1.8436371 -9.3195801 -1.8466495 7 2
3.4111767 -17.291046 -2.7914171 10 3
4.9487696 -25.177559 -3.1505666 10 4
1.4275291 -7.4410272 -2.0301766 12 0
1.6770117 -8.766264 -2.0605516 15 1
2.1721656 -11.397696 -2.2553625 4 2
3.2877994 -17.300852 -2.7892268 11 3
4.7891064 -25.273073 -3.158366 13 4
1.4025528 -7.5970917 -2.0700347 9 0
1.6108326 -8.7509251 -2.0542529 15 1
2.0879388 -11.387478 -2.2504015 10 2
3.1711993 -17.346703 -2.7929811 11 3
4.6157541 -25.323471 -3.1605599 15 4
1.3089874 -7.3784404 -2.0079181 13 0
1.5469851 -8.7466059 -2.0506537 15 1
2.0049837 -11.382441 -2.2465851 13 2
3.0493362 -17.364527 -2.7923555 11 3
4.4272118 -25.288591 -3.1522727 18 4
1.2691141 -7.4559598 -2.0265532 13 0
1.4924055 -8.7956181 -2.0596519 19 1
1.9078101 -11.291627 -2.2259779 16 2
2.9283667 -17.387341 -2.7926683 10 3
4.2594299 -25.371744 -3.1588538 13 4
1.2465628 -7.6457725 -2.0757289 12 0
1.4272134 -8.7827406 -2.0542529 19 1
1.8182726 -11.238777 -2.2130029 15 2
2.814456 -17.454166 -2.8001773 10 3
4.0963788 -25.489059 -3.169822 15 4
1.1946436 -7.6638327 -2.0783172 13 0
1.3664629 -8.7963428 -2.0551529 15 1
1.7673677 -11.429695 -2.2481117 18 2
2.6961443 -17.496817 -2.8039317 10 3
3.9288769 -25.585709 -3.1783528 21 4
1.1379845 -7.6509666 -2.072623 18 0
1.3004487 -8.7748241 -2.0479543 17 1
1.6737803 -11.348528 -2.229794 24 2
2.5805335 -17.560163 -2.8111277 8 3
3.7372177 -25.524126 -3.1673846 15 4
1.0693755 -7.55161 -2.0436354 15 0
1.2451459 -8.8261414 -2.0578523 15 1
1.5992281 -11.379099 -2.2336102 19 2
2.4645081 -17.602755 -2.8151948 11 3
3.5641379 -25.586952 -3.1720157 13 4
1.0370284 -7.7003922 -2.0819407 14 0
1.1814134 -8.807373 -2.0515537 15 1
1.5213059 -11.401662 -2.2358999 15 2
2.3420782 -17.623446 -2.8158207 11 3
3.4026568 -25.707047 -3.1839588 15 4
0.99033475 -7.7630172 -2.096952 12 0
1.1267751 -8.8695345 -2.0641508 15 1
1.4488376 -11.452656 -2.2439139 10 2
2.2294738 -17.697779 -2.8252068 11 3
3.2418566 -25.879873 -3.2024829 15 4
0.93238026 -7.7273836 -2.0855639 13 0
1.0668406 -8.880868 -2.0650506 20 1
1.3772299 -11.532671 -2.2576523 10 2
2.0923393 -17.599138 -2.8070602 10 3
3.0593257 -25.848112 -3.1959019 13 4
0.86314869 -7.5993385 -2.0493293 13 0
0.99999952 -8.8455 -2.0551529 15 1
1.2969023 -11.543954 -2.2580338 18 2
1.9900591 -17.797853 -2.8364699 11 3
2.8484991 -25.596581 -3.162266 13 4
0.79554659 -7.4687901 -2.0125771 19 0
0.9423297 -8.8910227 -2.0641508 16 1
1.2131966 -11.52344 -2.2523096 12 2
1.8729633 -17.880075 -2.8474207 8 3
2.6734419 -25.651379 -3.1666534 13 4
0.74606287 -7.5010748 -2.019824 15 0
0.88637513 -8.9594421 -2.0785477 17 1
1.1222339 -11.404434 -2.2275043 13 2
1.7614121 -17.996605 -2.8640025 11 3
2.5035117 -25.764257 -3.1783528 10 4
0.6967684 -7.5252156 -2.0250003 15 0
0.8200109 -8.9070501 -2.0650506 15 1
1.2756855 -13.963411 -2.7255158 4 2
1.6335871 -17.984858 -2.8602481 11 3
2.3146729 -25.682253 -3.1661658 10 4
0.65703559 -7.6955457 -2.0695171 15 0
0.75954777 -8.9515257 -2.0740488 20 1
0.96817261 -11.481593 -2.2397161 10 2
1.5071509 -18.023645 -2.8646281 11 3
2.155375 -25.939137 -3.1959019 10 4
0.60103106 -7.6710563 -2.0617526 13 0
0.6973393 -8.9604959 -2.0749483 19 1
0.8799504 -11.409929 -2.2244515 18 2
1.3837036 -18.065243 -2.8696344 11 3
1.9811624 -26.044603 -3.207114 11 4
0.55007482 -7.7116771 -2.0715878 10 0
0.63394159 -8.9534836 -2.0722492 16 1
0.79703486 -11.341234 -2.20995 16 2
1.2558941 -18.00527 -2.8586836 8 3
1.7413117 -25.218119 -3.1037686 12 4
0.50005686 -7.7537999 -2.0819407 11 0
0.5690015 -8.8953581 -2.0578523 20 1
0.71523684 -11.305376 -2.201936 12 2
1.1252177 -17.93474 -2.846169 8 3
1.5592657 -25.06296 -3.0832946 10 4
0.43926173 -7.6413817 -2.0508821 18 0
0.50932437 -8.9419165 -2.06775 21 1
0.63662392 -11.315974 -2.2030807 15 2
0.99734384 -17.894821 -2.83866 8 3
1.3904927 -25.186214 -3.0971878 15 4
0.38707295 -7.6674147 -2.0570939 14 0
0.44815072 -8.9705563 -2.0735989 23 1
0.55683529 -11.304456 -2.2000279 15 2
0.86546725 -17.759291 -2.8161335 9 3
1.2153904 -25.211168 -3.0991375 17 4
0.3285 -7.5541286 -2.0260355 16 0
0.38367334 -8.9306335 -2.0637012 23 1
0.47954363 -11.300138 -2.1985013 19 2
0.74332458 -17.735165 -2.8114405 10 3
1.0344492 -25.100037 -3.0845134 15 4
0.28047091 -7.6488557 -2.0508821 14 0
0.32463625 -8.9817247 -2.0749483 22 1
0.39994666 -11.28359 -2.1946852 19 2
0.62149096 -17.797174 -2.8205137 12 3
0.86883181 -25.259256 -3.1032813 10 4
0.22374186 -7.53863 -2.0208592 14 0
0.26283273 -9.0149393 -2.0821469 22 1
0.32010287 -11.24882 -2.1874344 12 2
0.49932405 -17.876116 -2.8324027 12 3
0.69828737 -25.477034 -3.1293614 15 4
0.17286 -7.6172624 -2.0415647 18 0
0.20015042 -9.028244 -2.0848465 15 1
0.24042699 -11.197786 -2.1771307 13 2
0.3742277 -17.865339 -2.8302126 11 3
0.52264255 -25.590445 -3.142767 10 4
0.12043679 -7.666573 -2.0545056 13 0
0.13699815 -9.0216265 -2.0830467 21 1
0.16224585 -11.199192 -2.1771307 15 2
0.25126019 -17.993931 -2.8502364 11 3
0.34165388 -25.42078 -3.1215615 15 4
0.066624485 -7.634387 -2.0457058 14 0
0.074300796 -9.0574408 -2.091145 19 1
0.084322006 -11.235389 -2.1839998 13 2
0.12378483 -17.730551 -2.8083119 10 3
0.16604665 -25.712366 -3.1571476 15 4
0.013415827 -7.6868258 -2.0596819 13 0
0.011051851 -9.0460453 -2.0884457 18 1
0.0058492655 -11.17288 -2.1717882 15 2
-7.7582297e-07 -17.74876 -2.8111277 8 3
-0.013172519 -25.157072 -3.0889006 5 4
-0.039913949 -7.6229825 -2.0425999 15 0
-0.051965952 -9.0225172 -2.0830467 16 1
-0.072073549 -11.160869 -2.1694984 16 2
-0.08099208 -11.601105 -1.8374794 9 3
-0.19072048 -25.412437 -3.120343 5 4
-0.092941716 -7.6070642 -2.0384588 15 0
-0.11495266 -9.0219345 -2.0830467 22 1
-0.15119258 -11.397652 -2.2156742 3 2
-0.24833713 -18.009771 -2.8527391 11 3
-0.17103639 -11.806091 -1.4497578 9 4
-0.14567478 -7.6564746 -2.0519176 14 0
-0.17597958 -9.001461 -2.0785477 15 1
-0.22833374 -11.276586 -2.1923954 13 2
-0.37619197 -18.110298 -2.8690083 11 3
-0.54374635 -25.532425 -3.1356986 15 4
-0.19983229 -7.7344847 -2.0731406 13 0
-0.23662934 -8.9766769 -2.073149 15 1
-0.30083752 -11.117767 -2.1618662 13 2
-0.50016445 -18.132988 -2.8730757 12 3
-0.34233713 -12.179688 -1.4960682 5 4
-0.37635368 -12.606463 -0.22014466 17 7
-0.24585465 -7.5302091 -2.0187886 16 0
-0.29811499 -8.9865437 -2.0758483 18 1
-0.37570804 -11.091916 -2.1572866 18 2
-0.60965979 -17.724451 -2.8089375 10 3
-0.4099218 -11.738636 -1.442202 23 4
-0.29497251 -7.4743114 -2.0042949 15 0
-0.35974386 -8.9959898 -2.0785477 21 1
-0.45638651 -11.216608 -2.182092 12 2
-0.74265641 -18.019894 -2.8564935 11 3
-0.47764605 -11.44402 -1.4063724 10 4
-0.55196041 -13.06041 -1.1436577 18 5
-0.3508766 -7.4680276 -2.0032594 15 0
-0.42780229 -9.0047159 -2.0812473 21 1
-0.55879807 -11.591334 -2.255744 7 2
-0.54508728 -11.185137 -1.7736541 22 3
-0.58138943 -11.802943 -1.4509765 19 4
-0.62805986 -12.441062 -0.65283883 17 6
-0.64614558 -12.6676 -0.22140123 17 7
-0.39863014 -7.3843765 -1.9815186 15 0
-0.49086663 -9.0054026 -2.0821469 22 1
-0.68008381 -12.357656 -2.40572 12 2
-0.6208809 -11.17525 -1.7727156 16 3
-0.63969088 -11.370495 -1.398329 15 4
-0.71285295 -12.553748 -1.1000798 17 5
-0.70472842 -12.296919 -0.64551175 26 6
-0.73804057 -12.722671 -0.22244836 17 7
-0.44677413 -7.3467832 -1.9722012 16 0
-0.77922767 -12.740249 0.22279742 16 8
-0.55191457 -8.997962 -2.0812473 21 1
-0.7563687 -12.191929 -2.3744273 12 2
-0.71294254 -11.395397 -1.8083826 5 3
-0.75631982 -11.98796 -1.4748629 13 4
-0.79828727 -12.548604 -1.1000798 17 5
-0.80543023 -12.522905 -0.65765369 17 6
-0.82462257 -12.717353 -0.22244836 17 7
-0.50641882 -7.4668398 -2.0053301 11 0
-0.61551607 -9.0055552 -2.0839467 21 1
-0.84756815 -12.305974 -2.397706 13 2
-0.78707439 -11.341014 -1.8005608 9 3
-0.82194388 -11.724957 -1.443177 16 4
-0.87520397 -12.391679 -1.086832 16 5
-0.9090867 -12.651449 -0.22140123 17 7
-0.55449939 -7.4266167 -1.995495 14 0
-0.6773842 -9.0089293 -2.085746 20 1
-0.79127753 -10.426311 -2.0324974 3 2
-0.91364217 -11.955678 -1.8991146 14 3
-0.90691364 -11.786385 -1.4514641 15 4
-0.97094578 -12.504452 -1.0972908 16 5
-0.89800572 -11.48714 -0.60385227 18 6
-0.61639965 -7.5457921 -2.0286238 14 0
-0.73834568 -8.9806747 -2.0803473 21 1
-0.94646138 -11.414454 -2.2263594 6 2
-0.98854315 -11.846644 -1.8828454 13 3
-0.97289461 -11.58591 -1.4275776 15 4
-0.97343028 -11.42487 -0.60092151 9 6
-1.0885586 -12.697484 -0.22244836 17 7
-0.6694048 -7.5451541 -2.029659 14 0
-0.79929125 -8.9558907 -2.0758483 19 1
-1.0185632 -11.323488 -2.20995 7 2
-0.9961068 -11.009237 -1.7508147 17 3
-1.0623916 -11.673728 -1.4392771 19 4
-1.0781167 -11.755573 -1.0327955 14 5
-1.0575699 -11.465528 -0.60343367 18 6
-0.72611493 -7.5826039 -2.0410471 13 0
-0.86515778 -8.9850092 -2.0839467 21 1
-1.1863575 -12.275883 0.64634913 2 9
-1.1091527 -11.4353 -2.2332287 10 2
-1.0702572 -10.97449 -1.7464346 16 3
-1.1010536 -11.229415 -1.3854109 10 4
-1.1213884 -11.355177 -0.99828184 14 5
-1.1573199 -11.656613 -0.61390084 18 6
-1.2315761 -12.3388 -0.21644475 16 7
-0.78555286 -7.6407666 -2.0581291 11 0
-0.92786384 -8.9787502 -2.0839467 21 1
-1.1716869 -11.261298 -2.2007911 15 2
-1.1641057 -11.131782 -1.7727156 17 3
-1.2086802 -11.499819 -1.419778 12 4
-1.3193474 -12.406925 -0.65388548 17 6
-0.8439399 -7.6811833 -2.0705523 10 0
-1.3634149 -12.389307 0.21756171 15 8
-0.99159282 -8.9817381 -2.0861959 14 1
-1.2673614 -11.424775 -2.2343736 15 2
-1.2936796 -11.606553 -1.8496813 5 3
-1.2207803 -10.883502 -1.3447064 13 4
-1.2903384 -11.44951 -1.0080433 14 5
-1.2943341 -11.431168 -0.60291028 18 6
-1.3973941 -12.264771 -0.21546741 16 7
-0.89799619 -7.6906123 -2.0746937 11 0
-1.4661584 -12.518517 0.22000504 16 8
-1.0570191 -9.0115547 -2.0947442 17 1
-1.5290267 -12.996407 0.68581045 14 9
-1.3013042 -11.027654 -2.1584315 12 2
-1.3456103 -11.352033 -1.8105727 21 3
-1.2856804 -10.798065 -1.3352007 16 4
-1.3635111 -11.400895 -1.0045571 14 5
-1.424919 -11.844224 -0.6252054 8 6
-0.9457289 -7.6362257 -2.0617526 14 0
-1.6000669 -12.901175 0.22691619 17 8
-1.1112468 -8.9343376 -2.0785477 20 1
-1.6478177 -13.229476 0.69868505 2 9
-1.3651433 -10.928926 -2.140877 12 2
-1.3886741 -11.070168 -1.7670839 18 3
-1.4109707 -11.184693 -1.3841921 15 4
-1.5542499 -12.268704 -1.0819514 16 5
-1.5110525 -11.877839 -0.62750816 17 6
-1.0039464 -7.6774998 -2.0746937 12 0
-1.6282212 -12.417803 0.21860886 15 8
-1.1659458 -8.8801947 -2.06775 18 1
-1.6082255 -12.215683 0.64572108 6 9
-1.4539983 -11.014502 -2.1595764 15 2
-1.470076 -11.091536 -1.7720897 15 3
-1.4669069 -11.023313 -1.3654243 20 4
-1.6345768 -12.218059 -1.0784651 16 5
-1.6308942 -12.142149 -0.6420576 17 6
-1.6571535 -12.288882 -0.21644475 16 7
-1.0585763 -7.6779585 -2.0767641 12 0
-1.6913235 -12.235779 0.21560703 15 8
-1.2321874 -8.9027233 -2.0749483 15 1
-1.5857722 -11.398822 -2.2370448 10 2
-1.586815 -11.362723 -1.817143 16 3
-1.5821334 -11.286059 -1.3993039 18 4
-1.7076041 -12.119541 -1.0707954 15 5
-1.6473767 -11.647938 -0.6165176 17 6
-1.7771947 -12.518555 -0.22070314 17 7
-1.0949651 -7.551846 -2.0446706 10 0
-1.7951125 -12.350323 0.21784094 15 8
-1.3072195 -8.9826117 -2.095644 15 1
-1.7708399 -12.138677 0.64289492 12 9
-1.6582102 -11.338909 -2.2275043 24 2
-1.6242211 -11.066021 -1.7714641 18 3
-1.6698549 -11.33562 -1.4068599 20 4
-1.7772369 -12.020916 -1.0631257 15 5
-1.7629929 -11.867296 -0.62876427 8 6
-1.1409777 -7.5000906 -2.0327649 13 0
-1.903827 -12.499924 0.22070314 16 8
-1.3693089 -8.9694147 -2.0947442 17 1
-1.8902396 -12.367209 0.65566492 10 9
-1.7531902 -11.443795 -2.2504015 4 2
-1.7079108 -11.109377 -1.7802243 18 3
-1.6841084 -10.903853 -1.3546997 9 4
-1.9410651 -12.524063 -1.1087954 17 5
-1.8836296 -12.111579 -0.64237159 17 6
-1.2056621 -7.5780039 -2.0560586 10 0
-1.9683731 -12.344146 0.21818998 15 8
-1.42265 -8.9117756 -2.0834966 14 1
-1.9967259 -12.479932 0.66236389 14 9
-1.4531903 -9.0624418 -1.7840642 4 2
-1.7531075 -10.896302 -1.747999 34 3
-1.7756879 -10.999923 -1.3681054 15 4
-1.8855898 -11.629123 -1.0307038 14 5
-1.9562728 -12.025196 -0.63849872 17 6
-1.9569094 -11.989498 -0.21204674 15 7
-1.2414254 -7.466495 -2.0281062 12 0
-2.0485871 -12.294598 0.21756171 15 8
-1.4928461 -8.9496822 -2.0947442 16 1
-2.1131113 -12.641012 0.67167974 4 9
-2.040925 -12.183029 -2.4011405 10 2
-1.7905033 -10.653927 -1.7110804 8 3
-1.8379174 -10.90113 -1.3573809 11 4
-1.9461088 -11.493881 -1.0198965 14 5
-1.9639208 -11.5623 -0.6146335 18 6
-1.3110189 -7.5585284 -2.055541 9 0
-2.2028558 -12.674027 0.22454266 16 8
-1.552617 -8.9236832 -2.091145 15 1
-2.2112586 -12.68301 0.67471522 10 9
-2.1086972 -12.069852 -2.3816779 15 2
-2.0141873 -11.493395 -1.8481169 9 3
-1.9263495 -10.958417 -1.3661555 16 4
-2.1461267 -12.158888 -1.0802083 16 5
-2.0755811 -11.723342 -0.62394935 8 6
-2.098244 -11.815309 -0.20946379 15 7
-1.3630686 -7.5453887 -2.0545056 9 0
-2.0818491 -11.501321 0.20401864 27 8
-1.616268 -8.9202967 -2.0929446 15 1
-2.2066112 -12.130168 -2.3965611 6 2
-1.9766625 -10.833879 -1.7442445 12 3
-1.9749329 -10.792395 -1.3471439 19 4
-1.9631146 -10.68567 -0.95052046 13 5
-2.1660593 -11.755706 -0.62646145 17 6
-2.2613511 -12.236915 -0.21721266 16 7
-1.4171381 -7.5432844 -2.0565763 9 0
-1.6748956 -8.8896446 -2.0884457 15 1
-2.2770128 -12.039233 -2.3816779 7 2
-2.0684462 -10.90521 -1.7580107 19 3
-2.0524554 -10.790045 -1.3486063 19 4
-2.2676089 -11.842302 -0.63190436 17 6
-2.40329 -12.515401 -0.22244836 17 7
-1.4719851 -7.5445828 -2.0596819 9 0
-1.7294317 -8.8394852 -2.0794475 14 1
-2.1835816 -11.119534 -2.2026992 3 2
-2.1647563 -10.993225 -1.7745929 13 3
-2.1546528 -10.911777 -1.3656679 12 4
-2.4623482 -12.39036 -0.66204989 17 6
-1.5207878 -7.5151882 -2.0545056 9 0
-1.8321776 -9.0296373 -2.1271372 14 1
-2.1820221 -10.715416 -2.1256123 6 2
-2.2683229 -11.109455 -1.7958679 17 3
-2.2013164 -10.752557 -1.3476313 19 4
-2.5641005 -12.447205 -0.66602743 17 6
-1.575595 -7.5157328 -2.0576115 9 0
-1.9697267 -9.3713417 -2.2108188 18 1
-2.2721729 -10.77292 -2.1401138 3 2
-2.3924129 -11.313669 -1.8315349 10 3
-2.2717998 -10.715565 -1.3449502 20 4
-2.2855854 -10.743618 -0.96097922 13 5
-2.7075958 -12.694651 -0.6802628 8 6
-1.6156664 -7.4538579 -2.0436354 10 0
-2.0264342 -9.325345 -2.2031708 14 1
-2.7423522 -12.577566 -2.5022693 10 2
-4.1836672 -19.139881 -3.1030343 4 3
-2.4534643 -11.196259 -1.4073473 10 4
-2.4029593 -10.938389 -0.97980487 14 5
-2.7578297 -12.51209 -0.6714704 8 6
-2.8178022 -12.752407 -0.22796333 18 7
-1.6630182 -7.4216609 -2.0379412 9 0
-2.742507 -12.179379 -2.4267089 16 2
-2.6331978 -11.665432 -1.8941088 8 3
-2.4601004 -10.863278 -1.3676178 15 4
-2.4977903 -11.002951 -0.98712587 14 5
-1.7078385 -7.3857012 -2.0312121 10 0
-2.131495 -9.1959028 -2.1793258 28 1
-2.8528128 -12.268933 -2.4484613 10 2
-2.7159176 -11.652536 -1.8950473 10 3
-2.5502455 -10.915872 -1.3763925 18 4
-2.5472643 -10.868855 -0.97666723 13 5
-1.7665325 -7.4036636 -2.0394943 10 0
-2.1938293 -9.1732168 -2.1775262 10 1
-2.5591884 -10.667993 -2.1324816 3 2
-2.8244483 -11.74661 -1.9135066 5 3
-2.5868576 -10.733765 -1.3556747 10 4
-1.8117162 -7.3648868 -2.0322473 10 0
-2.2447553 -9.1046991 -2.1649289 21 1
-3.0393884 -12.290799 -2.4610546 9 2
-4.754477 -19.183237 -3.1302538 14 3
-2.7918961 -11.239464 -1.4219716 9 4
-2.7979572 -11.23871 -1.0132726 14 5
-3.0715246 -12.300921 -0.66445738 17 6
-3.1074488 -12.417129 -0.22342572 17 7
-1.873528 -7.3932586 -2.0436354 10 0
-2.3188152 -9.1303587 -2.1748266 17 1
-3.1254003 -12.279339 -2.4629626 4 2
-4.9191213 -19.284418 -3.1521549 9 3
-2.891942 -11.304317 -1.4326961 5 4
-1.9369658 -7.4308076 -2.0576115 9 0
-2.3641639 -9.0502577 -2.1595302 15 1
-3.1279614 -11.94006 -2.3992324 9 2
-5.0586452 -19.268711 -3.1552835 11 3
-2.9652309 -11.262736 -1.430015 7 4
-1.9795752 -7.3775744 -2.046741 11 0
-2.4086242 -8.9578333 -2.1415341 19 1
-3.2143056 -11.929306 -2.4015222 10 2
-5.2180386 -19.312115 -3.1684241 11 3
-3.003839 -11.094221 -1.4112471 16 4
-2.0382235 -7.3896465 -2.053988 10 0
-2.4814856 -8.9783659 -2.150532 21 1
-3.316366 -11.966542 -2.413734 10 2
-5.3495636 -19.263794 -3.1665468 11 3
-7.7626438 -27.896645 -3.5554166 9 4
-2.0639563 -7.284162 -2.0286238 9 0
-2.5483627 -8.9758205 -2.1541312 21 1
-3.4084854 -11.981458 -2.4213662 10 2
-5.5022249 -19.302923 -3.1790614 11 3
-8.0668554 -28.225414 -3.604408 13 4
-2.1167262 -7.2810745 -2.0317297 9 0
-2.6268399 -9.0181379 -2.1685281 17 1
-3.4914985 -11.955486 -2.4209847 10 2
-5.6834469 -19.423294 -3.2053428 12 3
-8.1683159 -27.861254 -3.5649223 13 4
-2.1636395 -7.2531614 -2.0281062 10 0
-2.7109387 -9.0705299 -2.1856244 14 1
-3.5709336 -11.917654 -2.4183133 10 2
-5.8620749 -19.526932 -3.2291205 12 3
-8.1705122 -27.164824 -3.4830263 15 4
-2.2091362 -7.2212539 -2.0234473 9 0
-2.7696285 -9.036478 -2.1820252 18 1
-3.655776 -11.898064 -2.4194582 12 2
-6.0459127 -19.640345 -3.254776 15 3
-8.2271595 -26.676517 -3.4276974 18 4
-2.251404 -7.1798477 -2.0162005 9 0
-2.8279738 -9.0020485 -2.178426 18 1
-3.7343214 -11.865415 -2.4179318 12 2
-6.1366887 -19.463091 -3.2322493 19 3
-8.1607351 -25.819672 -3.3248398 8 4
-2.2907736 -7.1349273 -2.0079181 9 0
-2.8903759 -8.9863024 -2.1793258 14 1
-3.1049802 -9.6304426 -1.9668592 12 2
-6.4084148 -19.840839 -3.3023319 13 3
-8.1126213 -25.072268 -3.2356312 16 4
-2.3278582 -7.0802217 -1.9970479 10 0
-2.8896401 -8.7734079 -2.1325359 19 1
-3.2238364 -9.7651329 -1.9989152 12 2
-6.5045972 -19.668085 -3.2810569 13 3
-8.0002851 -24.148211 -3.1235116 15 4
-2.3815439 -7.0766144 -2.0006714 9 0
-2.9856815 -8.856431 -2.1577303 15 1
-3.2825041 -9.714488 -1.9931908 13 2
-6.4910131 -19.176876 -3.206594 15 3
-7.9666071 -23.495819 -3.0462463 11 4
-2.4296312 -7.0561628 -1.9996361 9 0
-3.0436249 -8.8243189 -2.1550312 15 1
-3.3286781 -9.6343956 -1.9813608 12 2
-3.3833787 -9.7761335 -1.6384948 9 3
-7.5852933 -21.867987 -2.8419933 8 4
-2.4776049 -7.0394611 -1.9996361 9 0
-3.121762 -8.8548574 -2.1676283 14 1
-3.391278 -9.5979652 -1.9786894 19 2
-3.4482498 -9.7429638 -1.6369305 4 3
-3.4090009 -9.6107264 -1.2520857 3 4
-2.5226786 -7.0070105 -1.995495 9 0
-3.1387701 -8.703969 -2.1361351 19 1
-3.4515321 -9.5555906 -1.9748732 21 2
-6.2779894 -17.342764 -2.9212577 12 3
-3.4875166 -9.6184196 -1.2562293 9 4
-2.5702012 -6.9856019 -1.9944596 9 0
-3.1320734 -8.498992 -2.091145 20 1
-3.5320635 -9.563797 -1.9817424 13 2
-3.5657637 -9.6395159 -1.6278572 20 3
-7.778831 -20.995129 -2.7491288 12 4
-3.5442672 -9.5506516 -0.89125466 12 5
-2.6148281 -6.9566383 -1.9913538 9 0
-3.2627368 -8.6665926 -2.1379349 17 1
-3.5963871 -9.5376978 -1.9813608 10 2
-6.1584764 -16.306543 -2.7607558 15 3
-3.5764747 -9.4200888 -0.52806985 11 6
-2.6593521 -6.9314647 -1.9892832 9 0
-3.3230507 -8.6478195 -2.1388347 15 1
-3.6875768 -9.5764809 -1.9947174 15 2
-6.2394686 -16.178371 -2.7463639 10 3
-3.6439793 -9.419116 -0.88358492 43 5
-3.6370432 -9.3671579 -0.17539668 11 7
-2.7161322 -6.9343157 -1.995495 9 0
-3.3947291 -8.6534367 -2.146033 15 1
-3.7548304 -9.5566406 -1.9958621 12 2
-6.2778368 -15.953547 -2.71539 11 3
-4.5853705 -11.628738 -1.5348227 3 4
-2.7659106 -6.9187717 -1.9965302 9 0
-3.6946733 -9.2326698 0.17358163 19 8
-3.4724424 -8.672945 -2.1568308 15 1
-3.8296993 -9.5459261 -1.9992968 13 2
-6.3535404 -15.812901 -2.6991208 11 3
-7.8893042 -19.605484 -2.5948424 7 4
-3.7532294 -9.280241 -0.17473349 49 7
-2.815604 -6.9028711 -1.9975655 9 0
-3.5299587 -8.6412754 -2.1550312 14 1
-3.7441545 -9.1564922 0.51844001 2 9
-3.8739355 -9.4644499 -1.9878482 13 2
-6.4697738 -15.782782 -2.7016234 11 3
-11.390625 -27.745621 -3.6826482 6 4
-2.8652105 -6.8866138 -1.9986008 9 0
-3.5782065 -8.5876398 -2.1478326 14 1
-3.7972233 -9.1043243 0.51697463 6 9
-3.9724393 -9.5150776 -2.0042579 12 2
-6.5554137 -15.678911 -2.6916118 11 3
-11.574078 -27.641619 -3.6794796 6 4
-2.9041634 -6.8451028 -1.9923891 9 0
-3.6693158 -8.6359863 -2.1662786 14 1
-4.0586362 -9.5383997 -2.0149431 10 2
-3.8427465 -9.0222816 0.85796112 7 10
-6.6108756 -15.513988 -2.6709626 11 3
-7.5303874 -17.637688 -2.3547597 9 4
-2.9537556 -6.8322692 -1.9944596 9 0
-3.7357569 -8.6286936 -2.1707778 14 1
-4.1399722 -9.544054 -2.0221939 15 2
-5.8233609 -13.405612 -2.3149173 4 3
-3.8801966 -8.9238415 1.1948072 7 11
-12.041986 -27.681467 -3.7065346 9 4
-3.0013812 -6.811482 -1.9944596 9 0
-3.7896121 -8.5881405 -2.1671786 14 1
-4.2103953 -9.528223 -2.0248652 12 2
-6.717834 -15.18111 -2.6293507 9 3
-12.21644 -27.554985 -3.7009287 6 4
-3.9197891 -8.8371763 1.5311806 3 12
-5.7147112 -12.85356 -0.73720431 8 6
-3.0460937 -6.7873688 -1.9934243 9 0
-3.8439865 -8.5532589 -2.1649289 21 1
-4.313889 -9.580945 -2.0424197 12 2
-6.6913037 -14.840312 -2.5783532 7 3
-12.398817 -27.460337 -3.699466 13 4
-3.9453492 -8.7176895 1.8600061 14 13
-3.0917981 -6.7624245 -1.9923891 9 0
-3.9117179 -8.543932 -2.1694279 14 1
-4.388823 -9.5727758 -2.046999 12 2
-6.7352943 -14.670552 -2.5567651 5 3
-12.579437 -27.349665 -3.6962976 10 4
-4.0096011 -8.6855316 2.2085695 2 14
-3.1377552 -6.7412233 -1.9923891 9 0
-3.7730217 -8.0949631 -2.0619013 14 1
-4.4763122 -9.5863743 -2.0565395 15 2
-6.8266735 -14.599912 -2.5526979 10 3
-12.729648 -27.174889 -3.684598 10 4
-4.0368905 -8.5749416 2.5395324 4 15
-3.1809475 -6.7081237 -1.9892832 9 0
-3.7890575 -7.9797382 -2.0394061 14 1
-4.5549316 -9.5797129 -2.0618823 13 2
-6.8443255 -14.368781 -2.5207851 10 3
-12.910508 -27.06744 -3.6821606 10 4
-3.2260218 -6.6822734 -1.988248 9 0
-3.8769038 -8.019762 -2.0565026 14 1
-4.6233635 -9.546874 -2.0618823 13 2
-6.8772388 -14.182013 -2.4963815 10 3
-13.026318 -26.826653 -3.6616867 10 4
-6.0645466 -12.472815 -1.2133822 21 5
-3.2589622 -6.6318483 -1.9799658 9 0
-3.9457037 -8.0187283 -2.0632513 17 1
-4.6951814 -9.5292711 -2.064935 13 2
-6.9089375 -14.00378 -2.4732292 11 3
-13.198333 -26.704803 -3.6575429 13 4
-3.2694745 -6.5403929 -1.9592602 7 0
-3.9914699 -7.9742603 -2.0587521 16 1
-4.7800736 -9.5331154 -2.0729489 12 2
-6.9427171 -13.828099 -2.4507027 9 3
-13.308471 -26.47246 -3.6380439 6 4
-3.3010421 -6.4898577 -1.9509782 9 0
-4.0399685 -7.9323087 -2.0551529 20 1
-4.0943737 -8.0252686 -1.751245 19 2
-4.1041121 -8.0339632 -1.4288726 21 3
-4.1014042 -8.0182962 -1.1058425 22 4
-4.1211896 -8.0431232 -0.79067689 33 5
-4.0990148 -7.9895358 -0.47060499 25 6
-4.1438389 -8.0665026 -0.15829334 13 7
-3.3409421 -6.4563594 -1.9478723 9 0
-4.1668868 -8.0456133 0.15815371 45 8
-4.071938 -7.858923 -2.0434554 16 1
-4.1641779 -8.0300846 0.47405913 24 9
-4.1439681 -7.9842925 -1.7485738 10 2
-4.1646457 -8.0207081 0.79067689 13 10
-4.1500778 -7.9858351 -1.425431 15 3
-4.1481194 -7.9718585 -1.1034052 19 4
-4.167994 -8.0032349 1.4291855 24 12
-4.1647944 -7.9936805 -0.78858513 27 5
-4.1472998 -7.9465599 -0.4697676 25 6
-4.1868019 -8.018837 2.0884457 8 14
-4.1722679 -7.9842067 -0.15724619 49 7
-3.3724363 -6.4072361 -1.9401076 6 0
-4.2075801 -7.9905233 0.15763015 52 8
-4.1575961 -7.8889198 -2.0587521 14 1
-4.2094259 -7.9838862 0.47301239 15 9
-4.2101312 -7.9784727 -1.7535348 16 2
-4.2061849 -7.9608941 -1.4260567 15 3
-4.2018261 -7.9459276 1.1036489 30 11
-4.2120275 -7.958497 -1.1055988 21 4
-4.1974168 -7.9275427 1.420738 20 12
-4.2167654 -7.9573689 -0.78788787 33 5
-4.216712 -7.9505591 1.749337 42 13
-4.1984839 -7.9128542 -0.46945357 25 6
-4.2052069 -7.918848 2.0699997 19 14
-4.2354145 -7.9690108 -0.15752542 31 7
-3.4059453 -6.3653951 -1.9344137 7 0
-4.2689261 -7.9715314 0.15783957 53 8
-4.2314439 -7.8982267 -2.0686498 15 1
-4.2537355 -7.9331822 0.47175637 27 9
-4.1877456 -7.803575 -1.7214788 24 2
-4.2644706 -7.9432139 0.78875941 21 10
-4.2336106 -7.8791327 -1.4166707 9 3
-4.2581363 -7.918148 1.1038926 33 11
-4.2442307 -7.8823924 1.4179221 22 12
-4.3020134 -7.9863682 -0.7936402 11 5
-4.2688689 -7.9182167 1.7485738 38 13
-4.2972503 -7.9642043 -0.47426847 12 6
-4.2571621 -7.8866096 2.0690999 20 14
-4.3009639 -7.9611101 -0.15794428 31 7
-4.2808533 -7.9172754 2.4116762 37 15
-3.4521477 -6.3448563 -1.9354489 7 0
-4.3441181 -7.9809299 0.15860747 22 8
-4.2724948 -7.8428249 -2.0619013 14 1
-4.3439536 -7.9706869 0.47573388 2 9
-5.1987252 -9.5311756 -2.1103475 12 2
-4.3503699 -7.9692101 0.79433739 4 10
-7.0395136 -12.889959 -2.3261807 9 3
-4.3462095 -7.9516869 1.1126672 6 11
-13.826246 -25.275097 -3.5373797 3 4
-4.3476367 -7.9312601 1.7581142 12 13
-4.3543081 -7.9335732 2.0893452 4 14
-4.3476706 -7.9116559 2.4189229 22 15
-3.4896472 -6.3110676 -1.9323431 7 0
-4.2719798 -7.716382 -2.0362568 16 1
-5.2879868 -9.5358572 -2.1195064 12 2
-7.0909758 -12.77142 -2.3136661 9 3
-13.98736 -25.161314 -3.5346987 13 4
-3.5345683 -6.2882357 -1.9328607 6 0
-4.3439054 -7.7186375 -2.044805 15 1
-5.3602152 -9.5089693 -2.1217961 10 2
-6.7731447 -12.0008 -2.1825738 8 3
-14.274981 -25.261803 -3.5627286 6 4
-3.5649643 -6.2399235 -1.9256139 6 0
-4.4518695 -7.7828517 -2.0699997 14 1
-5.4518452 -9.5156069 -2.1317184 10 2
-6.5962906 -11.499151 -2.0996637 7 3
-6.6169872 -11.52125 -1.6313431 7 4
-3.6026201 -6.2048593 -1.922508 6 0
-4.4933634 -7.7296805 -2.0641508 17 1
-5.543828 -9.5214252 -2.1416404 10 2
-6.6903377 -11.476712 -2.1040437 6 3
-6.7072659 -11.49192 -1.6337806 7 4
-14.599443 -24.943962 -1.5147074 11 6
-3.6379972 -6.1662464 -1.9183668 6 0
-4.5670395 -7.7316799 -2.073149 16 1
-5.6101627 -9.4824915 -2.1416404 10 2
-6.8307014 -11.5317 -2.1228158 4 3
-14.845451 -25.032434 -3.5734532 6 4
-14.824274 -24.927263 -1.519941 11 6
-3.6829436 -6.144012 -1.9194021 6 0
-4.6028547 -7.6695304 -2.0650506 16 1
-5.7045465 -9.4902086 -2.1523256 12 2
-8.9267998 -14.833226 -2.7419839 5 3
-14.92764 -24.77516 -3.5515168 9 4
-14.997937 -24.823164 -1.519941 11 6
-3.7236736 -6.1171513 -1.9188845 7 0
-4.5961323 -7.5415072 -2.0389564 16 1
-5.7792387 -9.4679174 -2.1561418 10 2
-6.8798575 -11.257757 -2.0896518 9 3
-15.031701 -24.567993 -3.5364048 9 4
-3.7662885 -6.0910063 -1.9188845 4 0
-5.8404508 -9.4233522 -2.1549969 16 2
-9.7861452 -15.771139 -2.9397171 5 3
-15.159889 -24.393324 -3.5264115 16 4
-15.440069 -24.786221 -1.5304081 11 6
-3.7912269 -6.0390501 -1.9106023 5 0
-4.7318211 -7.5285678 -2.0529034 13 1
-5.9468827 -9.4471483 -2.1698802 12 2
-9.9276018 -15.75257 -2.9491029 5 3
-15.319224 -24.279497 -3.5249493 13 4
-3.8249867 -5.9994035 -1.9064611 5 0
-4.7737808 -7.4789248 -2.0484045 11 1
-6.0554509 -9.4759312 -2.1859078 12 2
-10.073985 -15.746199 -2.9606791 8 3
-15.542967 -24.2572 -3.5373797 9 4
-3.8762293 -5.9894476 -1.9116375 5 0
-4.8245764 -7.4462581 -2.0484045 14 1
-6.1342816 -9.4531879 -2.1904874 10 2
-7.4889722 -11.527601 -2.1772552 1 3
-15.768331 -24.24403 -3.5510292 9 4
-3.9094617 -5.9493251 -1.9074965 5 0
-4.8635907 -7.3928585 -2.0430055 14 1
-6.2470775 -9.4849968 -2.2076602 10 2
-8.1087914 -12.297632 -2.3330638 7 3
-15.957987 -24.164829 -3.5556602 13 4
-3.9370048 -5.9032893 -1.9012847 5 0
-4.9051423 -7.3466158 -2.0394061 14 1
-6.3251472 -9.4591045 -2.211858 10 2
-7.7021427 -11.505326 -2.1928985 3 3
-16.197248 -24.167786 -3.5722346 13 4
-16.550125 -24.629185 -1.5551107 12 6
-3.9867861 -5.8884583 -1.9054259 4 0
-4.9453778 -7.296061 -2.0349073 12 1
-6.4086733 -9.4407063 -2.2179639 12 2
-8.2053118 -12.073751 -2.3121016 8 3
-16.196962 -23.80629 -3.53543 9 4
-16.793694 -24.618643 -1.5618098 12 6
-4.0037255 -5.8254552 -1.8940378 5 0
-4.9763107 -7.2324605 -2.026809 15 1
-6.4788814 -9.4022017 -2.2194905 12 2
-8.241169 -11.946255 -2.2986481 9 3
-16.322155 -23.633829 -3.5266554 9 4
-4.0409803 -5.7926102 -1.8924849 6 0
-5.0199866 -7.1879563 -2.0241096 14 1
-6.4475908 -9.2183867 -2.1866713 12 2
-10.870286 -15.524376 -3.0016649 7 3
-8.0046597 -11.419109 -1.7122644 3 4
-4.082438 -5.7658339 -1.8930025 7 0
-5.0565205 -7.1336579 -2.0187106 13 1
-6.5356555 -9.206768 -2.1946852 13 2
-10.954369 -15.414299 -2.9950948 9 3
-16.70233 -23.476418 -3.5376236 13 4
-13.830785 -19.390045 -1.2482127 10 6
-5.0970955 -7.0855279 -2.0151114 14 1
-6.6146898 -9.1816244 -2.1996462 12 2
-11.126423 -15.427169 -3.0126154 6 3
-13.55517 -18.773985 -2.8432121 4 4
-13.996261 -19.335083 -1.2509341 10 6
-4.1488857 -5.6895409 -1.886791 30 0
-5.1464381 -7.0497708 -2.0151114 14 1
-6.7852278 -9.2810307 -2.234755 10 2
-11.274686 -15.404907 -3.0235658 6 3
-16.949873 -23.133644 -3.5212932 9 4
-4.1770124 -5.6449094 -1.8816146 25 0
-5.1816077 -6.9948797 -2.0097127 15 1
-6.8915133 -9.2929764 -2.2488749 9 2
-8.4532156 -11.386415 -2.2460864 7 3
-17.095568 -22.99404 -3.5181246 16 4
-14.380852 -19.300425 -1.2614013 10 6
-4.2164984 -5.6178918 -1.8821322 14 0
-5.2220774 -6.9501014 -2.0070133 14 1
-6.9762874 -9.2713079 -2.2553625 12 2
-8.6038113 -11.421794 -2.2648585 9 3
-17.246906 -22.8708 -3.5171494 13 4
-14.604377 -19.317455 -1.2691472 10 6
-4.2521052 -5.5837069 -1.8805792 4 0
-5.2562933 -6.8948779 -2.0016146 14 1
-6.4773383 -8.4842768 -2.0748572 4 2
-8.6809416 -11.358311 -2.2642329 6 3
-17.468874 -22.831823 -3.5298238 13 4
-14.770486 -19.256227 -1.2718686 10 6
-4.2791705 -5.538599 -1.8754028 4 0
-5.3019142 -6.8549314 -2.0007145 14 1
-6.544827 -8.4497137 -2.0775285 12 2
-8.6680317 -11.178787 -2.2404547 7 3
-17.604717 -22.679516 -3.5251927 9 4
-4.3153496 -5.5055494 -1.8743677 4 0
-5.3568592 -6.8269491 -2.0034139 13 1
-6.615788 -8.4192533 -2.0813446 10 2
-8.9486017 -11.375729 -2.2923908 4 3
-17.844906 -22.660551 -3.5415235 16 4
-15.174036 -19.220562 -1.2833824 10 6
-4.3536806 -5.4752884 -1.8743677 4 0
-5.397109 -6.7802348 -2.0007145 13 1
-7.1210752 -8.9332027 -2.2206352 15 2
-9.0253344 -11.309893 -2.2917652 10 3
-9.0409813 -11.317342 -1.7785614 3 4
-15.322834 -19.132866 -1.2846385 10 6
-4.3869472 -5.4387455 -1.872297 4 0
-5.4369655 -6.733295 -1.9980152 14 1
-7.1977611 -8.9043722 -2.2255962 12 2
-8.6361313 -10.672351 -2.1744394 8 3
-18.109568 -22.347496 -3.5317738 16 4
-15.515667 -19.105644 -1.2898722 10 6
-4.4091892 -5.3908143 -1.8660854 4 0
-5.4727955 -6.6840687 -1.994416 13 1
-7.145225 -8.7142372 -2.1904874 12 2
-9.125267 -11.117197 -2.2779989 6 3
-18.190691 -22.137821 -3.5181246 13 4
-15.648666 -18.996862 -1.2898722 10 6
-4.4630456 -5.3814964 -1.8733324 3 0
-5.5082064 -6.6346684 -1.9908168 12 1
-7.214416 -8.6774769 -2.1935403 10 2
-8.8342686 -10.614514 -2.1872668 6 3
-18.337139 -22.008917 -3.5173934 9 4
-15.905644 -19.043194 -1.3003392 10 6
-4.4945993 -5.345078 -1.8712618 3 0
-5.5532393 -6.5970211 -1.9908168 13 1
-7.2100472 -8.5531149 -2.1744595 12 2
-8.9063148 -10.554135 -2.1872668 9 3
-18.132959 -21.465055 -3.4501214 9 4
-16.034899 -18.934486 -1.3003392 10 6
-4.5133309 -5.2937789 -1.8640147 4 0
-5.5904245 -6.5501747 -1.9881173 14 1
-7.1494751 -8.3650427 -2.1389689 22 2
-8.9676743 -10.481259 -2.1847639 9 3
-18.294144 -21.359224 -3.4530463 9 4
-16.210249 -18.879459 -1.3041074 10 6
-4.5377598 -5.2422318 -1.8578032 4 0
-5.6266637 -6.4933081 -1.9836185 14 1
-7.3497291 -8.4698124 -2.1798022 12 2
-8.9890804 -10.348048 -2.1709976 9 3
-18.4422 -21.20785 -3.4508526 12 4
-4.5946393 -5.2336531 -1.8660854 3 0
-5.6294069 -6.4055634 -1.9687717 7 1
-7.3047657 -8.3031416 -2.1496544 22 2
-9.0514755 -10.277728 -2.1691206 9 3
-18.707981 -21.212576 -3.4727893 12 4
-4.6147447 -5.1849399 -1.8598738 3 0
-5.6223178 -6.3103528 -1.9512255 7 1
-7.5442305 -8.4555693 -2.2026992 10 2
-9.1414299 -10.234913 -2.1735008 9 3
-10.045193 -11.234935 -1.8504643 4 4
-4.6611838 -5.1640697 -1.8640147 3 0
-5.6479445 -6.2507043 -1.944927 8 1
-7.5016503 -8.2905998 -2.1733146 16 2
-9.2232666 -10.182558 -2.1760037 9 3
-18.853327 -20.792328 -3.4462216 9 4
-4.6579919 -5.0886521 -1.8484857 4 0
-5.6756463 -6.193881 -1.9395281 7 1
-7.5673113 -8.2467051 -2.1756043 15 2
-9.3529282 -10.18193 -2.18977 10 3
-19.039679 -20.7055 -3.4537776 12 4
-4.6934028 -5.0560102 -1.8484857 3 0
-5.7001767 -6.1341224 -1.9332294 7 1
-7.6446629 -8.2180071 -2.1817102 19 2
-9.4624014 -10.161402 -2.199156 9 3
-19.191889 -20.580782 -3.45524 15 4
-4.7277093 -5.0239463 -1.8484857 3 0
-5.720418 -6.072485 -1.9260309 7 1
-7.7099333 -8.1730032 -2.1839998 19 2
-9.5683746 -10.132432 -2.2072906 9 3
-19.204712 -20.315516 -3.4325724 9 4
-4.7600002 -4.9880228 -1.8474505 3 0
-5.7411356 -6.0098553 -1.9188325 8 1
-7.7559452 -8.1076307 -2.1809468 19 2
-9.6798649 -10.10819 -2.2166767 9 3
-19.086435 -19.910112 -3.3865056 12 4
-4.7866468 -4.946341 -1.8443446 3 0
-5.7856631 -5.9724269 -1.9197323 7 1
-7.7918515 -8.0321512 -2.1752226 12 2
-9.7942381 -10.085711 -2.2266884 9 3
-19.213905 -19.764988 -3.3845556 12 4
-4.7912927 -4.8824697 -1.8329566 4 0
-5.8190227 -5.9235506 -1.9170328 7 1
-7.8601112 -7.9929242 -2.1790388 12 2
-9.8986893 -10.055412 -2.234823 9 3
-19.412735 -19.692574 -3.3952801 12 4
-4.8434896 -4.8689175 -1.8402034 3 0
-5.8399572 -5.8644724 -1.9107343 8 1
-7.8186793 -7.8405461 -2.1523256 12 2
-9.9993525 -10.016818 -2.2417061 9 3
-19.533699 -19.54734 -3.3930864 9 4
-4.855412 -4.8132243 -1.8319213 3 0
-5.8724489 -5.8153315 -1.9080348 7 1
-7.8620591 -7.7747273 -2.1492727 12 2
-10.099954 -9.9773092 -2.2485893 9 3
-19.596212 -19.337992 -3.3804121 9 4
-4.8902764 -4.7805614 -1.8324389 2 0
-5.896172 -5.7578559 -1.9026359 7 1
-7.8936553 -7.6977181 -2.1431668 10 2
-10.200491 -9.9368792 -2.2554724 10 3
-19.781954 -19.250553 -3.3891866 9 4
-4.9151883 -4.7382588 -1.8293331 2 0
-5.9249978 -5.7057371 -1.8990368 7 1
-7.9089952 -7.6056805 -2.132863 10 2
-10.326597 -9.9201641 -2.2679873 9 3
-11.628689 -11.159307 -1.9789146 2 4
-4.9439459 -4.6998367 -1.8277801 3 0
-5.939249 -5.64008 -1.8909385 9 1
-7.8778515 -7.4705763 -2.1103475 12 2
-10.49025 -9.9374905 -2.2886364 9 3
-19.859928 -18.793736 -3.3572571 11 4
-4.9738169 -4.6625657 -1.8267449 3 0
-7.9442902 -7.4315333 -2.1145453 10 2
-10.551876 -9.8604603 -2.287385 11 3
-20.034184 -18.695263 -3.3645692 6 4
-4.994091 -4.6181087 -1.8226038 3 0
-5.9878197 -5.531209 -1.8819405 42 1
-7.9411407 -7.3253088 -2.100044 7 2
-10.611739 -9.7785254 -2.2855077 11 3
-20.130304 -18.53023 -3.3594506 6 4
-5.0347767 -4.5909405 -1.8257096 3 0
-6.029171 -5.4918962 -1.8828404 13 1
-47.876965 -43.579956 3.3929403 11 9
-7.9601355 -7.2406297 -2.0916483 9 2
-10.796704 -9.8104801 -2.3105373 11 3
-20.229784 -18.362553 -3.3545759 8 4
-5.0465918 -4.5375972 -1.8184627 3 0
-6.0543151 -5.437952 -1.8787912 7 1
-7.9637241 -7.1429315 -2.0794365 7 2
-10.835508 -9.708499 -2.3042798 10 3
-20.330858 -18.197048 -3.3501885 8 4
-5.0752563 -4.4996915 -1.8174274 3 0
-6.0790019 -5.383924 -1.8747422 7 1
-7.9839826 -7.0611491 -2.0718043 9 2
-46.072826 -40.73312 5.3802981 4 10
-11.05402 -9.7660246 -2.3361926 9 3
-20.237122 -17.860271 -3.3141153 8 4
-5.0920019 -4.4514351 -1.812251 3 0
-6.1135044 -5.3387899 -1.8738421 7 1
-7.9946151 -6.9716873 -2.0618823 7 2
-46.581341 -40.606876 5.406445 4 10
-11.163638 -9.7249432 -2.3449528 9 3
-20.359823 -17.717245 -3.3138714 5 4
-5.1171002 -4.4107337 -1.8101805 3 0
-6.1329074 -5.2807217 -1.8684435 7 1
-8.0091372 -6.8889451 -2.0534863 9 2
-47.77026 -41.059921 5.5110316 7 10
-11.262535 -9.6770535 -2.351836 9 3
-20.502598 -17.591484 -3.31704 8 4
-5.1411176 -4.3707952 -1.80811 3 0
-6.1597977 -5.2312846 -1.8657441 7 1
-8.0181065 -6.7998476 -2.0435643 9 2
-47.993927 -40.687428 5.5047565 7 10
-11.311733 -9.5828686 -2.3480816 9 3
-20.320318 -17.196331 -3.2685361 5 4
-5.1596613 -4.3248687 -1.8039688 3 0
-6.1872025 -5.1806488 -1.8630446 7 1
-46.793644 -39.167217 3.1980412 2 9
-8.046133 -6.7299995 -2.038985 9 2
-46.304779 -38.703064 5.2798948 1 10
-11.437332 -9.5563154 -2.3605964 10 3
-13.292779 -11.090856 -2.1256454 8 4
-5.1837716 -4.2838211 -1.8018982 3 0
-6.214201 -5.1298852 -1.8603452 7 1
-8.0698471 -6.6522689 -2.0328791 10 2
-11.444427 -9.4239988 -2.3480816 10 3
-20.68721 -17.016872 -3.28901 14 4
-50.611389 -41.602249 10.376612 10 12
-5.201571 -4.2377639 -1.7977571 3 0
-6.2347493 -5.0740747 -1.8558462 7 1
-8.0825739 -6.5685291 -2.0244837 9 2
-47.128269 -38.286449 5.3123169 2 10
-11.546746 -9.3737526 -2.3555903 9 3
-47.541882 -38.567406 7.5166578 2 11
-20.896477 -16.945803 -3.3033907 8 4
-50.45245 -40.884766 10.285254 9 12
-5.2189794 -4.1916704 -1.7936161 4 0
-6.2609 -5.0231085 -1.8531467 7 1
-8.1159763 -6.5021219 -2.0214307 9 2
-11.584145 -9.2706957 -2.3499587 9 3
-21.107302 -16.873878 -3.3180151 8 4
-49.020412 -39.16053 9.9373436 11 12
-5.2572017 -4.1623297 -1.7967219 4 0
-6.3019309 -4.9841108 -1.8549464 6 1
-8.1292372 -6.4223871 -2.0137982 9 2
-11.451597 -9.0374365 -2.3105373 9 3
-48.253044 -38.053307 7.5454192 3 11
-13.530224 -10.662544 -2.1151645 5 4
-49.527916 -39.016632 9.9861517 6 12
-54.449566 -42.832199 13.466155 35 13
-5.2762766 -4.1193142 -1.7936161 4 0
-6.2957559 -4.9099422 -1.843249 6 1
-49.074123 -38.24445 3.2606349 5 9
-8.096426 -6.3051658 -1.9947174 7 2
-47.017101 -36.601818 5.2129593 0 10
-11.498818 -8.9451427 -2.3074086 9 3
-13.563303 -10.539749 -2.1090713 8 4
-50.753944 -39.411388 10.177628 8 12
-50.588642 -39.240566 12.444944 17 13
-5.2926588 -4.0729527 -1.789475 4 0
-6.322155 -4.8599315 -1.8409994 5 1
-8.0545921 -6.1827426 -1.9737284 4 2
-47.391613 -36.364864 5.2262068 0 10
-11.702069 -8.972826 -2.3355668 9 3
-50.799732 -38.923695 7.8578925 7 11
-21.716368 -16.633461 -3.3587193 11 4
-51.009026 -39.041691 10.173873 8 12
-51.672359 -39.506512 12.643386 20 13
-5.3332767 -4.0452447 -1.7936161 4 0
-6.3372903 -4.8015556 -1.8356007 5 1
-8.0130138 -6.0623932 -1.9531209 6 2
-47.456814 -35.891319 5.2056384 0 10
-11.868439 -8.9695187 -2.3562162 9 3
-48.903164 -36.93153 7.5244579 2 11
-13.677452 -10.325426 -2.1041963 7 4
-50.001411 -37.71983 9.9201365 11 12
-54.160828 -40.813118 13.182232 30 13
-5.3428202 -3.9940326 -1.7874043 5 0
-6.355042 -4.7455359 -1.8311015 5 1
-46.883743 -34.984257 3.0657361 0 9
-8.0362558 -5.9922242 -1.9485416 4 2
-47.70623 -35.559124 5.2056384 0 10
-11.918094 -8.8770056 -2.3537133 11 3
-48.105614 -35.8046 7.3631024 0 11
-13.392453 -9.964262 -2.0495987 7 4
-53.172459 -39.532562 10.49425 11 12
-54.359322 -40.370796 13.161624 29 13
-5.3612413 -3.9497604 -1.7842987 4 0
-6.3597655 -4.6802626 -1.8230033 4 1
-8.0778952 -5.9359727 -1.9485416 6 2
-48.133152 -35.357323 5.2251611 0 10
-11.919266 -8.7491646 -2.3418241 9 3
-50.896248 -37.332344 7.7501597 5 11
-13.477701 -9.8822575 -2.0520363 8 4
-51.41711 -37.672989 10.095655 7 12
-54.139206 -39.623905 13.041032 27 13
-5.3949389 -3.9167755 -1.7863692 4 0
-6.3828197 -4.6288843 -1.8203038 4 1
-48.493565 -35.155109 3.1390064 0 9
-8.060874 -5.8393888 -1.9348032 4 2
-48.285206 -34.952679 5.2150507 0 10
-11.884121 -8.5995092 -2.323365 8 3
-49.25745 -35.617161 7.4635229 1 11
-15.094242 -10.906348 -2.2865129 9 4
-53.962284 -38.976112 10.543058 24 12
-54.1884 -39.081917 12.986843 26 13
-54.462685 -39.236404 15.496879 1 14
-5.4183326 -3.8777139 -1.7853339 4 0
-6.4125943 -4.584198 -1.819854 3 1
-48.737804 -34.815712 3.1390064 0 9
-8.0694847 -5.7601585 -1.927171 4 2
-49.605385 -35.396255 5.331491 2 10
-11.90044 -8.4853687 -2.3149173 9 3
-51.360874 -36.594795 7.7433348 5 11
-15.242783 -10.852515 -2.2974811 11 4
-53.817841 -38.302929 10.462338 22 12
-5.4380465 -3.8332779 -1.7827457 6 0
-6.4261122 -4.5247316 -1.8144552 3 1
-8.0966549 -5.6946492 -1.924118 4 2
-50.858269 -35.743805 5.438518 5 10
-11.96409 -8.4022655 -2.3155432 9 3
-50.208103 -35.247604 7.5322576 2 11
-22.312599 -15.652485 -3.3465323 5 4
-54.194073 -37.989403 10.482362 11 12
-54.558319 -38.202148 12.946391 26 13
-5.4694352 -3.798526 -1.7842987 4 0
-6.4351277 -4.4642076 -1.8081565 3 1
-8.1178303 -5.6231494 -1.9195386 4 2
-11.946107 -8.2657108 -2.3008385 13 3
-50.56028 -34.957413 7.547369 3 11
-22.262922 -15.386858 -3.3228898 8 4
-54.83506 -37.870579 10.554947 12 12
-54.403511 -37.530483 12.84717 24 13
-5.494226 -3.7591584 -1.7837809 6 0
-6.454875 -4.4114757 -1.8050072 4 1
-50.056534 -34.197483 3.1771069 1 9
-8.1299744 -5.5500522 -1.9134327 6 2
-12.016782 -8.1942205 -2.3036542 9 3
-22.210638 -15.122687 -3.299247 11 4
-53.638176 -36.507244 10.276494 18 12
-5.5196853 -3.7216744 -1.7837809 6 0
-6.4912176 -4.3717928 -1.8068069 4 1
-8.1049862 -5.4504323 -1.8985497 28 2
-12.060576 -8.1013165 -2.3011513 9 3
-52.240662 -35.064594 7.7252984 5 11
-22.276794 -14.946823 -3.293885 11 4
-53.70142 -36.004272 10.240202 17 12
-56.220802 -37.650745 13.152464 29 13
-5.5503621 -3.6862543 -1.7853339 4 0
-6.4761119 -4.2962036 -1.7942096 4 1
-52.856396 -35.037987 3.3234382 8 9
-8.1461124 -5.3958859 -1.8993129 22 2
-50.033028 -33.128708 5.2499132 0 10
-12.057531 -7.9776831 -2.2898879 9 3
-52.557049 -34.747189 7.7360229 5 11
-22.450155 -14.836911 -3.304122 11 4
-55.906441 -36.919529 10.611263 12 12
-54.902451 -36.215248 12.784586 23 13
-5.556561 -3.634727 -1.7791222 4 0
-6.5092092 -4.2530203 -1.7951094 4 1
-8.1622086 -5.3249388 -1.8943518 4 2
-50.002743 -32.608822 5.2227206 0 10
-12.040114 -7.8458562 -2.2761219 9 3
-16.532242 -10.760792 -2.4220314 4 4
-54.377716 -35.367313 10.273991 18 12
-5.5688076 -3.5874774 -1.774981 5 0
-6.5108819 -4.189549 -1.7874612 6 1
-8.1867046 -5.2618265 -1.8916805 4 2
-53.830147 -34.571609 5.5971417 10 10
-11.966904 -7.6826162 -2.2523437 10 3
-53.963463 -34.61734 7.8720288 7 11
-16.637043 -10.664399 -2.426419 12 4
-55.668354 -35.669891 10.471725 22 12
-55.799644 -35.699078 12.876173 24 13
-5.6094089 -3.5598402 -1.7801574 4 0
-6.5474777 -4.1503501 -1.7897105 5 1
-8.1884031 -5.1824956 -1.8836665 4 2
-11.863294 -7.4996634 -2.222934 9 3
-53.982292 -34.099823 7.8398552 6 11
-16.418871 -10.367552 -2.3842521 6 4
-55.703854 -35.146519 10.431991 10 12
-17.314739 -10.90367 -1.0723639 9 6
-5.6374011 -3.5226398 -1.7811928 4 0
-6.5597615 -4.0942211 -1.7852116 5 1
-52.446785 -32.721508 3.2397008 4 9
-8.2301512 -5.1307955 -1.8851929 4 2
-52.914978 -32.962299 5.454206 6 10
-11.561926 -7.1994677 -2.1572316 9 3
-55.976154 -34.828533 8.0948067 10 11
-16.431845 -10.215994 -2.3757212 9 4
-56.065945 -34.843697 10.455142 11 12
-5.6447959 -3.4740601 -1.7760164 3 0
-6.6024199 -4.05866 -1.7892607 7 1
-52.166794 -32.043053 3.2085085 3 9
-8.2272863 -5.0495925 -1.8764157 4 2
-53.691753 -32.941017 5.5110316 7 10
-11.574855 -7.0958619 -2.1503484 9 3
-56.668201 -34.712727 8.1596403 11 11
-16.504389 -10.105978 -2.3762088 9 4
-57.419937 -35.131882 10.661636 13 12
-5.6656065 -3.4325664 -1.774981 4 0
-6.6172547 -4.0043979 -1.7856615 6 1
-51.257797 -30.993938 3.1392157 0 9
-8.2320919 -4.9737573 -1.8695467 4 2
-11.482046 -6.9291468 -2.1240675 11 3
-16.659546 -10.041753 -2.3883955 9 4
-5.6628857 -3.3770962 -1.7666988 4 0
-6.6383533 -3.9541123 -1.7838619 6 1
-51.579327 -30.698681 3.1457052 0 9
-8.2497416 -4.9061308 -1.8657305 4 2
-11.458809 -6.8064489 -2.1109269 9 3
-16.761681 -9.9444466 -2.3930268 11 4
-5.7063165 -3.3492157 -1.7729106 4 0
-6.6657958 -3.9076731 -1.7838619 7 1
-8.2668467 -4.8384995 -1.8619143 4 2
-11.374736 -6.6495214 -2.0868361 8 3
-16.892412 -9.8632193 -2.4018011 11 4
-5.7195215 -3.3035004 -1.7698047 3 0
-6.689539 -3.859093 -1.7829621 7 1
-8.2766056 -4.7669525 -1.8565717 4 2
-11.360949 -6.5354762 -2.0758855 9 3
-17.088224 -9.8182335 -2.419838 11 4
-5.7424455 -3.2634888 -1.7698047 3 0
-6.7197056 -3.8142223 -1.7838619 7 1
-8.2866592 -4.6979175 -1.8516105 3 2
-11.315786 -6.4073806 -2.0596163 9 3
-17.209923 -9.7289801 -2.4273939 9 4
-5.740922 -3.2111228 -1.7625577 4 0
-6.745513 -3.7683942 -1.7838619 7 1
-8.2678156 -4.6112642 -1.8401619 3 2
