# .PCD v0.7 - Point Cloud Data file format
VERSION 0.7
FIELDS x y z intensity ring
SIZE 4 4 4 4 2
TYPE F F F F U
COUNT 1 1 1 1 1
WIDTH 1296
HEIGHT 1
VIEWPOINT 0 0 0 1 0 0 0
POINTS 1296
DATA ascii
-9.9024925 6.8338218 -1.4773003 16 4
-12.72197 8.7894154 -1.3528314 26 5
-16.905548 11.697224 -1.077388 9 6
-5.2377563 3.6511908 -1.710794 9 0
-6.0071392 4.1921959 -1.691182 10 1
-12.632984 8.8227243 0.80754387 6 9
-7.1335211 4.9856739 -1.6917126 7 2
-8.346755 5.8401198 -1.6134652 15 3
-9.9033184 6.936954 -1.4846125 19 4
-12.712502 8.9146204 -1.3584094 26 5
-16.614262 11.66804 -1.0639901 9 6
-5.2026768 3.6809738 -1.7076882 9 0
-5.965004 4.2250204 -1.6875829 11 1
-7.0625868 5.0079947 -1.6829355 10 2
-8.3068113 5.8967972 -1.6134652 14 3
-9.9371634 7.0645814 -1.4970431 10 4
-16.35553 11.653369 -1.0524762 9 6
-5.1680837 3.709543 -1.7045823 9 0
-5.9329414 4.2632504 -1.6866829 11 1
-7.001955 5.0388298 -1.6768295 10 2
-8.2301817 5.9292436 -1.6065822 14 3
-9.2947416 6.703577 -1.4071035 6 4
-16.06661 11.617471 -1.0390781 19 6
-5.138938 3.7432566 -1.703547 9 0
-5.8967366 4.2999721 -1.6848834 14 1
-6.9570942 5.0806432 -1.6745398 12 2
-8.1471252 5.9562454 -1.5984476 27 3
-9.0314608 6.6100283 -1.3741989 9 4
-15.721033 11.535574 -1.021912 9 6
-5.1064649 3.7744501 -1.7014765 9 0
-5.847775 4.327126 -1.6794846 14 1
-6.9119925 5.1220746 -1.6722503 12 2
-18.38405 13.628318 2.0021417 2 10
-8.0482321 5.9706059 -1.5871843 14 3
-8.8623819 6.5817847 -1.355431 19 4
-8.8935432 6.6145654 -0.96969479 13 5
-19.081165 14.207124 -1.2467473 10 6
-5.0923548 3.8192792 -1.7056175 9 0
-5.8143077 4.3655043 -1.6785848 13 1
-24.310656 18.266224 1.59363 8 9
-6.8729253 5.1678462 -1.6714869 10 2
-8.0095091 6.0290256 -1.58781 16 3
-8.741704 6.587347 -1.3439753 27 4
-8.7310524 6.588881 -0.95697004 33 5
-15.246091 11.517982 -1.0013963 9 6
-5.0624933 3.8523967 -1.7045823 9 0
-5.7774892 4.4012647 -1.6767852 13 1
-6.8273153 5.2085552 -1.6691971 12 2
-7.898149 6.0320387 -1.5740438 16 3
-8.6024618 6.5770764 -1.3295947 21 4
-8.5847445 6.5706553 -0.94581407 33 5
-8.4980888 6.5137458 -0.56114614 10 6
-5.026299 3.8805637 -1.7014765 9 0
-5.7312016 4.4295759 -1.6722862 13 1
-6.7761765 5.2428932 -1.6653811 10 2
-7.8381667 6.0711446 -1.5702893 15 3
-8.4434023 6.5493722 -1.3120455 24 4
-8.4410963 6.5546679 -0.9350068 39 5
-8.3920565 6.523634 -0.55706394 20 6
-4.990643 3.9075396 -1.6983706 9 0
-5.7039852 4.4708886 -1.6731859 10 1
-6.727056 5.2803736 -1.6623281 12 2
-7.817338 6.1428027 -1.5746696 16 3
-8.3393383 6.5600543 -1.3027834 25 4
-8.3430643 6.5700607 -0.92908025 33 5
-8.2914209 6.5387745 -0.55340046 31 6
-4.9481144 3.9302702 -1.6931943 9 0
-5.6817865 4.5178771 -1.6758853 13 1
-6.6863489 5.322372 -1.6611832 15 2
-7.6702924 6.1121597 -1.5533944 15 3
-8.1940336 6.5388699 -1.2871841 22 4
-8.2098207 6.558507 -0.91931874 32 5
-8.1531315 6.520216 -0.54712015 31 6
-4.9152298 3.9590113 -1.6911237 9 0
-5.6660728 4.5686793 -1.6803844 13 1
-18.451729 14.888666 1.2425604 5 9
-6.6734691 5.3886566 -1.6672891 9 2
-7.6735215 6.2028136 -1.5627805 10 3
-8.0679531 6.5309663 -1.2745097 25 4
-8.0183296 6.4977474 -0.90293348 31 5
-7.9026742 6.4108829 -0.53330344 32 6
-4.8777986 3.9867487 -1.6880178 9 0
-5.627202 4.6041713 -1.6785848 11 1
-6.5779715 5.3878417 -1.6527877 10 2
-7.5632634 6.2036958 -1.5493271 9 3
-7.8764167 6.4674578 -1.2513546 39 4
-7.8727245 6.471334 -0.89160323 62 5
-7.8797269 6.4863095 -0.53487349 76 6
-4.8528223 4.0231695 -1.6890532 9 0
-5.5919223 4.6408553 -1.6776849 14 1
-6.4984818 5.4008937 -1.6424839 12 2
-7.3436198 6.1097927 -1.5130343 12 3
-12.401256 10.325004 1.981352 4 11
-7.843276 6.5324512 -1.2533045 37 4
-7.8395977 6.5363431 -0.89299768 43 5
-7.7713928 6.4886813 -0.53058195 33 6
-4.8334885 4.0644107 -1.6921589 9 0
-5.5549154 4.6760149 -1.6763352 16 1
-6.4315438 5.4196992 -1.6348516 12 2
-7.2550569 6.1201515 -1.5033354 14 3
-7.7246909 6.5255589 -1.241605 21 4
-7.6948886 6.5072899 -0.88166744 37 5
-7.6691208 6.4923892 -0.52660441 33 6
-4.7792492 4.0746565 -1.6828415 9 0
-5.5125823 4.7048621 -1.6731859 14 1
-6.3890724 5.4606404 -1.6337067 15 2
-7.1295991 6.1000195 -1.4861275 9 3
-7.6092334 6.5172963 -1.2301493 21 4
-7.5838652 6.5024552 -0.87399781 36 5
-7.5448117 6.4781151 -0.5211615 33 6
-4.7594557 4.1155033 -1.6859473 9 0
-5.4678154 4.7330284 -1.6695868 13 1
-6.2775722 5.4397178 -1.6146259 15 2
-6.9715209 6.0474467 -1.4617239 9 3
-7.4886189 6.5051675 -1.2179623 15 4
-7.4751406 6.5003295 -0.86667669 30 5
-7.4553504 6.4899783 -0.51802135 33 6
-4.730607 4.1486316 -1.6859473 9 0
-5.4229226 4.7608018 -1.6659875 13 1
-6.2001491 5.4507971 -1.6047038 10 2
-6.9265862 6.0958719 -1.4614109 8 3
-7.3834414 6.5047994 -1.2082127 18 4
-7.366818 6.4970078 -0.85935563 36 5
-7.3308735 6.4744105 -0.51257843 34 6
-4.6928682 4.1738515 -1.6828415 9 0
-5.3691788 4.7804012 -1.6596888 14 1
-6.1878181 5.5150805 -1.6111913 12 2
-6.839241 6.102109 -1.451712 9 3
-7.3319283 6.5508962 -1.2072377 10 4
-7.2737598 6.5057755 -0.85377765 36 5
-7.2241383 6.468205 -0.50818217 34 6
-13.058815 11.708776 -0.30615014 32 7
-4.6786962 4.2186351 -1.6880178 9 0
-5.3365154 4.8168378 -1.6596888 14 1
-6.1302295 5.5410323 -1.6062301 13 2
-6.7290936 6.0887418 -1.4373201 9 3
-7.8506618 7.1110597 -1.3005898 10 4
-7.1514263 6.4867897 -0.84471345 35 5
-7.1048756 6.4513483 -0.50294858 34 6
-4.6377254 4.2407665 -1.6838769 9 0
-5.2998829 4.8513446 -1.6587892 13 1
-6.1290259 5.618185 -1.6161523 10 2
-69.165115 63.422569 8.2100706 59 10
-6.6631351 6.1142001 -1.432314 9 3
-7.3300886 6.7332802 -1.222106 16 4
-7.0282478 6.4650698 -0.83547491 35 5
-7.0052996 6.450736 -0.49907571 23 6
-4.5966749 4.2625308 -1.6797357 7 0
-5.2715974 4.8935299 -1.6605887 13 1
-6.0637722 5.6367745 -1.6092831 7 2
-6.6145039 6.1551867 -1.4310627 7 3
-7.4848018 6.9723663 -1.2559856 16 4
-6.9275804 6.4623327 -0.8288511 34 5
-6.9031658 6.4463201 -0.49499351 35 6
-4.578064 4.3051057 -1.6838769 9 0
-5.197576 4.8928108 -1.6479914 15 1
-5.7957001 5.4635019 -1.5482242 4 2
-9.494421 8.9533453 1.1417402 1 10
-6.5828648 6.2120605 -1.4335656 7 3
-7.0492105 6.6591182 -1.1906636 11 4
-6.833087 6.463984 -0.82292449 34 5
-6.7941842 6.4339333 -0.49038798 36 6
-4.5339165 4.3236294 -1.6787004 9 0
-5.1477866 4.9141765 -1.6430426 17 1
-15.436981 14.746751 1.1188382 3 9
-5.9092646 5.6489882 -1.5890573 10 2
-6.51793 6.2373781 -1.4288726 8 3
-7.1473317 6.8468618 -1.2152811 9 4
-6.7331548 6.4591198 -0.81630063 34 5
-6.6900387 6.4244876 -0.48609638 24 6
-12.067706 11.600847 -0.2921882 30 7
-4.5091758 4.3605485 -1.680771 9 0
-5.1287546 4.9649043 -1.6479914 15 1
-5.8414907 5.662775 -1.581425 12 2
-6.3990922 6.2098188 -1.4122906 9 3
-7.1634312 6.9588366 -1.2262495 12 4
-6.647913 6.4670677 -0.81141996 33 5
-6.5920835 6.4194784 -0.48222357 36 6
-4.4758649 4.3892169 -1.6797357 9 0
-5.0995307 5.0060492 -1.649791 14 1
-5.7850142 5.686902 -1.5768455 12 2
-6.3274245 6.2266316 -1.4060332 9 3
-6.3665805 6.2717285 -1.0973117 9 4
-6.5288439 6.4405642 -0.80235577 28 5
-6.5101557 6.4288573 -0.47950208 36 6
-9.2565708 9.1505527 -0.22719543 18 7
-4.4451146 4.4203563 -1.6797357 9 0
-5.0437431 5.0209055 -1.6430426 20 1
-21.03657 20.955952 1.5561575 8 9
-5.7298784 5.7119031 -1.5726478 9 2
-6.2027006 6.189723 -1.3878868 9 3
-6.5080228 6.5012107 -1.1294852 9 4
-6.4569597 6.4592133 -0.79904383 22 5
-6.4001975 6.4091387 -0.47468719 37 6
-4.422308 4.4595118 -1.6828415 9 0
-5.0085678 5.0559945 -1.6430426 15 1
-5.5766449 5.6373172 -1.5413551 7 2
-6.1315675 6.2047744 -1.3816295 9 3
-9.4039106 9.5228329 1.6432863 0 11
-6.4108768 6.494216 -1.1204668 7 4
-8.8958282 9.0240583 -1.108621 17 5
-6.3076501 6.4052796 -0.47112834 37 6
-4.3748584 4.473702 -1.6766298 7 0
-4.9649773 5.0824742 -1.6403431 17 1
-5.4261084 5.5622807 -1.510444 11 2
-6.0301981 6.1880088 -1.3684888 9 3
-6.2379937 6.4079509 -1.0980428 7 4
-8.7631712 9.0145149 -1.0999055 17 5
-6.219645 6.4047413 -0.4678835 25 6
-4.3435206 4.5041342 -1.6766298 9 0
-4.9185591 5.1057835 -1.6367439 21 1
-5.5341406 5.752831 -1.5516587 12 2
-5.9813762 6.2242599 -1.3672374 9 3
-6.1243706 6.3797426 -1.085856 7 4
-6.1347208 6.4061718 -0.46484798 37 6
-4.3039813 4.5259495 -1.6735239 9 0
-4.8774242 5.134347 -1.6349442 22 1
-5.5005989 5.7984486 -1.5535669 10 2
-57.863003 61.01749 7.3569903 51 10
-5.9296246 6.2572632 -1.3653603 9 3
-12.366346 13.058769 2.2082727 1 11
-6.0291882 6.3690038 -1.0768377 9 4
-6.0363684 6.3922119 -0.46076584 25 6
-4.2696381 4.5530677 -1.6724888 9 0
-4.8174815 5.1426721 -1.6268461 22 1
-5.4519386 5.828105 -1.5512772 10 2
-56.654476 60.584679 7.2569361 50 10
-5.8642159 6.2754145 -1.3603542 9 3
-5.9913507 6.4181957 -1.0780563 11 4
-6.6907625 7.1749644 -0.85830975 12 5
-5.9507618 6.390348 -0.45762566 25 6
-10.723038 11.52725 -0.27480558 27 7
-4.2246327 4.5685792 -1.6673124 9 0
-4.7589822 5.1518435 -1.6191977 24 1
-5.384182 5.8347812 -1.5432632 10 2
-5.8481421 6.3442345 -1.3666116 7 3
-6.0485744 6.5708642 -1.0965804 23 4
-5.8449764 6.3630443 -0.45281073 25 6
-4.1934376 4.59723 -1.6673124 9 0
-4.7172432 5.1769147 -1.6169481 20 1
-5.3182116 5.8446374 -1.5360124 9 2
-5.9751105 6.5734711 -1.4069717 17 3
-6.444078 7.0968633 -1.1770141 3 4
-8.3511744 9.2100592 -1.0877036 16 5
-5.7628665 6.3622479 -0.44987994 25 6
-10.428914 11.525723 -0.2713151 27 7
-4.1767421 4.64363 -1.6735239 9 0
-4.6653562 5.1923275 -1.6115494 20 1
-5.2405686 5.8407068 -1.5253272 9 2
-6.0266409 6.7238774 -1.430124 17 3
-6.150732 6.8695574 -1.1321664 13 4
-5.6599035 6.3302565 -0.74291551 10 5
-5.6012301 6.2712388 -0.44066879 26 6
-10.348198 11.598247 -0.2713151 27 7
-4.1390953 4.6668935 -1.6714535 9 0
-4.6535473 5.2524834 -1.6200974 23 1
-5.2022657 5.8800926 -1.5260904 9 2
-5.5818739 6.3158212 -1.3350118 25 3
-5.5470576 6.2919011 -0.73385131 46 5
-5.5269518 6.2757163 -0.43826136 26 6
-4.098783 4.6869512 -1.6683476 9 0
-4.6180472 5.2863116 -1.6205474 34 1
-5.1559272 5.9103484 -1.5245639 8 2
-5.5181794 6.3322964 -1.3303189 21 3
-5.5328636 6.3558621 -1.0346708 24 4
-5.5474396 6.3815994 -0.73977798 46 5
-5.5209804 6.3578815 -0.44129682 52 6
-4.0684853 4.7183781 -1.6693829 9 0
-4.5733981 5.3095636 -1.617848 22 1
-5.1171002 5.9491768 -1.5253272 9 2
-5.6231704 6.5444655 -1.3666116 11 3
-5.9835372 6.9712553 -1.1280228 11 4
-9.1553755 10.674214 2.2273142 4 12
-5.4504814 6.3659263 -0.43920338 26 6
-9.8430824 11.508484 -0.26433414 25 7
-4.0229349 4.731946 -1.6642065 9 0
-4.5261273 5.3294792 -1.6142488 23 1
-17.988058 21.195787 1.4569285 7 9
-5.0678234 5.9757719 -1.5230374 11 2
-5.4177361 6.3951597 -1.327503 17 3
-5.8257222 6.8840561 -1.1073049 18 4
-9.8970823 11.711613 -1.3415012 26 5
-5.3621025 6.351933 -0.43564454 26 6
-3.9897993 4.7599177 -1.6642065 9 0
-4.4888105 5.3609476 -1.6142488 17 1
-4.9743485 5.949255 -1.5073912 11 2
-5.3349686 6.3873444 -1.318117 24 3
-5.8118577 6.965714 -1.1138859 20 4
-5.278019 6.3416233 -0.43239969 26 6
-3.9564738 4.7876544 -1.6642065 9 0
-4.4450741 5.3846388 -1.6119993 23 1
-4.9614158 6.0186801 -1.5161684 11 2
-5.2538314 6.3802114 -1.3090436 18 3
-5.7971354 7.0475111 -1.1204668 15 4
-5.1905432 6.3258204 -0.42884085 27 6
-9.3463755 11.402787 -0.25735319 24 7
-3.9205105 4.8121653 -1.6631712 9 0
-6.5890594 8.0933905 0.18216823 10 8
-4.4073715 5.4155421 -1.6119993 25 1
-4.9118505 6.0440269 -1.5138787 11 2
-5.1792831 6.3799248 -1.3015349 18 3
-6.9656239 8.5895538 -1.3578683 2 4
-9.2910376 11.473477 -1.291648 24 5
-5.1299248 6.3417158 -0.42748013 27 6
-3.8807735 4.8318858 -1.660583 11 0
-4.3633609 5.4385772 -1.6097497 20 1
-4.8560328 6.0613165 -1.5096809 11 2
-49.267746 61.518169 6.8954139 45 10
-5.1025233 6.3758307 -1.2934003 19 3
-6.859621 8.5806084 -1.34885 4 4
-9.0665216 11.357439 -1.2714279 23 5
-5.0394526 6.3195977 -0.42360729 27 6
-3.8565392 4.8709774 -1.6647241 11 0
-4.3011093 5.4383368 -1.6007516 20 1
-6.4880118 8.2093515 0.5483762 6 9
-4.7941298 6.0704193 -1.503575 13 2
-5.0211849 6.3647685 -1.2840142 19 3
-6.7344341 8.5456514 -1.3359319 19 4
-8.8711977 11.273275 -1.2550427 22 5
-4.9532442 6.3012385 -0.42004842 27 6
-8.9820232 11.438747 -0.25386271 23 7
-3.8010457 4.8703699 -1.6554067 11 0
-4.2582455 5.4620848 -1.5989521 21 1
-47.800079 61.357689 4.0762386 43 9
-4.7142477 6.055716 -1.4917448 9 2
-48.533714 62.366734 6.9138904 46 10
-4.9475255 6.3622437 -1.2765055 18 3
-8.7922792 11.334933 -1.2550427 22 5
-4.8956795 6.3182969 -0.41889706 27 6
-3.755172 4.8814754 -1.6502303 11 0
-4.2211962 5.4932241 -1.599402 25 1
-4.6551237 6.0666738 -1.4864022 11 2
-47.992844 62.568092 6.8989 46 10
-4.8789535 6.3652725 -1.2702481 19 3
-6.5710149 8.5821047 -1.3271573 7 4
-8.6471386 11.305894 -1.2452812 22 5
-4.8272047 6.3205748 -0.4168036 27 6
-3.7139983 4.8983359 -1.6471245 11 0
-4.1886263 5.5303278 -1.6016515 21 1
-4.6255665 6.1138768 -1.4902184 14 2
-6.4138632 8.4837227 0.9304747 2 10
-4.8045473 6.3573608 -1.2621135 18 3
-6.4822431 8.5897417 -1.3213075 6 4
-9.0674162 12.019767 2.3846872 10 12
-4.7468262 6.3038259 -0.41355878 27 6
-3.6782568 4.9204078 -1.6460892 11 0
-6.6838326 8.9474726 0.19494337 12 8
-4.118238 5.5149903 -1.5890542 22 1
-4.5733819 6.1334286 -1.4871653 11 2
-47.101795 63.191906 6.8954139 45 10
-4.7222881 6.3400526 -1.2521017 21 3
-6.3963695 8.5970345 -1.3157015 5 4
-6.5493112 8.8154383 -0.96080488 13 5
-4.6836576 6.3111496 -0.41188401 27 6
-3.6415272 4.9428549 -1.645054 11 0
-4.0888762 5.5561633 -1.5926535 21 1
-46.03656 62.602467 4.0724707 43 9
-4.5176663 6.1478033 -1.4829676 11 2
-4.6568708 6.3442025 -1.24647 23 3
-6.3162403 8.6142654 -1.3115579 3 4
-4.6088281 6.3017788 -0.40916255 26 6
-10.110548 13.839634 -0.29916915 31 7
-3.6160104 4.9806638 -1.649195 11 0
-4.0511341 5.5861487 -1.5931033 23 1
-4.4665732 6.1680641 -1.4802963 11 2
-46.371475 64.059631 6.9187713 46 10
-4.5916271 6.3477488 -1.2408383 20 3
-6.1103129 8.4596958 -1.2813344 10 4
-6.4325876 8.9157143 -0.96185076 13 5
-4.5401988 6.2997746 -0.40696445 26 6
-3.5566783 4.973413 -1.6383246 14 0
-3.9804726 5.5721817 -1.580956 22 1
-4.412003 6.1831131 -1.4764801 11 2
-46.552704 65.288536 7.0153399 48 10
-4.5185757 6.3418326 -1.2333294 23 3
-6.3212485 8.8751564 1.3378818 0 11
-6.1132579 8.5894852 -1.2944963 19 4
-6.125443 8.6161528 -0.92489672 13 5
-4.4591622 6.2816143 -0.4037196 26 6
-3.5285473 5.0075974 -1.6414305 14 0
-3.9224062 5.5727434 -1.5733078 23 1
-4.3631291 6.2081013 -1.4749537 11 2
-4.4469543 6.3344193 -1.2258207 23 3
-6.0178151 8.5815668 -1.2869403 21 4
-7.9214964 11.30886 -1.2079786 21 5
-4.4151998 6.312592 -0.4037196 26 6
-3.5045187 5.0479779 -1.6466069 13 0
-3.8689694 5.5791736 -1.567459 22 1
-4.2782893 6.1763287 -1.4604521 9 2
-45.139923 65.214615 6.9389915 47 10
-4.3722625 6.3190575 -1.2170602 22 3
-5.9385715 8.5956087 -1.2827969 12 4
-6.2648244 9.0779934 -0.96498835 13 5
-4.3460569 6.3046775 -0.40131214 26 6
-3.4591682 5.0557723 -1.6414305 13 0
-3.836401 5.6134238 -1.5697085 23 1
-4.2262135 6.1930733 -1.4573992 9 2
-4.3158021 6.3314729 -1.2136188 18 3
-5.8542328 8.5980892 -1.2771908 20 4
-6.0579176 8.9106045 -0.94267654 26 5
-4.2649112 6.2803378 -0.39785796 26 6
-9.4530125 13.935822 -0.29393342 30 7
-3.4173093 5.0701866 -1.6383246 16 0
-3.8047369 5.6513858 -1.5728577 15 1
-4.16535 6.1963573 -1.4512933 8 2
-4.2483702 6.3270102 -1.2070485 23 3
-9.0694065 13.517073 1.9986575 4 11
-4.6617889 6.9505668 -1.0276023 10 4
-7.660749 11.439167 -1.2044923 20 5
-4.1943107 6.2701178 -0.39534587 26 6
-3.3914464 5.1084056 -1.6429834 14 0
-3.7630363 5.6745625 -1.5719579 19 1
-4.138248 6.2498398 -1.4570175 6 2
-4.1888394 6.3334484 -1.2026683 26 3
-4.5661011 6.9117222 -1.0171217 11 4
-5.804996 8.7970533 -0.92210776 19 5
-4.1328535 6.2725625 -0.3936711 26 6
-3.3557026 5.1319561 -1.6429834 14 0
-3.7297249 5.7104831 -1.5746574 15 1
-4.0430508 6.1972923 -1.4383184 10 2
-4.1111212 6.3088541 -1.1926565 28 3
-5.5851912 8.5840311 -1.2574481 15 4
-6.1390352 9.4388514 1.7833531 3 12
-5.6717825 8.727107 -0.91060323 25 5
-4.0704865 6.2703938 -0.39178702 25 6
-9.0263958 13.926017 -0.28967506 30 7
-3.3144152 5.1449347 -1.6398776 15 0
-3.6781147 5.7160726 -1.5692586 18 1
-3.9742153 6.1857276 -1.4291594 12 2
-4.0435052 6.3008265 -1.1857734 25 3
-4.1597037 6.4893665 -0.94643742 33 4
-5.6053476 8.7581005 -0.90973163 31 5
-4.000793 6.2582717 -0.38927487 25 6
-8.9012604 13.939943 -0.28869772 30 7
-3.2680655 5.1516371 -1.6347013 16 0
-3.639159 5.7432585 -1.5697085 14 1
-3.9708235 6.2763653 -1.443661 8 2
-3.985703 6.3071914 -1.1817061 21 3
-3.9744384 6.2966633 -0.9142639 16 4
-5.5578771 8.8189325 -0.91199768 13 5
-3.9208288 6.2285814 -0.38571605 25 6
-3.2340696 5.1776018 -1.6357363 15 0
-3.5855682 5.7470298 -1.5638597 14 1
-3.9175639 6.2889385 -1.4402263 5 2
-3.9332223 6.3214474 -1.1792032 20 3
-3.9199014 6.3073983 -0.91182649 28 4
-7.2063804 11.613639 -1.1957767 20 5
-3.8814611 6.2625914 -0.38613471 25 6
-7.0237617 11.345847 -0.23291981 19 7
-3.1857007 5.1803074 -1.6295248 16 0
-3.5086405 5.7121434 -1.5476632 21 1
-3.8828039 6.3311958 -1.443661 8 2
-3.8817744 6.3369589 -1.177013 15 3
-3.8488381 6.2905831 -0.90548927 30 4
-7.2123675 11.80649 -1.2104189 21 5
-3.8334816 6.2827182 -0.38571605 25 6
-3.1664655 5.2305155 -1.6383246 12 0
-3.4686768 5.7364993 -1.5476632 21 1
-3.8273475 6.3396602 -1.4394631 12 2
-3.811938 6.3216143 -1.1691914 7 3
-3.7822959 6.2798891 -0.90012699 33 4
-5.5054498 9.1553612 -0.93465823 13 5
-3.7648487 6.2682343 -0.38320392 25 6
-3.117017 5.2309198 -1.6315954 15 0
-3.424557 5.7538767 -1.5458636 21 1
-3.7950301 6.3864789 -1.4440426 14 2
-4.1094975 6.923934 -1.2752539 9 3
-3.7160921 6.2685747 -0.89476484 30 4
-5.4413991 9.193573 -0.93465823 13 5
-3.6844063 6.23247 -0.37943572 25 6
-5.261559 8.9109974 -0.18063241 11 7
-3.0823765 5.2558856 -1.6326306 14 0
-3.3675599 5.7490592 -1.5382153 23 1
-33.782215 57.718788 3.5049393 17 9
-3.7790937 6.4619646 -1.4551095 8 2
-4.1527224 7.1093802 -1.3040378 9 3
-3.6522315 6.2600727 -0.88989002 26 4
-5.3329592 9.1555853 -0.92698848 13 5
-3.6187098 6.2200599 -0.37713292 25 6
-3.0417461 5.2705841 -1.63056 14 0
-3.3273418 5.772429 -1.5382153 25 1
-33.143188 57.544773 3.4802368 15 9
-3.6976566 6.4252315 -1.4409896 12 2
-4.0498309 7.0457168 -1.287143 3 3
-3.6005321 6.2716451 -0.88794011 27 4
-3.5613055 6.2209058 -0.37566754 25 6
-3.0029712 5.2883301 -1.6295248 14 0
-3.2917714 5.8039918 -1.5404649 20 1
-3.6575465 6.4594307 -1.4428977 8 2
-4.4245195 7.8234992 -1.4235538 3 3
-3.5488498 6.2828012 -0.8859902 30 4
-4.9379764 8.7527771 -0.8792271 25 5
-3.5128875 6.2369151 -0.37514415 25 6
-6.3209076 11.236136 -0.22503133 18 7
-2.9603252 5.2990465 -1.6264189 15 0
-3.2511718 5.8268309 -1.5404649 17 1
-32.346653 57.996262 3.4802368 15 9
-3.5790918 6.4224377 -1.4291594 10 2
-4.3365793 7.791297 -1.4122906 3 3
-3.4875484 6.2761884 -0.88160288 32 4
-4.9096222 8.8462677 -0.88515365 12 5
-3.4635749 6.2484546 -0.37441146 24 6
-2.9297714 5.3292317 -1.6295248 15 0
-3.1964276 5.8214955 -1.5332664 22 1
-3.4756577 6.3405309 -1.4054991 10 2
-31.691919 57.838562 5.7700586 14 10
-4.2422414 7.7486072 -1.39915 9 3
-3.4218867 6.2579823 -0.87575316 32 4
-3.368027 6.1697121 -0.61497092 7 5
-3.3395579 6.1251836 -0.36561903 24 6
-2.9035208 5.3699474 -1.6357363 11 0
-3.1427441 5.8196626 -1.5269678 35 1
-3.3493218 6.2125673 -1.3719168 18 2
-31.729727 58.879223 5.8516359 17 10
-3.3302059 6.1848598 -1.1125621 36 3
-3.314184 6.1628318 -0.8591789 32 4
-3.3079119 6.1614766 -0.61183333 54 5
-3.2797291 6.1166639 -0.36373493 24 6
-6.0824146 11.357934 -0.22489171 18 7
-2.8532634 5.3662071 -1.6284895 14 0
-3.1093507 5.8552308 -1.5305669 21 1
-3.2819593 6.1906996 -1.3619947 22 2
-31.043623 58.581718 5.8003888 15 10
-3.2730811 6.1817713 -1.107869 28 3
-3.2636549 6.1717806 -0.85722905 22 4
-3.2724085 6.1961823 -0.6130535 38 5
-3.2835214 6.2277484 -0.36896852 49 6
-2.8166256 5.3877077 -1.6290071 12 0
-3.0539665 5.8491559 -1.5233686 20 1
-3.2424676 6.2181182 -1.3631396 5 2
-3.2528253 6.2459559 -1.1153778 21 3
-3.2461276 6.2437301 -0.86405367 26 4
-5.7374082 11.049689 -1.0892724 16 5
-3.2355378 6.239316 -0.36834049 24 6
-2.7781208 5.4033189 -1.6279719 13 0
-3.014972 5.8715415 -1.5238184 25 1
-3.2106202 6.2633157 -1.3681006 5 2
-3.2226439 6.294888 -1.1200709 4 3
-3.2017455 6.2621469 -0.86356628 28 4
-5.7162848 11.199501 -1.1000798 17 5
-4.5307026 8.8881655 -0.52283627 11 6
-5.5113683 10.826005 -0.21204674 15 7
-2.7385905 5.4191322 -1.6269366 13 0
-2.9624929 5.8698306 -1.5179697 22 1
-3.1782997 6.3083706 -1.3730617 7 2
-9.0403643 17.951344 1.7584542 1 10
-3.8871491 7.7253761 -1.3697404 11 3
-3.13834 6.2453241 -0.85820401 27 4
-5.7004933 11.363797 -1.1122816 17 5
-4.3862376 8.7552948 -0.51320642 11 6
-2.6903772 5.4173579 -1.6207249 13 0
-2.9197099 5.8868785 -1.5170699 21 1
-3.1228602 6.3075309 -1.3681006 9 2
-3.7762144 7.6372247 -1.3494039 4 3
-3.0700536 6.2172441 -0.85137933 30 4
-5.6298289 11.421187 -1.1140246 17 5
-5.6005445 11.376795 -0.66456205 8 6
-2.6643543 5.4603138 -1.6279719 12 0
-2.8682995 5.886095 -1.5116711 19 1
-28.806913 59.167679 3.4488351 14 9
-3.08304 6.3380075 -1.3700087 7 2
-3.8030746 7.8286471 -1.3785007 10 3
-3.0196424 6.2242374 -0.84942937 28 4
-4.3098788 8.8995514 -0.86510789 12 5
-4.2844357 8.8588352 -0.51571852 22 6
-5.4121513 11.205552 -0.21721266 16 7
-2.615314 5.4561343 -1.6212426 15 0
-2.8094671 5.8690634 -1.5022231 23 1
-3.0607278 6.4054327 -1.3799307 5 2
-3.7781067 7.9174023 -1.389451 13 3
-2.9624546 6.2164931 -0.84552956 26 4
-3.7769189 7.9398637 -0.76923656 10 5
-5.320076 11.214155 -0.21665418 16 7
-2.5804508 5.4812517 -1.6233131 14 0
-2.7908113 5.9361506 -1.5143706 14 1
-3.005089 6.4035411 -1.3749697 8 2
-3.7168691 7.931067 -1.3872609 10 3
-2.9122486 6.2226415 -0.84357965 26 4
-4.0772643 8.7278004 -0.84279597 11 5
-4.1155801 8.8218613 -0.51017094 23 6
-3.6776924 7.8940215 -0.15201046 28 7
-2.5372577 5.4886112 -1.6202073 16 0
-2.7550185 5.9678741 -1.5175198 14 1
-2.9520974 6.4065328 -1.3711535 9 2
-8.8734627 19.265703 1.85572 1 10
-3.0206246 6.5642872 -1.1444747 4 3
-2.8637652 6.2319975 -0.84211725 27 4
-3.9663899 8.6473961 -0.83233732 17 5
-5.0985494 11.131069 -0.64163888 17 6
-2.498878 5.5061908 -1.6202073 14 0
-2.6875463 5.9301634 -1.5031229 15 1
-2.8765516 6.3590131 -1.356652 13 2
-3.0218897 6.6896276 -1.162621 1 3
-2.8071275 6.2228861 -0.83821738 26 4
-3.9713671 8.8202133 -0.84628218 24 5
-7.2624364 16.152103 -0.92812598 9 6
-2.4619489 5.5270314 -1.6212426 15 0
-2.646873 5.9505625 -1.5035729 17 1
-2.8273075 6.3681746 -1.3543624 11 2
-2.8966529 6.5335884 -1.1319599 2 3
-2.7555792 6.2241807 -0.83578002 27 4
-3.8137589 8.6265478 -0.82519054 34 5
-4.8870072 11.075088 -0.63441652 8 6
-2.4171133 5.5299234 -1.6171014 16 0
-2.6005881 5.95818 -1.5008734 17 1
-3.5803134 8.2067242 0.46924424 2 9
-2.7799728 6.378273 -1.3524542 7 2
-2.9467103 6.7705054 -1.1695042 1 3
-2.7057319 6.2287011 -0.83383012 31 4
-3.7447193 8.6328564 -0.82327312 23 5
-5.8260455 13.450308 -0.76818722 17 6
-4.8207221 11.150703 -0.21204674 15 7
-2.3809395 5.549799 -1.6181368 15 0
-2.5615065 5.9793262 -1.5017732 17 1
-2.7376919 6.4029408 -1.3535991 11 2
-3.4749019 8.1389208 -1.4016529 12 3
-2.6523721 6.2214084 -0.83041775 28 4
-3.808394 8.9502888 -0.85098869 30 5
-4.6619868 10.9723 -0.62478673 17 6
-2.3466346 5.5769682 -1.6212426 14 0
-2.5091355 5.9719095 -1.4954746 16 1
-6.1430678 14.635232 0.83182776 2 9
-2.6762216 6.3820662 -1.3452035 11 2
-3.5257828 8.4121571 0.79799795 2 10
-3.4530926 8.2467985 -1.4160448 3 3
-2.5950909 6.2068081 -0.82603049 31 4
-3.7158928 8.9049482 -0.84419054 11 5
-4.6021719 11.045139 -0.6270895 25 6
-2.3076403 5.5932159 -1.6212426 18 0
-2.4718335 6.000093 -1.4981741 16 1
-2.5912902 6.3025413 -1.3245962 13 2
-3.3556776 8.173852 -1.3994628 14 3
-2.538146 6.1917109 -0.82164317 28 4
-3.6944435 9.0259161 -0.85325474 12 5
-4.546854 11.130619 -0.63012499 17 6
-2.2583981 5.584116 -1.6139956 15 0
-2.4291577 6.0153952 -1.4977242 15 1
-2.5108871 6.2271724 -1.3051336 13 2
-3.3139794 8.2313204 -1.4054073 2 3
-2.4889343 6.1945448 -0.81969327 27 4
-5.3421583 13.336096 -0.75290513 26 6
-2.2174876 5.592176 -1.611925 14 0
-2.3802648 6.0118599 -1.4927752 20 1
-2.462302 6.2317686 -1.3024622 24 2
-3.2499092 8.2377186 -1.4025916 8 3
-2.4408913 6.1965675 -0.81774336 27 4
-4.371798 11.138333 -0.6270895 17 6
-4.3815069 11.180276 -0.2096034 15 7
-2.1630027 5.5679045 -1.6005371 15 0
-2.3452833 6.0464993 -1.4972742 17 1
-6.1863465 15.965876 0.89735234 2 9
-2.4045622 6.2121892 -1.2948298 28 2
-3.1759415 8.2178268 -1.3953955 10 3
-2.3947158 6.206048 -0.81676841 28 4
-4.2896256 11.157399 -0.62646145 17 6
-5.2478552 13.671139 -0.25560796 24 7
-2.139879 5.6243982 -1.6124427 13 0
-2.3030133 6.0627251 -1.4972742 18 1
-2.3611343 6.2288246 -1.2948298 26 2
-2.5185676 6.654654 -1.1269541 1 3
-2.3443143 6.2040458 -0.814331 28 4
-4.1919298 11.134736 -0.62353063 26 6
-4.2179418 11.221644 -0.20925435 15 7
-2.0823538 5.5903211 -1.5984664 14 0
-2.2579145 6.0713496 -1.4954746 19 1
-2.310761 6.2267509 -1.2910137 26 2
-3.0705001 8.2873011 -1.3997757 1 3
-2.2926805 6.1979194 -0.8114062 28 4
-3.3549421 9.0793228 1.5330579 1 12
-5.001277 13.549266 -1.263584 23 5
-4.1272144 11.199336 -0.62551939 35 6
-4.1394973 11.250817 -0.20925435 15 7
-2.0485687 5.6192422 -1.6026076 14 0
-2.2008102 6.0466781 -1.4855767 20 1
-2.2605319 6.2242775 -1.2871976 28 2
-3.0246894 8.3419628 -1.4054073 1 3
-2.245301 6.2025752 -0.80994374 31 4
-3.9900939 11.0466 -1.0275662 14 5
-3.9669466 11.00054 -0.61285412 9 6
-4.0473037 11.241814 -0.20855626 15 7
-2.0073447 5.6279473 -1.6010547 12 0
-2.155931 6.0545506 -1.4837772 20 1
-2.2091386 6.2177067 -1.282618 28 2
-6.0364089 16.999138 1.5782162 1 10
-2.3192163 6.538384 -1.0987958 1 3
-2.1926672 6.1919017 -0.80653143 35 4
-3.906239 11.055401 -1.0258231 14 5
-3.9299157 11.140977 -0.61913443 8 6
-4.8202534 13.687849 -0.25330424 23 7
-1.9622788 5.6254072 -1.596396 14 0
-2.117455 6.0804968 -1.4864765 15 1
-2.1605194 6.2181435 -1.2795652 32 2
-2.2463243 6.4760323 -1.0856553 4 3
-2.1441896 6.1920514 -0.80458146 37 4
-3.0198016 8.7354584 -0.808631 11 5
-3.8533435 11.171917 -0.61934376 8 6
-1.9179703 5.624342 -1.5922549 14 0
-2.0674174 6.0729938 -1.4810777 15 1
-2.1130929 6.217834 -1.2765123 30 2
-2.2783508 6.7156496 -1.1231996 2 3
-2.0881827 6.1692634 -0.7997067 28 4
-2.9396088 8.6997004 -0.80340165 22 5
-3.8027439 11.273586 -0.62353063 17 6
-2.9920201 8.8906097 -0.16373847 9 7
-1.8723093 5.6152749 -1.5860431 18 0
-2.0272627 6.0906234 -1.4819776 17 1
-2.0622079 6.2100759 -1.2719328 32 2
-2.187902 6.6001391 -1.1012988 3 3
-2.0436468 6.175796 -0.79873174 26 4
-4.6313901 14.020453 -1.2918224 24 5
-3.2682719 9.9055223 2.0275364 2 13
-3.6089213 10.95083 -0.60427099 18 6
-2.8789425 8.7512083 -0.16080648 28 7
-1.8282754 5.6135144 -1.5819021 16 0
-1.9774625 6.0823889 -1.4765787 15 1
-2.0150411 6.2090302 -1.2688799 34 2
-2.6871796 8.2949066 -1.3810036 1 3
-1.9931563 6.1672459 -0.79580688 27 4
-4.3509946 13.511228 -0.74390334 17 6
-2.8214512 8.7825155 -0.16101591 14 7
-1.7759651 5.5816469 -1.5694788 16 0
-3.5642247 11.215481 0.20541482 13 8
-1.9395543 6.1068525 -1.4792781 14 1
-1.9633431 6.1967444 -1.2635372 30 2
-2.0978839 6.6334443 -1.1019244 1 3
-1.9475453 6.169312 -0.79434443 27 4
-4.2397923 13.487925 -0.74097258 17 6
-2.7484305 8.7595425 -0.160248 18 7
-1.7426835 5.612359 -1.5746551 16 0
-3.4882088 11.247731 0.20555446 13 8
-1.8887964 6.0941849 -1.4729795 14 1
-1.914235 6.1915436 -1.259721 30 2
-2.560617 8.2976427 -1.3753721 1 3
-1.9009219 6.1713753 -0.79288203 28 4
-2.680702 8.7245884 -0.79852092 11 5
-4.8833928 15.923137 -0.87285918 8 6
-2.6591189 8.6867342 -0.15857257 13 7
-1.7112992 5.6502733 -1.5819021 15 0
-1.8405662 6.0885692 -1.4684805 16 1
-1.8709632 6.2047567 -1.259721 28 2
-2.4901016 8.2737017 -1.3684888 1 3
-1.856649 6.1806936 -0.79239452 28 4
-2.6040874 8.68538 -0.79329151 22 5
-2.562026 8.5668278 -0.46861619 12 6
-3.3362362 11.176925 -0.20359977 14 7
-1.6707196 5.6583762 -1.5808668 16 0
-1.7969134 6.0975313 -1.4675807 15 1
-1.8220378 6.194747 -1.2551417 28 2
-2.4008982 8.1786308 -1.3500296 8 3
-1.8078763 6.1744537 -0.78995717 30 4
-2.5361233 8.6784878 -0.79102546 27 5
-4.6365409 15.89692 -0.86783493 17 6
-1.6182703 5.6213493 -1.5674082 16 0
-1.7521383 6.0983834 -1.4648812 15 1
-1.7744222 6.1922164 -1.2520887 30 2
-5.7395988 20.042736 1.8239954 1 10
-2.3518901 8.2236824 -1.3547227 6 3
-1.7614474 6.1713452 -0.7880072 33 4
-2.4956577 8.7668829 -0.79747504 11 5
-3.1434143 11.064353 -0.60280561 27 6
-3.1621771 11.152603 -0.20234321 14 7
-1.5956731 5.6920347 -1.5839727 14 0
-1.7147743 6.1292334 -1.4693804 15 1
-1.7300938 6.2006712 -1.2513254 30 2
-2.2965438 8.2475119 -1.3559741 6 3
-1.7151315 6.1720171 -0.7865448 31 4
-3.0202429 10.898034 -0.98939192 14 5
-4.3624887 15.773384 -0.85768169 17 6
-3.0906243 11.197539 -0.20276207 14 7
-1.5477608 5.6732159 -1.5756904 14 0
-3.0324514 11.13055 0.20136586 13 8
-1.6688708 6.1297736 -1.4666809 15 1
-1.684705 6.20502 -1.249799 30 2
-2.2213454 8.1985188 -1.3453366 10 3
-1.668895 6.1723413 -0.7850824 33 4
-2.3403351 8.6796799 -0.78649336 16 5
-2.9668334 11.026159 -0.59840941 9 6
-1.5125757 5.7006888 -1.5803492 13 0
-2.9546716 11.151449 0.20136586 26 8
-1.6230434 6.129972 -1.4639815 16 1
-1.6353308 6.1938519 -1.2452196 30 2
-2.1781461 8.267312 -1.3540969 2 3
-1.6217254 6.1684837 -0.78313243 33 4
-2.9132645 11.112595 -1.00508 21 5
-3.1165218 11.896379 2.3904552 4 13
-2.8918059 11.054331 -0.59882808 9 6
-1.4732229 5.7129803 -1.5808668 14 0
-1.5782661 6.133605 -1.4621819 19 1
-1.5891222 6.1937075 -1.2429299 32 2
-2.1282153 8.3129358 -1.3591028 1 3
-1.5717431 6.1527286 -0.77972013 31 4
-2.9320025 11.511087 -1.0392451 14 5
-2.7924228 10.987142 -0.59411782 38 6
-1.4248579 5.6893935 -1.5715494 15 0
-1.5382415 6.155817 -1.4648812 15 1
-1.5382524 6.1741695 -1.236824 34 2
-1.5602208 6.2763653 -1.024333 1 3
-1.5249277 6.1481376 -0.77777022 31 4
-2.7406051 11.082559 -0.99880481 14 5
-2.708952 10.979222 -0.59265244 19 6
-1.3741515 5.6541495 -1.559126 15 0
-1.4943099 6.1626186 -1.4639815 17 1
-1.495108 6.1847591 -1.236824 36 2
-2.0341713 8.4340143 -1.3741205 1 3
-1.4819685 6.1586337 -0.77777022 31 4
-2.6548066 11.066546 -0.99566722 14 5
-2.6922028 11.248438 -0.6061551 9 6
-2.6654389 11.162428 -0.20031872 14 7
-1.3488269 5.7237759 -1.5756904 11 0
-1.4494693 6.1653118 -1.4621819 16 1
-1.4465181 6.1721082 -1.2322445 34 2
-1.9518551 8.3479881 -1.3578513 1 3
-1.4371331 6.1610966 -0.77679521 27 4
-2.025161 8.7094955 -0.78230995 11 5
-2.0124507 8.6754208 -0.46673208 12 6
-2.0175717 8.7182293 -0.15619904 8 7
-1.3062546 5.7217531 -1.5725845 12 0
-1.4011992 6.1524796 -1.4567831 18 1
-1.4051348 6.1897144 -1.233771 36 2
-1.4101138 6.2267466 -1.0111924 1 3
-3.106837 13.741359 1.7298136 2 11
-1.3905892 6.155489 -0.77484536 25 4
-2.4781442 11.005349 -0.98695159 14 5
-2.4626663 10.963394 -0.58888423 19 6
-2.4227574 10.812196 -0.19340758 33 7
-1.2621065 5.7118697 -1.5674082 11 0
-1.3582097 6.1621127 -1.4567831 15 1
-1.3585182 6.1840324 -1.2307181 36 2
-1.7513901 7.9923673 -1.2959032 9 3
-1.3458863 6.15729 -0.77387041 22 4
-1.8465296 8.4760599 -0.7589522 15 5
-2.380554 10.954947 -0.58752352 28 6
-2.3861871 11.008643 -0.19661881 13 7
-1.2157439 5.6903133 -1.559126 12 0
-1.307849 6.1371369 -1.4486848 18 1
-3.1182084 14.657422 0.78535342 4 9
-1.3104182 6.170321 -1.2261386 30 2
-1.6828564 7.9444928 -1.2862043 5 3
-1.2995816 6.1509991 -0.77192044 25 4
-1.7970086 8.5274239 -0.76243842 21 5
-2.823688 13.445851 -0.72003812 8 6
-1.1783311 5.7100143 -1.5622318 12 0
-1.2649719 6.1461177 -1.4486848 19 1
-1.2660192 6.1675596 -1.2238491 30 2
-1.6699485 8.1570272 -1.3187426 17 3
-1.2558144 6.1560316 -0.771433 25 4
-1.758882 8.6451902 -0.77185118 21 5
-2.2173681 10.928007 -0.58438331 29 6
-1.1360416 5.7008505 -1.5575731 9 0
-1.1950014 6.0131445 -1.415392 20 1
-3.0992477 15.623712 0.83475858 2 9
-1.2206428 6.1646924 -1.2215593 32 2
-1.6206145 8.2072468 -1.325 16 3
-1.2177207 6.1839132 -0.77387041 13 4
-1.6984638 8.6491413 -0.77115399 21 5
-2.1532993 11.005943 -0.58773285 19 6
-1.0761749 5.6042986 -1.529103 10 0
-1.1808432 6.1668029 -1.4495846 12 1
-1.1764433 6.1612873 -1.2192695 34 2
-1.5776434 8.286005 -1.3359504 9 3
-1.1704499 6.1708097 -0.77118921 12 4
-2.081609 11.006093 -0.97997916 21 5
-2.986649 15.836717 -0.84459776 17 6
-2.0953195 11.153157 -0.19808482 13 7
-1.0339394 5.6004572 -1.5259972 11 0
-1.1292757 6.1348472 -1.4401367 12 1
-1.1319555 6.1736078 -1.2200328 34 2
-3.0183072 16.477854 1.4656109 1 10
-1.4607342 7.9903259 -1.2865171 14 3
-1.1291103 6.1946511 -0.77313918 7 4
-2.0119128 11.081827 -0.9853828 35 5
-2.0031869 11.066729 -0.58940756 28 6
-2.004091 11.104893 -0.19696786 34 7
-1.0133758 5.7121577 -1.5544673 14 0
-1.0894735 6.159852 -1.4441857 16 1
-1.0833817 6.1504235 -1.2139269 34 2
-1.4612901 8.3213549 -1.3381406 3 3
-1.8728276 10.697742 -1.3334944 10 4
-1.8958285 10.873808 -0.96568567 27 5
-1.9029629 10.948604 -0.58239454 39 6
-1.9190047 11.075266 -0.19619995 27 7
-0.97509342 5.7286148 -1.5570555 12 0
-1.0174295 5.996314 -1.4041444 15 1
-1.0417225 6.1655812 -1.2154534 29 2
-1.3690411 8.128768 -1.3056022 24 3
-1.0395509 6.1921935 -0.77094555 4 4
-1.8322916 10.949343 -0.97126353 13 5
-2.5818248 15.494818 -0.82324463 26 6
-1.8593303 11.194918 -0.19808482 13 7
-0.93974209 5.7638826 -1.5648201 9 0
-1.8067905 11.094125 0.19619995 25 8
-0.96648091 5.9474893 -1.3910973 23 1
-0.99659467 6.1531487 -1.2116373 34 2
-1.3221819 8.1905508 -1.3140497 12 3
-1.7163504 10.679729 -1.3281323 11 4
-1.7684108 11.040561 -0.97823608 14 5
-0.97068238 6.0805588 -0.32270354 10 6
-1.7585322 11.065432 -0.19557166 13 7
-0.90078187 5.7720547 -1.5653377 12 0
-1.7286849 11.102515 0.19613016 12 8
-0.93615431 6.0194006 -1.406394 32 1
-0.94400197 6.0978713 -1.1994255 36 2
-0.93728173 6.0754995 -0.97364825 50 3
-0.92753434 6.0332775 -0.74949652 25 4
-0.92400408 6.0383792 -0.53443903 54 5
-0.92068452 6.0378261 -0.32008675 21 6
-1.6861805 11.096914 -0.19592072 13 7
-0.86388069 5.8011317 -1.5715494 10 0
-1.6575972 11.157828 0.19689806 12 8
-0.89954549 6.0624137 -1.4149421 48 1
-0.89738977 6.0771227 -1.1940827 38 2
-0.88880259 6.040854 -0.96707797 43 3
-0.88596445 6.0435343 -0.74998403 42 4
-0.88240093 6.0486255 -0.5347876 51 5
-0.88080835 6.0599184 -0.32092413 21 6
-1.6023631 11.064876 -0.1951528 13 7
-0.82227528 5.7993703 -1.5694788 10 0
-0.85610968 6.0608273 -1.4131424 58 1
-0.85439801 6.0793509 -1.1933196 31 2
-0.85647088 6.1173382 -0.97834122 20 3
-1.4821223 10.626564 -1.3174077 14 4
-1.5307803 11.031757 -0.97440118 13 5
-1.5191599 10.990276 -0.58145255 19 6
-1.5207071 11.044097 -0.19459434 13 7
-0.78073668 5.7973118 -1.5674082 11 0
-0.83528012 6.2269664 -1.4504844 14 1
-0.82284075 6.1669002 -1.2093475 29 2
-1.1012985 8.2869358 -1.3240615 3 3
-1.4013867 10.587454 -1.3113142 23 4
-1.4162836 10.757725 -0.94930029 20 5
-1.4255236 10.871893 -0.57464886 19 6
-1.447198 11.082205 -0.19508299 20 7
-0.7312023 5.7317166 -1.5482556 13 0
-0.79326391 6.2442451 -1.4531839 14 1
-0.77829129 6.1608076 -1.2070577 31 2
-1.0461299 8.3159809 -1.327503 1 3
-1.3400216 10.697433 -1.3237449 5 4
-1.6828505 13.491517 -1.1895015 20 5
-1.3572094 10.943025 -0.57789367 29 6
-1.3531286 10.957084 -0.19270948 33 7
-0.6930154 5.7520256 -1.5523967 13 0
-1.3339877 11.088345 0.19494337 37 8
-0.73990071 6.1683664 -1.4342879 14 1
-0.73540664 6.158165 -1.2055314 29 2
-0.98530281 8.2876024 -1.3218714 2 3
-1.2632152 10.688786 -1.3215513 4 4
-1.2925004 10.985976 -0.96777731 20 5
-1.2836204 10.959944 -0.57831234 9 6
-1.283075 11.021879 -0.19368681 13 7
-0.65624744 5.7777243 -1.5580908 12 0
-1.2565386 11.097387 0.19494337 12 8
-0.70052665 6.1964965 -1.4396867 17 1
-0.69151998 6.1553454 -1.2040049 27 2
-0.92522526 8.2746468 -1.3187426 1 3
-1.1905303 10.7151 -1.3237449 3 4
-1.2074512 10.91948 -0.96115357 20 5
-1.208385 10.98055 -0.57894039 9 6
-1.2091447 11.058397 -0.19417547 13 7
-0.61120921 5.7476935 -1.5487732 11 0
-0.65575755 6.197475 -1.438787 15 1
-0.6477114 6.1522131 -1.2024784 29 2
-0.86598963 8.2810555 -1.3187426 1 3
-1.1105601 10.67379 -1.3176514 9 4
-1.1410365 11.02277 -0.96952045 13 5
-1.1195661 10.889577 -0.57370681 20 6
-0.57335824 5.7748895 -1.5549849 11 0
-1.0904756 11.022503 0.19333775 24 8
-0.61209202 6.1980233 -1.4378871 14 1
-0.6032874 6.1527824 -1.2017151 31 2
-0.73261654 7.5122757 -1.1954722 2 3
-1.0375541 10.697089 -1.3196013 4 4
-0.83219409 8.6268482 -0.758255 10 5
-1.7578501 18.35672 -0.96643591 9 6
-0.53214067 5.7691326 -1.5523967 12 0
-0.56702697 6.1827397 -1.4333881 15 1
-0.56103319 6.1528358 -1.2009518 23 2
-0.75172985 8.2922087 -1.3187426 2 3
-0.68665689 7.6336212 -0.94107521 1 4
-0.98347819 10.997937 -0.96603423 13 5
-1.1822505 13.299232 -0.69973183 8 6
-0.49466679 5.7937951 -1.5580908 10 0
-0.52311677 6.1650963 -1.4284393 14 1
-0.51839679 6.1605153 -1.2017151 27 2
-0.69250816 8.2815065 -1.3162397 2 3
-0.90568733 10.992621 -0.96498835 13 5
-0.90150785 11.083705 -0.19410567 13 7
-0.45752618 5.839478 -1.5694788 11 0
-0.87252533 11.186315 0.19585089 12 8
-0.48051718 6.174427 -1.4297889 14 1
-0.47356412 6.1404948 -1.1971357 29 2
-0.63527888 8.2940178 -1.3174912 1 3
-0.65542006 8.6162138 -1.0609946 16 4
-0.64804471 8.5986757 -0.75442004 10 5
-0.81489068 10.888566 -0.57224143 30 6
-0.41647571 5.838676 -1.5684435 10 0
-0.43712753 6.1737428 -1.428889 14 1
-0.43068388 6.1436515 -1.1971357 23 2
-0.57626337 8.282486 -1.3149883 1 3
-0.59155947 8.567111 -1.0544137 9 4
-0.7477746 10.940587 -0.95941037 13 5
-0.74250853 10.947792 -0.57506758 19 6
-0.58017743 8.6211843 -0.1508237 12 7
-0.37594911 5.8452969 -1.5694788 11 0
-0.50894731 7.9565248 0.13916549 5 8
-0.39351681 6.1688652 -1.4270895 14 1
-0.38630214 6.1229963 -1.1925563 27 2
-0.51559365 8.240962 -1.3077923 8 3
-0.66092527 10.653359 -1.310583 10 4
-0.52500099 8.5591583 -0.75023663 21 5
-0.66084731 10.866983 -0.57056665 30 6
-0.51877272 8.6050634 -0.15047465 12 7
-0.33435836 5.8342786 -1.5658553 9 0
-0.35099283 6.18119 -1.4293389 14 1
-0.34376308 6.1294641 -1.1933196 31 2
-0.45749649 8.234499 -1.3062279 9 3
-0.48944733 8.893651 -1.0936555 13 4
-0.46911401 8.6063013 -0.75407147 10 5
-0.58882874 10.943131 -0.57433486 30 6
-0.59019434 11.076598 -0.193617 13 7
-0.29342791 5.8326116 -1.5648201 13 0
-0.30851266 6.1971145 -1.4324883 15 1
-0.30358145 6.1630359 -1.1994255 27 2
-0.40143532 8.237422 -1.3062279 12 3
-0.51096761 10.637755 -1.3076582 15 4
-0.40684465 8.5635929 -0.75006229 21 5
-0.50907815 10.835162 -0.56847322 30 6
-0.39524734 8.5395565 -0.14921807 8 7
-0.25279647 5.8132429 -1.559126 11 0
-0.27066949 6.300312 -1.4558831 16 1
-0.25955316 6.1414671 -1.1948459 27 2
-0.341151 8.105834 0.70979631 2 10
-0.34639275 8.2992344 -1.3156141 2 3
-0.43757084 10.617187 -1.3047333 12 4
-0.34882393 8.6100216 -0.75389719 21 5
-0.43501818 10.878365 -0.57056665 20 6
-0.21248804 5.8225884 -1.5611964 11 0
-0.22800936 6.3390498 -1.4644314 14 1
-0.21667132 6.1431293 -1.1948459 25 2
-0.28693557 8.2580185 -1.3087308 4 3
-0.2859239 8.3126202 1.0212651 3 11
-0.35263813 10.304538 -1.2659788 9 4
-0.29084638 8.6759682 -0.75947517 21 5
-0.27962601 8.473753 -0.44433233 13 6
-0.35639766 10.974542 -0.19166233 13 7
-0.17114985 5.8007584 -1.5549849 11 0
-0.18499386 6.3833418 -1.4743292 14 1
-0.17355397 6.1366425 -1.1933196 25 2
-0.23025942 8.2953625 -1.3143625 2 3
-0.22897282 8.4077187 -1.0327208 19 4
-0.23215586 8.6352024 1.368176 4 12
-0.23227794 8.7534704 -0.76609892 10 5
-0.28382114 10.91133 -0.57203203 20 6
-0.2814993 11.04473 -0.19284908 13 7
-0.13025732 5.7844296 -1.5503261 12 0
-0.13918252 6.3279777 -1.461282 14 1
-0.13071083 6.1377048 -1.1933196 25 2
-0.17103241 8.2335691 -1.3043507 12 3
-0.16910887 8.3515568 -1.0256525 9 4
-0.17505173 8.9540806 -0.78353012 11 5
-0.20922929 10.996916 -0.57642829 19 6
-0.091396719 5.8180189 -1.559126 12 0
-0.095129587 6.2644773 -1.4464353 14 1
-0.088929683 6.1384521 -1.1933196 23 2
-0.11545308 8.2681217 -1.3096695 5 3
-0.14158057 10.672902 -1.310583 7 4
-0.1097118 8.6104078 -0.75337422 26 5
-0.10714447 8.769311 -0.45961443 38 6
-0.1266685 10.995596 -0.19194156 19 7
-0.049929589 5.837842 -1.5643023 11 0
-0.050534271 6.2942281 -1.4531839 16 1
-0.046014111 6.1310711 -1.1917931 21 2
-0.056298267 8.2707109 -1.3099824 4 3
-0.089605503 13.510241 1.6588856 3 11
-0.057262588 9.1133785 -1.1190044 2 4
-0.076452613 12.883181 2.0405314 4 12
-0.049964372 8.6747198 -0.7589522 26 5
-0.06508375 12.028684 2.3381736 2 13
-0.044228241 8.7378969 -0.45793965 12 6
-0.0091637019 5.8341851 -1.5632671 11 0
-0.01354109 11.084304 0.19347738 12 8
-0.0065604304 6.2651963 -1.4464353 15 1
-0.0021381259 6.1175003 -1.1891217 17 2
0.0014296414 8.2136164 -1.3009092 4 3
0.006420393 9.1969318 -1.1292415 1 4
0.015447091 11.063729 -0.96795171 13 5
0.020923516 10.899023 -0.57119471 10 6
0.021063125 8.6206617 -0.15047465 8 7
0.031545907 5.8302431 -1.5622318 12 0
0.06374485 11.068131 0.19319814 12 8
0.037248433 6.276782 -1.4491347 14 1
0.040625129 6.1252189 -1.1906482 17 2
0.05895913 8.2390852 -1.3049763 9 3
0.08244127 10.735064 -1.318139 4 4
0.10307013 10.935849 -0.19089442 26 7
0.072340876 5.8376074 -1.5643023 12 0
0.14091152 11.059418 0.19305852 12 8
0.081719086 6.3270316 -1.4608321 14 1
0.083439685 6.1287127 -1.1914115 14 2
0.11681248 8.2621756 -1.3087308 1 3
0.12406222 8.4615383 -1.0390581 11 4
0.12832943 8.4507418 -0.7394293 30 5
0.13693586 8.6210804 -0.45186871 25 6
0.18289162 11.146802 -0.19459434 13 7
0.11256938 5.8099194 -1.5570555 12 0
0.12449236 6.256166 -1.4446357 12 1
0.12491122 6.1162252 -1.1891217 17 2
0.17184509 8.2039156 -1.2996577 4 3
0.1833856 8.4723749 -1.0405205 19 4
0.18930671 8.5392761 -0.74727333 10 5
0.19565584 8.6219463 -0.45197338 25 6
0.15191144 5.8012943 -1.5549849 12 0
0.16624144 6.2240052 -1.4374373 14 1
0.16777176 6.1210918 -1.1902666 14 2
0.22928442 8.2084398 -1.3005962 3 3
0.23292395 8.1851931 -1.0054221 19 4
0.24777782 8.5497389 -0.74831921 21 5
0.25744334 8.6742716 -0.4547995 12 6
0.26061413 8.6287508 -0.15068409 12 7
0.19285676 5.8136072 -1.5586084 13 0
0.20995164 6.2304835 -1.4392369 14 1
0.21023573 6.143353 -1.1948459 14 2
0.28665748 8.2501221 -1.3074795 2 3
0.30419156 8.5821209 -1.0544137 20 4
0.30831555 8.5716944 -0.75041097 21 5
0.31604436 8.6603422 -0.45417148 12 6
0.31832495 8.5587778 -0.1494973 24 7
0.23335065 5.8353238 -1.5648201 9 0
0.2524353 6.2308569 -1.4396867 16 1
0.25239173 6.1240821 -1.1914115 17 2
0.34325868 8.2242355 -1.303725 3 3
0.35748827 8.458868 -1.0395457 16 4
0.36712354 8.5454464 -0.74831921 10 5
0.68158239 15.673657 -0.82219797 17 6
0.37217525 8.4565258 -0.14775208 23 7
0.2727232 5.8046064 -1.5570555 10 0
0.29509643 6.2114239 -1.4356377 15 1
0.29466411 6.1123657 -1.1895033 12 2
0.39316645 8.0677414 -1.2793212 20 3
0.41428736 8.4105644 -1.0339396 20 4
0.44735119 8.9545851 -0.78440166 27 5
0.43491787 8.6151915 -0.45207804 12 6
0.56281626 11.033972 -0.19284908 13 7
0.31219897 5.7832704 -1.551879 9 0
0.33898348 6.2189422 -1.4378871 16 1
0.33700755 6.1042781 -1.1883584 17 2
0.44585282 7.9997144 -1.2689966 13 3
0.47121003 8.3757563 -1.0300398 21 4
0.61691952 10.831006 -0.94912601 20 5
0.49024254 8.5281982 -0.44768184 13 6
0.48349863 8.3347168 -0.14572759 22 7
0.35350424 5.7963767 -1.5560201 10 0
0.67615968 11.023601 0.19277929 12 8
0.3829869 6.2261491 -1.4401367 14 1
0.38034666 6.1135335 -1.1906482 17 2
0.51702815 8.2408724 -1.3077923 8 3
0.5363152 8.4772625 -1.0429579 6 4
0.54448056 8.5120239 -0.74622744 15 5
0.70349807 10.908338 -0.57286942 20 6
0.39134082 5.755219 -1.5456674 10 0
0.42724359 6.2349892 -1.4428362 14 1
0.42274383 6.1068125 -1.1898849 17 2
0.57495612 8.2429743 -1.3087308 2 3
0.75335401 10.692993 -1.3161889 4 4
0.77881098 10.972378 -0.96237373 27 5
0.78362417 10.958941 -0.57580024 29 6
0.79915243 11.067495 -0.19368681 13 7
0.42845848 5.6983323 -1.5311736 10 0
0.47464469 6.2686925 -1.4513842 16 1
0.46477008 6.0958819 -1.1883584 14 2
0.63513911 8.2544041 -1.3112338 2 3
0.8266018 10.669662 -1.3139954 6 4
0.85105544 10.911054 -0.95749295 13 5
0.86014402 10.92916 -0.57454419 30 6
0.47329527 5.756814 -1.547738 9 0
0.51630783 6.2399783 -1.4455354 15 1
0.50903237 6.1002259 -1.1898849 14 2
0.69671732 8.2970114 -1.3187426 1 3
0.90107 10.663631 -1.3139954 6 4
0.92720306 10.904847 -0.95749295 13 5
0.93898201 10.952738 -0.57611424 19 6
0.94500953 10.955645 -0.19194156 13 7
0.51536292 5.7745352 -1.553432 9 0
0.56003278 6.238163 -1.4459854 16 1
0.55177963 6.1103072 -1.1925563 14 2
0.73388267 8.0796118 -1.2849529 11 3
0.979294 10.698593 -1.3191139 2 4
0.82029277 8.9101419 -0.78283286 11 5
1.0081732 10.888419 -0.57307881 30 6
0.55447221 5.76897 -1.5529144 10 0
0.60398138 6.2497239 -1.4495846 17 1
0.59537518 6.1160755 -1.1944643 17 2
0.78892034 8.0605307 -1.2827629 13 3
0.81356543 8.2676802 -1.0200466 19 4
1.0656196 10.752051 -0.94529116 13 5
1.0861443 10.900989 -0.57412547 30 6
0.58323282 5.6535034 -1.5228913 11 0
0.64980584 6.2666769 -1.4545335 14 1
0.63602042 6.0922441 -1.1906482 17 2
0.85197687 8.1196575 -1.2930875 10 3
0.92206252 8.7434893 -1.0795188 6 4
1.1566374 10.894926 -0.95853883 13 5
1.6660901 15.615821 -0.82303536 8 6
1.174034 10.949562 -0.19222081 33 7
0.63221473 5.7357035 -1.5461851 13 0
0.69225556 6.2503662 -1.4518342 15 1
0.68005621 6.1013131 -1.1933196 19 2
0.9266656 8.2744856 -1.3187426 1 3
1.1943914 10.614796 -1.3115579 7 4
1.2425333 10.973694 -0.96620852 13 5
1.2319151 10.829198 -0.57119471 20 6
1.2486312 10.925204 -0.19194156 13 7
0.67494267 5.7541742 -1.5523967 19 0
0.73724264 6.2569928 -1.4545335 15 1
0.72286594 6.0983667 -1.1937011 14 2
0.97367054 8.1775846 -1.3043507 2 3
0.99832004 8.3473797 -1.0322334 7 4
1.0682847 8.8798084 -0.78248423 11 5
1.8820436 15.575173 -0.82219797 17 6
1.3369195 11.015478 -0.19368681 13 7
0.71867198 5.778079 -1.5601612 14 0
0.77849132 6.2323565 -1.4500345 14 1
0.76762819 6.110703 -1.1971357 19 2
1.0208476 8.0921936 -1.291836 4 3
1.0480889 8.2732487 -1.0239463 14 4
1.0950104 8.6074839 -0.75912648 21 5
1.9887056 15.545806 -0.82136059 26 6
0.76125944 5.7901587 -1.5648201 12 0
0.82554996 6.253818 -1.4563332 14 1
0.80920178 6.1053367 -1.1971357 19 2
1.0920575 8.206461 -1.3112338 1 3
1.4193263 10.609097 -1.3142391 4 4
1.4754727 10.985015 -0.96969479 13 5
1.1501336 8.5289907 -0.4510313 25 6
1.1580349 8.5425529 -0.15047465 12 7
0.80065697 5.7848425 -1.5648201 13 0
0.86810231 6.2480536 -1.4563332 15 1
0.84610313 6.0587063 -1.1891217 14 2
1.1548074 8.2377625 -1.3174912 2 3
1.4915024 10.599192 -1.3142391 4 4
1.194914 8.4593906 -0.74744761 26 5
1.1843799 8.3427858 -0.44161084 13 6
1.5682178 11.005136 -0.19403586 13 7
0.83796018 5.7580833 -1.559126 15 0
0.91338766 6.2534108 -1.4590325 13 1
0.89102584 6.0780592 -1.1940827 19 2
1.2074029 8.2062588 -1.3137368 1 3
1.5733063 10.641541 -1.32082 3 4
1.2191432 8.2163153 -0.72670454 10 5
1.9795351 13.292973 -0.70433736 8 6
0.88601059 5.8036556 -1.5731021 12 0
0.94846445 6.1910205 -1.4459854 16 1
0.93509388 6.0754085 -1.1948459 23 2
1.2739342 8.248167 -1.3218714 1 3
1.3049097 8.4194946 -1.0461266 9 4
1.3174485 8.46134 -0.74919075 31 5
1.70587 10.918377 -0.57914978 29 6
1.3389144 8.5403671 -0.15089351 20 7
0.92406714 5.7820678 -1.5689611 12 0
0.99413121 6.1996408 -1.4495846 16 1
0.97873431 6.0764856 -1.1963725 27 2
1.3270743 8.211771 -1.3174912 2 3
1.3754127 8.4826813 -1.0551448 14 4
1.3908956 8.5404291 -0.75703478 15 5
1.3949122 8.5369177 -0.45333412 12 6
0.96536285 5.7811923 -1.5705141 15 0
1.0518743 6.279038 -1.4698302 15 1
1.0204809 6.0656323 -1.1956092 34 2
1.3863434 8.2139931 -1.3193684 2 3
1.7964805 10.610174 -1.3213075 3 4
1.4471452 8.5108681 -0.75529164 10 5
1.4437306 8.4639683 -0.44998461 25 6
1.8607246 10.874272 -0.19256985 13 7
1.0037136 5.7628927 -1.5674082 14 0
1.0862968 6.2177901 -1.457233 15 1
1.0634776 6.0622287 -1.1963725 31 2
1.4422809 8.1963339 -1.318117 1 3
1.4930222 8.4587412 -1.0546573 24 4
1.911582 10.786076 -0.95836449 33 5
1.5013869 8.4458179 -0.44956589 13 6
1.0439217 5.7557445 -1.5674082 11 0
1.1370032 6.2503185 -1.4666809 17 1
1.1093041 6.0739684 -1.2001886 21 2
1.4873698 8.1200008 -1.3074795 9 3
1.9458822 10.591866 -1.3222824 2 4
1.9918159 10.810042 -0.96167642 13 5
2.432193 13.148591 -0.70077848 8 6
1.0822861 5.7388248 -1.5648201 13 0
1.1806078 6.2422285 -1.4666809 16 1
1.1535467 6.0817084 -1.2032416 29 2
1.5558912 8.1795492 -1.3187426 1 3
1.622898 8.4994659 -1.0624571 7 4
2.0822239 10.874146 -0.96864891 27 5
2.0561087 10.70741 -0.57140404 30 6
2.1100035 10.946805 -0.19459434 13 7
1.1213267 5.7313247 -1.5648201 14 0
1.2140688 6.1881523 -1.4558831 16 1
