# .PCD v0.7 - Point Cloud Data file format
VERSION 0.7
FIELDS x y z intensity ring
SIZE 4 4 4 4 2
TYPE F F F F U
COUNT 1 1 1 1 1
WIDTH 1308
HEIGHT 1
VIEWPOINT 0 0 0 1 0 0 0
POINTS 1308
DATA ascii
-7.6664424 6.68786 1.9775445 3 13
-4.3366985 3.8125637 -1.5472202 8 0
-4.8246298 4.2460065 -1.4837772 17 1
-7.6558428 6.7400393 0.53455955 2 9
-5.2855258 4.656539 -1.3692454 7 2
-7.6160412 6.7144423 0.8882913 1 10
-5.8727617 5.1793566 -1.2402126 12 3
-7.6218524 6.7266607 1.248186 2 11
-6.540781 5.7766247 -1.0714754 15 4
-7.560318 6.6793985 1.5978218 3 12
-7.2334914 6.3951502 -0.84471345 11 5
-7.5695701 6.6969905 1.9645696 3 13
-7.176023 6.3510394 -0.50221592 11 6
-4.3019934 3.8342819 -1.5441145 8 0
-6.6349978 5.9178028 0.1551868 21 8
-4.7956176 4.2787471 -1.4837772 21 1
-7.5341101 6.7268128 0.5293259 2 9
-5.2309284 4.6737051 -1.3635212 5 2
-7.489944 6.6944304 0.87887847 1 10
-5.8482389 5.2307653 -1.2427155 10 3
-7.4474998 6.6658521 1.2272245 2 11
-6.4451103 5.7706943 -1.0622133 14 4
-7.4164033 6.6450167 1.5771725 3 12
-7.1096759 6.3724298 -0.83530062 11 5
-7.4156599 6.6513567 1.9363298 3 13
-7.0542192 6.3316092 -0.49677294 23 6
-4.2521892 3.8434968 -1.5358323 8 0
-4.7439537 4.292511 -1.4770286 14 1
-6.4397774 5.8289995 0.45521817 18 9
-5.1640725 4.6775708 -1.3543624 9 2
-7.3396902 6.6528912 0.86667669 1 10
-5.7803049 5.2412605 -1.2358325 10 3
-7.3343291 6.6550303 1.2160125 2 11
-6.3987894 5.8102098 -1.0612383 14 4
-7.2861915 6.61831 1.5590261 1 12
-7.050272 6.4085054 -0.83355749 11 5
-7.3109527 6.6501217 1.9210651 3 13
-6.9489145 6.3230219 -0.49237671 23 6
-4.2145348 3.8619092 -1.5316912 8 0
-4.7160625 4.3260193 -1.4774785 21 1
-7.2493701 6.6544704 0.51571852 2 9
-5.0879164 4.6736636 -1.3429137 13 2
-6.2819624 5.7725158 0.74640173 1 10
-5.6999516 5.2413721 -1.2264463 12 3
-7.2117314 6.6361723 1.203338 2 11
-6.3620133 5.8563204 -1.0617259 15 4
-7.1991301 6.6315398 1.5502658 3 12
-7.1601577 6.6025772 1.8932071 4 13
-6.8356137 6.3077226 -0.48745713 24 6
-4.2002072 3.9030738 -1.5363499 9 0
-4.6486483 4.3243284 -1.4657811 15 1
-7.1658916 6.6682858 0.51299709 2 9
-5.0387449 4.6921325 -1.3383343 13 2
-6.2298493 5.8053637 0.74500728 1 10
-5.6583633 5.274662 -1.2251948 11 3
-7.0909119 6.6146951 1.1906636 2 11
-6.3035588 5.8843384 -1.0588009 12 4
-7.0412107 6.5752292 1.525862 3 12
-7.0264153 6.5706048 1.8699282 3 13
-6.6860452 6.2545023 -0.47981608 24 6
-4.1651068 3.923624 -1.5332441 9 0
-4.5935869 4.3318038 -1.4576828 19 1
-7.011672 6.6167135 0.50525135 2 9
-4.9459143 4.6705823 -1.3223064 13 2
-6.9549112 6.5700374 0.8370437 1 10
-5.5467548 5.2434716 -1.2089256 10 3
-6.0452003 5.718657 1.0217527 6 11
-6.1768498 5.8452415 -1.0441767 13 4
-6.9062061 6.5400152 1.506464 1 12
-6.9060135 6.5466948 1.8497025 2 13
-6.5610757 6.22405 -0.47395447 24 6
-4.1292305 3.9446011 -1.5301383 9 0
-4.5604153 4.3610749 -1.4567831 20 1
-6.9162474 6.6185513 0.50169253 2 9
-4.91886 4.7104278 -1.3238329 11 2
-6.8484483 6.5605431 0.82972264 1 10
-5.4929032 5.2656627 -1.2051712 11 3
-6.851747 6.5728855 1.1658022 2 11
-6.11584 5.8689785 -1.0407642 11 4
-6.7891421 6.5196571 1.4908206 3 12
-6.8077755 6.5444059 1.8355827 3 13
-6.442616 6.1977015 -0.46851152 12 6
-4.0904922 3.9625783 -1.5259972 10 0
-4.44732 4.3127632 -1.4302388 25 1
-6.8039403 6.6026926 0.49687761 2 9
-4.8576865 4.7172985 -1.3162005 9 2
-6.7110181 6.5193448 0.81856668 1 10
-5.4135151 5.2625756 -1.1957852 13 3
-6.7288585 6.5458117 1.1526403 2 11
-6.0974803 5.9336839 -1.0446641 12 4
-6.6981754 6.5227928 1.4808089 3 12
-6.6916318 6.5232496 1.8165017 3 13
-6.3705978 6.2146354 -0.46641809 12 6
-6.6027761 6.4456286 2.1302865 2 14
-4.0572171 3.9856224 -1.5239266 10 0
-4.4365563 4.3628345 -1.4365374 24 1
-6.6865001 6.579987 0.491644 2 9
-4.7896638 4.7166586 -1.3066601 13 2
-6.5972118 6.4989233 0.8101998 1 10
-5.3597631 5.2835979 -1.1920308 11 3
-6.6123347 6.5229259 1.1404535 2 11
-6.0587344 5.9788947 -1.0451516 11 4
-6.5709505 6.488893 1.4626625 3 12
-5.6881313 5.6229839 1.5547118 7 13
-6.2276635 6.1606359 -0.45909104 12 6
-6.480062 6.4147916 2.105092 2 14
-4.0251865 4.0097609 -1.5223737 8 0
-4.3963299 4.3840704 -1.4333881 16 1
-6.5640578 6.550324 0.48599172 2 9
-4.7357821 4.7291713 -1.3009357 11 2
-6.4671063 6.4603372 0.79974109 1 10
-5.2836285 5.2817841 -1.1832705 11 3
-6.4936581 6.4959249 1.127779 2 11
-5.9915881 5.9957714 -1.0407642 11 4
-6.4417424 6.4507413 1.4438903 2 12
-6.4515409 6.4673223 1.7756686 2 13
-6.1337423 6.1530399 -0.45532289 12 6
-6.3773556 6.4018908 2.0861959 2 14
-3.9957368 4.0363903 -1.521856 9 0
-4.3354712 4.3841701 -1.4234902 21 1
-6.4423594 6.5192771 0.48033947 2 9
-4.6778188 4.7369747 -1.2940667 10 2
-6.3938522 6.4769697 0.79625487 1 10
-5.2161064 5.2876043 -1.1763873 11 3
-6.3784719 6.4704151 1.115592 2 11
-5.683455 5.7673955 -0.99421012 9 4
-6.3272481 6.4251809 1.4282467 4 12
-6.3346405 6.4394279 1.7558244 2 13
-6.0458317 6.1501341 -0.45197338 12 6
-6.2860756 6.3989892 2.0708995 2 14
-3.9499156 4.046217 -1.5151267 8 0
-6.4009519 6.5615883 0.16000366 7 8
-4.2829895 4.3920088 -1.4162918 19 1
-6.3799634 6.5469275 0.47908339 2 9
-4.6350474 4.7596698 -1.2913953 14 2
-6.2511964 6.4215131 0.78405303 1 10
-5.1101956 5.2530928 -1.160744 16 3
-6.2750282 6.4550071 1.105355 2 11
-5.8547211 6.0247455 -1.0315022 12 4
-6.2492099 6.4351859 1.420738 2 12
-6.2608232 6.4539032 1.7478106 2 13
-5.9221182 6.1090169 -0.44590241 13 6
-6.1788793 6.3783321 2.0502038 2 14
-5.3589473 5.5377369 2.0648584 0 15
-3.9215722 4.0736933 -1.5151267 8 0
-4.2144017 4.382472 -1.4036945 21 1
-6.2399974 6.4933825 0.4719657 2 9
-4.5581913 4.7465992 -1.2791836 16 2
-6.1482635 6.4046316 0.77673197 1 10
-5.106216 5.3228545 -1.1682527 11 3
-6.1776109 6.4442019 1.0960929 2 11
-5.8358645 6.089838 -1.0356457 9 4
-6.1276226 6.3987598 1.4032173 2 12
-6.1423302 6.4208446 1.727203 2 13
-5.8186007 6.086688 -0.44129682 13 6
-6.0991993 6.3846779 2.0385065 2 14
-3.8850582 4.0925646 -1.5120209 8 0
-4.1783414 4.4061303 -1.4018949 20 1
-6.0983458 6.435307 0.46463865 2 9
-4.5127931 4.7654757 -1.275749 12 2
-6.0595694 6.4010973 0.77115399 1 10
-5.0227776 5.3095808 -1.1576152 12 3
-6.0670152 6.4179311 1.0843935 2 11
-5.8654704 6.2068987 -1.0485638 6 4
-6.0475388 6.4040408 1.3950827 2 12
-6.040772 6.4035916 1.7111752 2 13
-5.7348647 6.0835633 -0.43815669 13 6
-5.9647179 6.3296056 2.0079131 2 14
-3.8484693 4.1111264 -1.5089152 8 0
-4.0929055 4.3768363 -1.383449 24 1
-6.029851 6.4504037 0.46275455 2 9
-4.4668493 4.7817369 -1.2719328 10 2
-5.957633 6.3820758 0.76383299 1 10
-4.9865198 5.3436465 -1.1576152 12 3
-5.9636202 6.3951998 1.073669 2 11
-5.6081719 6.0182352 -1.0100532 19 4
-5.9257135 6.3612242 1.3769363 2 12
-5.9263873 6.3708582 1.691331 2 13
-5.6253176 6.0493283 -0.43292308 13 6
-5.8858953 6.3339758 1.9962157 2 14
-3.7941861 4.1088405 -1.4985623 13 0
-4.0550919 4.395999 -1.3807496 24 1
-5.9251089 6.4277301 0.45814902 2 9
-4.4040952 4.7810354 -1.2635372 14 2
-5.8546691 6.3579917 0.75616324 1 10
-4.8541245 5.2751217 -1.1354015 11 3
-5.846272 6.3577704 1.0605072 1 11
-5.5831976 6.0738063 -1.0129781 12 4
-5.825036 6.3413363 1.3637959 2 12
-5.8350997 6.3589749 1.6775929 2 13
-5.507359 6.0060163 -0.42706147 13 6
-5.7730718 6.3002009 1.9728208 2 14
-3.7484999 4.1166596 -1.4918331 11 0
-5.429039 5.9664354 0.14080602 21 8
-4.0085678 4.4069028 -1.3753507 24 1
-5.829042 6.4127746 0.45417148 2 9
-4.3415699 4.7796946 -1.2551417 10 2
-5.7378159 6.319057 0.74675041 1 10
-4.8636389 5.3600836 -1.1463519 12 3
-5.7537398 6.345489 1.0517325 1 11
-5.3553467 5.9081969 -0.97909838 21 4
-5.7037058 6.2969341 1.3456494 2 12
-5.3561854 5.9174161 -0.69829178 34 5
-5.7273364 6.32968 1.6592751 2 13
-5.3206263 5.8843198 -0.41575688 13 6
-5.684526 6.2911897 1.9575242 2 14
-5.3588815 5.9328694 -0.13954943 33 7
-3.7093432 4.1312284 -1.4876919 11 0
-5.3578739 5.9714456 0.1400381 47 8
-3.968596 4.4246259 -1.3722014 21 1
-5.7254777 6.3878717 0.44956589 2 9
-4.2832084 4.7821021 -1.2478909 16 2
-5.6377425 6.2966161 0.7394293 1 10
-4.794487 5.3585758 -1.1388431 12 3
-5.6722522 6.3440681 1.0449078 2 11
-5.321908 5.9543195 -0.98056084 28 4
-5.628027 6.3012409 1.3381406 2 12
-5.3051672 5.9418483 -0.69689733 47 5
-5.6150422 6.2933321 1.6394309 1 13
-5.3113146 5.9571013 -0.41826901 40 6
-5.6130476 6.2977309 1.9476261 2 14
-5.3253102 5.9790978 -0.13975887 45 7
-3.6483977 4.120863 -1.474751 13 0
-5.3263803 6.018259 0.14028244 42 8
-3.9195366 4.431787 -1.3659029 22 1
-5.6183648 6.3548722 0.44454166 2 9
-4.2479596 4.8082023 -1.2471277 14 2
-5.5488114 6.2850404 0.73350269 2 10
-4.7160749 5.3436918 -1.1288313 9 3
-5.5501571 6.2932019 1.0302836 2 11
-5.293334 6.0062208 -0.98299813 9 4
-5.511878 6.2563992 1.3206199 2 12
-5.5320668 6.2881589 1.6279825 2 13
-5.2640491 5.9856167 -0.41774565 27 6
-5.4917574 6.2489376 1.920632 2 14
-3.5961196 4.1179538 -1.4649159 16 0
-3.8803117 4.4480834 -1.3627534 24 1
-5.5476136 6.3638301 0.44244823 2 9
-4.1923652 4.8125768 -1.2406402 12 2
-5.4483304 6.2565522 0.725833 2 10
-4.6164093 5.3049593 -1.1138135 13 3
-5.4591947 6.2778687 1.0215088 1 11
-5.1885138 5.9687023 -0.97105503 14 4
-5.4136596 6.2320919 1.3074795 2 12
-5.4453893 6.2752519 1.6150075 2 13
-5.1789532 5.972425 -0.41429147 13 6
-5.4224758 6.257669 1.911634 2 14
-3.592494 4.1722383 -1.4752686 13 0
-5.5039892 6.3967185 0.14729832 6 8
-3.8301024 4.4529042 -1.356005 22 1
-5.4379568 6.326673 0.43721461 2 9
-4.1497111 4.8313017 -1.2379688 14 2
-5.3603911 6.2430406 0.71990639 2 10
-4.556109 5.3100724 -1.1081818 13 3
-5.3480449 6.2374649 1.0088346 1 11
-5.0898781 5.9384608 -0.96033055 12 4
-5.3263292 6.2187243 1.2968419 2 12
-5.3401828 6.2415104 1.5966897 1 13
-5.0852141 5.9477148 -0.4101046 13 6
-5.3432145 6.2538862 1.8990368 2 14
-3.5620284 4.1957445 -1.474751 8 0
-5.4126263 6.3800921 0.14604174 6 8
-3.8064845 4.4884524 -1.3587044 21 1
-5.3936558 6.3644824 0.43721461 2 9
-4.1044626 4.8466706 -1.2345343 20 2
-5.2806306 6.2377319 0.71502572 1 10
-4.4832034 5.2995229 -1.0994215 13 3
-5.2889895 6.2564573 1.0059097 2 11
-5.0175447 5.9374609 -0.95448077 14 4
-5.226707 6.1893516 1.2830757 2 12
-5.2686296 6.2456264 1.5882941 2 13
-4.9972281 5.9280939 -0.4063364 13 6
-5.2215834 6.1986308 1.871143 2 14
-3.4892511 4.1686606 -1.4566337 16 0
-5.3217664 6.362505 0.14478517 5 8
-3.7625561 4.4999671 -1.3542054 20 1
-5.2492042 6.2824335 0.42905018 2 9
-4.0227118 4.8179402 -1.2200328 12 2
-5.2012072 6.231617 0.710145 1 10
-4.451158 5.3367605 -1.100673 15 3
-5.1790934 6.2139349 0.99323523 1 11
-4.9251437 5.9113407 -0.94473124 12 4
-5.1505075 6.1862197 1.2749411 2 12
-5.1771941 6.2248974 1.5737926 2 13
-4.9199758 5.9198279 -0.40340558 13 6
-5.165731 6.2199416 1.8666438 2 14
-3.4428492 4.1720581 -1.4493867 15 0
-5.2314205 6.3439598 0.14352858 5 8
-3.7508817 4.5501842 -1.3614038 21 1
-5.179822 6.2880921 0.42695674 2 9
-3.9939692 4.8519702 -1.2215593 10 2
-5.0993443 6.1970043 0.70212668 1 10
-4.3987365 5.3493967 -1.0969186 15 3
-5.0912967 6.1938372 0.98446059 1 11
-4.8434348 5.8964939 -0.93693155 12 4
-5.0896478 6.2006502 1.270561 2 12
-5.0688791 6.1819453 1.5539485 1 13
-4.8506794 5.9200444 -0.40110281 13 6
-5.0763497 6.1976709 1.8495475 2 14
-4.9704189 6.0748267 2.1031637 1 15
-3.4277847 4.2118783 -1.4550807 12 0
-5.1553125 6.3390846 0.14262106 5 8
-3.6571286 4.4984932 -1.3384588 26 1
-5.1117134 6.292201 0.42486331 2 9
-3.950953 4.8668475 -1.2185063 14 2
-4.9992895 6.1604075 0.69410831 2 10
-4.3248982 5.3331828 -1.0875325 13 3
-4.9990158 6.1666665 0.97471106 1 11
-4.7744474 5.8938484 -0.93132555 16 4
-5.0050659 6.1829481 1.2599235 2 12
-4.997056 6.179667 1.5447898 1 13
-4.7701015 5.9032135 -0.3977533 13 6
-4.9728198 6.1562843 1.8270525 2 14
-4.9192486 6.0964909 2.0990226 1 15
-3.3603435 4.1868992 -1.4385163 12 0
-5.0194621 6.2585921 0.1400381 5 8
-3.5983896 4.4883108 -1.3281111 19 1
-4.9863467 6.2239747 0.41795498 2 9
-3.895649 4.8660417 -1.2116373 12 2
-4.9323425 6.1631823 0.69062209 1 10
-4.2477822 5.3115883 -1.0772078 12 3
-4.9271765 6.1633391 0.96886134 1 11
-4.6735106 5.8502116 -0.91938239 19 4
-4.9258914 6.1705589 1.2505373 2 12
-4.9181552 6.1674881 1.5333412 1 13
-4.6800213 5.8730669 -0.39356643 13 6
-4.9016595 6.1534081 1.8162549 2 14
-4.8403482 6.082972 2.0829759 2 15
-3.3017938 4.1718054 -1.4255754 15 0
-4.9891496 6.3082972 0.14038716 5 8
-3.5605035 4.5035281 -1.3254116 19 1
-4.9265289 6.2358332 0.41648957 2 9
-3.850271 4.8770366 -1.207821 12 2
-4.8557167 6.1528211 0.68574136 2 10
-4.2445564 5.3822584 -1.0856553 13 3
-4.8310351 6.1281419 0.95813686 1 11
-4.6016421 5.8413448 -0.91304523 18 4
-4.8104668 6.1108141 1.2317652 2 12
-4.8323755 6.1452622 1.5196029 2 13
-4.6053834 5.8608146 -0.39063561 12 6
-4.8187351 6.1345234 1.8009582 2 14
-4.7666345 6.0747409 2.0689995 5 15
-3.2758756 4.2019911 -1.4276459 16 0
-4.8641219 6.2437406 0.13815325 5 8
-3.517817 4.5172071 -1.3218124 18 1
-4.8365307 6.2150326 0.41272137 2 9
-3.7927237 4.8772326 -1.2009518 14 2
-4.7664661 6.1316195 0.67946619 1 10
-4.0559349 5.2213469 -1.0471724 6 3
-4.7556982 6.1265893 0.95228714 0 11
-4.5246248 5.8310065 -0.9062205 17 4
-4.7389131 6.1115689 1.224882 2 12
-4.7463241 6.1277485 1.5066279 2 13
-4.513401 5.8312368 -0.38644874 12 6
-4.7582507 6.152019 1.7955593 3 14
-4.6748438 6.050725 2.0488117 6 15
-3.2299807 4.2033129 -1.4203991 16 0
-4.805799 6.2585135 0.13773438 5 8
-3.4861951 4.541656 -1.3218124 21 1
-4.7152267 6.1472235 0.4060224 2 9
-3.727529 4.8630795 -1.1910298 14 2
-4.6823421 6.1109743 0.67353958 2 10
-4.0446033 5.2824726 -1.0537428 11 3
-4.6886854 6.128109 0.94741231 1 11
-4.4476271 5.8151488 -0.89890838 17 4
-4.6529479 6.0880027 1.2136188 2 12
-4.7936683 6.2766633 -0.69097072 9 5
-4.6486268 6.0889535 1.4890735 2 13
-4.5210385 5.9261212 -0.39063561 12 6
-4.6395755 6.0859017 1.7667656 3 14
-4.6102529 6.0540094 2.0389764 3 15
-3.2215519 4.25348 -1.4297165 14 0
-4.7064767 6.2185645 0.13612877 4 8
-3.414427 4.5130444 -1.3065157 14 1
-4.6721964 6.1799917 0.4060224 2 9
-3.68402 4.876452 -1.1879768 12 2
-4.6011424 6.0926366 0.6679616 1 10
-4.037374 5.3499994 -1.0615644 13 3
-4.5764666 6.0687661 0.93327552 1 11
-4.3710732 5.7985029 -0.8915962 18 4
-4.6150866 6.1266494 1.2148702 2 12
-4.3049932 5.7170677 -0.62612689 8 5
-4.582396 6.0898833 1.4814411 2 13
-4.602726 6.1235723 1.7685652 3 14
-4.5238061 6.0273371 2.0193064 3 15
-3.1594219 4.2325206 -1.4152226 14 0
-4.6472998 6.2280173 0.1356401 4 8
-3.3991456 4.5586433 -1.3128144 19 1
-4.630022 6.2116513 0.4060224 2 9
-3.676542 4.9360547 -1.1963725 10 2
-4.5299454 6.0862508 0.66377813 2 10
-4.0126553 5.3932052 -1.0646931 13 3
-4.5161009 6.0742874 0.92937571 1 11
-4.299706 5.787447 -0.88525897 16 4
-4.4460778 5.9866476 1.1810803 2 12
-4.5163798 6.0901871 1.4738088 2 13
-4.5065045 6.0835247 1.7478697 3 14
-4.4470544 6.0098467 2.0032594 2 15
-3.1431339 4.2710423 -1.4209166 12 0
-4.5444694 6.1797624 0.13389486 4 8
-3.3287933 4.5282898 -1.2975177 20 1
-4.4683032 6.082859 0.3955552 2 9
-3.6013322 4.9062085 -1.1830158 14 2
-4.4648395 6.0848179 0.66029191 1 10
-3.918839 5.3446226 -1.0496755 13 3
-4.4313478 6.0480218 0.92060113 1 11
-4.2273688 5.771739 -0.8784343 18 4
-4.4391747 6.0653625 1.1904664 2 12
-4.4053001 6.0256958 1.4509118 2 13
-4.4616251 6.1116896 1.7469698 3 14
-4.3776717 6.0032845 1.9908361 2 15
-3.0928276 4.2647305 -1.4115992 12 0
-4.4566288 6.1498055 0.13256848 4 8
-3.28338 4.5324812 -1.2921189 15 1
-4.4257307 6.113903 0.3955552 2 9
-3.5474317 4.9041891 -1.1765283 10 2
-4.3872304 6.0674019 0.65506256 1 10
-3.8594499 5.3414288 -1.0437309 14 3
-4.3657761 6.0466228 0.9157263 1 11
-4.1625748 5.7673087 -0.87331581 11 4
-4.3181477 5.9872594 1.1691914 3 12
-4.3846817 6.0839858 -0.65610844 8 5
-4.3401732 6.0244451 1.4432793 2 13
-4.3642254 6.0667558 1.7253746 3 14
-4.308599 5.9960485 1.9784129 2 15
-3.0506232 4.268929 -1.4059051 13 0
-4.3996387 6.1612425 0.13214962 4 8
-3.2380731 4.5362582 -1.28672 15 1
-4.382937 6.1446538 0.3955552 2 9
-3.529063 4.9512153 -1.1818709 14 2
-4.3054533 6.0427151 0.64913595 1 10
-3.4187806 4.8018079 -0.93360102 16 3
-4.2889361 6.0284271 0.90841419 2 11
-4.0485787 5.6926956 -0.8577165 10 4
-4.2876863 6.0333619 1.17232 3 12
-4.3421001 6.1144485 -0.65610844 8 5
-4.2798262 6.0289841 1.4371735 2 13
-4.2947183 6.0589194 1.714577 3 14
-4.2242126 5.9660687 1.9587426 2 15
-2.998502 4.2585306 -1.3955523 16 0
-4.3565211 6.1918058 0.13214962 4 8
-3.1928718 4.5396256 -1.2813212 16 1
-4.3399358 6.1751003 0.3955552 2 9
-3.4334819 4.8889747 -1.1612636 14 2
-4.2356906 6.0334873 0.64495248 1 10
-3.6018524 5.1344333 -0.99335897 7 3
-4.2171164 6.0159616 0.90207696 2 11
-3.9438047 5.6281562 -0.84382337 12 4
-4.1888099 5.9822421 1.1566767 3 12
-4.1993732 6.0040164 1.4241984 2 13
-4.2076826 6.0248475 1.6965809 3 14
-4.1625638 5.9668951 1.9494252 2 15
-2.9334621 4.2285671 -1.3789879 15 0
-4.2562251 6.1398969 0.13040438 4 8
-3.1544421 4.5521955 -1.2786218 15 1
-4.2125812 6.0837379 0.38780949 2 9
-3.3132513 4.7885108 -1.131879 6 2
-4.1617284 6.0170317 0.64007175 1 10
-3.7186644 5.3804564 -1.0359092 13 3
-4.1411748 5.9962521 0.89476484 1 11
-3.9405088 5.7078257 -0.85162306 9 4
-4.1245122 5.9788175 1.1504192 3 12
-4.1172552 5.974988 1.4104601 2 13
-4.1544724 6.0380216 1.6920818 3 14
-4.1054864 5.9735208 1.9421781 1 15
-2.9038694 4.2489433 -1.3789879 14 0
-4.1839356 6.1265259 0.12949686 4 8
-3.1181898 4.5676684 -1.2768222 15 1
-4.1407428 6.0701003 0.385088 2 9
-3.2830579 4.8163919 -1.1330239 10 2
-4.0702591 5.9734912 0.63240206 1 10
-3.5464888 5.2087145 -0.998052 12 3
-4.0545464 5.9593668 0.88501525 2 11
-3.8436301 5.6514831 -0.83919233 11 4
-4.1048784 6.0401425 1.1566767 3 12
-4.0401535 5.9516091 1.3982484 2 13
-4.0575519 5.9862208 1.6695868 3 14
-4.0257783 5.9460459 1.9240609 1 15
-2.8870823 4.288343 -1.3851995 13 0
-4.1477594 6.1655412 0.12970628 4 8
-3.0775259 4.5763898 -1.2732229 18 1
-3.3237743 4.9500284 -1.1589739 14 2
-4.0240159 5.9951444 0.63170481 1 10
-3.4209127 5.1004629 -0.97270966 7 3
-3.9929502 5.9578457 0.88062793 1 11
-3.8416476 5.734252 -0.84747952 5 4
-3.9681051 5.9274821 1.1297698 3 12
-3.9766822 5.9470277 1.3906161 2 13
-4.0167108 6.0137014 1.6695868 3 14
-3.940222 5.9081097 1.9028376 1 15
-2.8602767 4.3132243 -1.3867525 12 0
-4.0327744 6.0836263 0.12740256 4 8
-3.033664 4.5798922 -1.2682741 23 1
-4.0169606 6.0666647 0.38131982 2 9
-3.246671 4.9070454 -1.1437092 12 2
-3.9403093 5.9599357 0.625081 1 10
-3.0909603 4.677022 -0.88792211 3 3
-3.9326134 5.95507 0.87624067 2 11
-3.9141345 5.9315891 -0.87258458 2 4
-3.9026704 5.9254575 1.3791674 2 13
-3.9060824 5.9374027 1.640793 3 14
-3.8786974 5.9025044 1.8924849 1 15
-2.8044338 4.2921624 -1.3738115 15 0
-3.9639676 6.0714459 0.12656485 4 8
-3.0162649 4.6216507 -1.2741227 19 1
-3.9439616 6.047718 0.378389 2 9
-3.2059033 4.919723 -1.1414195 14 2
-3.871376 5.9432125 0.6205489 1 10
-3.518369 5.4054127 -1.0215172 14 3
-3.8476505 5.9158158 0.86649108 1 11
-5.2283711 8.0417633 -1.1777455 2 4
-3.870935 5.9584394 1.1253897 3 12
-3.9206176 6.0395279 -0.62996167 8 5
-3.8323236 5.9057717 1.3684822 2 13
-3.85394 5.948173 1.6362939 3 14
-3.82585 5.9115987 1.886791 1 15
-2.7702215 4.3051367 -1.3717409 15 0
-3.8955288 6.0586033 0.12572713 4 8
-2.9712849 4.6229219 -1.268724 15 1
-3.8627899 6.0146055 0.37462083 2 9
-3.1640565 4.9304185 -1.1387482 14 2
-3.8297904 5.9700952 0.6205489 1 10
-3.0679979 4.7862453 -0.90043688 5 3
-3.776278 5.8957291 0.85966641 1 11
-3.6799846 5.7475986 -0.83797371 2 4
-3.7760148 5.9021196 1.1097462 3 12
-3.8247006 5.9828176 -0.6212461 8 5
-3.7783139 5.9125304 1.3639028 2 13
-3.7502227 5.8844028 1.8697089 1 15
-2.7214842 4.2949996 -1.3624235 14 0
-3.8360238 6.0586171 0.12516867 4 8
-2.9285145 4.6270881 -1.264225 20 1
-3.8207088 6.0414248 0.37462083 2 9
-3.0844636 4.8810215 -1.1223387 10 2
-3.7263024 5.8989873 0.61043882 1 10
-3.3961642 5.3805089 -1.007751 8 3
-3.718082 5.8950839 0.85576659 1 11
-5.1388745 8.1509199 -1.1831076 2 4
-3.6841776 5.8481116 1.0947285 7 12
-3.7828395 6.0093737 -0.6212461 8 5
-3.6836197 5.8540201 1.3444403 13 13
-3.6668434 5.8363938 1.5913037 10 14
-3.6772175 5.8597145 1.853662 15 15
-2.6955256 4.3204494 -1.3644941 16 0
-3.6730325 5.891798 0.12118951 14 8
-2.9023261 4.657342 -1.2669244 14 1
-3.6612532 5.8797584 0.36300224 9 9
-3.0409753 4.8874345 -1.118904 8 2
-3.6503072 5.8690257 0.6046865 12 10
-3.1009705 4.9896808 -0.93047231 5 3
-3.6391382 5.8601861 0.84699202 11 11
-3.6433475 5.8692555 -0.84821075 4 4
-3.6255624 5.8451509 1.0894097 7 12
-3.6463323 5.8832197 -0.6055581 7 5
-3.6312873 5.8612351 1.3402424 4 13
-3.6710763 5.9300804 -0.36551434 12 6
-3.6506121 5.9016256 1.6021013 4 14
-3.6314299 5.8729062 -0.12052631 15 7
-3.6220033 5.8622351 1.8464152 3 15
-2.6531639 4.3194089 -1.3582823 16 0
-3.6359947 5.9241142 0.12132913 7 8
-2.8697412 4.6774907 -1.2669244 15 1
-3.6691771 5.9852047 0.3679218 2 9
-2.9955027 4.8901291 -1.1147063 12 2
-3.6061234 5.8892689 0.60416359 2 10
-3.2423563 5.2993422 -0.98397291 7 3
-3.6043503 5.8956113 0.84845448 2 11
-3.5898645 5.8742204 -0.84528583 8 4
-3.5753992 5.8551478 1.0865939 3 12
-3.6269631 5.941915 -0.60904431 7 5
-3.5800567 5.8696828 1.3364263 2 13
-3.5596635 5.8431263 1.5796063 4 14
-3.6423297 5.983521 -0.12227156 5 7
-3.5639255 5.8593183 1.8376153 1 15
-2.63394 4.3560109 -1.3639765 12 0
-2.7967174 4.6306863 -1.2489282 16 1
-3.6056423 5.9724255 0.36561903 2 9
-2.9824286 4.9440269 -1.1223387 14 2
-3.5320077 5.8596973 0.59858567 1 10
-2.9829473 4.9507451 -0.91545457 5 3
-3.5334201 5.868989 0.8411423 1 11
-3.5528576 5.9059448 -0.84626079 2 4
-3.5089967 5.8353333 1.0784594 4 12
-3.5147409 5.854135 1.3272674 2 13
-3.500133 5.843668 1.825192 1 15
-2.5982983 4.3638797 -1.3608706 11 0
-3.5887313 6.0321145 0.12251589 3 8
-2.770113 4.6579905 -1.2511778 24 1
-2.9157658 4.910708 -1.1101269 14 2
-3.5103438 5.914443 0.60172325 1 10
-3.1730125 5.3503399 -0.98522437 8 3
-3.4579535 5.8354492 0.83285517 1 11
-3.4427681 5.8144503 -0.82968652 2 4
-3.5184801 5.944685 1.0941027 3 12
-3.4518123 5.8413453 1.3188719 2 13
-3.4268785 5.8130407 1.80811 1 15
-2.5484526 4.3506889 -1.3510355 10 0
-3.5040946 5.9845443 0.1210499 3 8
-2.7337577 4.672648 -1.2498281 22 1
-3.5067394 5.998661 0.36415362 2 9
-2.9081554 4.9767108 -1.1204305 17 2
-3.4357836 5.8843527 0.59614527 1 10
-2.9285884 5.0197196 -0.92046052 7 3
-3.4051294 5.838871 0.82993031 1 11
-3.4160838 5.8623557 -0.83309889 2 4
-3.4261532 5.884356 1.0784594 4 12
-3.471662 5.964911 -0.60381496 7 5
-3.3912086 5.8313589 1.3112395 2 13
-3.3793793 5.8273869 1.8050041 1 15
-2.5102992 4.3549852 -1.3468944 10 0
-3.4192631 5.9366865 0.11958389 3 8
-2.6874578 4.6679754 -1.2435294 15 1
-3.4229472 5.9502845 0.35975742 2 9
-2.8225722 4.9105864 -1.100968 12 2
-3.3549166 5.8390937 0.58917278 1 10
-2.8974068 5.046895 -0.92171198 5 3
-3.3593094 5.8562007 0.82895535 1 11
-3.3592749 5.8585086 -0.82919908 2 4
-3.3358884 5.8224316 1.0628159 4 12
-3.4041905 5.9440503 -0.59928286 7 5
-3.3465149 5.8480759 1.309713 2 13
-3.3060603 5.7937889 1.7874043 1 15
-2.4626815 4.3421555 -1.3375769 11 0
-3.1164408 5.4970932 0.11029921 31 8
-2.618305 4.622191 -1.2264332 14 1
-3.3626833 5.9386864 0.35766396 2 9
-2.7890813 4.9296851 -1.100968 12 2
-3.3160312 5.8658423 0.58952147 1 10
-2.724988 4.8222904 -0.87728459 5 3
-3.2920415 5.8305302 0.82213068 1 11
-3.0568869 5.4184647 -0.76387709 15 4
-3.2845352 5.8243561 1.0590615 4 12
-3.0594082 5.429574 -0.54524636 31 5
-3.2613003 5.7926021 1.2921586 2 13
-3.0601168 5.4374866 -0.32699507 22 6
-3.0610285 5.4480014 -0.10907754 36 7
-3.251411 5.7892089 1.7791222 1 15
-2.4311829 4.3554449 -1.3365415 10 0
-3.0507171 5.4698148 0.10932188 44 8
-2.5981691 4.6603312 -1.231832 17 1
-3.2958739 5.9166512 0.3549425 2 9
-2.7488689 4.9387441 -1.0986782 14 2
-3.2508442 5.843009 0.58498931 1 10
-2.9331231 5.2762828 -0.95612758 11 3
-3.2358344 5.8256054 0.81823081 1 11
-3.0180066 5.4356756 -0.76338965 18 4
-3.2073786 5.7815046 1.0471724 4 12
-3.0146489 5.4363332 -0.54385179 30 5
-3.2217958 5.8146667 1.2921586 2 13
-3.0027339 5.4237704 -0.32490164 22 6
-3.0064561 5.4372106 -0.10844925 33 7
-3.1940992 5.7813292 1.7698047 1 15
-2.3951402 4.3621507 -1.3334358 9 0
-3.023036 5.5079842 0.10967092 42 8
-2.5693209 4.6851897 -1.2336316 14 1
-2.6944423 4.9194574 -1.0902827 12 2
-3.1793625 5.8096337 0.57941139 1 10
-2.9047272 5.3099885 -0.9586305 13 3
-3.1751599 5.8091745 0.8128686 1 11
-2.9914024 5.4775195 -0.76631445 18 4
-3.1679506 5.8032026 1.0471724 4 12
-2.9947498 5.4904804 -0.54716372 50 5
-3.1604571 5.7990904 1.2837629 2 13
-2.9963205 5.5002089 -0.32825115 22 6
-2.997086 5.5107679 -0.1094964 40 7
-3.13991 5.7757807 1.7615224 1 15
-2.3562105 4.3613563 -1.3282595 11 0
-2.5188627 4.6682701 -1.2246336 21 1
-2.6451354 4.9104934 -1.0841768 14 2
-3.1775296 5.901309 0.58638382 1 10
-2.9564934 5.4954014 -0.98835307 14 3
-3.1232512 5.8102169 0.80994374 1 11
-4.541944 8.4529724 -1.1782329 2 4
-3.1273623 5.8251762 1.0471724 4 12
-2.9902821 5.5721827 -0.55326468 9 5
-3.1060667 5.7927852 1.277657 2 13
-3.1380489 5.8598027 1.5346161 4 14
-3.073097 5.7481542 1.746511 1 15
-2.3257048 4.3776994 -1.3282595 9 0
-3.1400077 5.9129615 0.11686131 3 8
-2.4935176 4.699512 -1.2282327 21 1
-2.5813134 4.8711381 -1.0715834 8 2
-3.076586 5.810657 0.57522792 1 10
-2.8977685 5.4752402 -0.98115706 22 3
-3.0669262 5.7997537 0.80555642 1 11
-3.0621195 5.7955585 -0.80482519 1 4
-3.0304437 5.7380309 1.0277746 4 12
-2.9094679 5.5136275 -0.54542065 18 5
-3.0508997 5.7865424 1.2715513 2 13
-3.0258069 5.7535515 1.7418523 1 15
-2.2976422 4.3968525 -1.3292947 9 0
-3.0819919 5.9028316 0.11623303 3 8
-2.4416354 4.678369 -1.2183349 18 1
-2.510958 4.8193955 -1.0563186 5 2
-3.0240788 5.806725 0.57278752 1 10
-2.8558264 5.488328 -0.97990561 16 3
-3.0263615 5.8210235 0.80555642 1 11
-4.4743986 8.6099072 -1.1913948 2 4
-3.0467489 5.8677416 1.0471724 4 12
-2.8452532 5.4820199 -0.54036558 21 5
-2.986135 5.7583752 1.2608659 2 13
-2.9784703 5.7608047 1.7377111 1 15
-2.2598286 4.3990393 -1.3251536 10 0
-3.017992 5.8774228 0.1153255 3 8
-2.3644371 4.6086078 -1.1958399 15 1
-2.338434 4.5638056 -0.9967863 7 2
-2.978019 5.8170547 0.5717417 1 10
-2.798605 5.4689527 -0.97302246 16 3
-2.946907 5.76372 0.79483193 1 11
-4.4123759 8.6373997 -1.1909074 2 4
-2.9618208 5.8003798 1.0315289 4 12
-2.7996688 5.4875522 -0.53897113 24 5
-2.9405115 5.7685871 1.2585762 2 13
-2.8476276 5.5984397 -0.10963602 4 7
-2.9181757 5.7396159 1.7252878 1 15
-2.2315745 4.417768 -1.3261888 9 0
-2.9552622 5.8555036 0.11448779 3 8
-2.3259904 4.6106763 -1.1922406 15 1
-2.9477 5.8481302 0.34321922 2 9
-2.2667785 4.5011148 -0.97961342 11 2
-2.9186459 5.7980385 0.5679068 1 10
-2.7017765 5.3718843 -0.95237315 13 3
-2.8905532 5.7522259 0.79044467 1 11
-2.8877671 5.7491822 -0.78995717 3 4
-2.8769529 5.7326403 1.0158856 4 12
-2.7452152 5.474905 -0.53583348 30 5
-2.8871028 5.7603865 1.2524703 2 13
-2.8659458 5.7356553 1.7180409 1 15
-2.1886551 4.4090133 -1.318942 10 0
-2.8912098 5.8294148 0.11358026 3 8
-2.2712426 4.5814061 -1.1805431 21 1
-2.9387143 5.9329972 0.34698743 2 9
-2.4024897 4.8546681 -1.0528841 9 2
-2.8480613 5.7575545 0.56198025 1 10
-2.6904645 5.4437418 -0.96175921 16 3
-2.832746 5.7366667 0.78556985 1 11
-2.8255947 5.7247009 -0.78386366 3 4
-2.8368611 5.7525854 1.0158856 4 12
-2.6866729 5.4528308 -0.53182435 31 5
-2.8416131 5.7698345 1.2501806 2 13
-2.7013757 5.4971833 -0.10691345 10 7
-2.7985883 5.7000318 1.7014765 1 15
-2.1629002 4.4346046 -1.3220477 10 0
-2.8399334 5.8278842 0.1131614 2 8
-2.2682152 4.6567187 -1.1958399 15 1
-2.843039 5.8420229 0.34049776 2 9
-2.4028807 4.9419456 -1.0681487 9 2
-2.8252149 5.8131366 0.56546646 1 10
-2.6385915 5.4339595 -0.95675331 16 3
-2.7770314 5.7241554 0.78118259 1 11
-2.7699718 5.7121358 -0.7794764 3 4
-2.7966313 5.7722502 1.0158856 4 12
-2.6207604 5.4140673 -0.52624637 43 5
-2.785871 5.7577214 1.2433115 2 13
-2.6507609 5.4906964 -0.10642478 8 7
-2.7469764 5.6950703 1.6942296 1 15
-2.1210389 4.4269466 -1.3153185 12 0
-2.7801828 5.8078876 0.11239351 2 8
-2.2322874 4.6654077 -1.1940402 16 1
-2.7711737 5.7968583 0.33672959 2 9
-2.4224708 5.0719819 -1.0925723 14 2
-2.7416465 5.7428174 0.55675089 1 10
-2.5784776 5.4058924 -0.94861871 16 3
-2.7421279 5.7541542 0.78264499 1 11
-2.7249012 5.7205825 -0.77801394 3 4
-2.739291 5.755959 1.0096282 4 12
-2.5786216 5.4232354 -0.52537483 37 5
-2.7186394 5.7202883 1.2310997 2 13
-2.5780923 5.4367948 -0.10502858 14 7
-2.6955705 5.6896672 1.6869825 1 15
-2.0917263 4.4451427 -1.3163538 13 0
-2.7344637 5.8162971 0.11218407 2 8
-2.1814287 4.642077 -1.1841424 20 1
-2.3719976 5.0567751 -1.0857033 12 2
-2.6930294 5.7437782 0.55500776 1 10
-2.5197282 5.3790398 -0.94079703 15 3
-2.6816921 5.7300081 0.77679521 1 11
-4.1266046 8.8213711 -1.1957821 2 4
-2.6639087 5.6997814 0.99648768 4 12
-2.5213094 5.3995838 -0.52136564 38 5
-2.678638 5.7391281 1.2310997 2 13
-2.5392294 5.452848 -0.10499368 19 7
-2.6525266 5.7013397 1.6849121 1 15
-2.0614526 4.461391 -1.3168714 11 0
-2.6887627 5.8243523 0.11197464 2 8
-2.1506004 4.6607313 -1.1850421 17 1
-2.6581917 5.7660608 0.33275205 2 9
-2.2479351 4.8806262 -1.0444885 11 2
-2.6328683 5.7190037 0.55082428 1 10
-2.3516939 5.112946 -0.89136374 8 3
-2.6200759 5.7016916 0.7704581 1 11
-4.0748577 8.8716135 -1.198707 2 4
-2.6454754 5.7649183 1.0046222 4 12
-2.4669473 5.3808308 -0.51787943 41 5
-2.6107006 5.6970053 1.2181247 2 13
-2.478652 5.4213381 -0.10405125 24 7
-2.6054325 5.7039051 1.6802533 2 15
-2.0230734 4.4598398 -1.3122126 12 0
-2.6001594 5.7373414 0.10995016 2 8
-2.1115773 4.6614313 -1.181443 18 1
-2.617872 5.7844777 0.33275205 2 9
-2.2898386 5.0643568 -1.0803605 14 2
-2.5912368 5.7336144 0.55047566 1 10
-2.4029212 5.3218784 -0.92484063 13 3
-2.5671463 5.6908917 0.76655823 1 11
-4.0022197 8.8763189 -1.1955384 2 4
-2.5938058 5.7580318 1.0002421 4 12
-2.4261739 5.3884144 -0.51700783 35 5
-2.5467024 5.6613793 1.2066761 2 13
-2.4210904 5.3947258 -0.10321353 22 7
-2.5442111 5.6743598 1.6662771 1 15
-1.9887457 4.4667959 -1.310142 15 0
-2.552916 5.7366376 0.10960111 2 8
-2.0726492 4.6618137 -1.1778437 21 1
-2.5784378 5.8021631 0.33275205 2 9
-2.210701 4.9793415 -1.05899 11 2
-2.523679 5.689641 0.54454905 1 10
-2.3794506 5.3670049 -0.92984658 16 3
-2.5428209 5.7409043 0.77094555 1 11
-2.5094883 5.6709948 -0.76143968 3 4
-2.5353746 5.7321963 0.99273324 4 12
-2.3715854 5.3669505 -0.51334733 33 5
-2.5134594 5.6933889 1.2097291 2 13
-7.0358071 15.944764 -0.91336721 9 6
-2.3728938 5.3877053 -0.10275977 28 7
-2.4868472 5.6491117 1.6538538 1 15
-1.9652587 4.496161 -1.3148009 9 0
-2.5096064 5.7469893 0.10946149 2 8
-2.0439875 4.6829581 -1.1796434 17 1
-2.5219018 5.7834072 0.33065861 2 9
-2.1962714 5.0414505 -1.068912 14 2
-2.4912558 5.721302 0.54594356 1 10
-1.9085261 4.3872151 -0.75776863 2 3
-2.4599531 5.6602054 0.75778365 1 11
-2.4732018 5.6934071 -0.76217091 3 4
-2.4748478 5.7026429 0.98459864 5 12
-2.3197935 5.3504734 -0.51020968 30 5
-2.4684021 5.6959548 1.2066761 2 13
-2.4841137 5.7431955 1.4446357 4 14
-2.3242626 5.3761992 -0.1022362 24 7
-2.4412203 5.6521473 1.6497126 1 15
-1.9178354 4.4724846 -1.3039304 8 0
-2.4757204 5.7790756 0.10974073 2 8
-2.0196822 4.7168193 -1.1845922 23 1
-2.497175 5.8375988 0.33275205 2 9
-2.1887968 5.1216516 -1.0826503 14 2
-2.4324694 5.694581 0.54176009 1 10
-2.2724946 5.3252134 -0.91701895 15 3
-2.4141493 5.6626325 0.75583369 1 11
-2.4108264 5.6575751 -0.75510252 3 4
-2.4349756 5.7197814 0.98459864 5 12
-2.2745857 5.3482032 -0.5084666 33 5
-2.4055355 5.6588454 1.1952276 2 13
-2.443958 5.7603979 1.4446357 4 14
-2.273401 5.3609977 -0.10164282 26 7
-2.3851225 5.6299191 1.6383246 1 15
-1.8843179 4.4804225 -1.3023775 11 0
-2.424473 5.7704072 0.10925207 2 8
-1.9708582 4.6930733 -1.1751443 15 1
-2.4100018 5.7443848 0.32647175 2 9
-2.133256 5.0897307 -1.0727283 14 2
-2.3757205 5.6709943 0.53792524 1 10
-2.2047567 5.2680588 -0.90450418 15 3
-2.3638377 5.653708 0.75242138 1 11
-3.7413716 8.9528141 -1.1913948 2 4
-2.2289219 5.3414979 -0.5063749 30 5
-2.3629489 5.6682525 1.1937011 2 13
-2.2382224 5.3822775 -0.10174754 32 7
-2.3413131 5.6357288 1.6352189 1 15
-1.8507832 4.4881101 -1.3008245 13 0
-2.385139 5.7867765 0.10925207 2 8
-1.9276607 4.681489 -1.1688457 22 1
-2.3678045 5.7532682 0.32605305 2 9
-1.6633233 4.0455384 -0.85024494 3 2
-2.330013 5.6726995 0.53653073 1 10
-1.9872994 4.8407187 -0.82878989 6 3
-2.3373513 5.6990533 0.75632119 1 11
-2.3135359 5.6465988 -0.7492528 3 4
-2.1817694 5.3329558 -0.50410885 35 5
-2.3262906 5.6918807 1.1952276 2 13
-5.2697959 12.913241 3.2199495 2 14
-2.1885138 5.3681445 -0.10118905 32 7
-2.2934208 5.6282783 1.6284895 1 15
-1.8035315 4.4594126 -1.2889189 16 0
-2.3117211 5.7217073 0.10771625 2 8
-1.932235 4.7848506 -1.1913408 17 1
-2.3201094 5.7511363 0.32500634 2 9
-2.0012355 4.9657001 -1.0406723 13 2
-2.2913489 5.6884265 0.53653073 1 10
-2.1429739 5.3254457 -0.90919721 16 3
-2.2886252 5.6931286 0.75339633 1 11
-3.6249776 9.0219688 -1.1938322 2 4
-2.1290977 5.3070021 -0.50027394 34 5
-2.2538991 5.623754 1.1776732 2 13
-2.1311386 5.3309259 -0.10021172 32 7
-2.2375927 5.6028881 1.6165838 1 15
-1.7744905 4.477283 -1.2904718 12 0
-2.2609375 5.7075639 0.10715777 2 8
-1.8586277 4.6967506 -1.1661462 10 1
-2.2765009 5.755652 0.32437828 2 9
-2.0388122 5.1599703 -1.0784526 14 2
-2.247191 5.6931648 0.53548485 1 10
-2.0784049 5.2682443 -0.89699531 14 3
-2.2439973 5.6938009 0.75144643 1 11
-3.5546358 9.0285826 -1.1913948 2 4
-2.0861673 5.3069019 -0.49887949 34 5
-2.2160153 5.6430082 1.1784364 2 13
-2.0822008 5.3158827 -0.099653237 30 7
-2.1895435 5.5928044 1.609337 1 15
-1.7460721 4.4946604 -1.2920247 13 0
-2.200779 5.67101 0.10618044 2 8
-1.8548034 4.7819672 -1.1841424 16 1
-2.2218316 5.7341576 0.32228485 2 9
-1.881554 4.8609967 -1.0131959 8 2
-2.202636 5.6934643 0.5340904 1 10
-2.0551047 5.3176341 -0.90293986 16 3
-2.1784542 5.6426601 0.74267185 1 11
-3.4873807 9.0377541 -1.1894449 2 4
-2.0349541 5.2819357 -0.4952189 36 5
-2.1578114 5.606658 1.1677511 2 13
-2.0423853 5.3205991 -0.099478714 26 7
-2.1352308 5.5682697 1.5979488 1 15
-1.6665637 4.3803496 -1.2557901 13 0
-2.1635482 5.6895976 0.10625025 2 8
-1.8137615 4.7747602 -1.1791934 14 1
-2.1643171 5.7006011 0.31956339 2 9
-1.9479799 5.1361918 -1.0677671 15 2
-2.1317754 5.6267238 0.52642071 1 10
-2.008368 5.3037891 -0.89824677 14 3
-2.1343763 5.6425037 0.74072188 1 11
-3.4249024 9.0637369 -1.1896886 2 4
-1.9909967 5.2773728 -0.49347579 42 5
-2.1269252 5.643631 1.1723305 2 13
-6.0278563 16.002911 -0.89620101 8 6
-1.9953433 5.3085213 -0.098990053 26 7
-2.0945616 5.5754409 1.5958784 1 15
-1.6738149 4.4911542 -1.2842602 12 0
-2.1126115 5.6745787 0.10569178 2 8
-1.7587922 4.7267246 -1.1643466 20 1
-2.1077657 5.6706409 0.31705123 2 9
-1.8676558 5.0300345 -1.042962 13 2
-2.089267 5.6298966 0.52537483 1 10
-1.9479464 5.2547059 -0.88760924 14 3
-2.070116 5.5902519 0.73194736 1 11
-3.3794479 9.1358328 -1.1960258 2 4
-1.9485834 5.2761922 -0.49208131 42 5
-2.0793192 5.6362395 1.1677511 2 13
-2.0953679 5.688911 1.3996454 5 14
-1.9444244 5.2847877 -0.098291956 26 7
-2.0555866 5.5899282 1.5958784 1 15
-1.6403108 4.4993868 -1.2832248 11 0
-2.0606215 5.6553698 0.10506349 2 8
-1.7329215 4.7611642 -1.1697454 15 1
-2.0575821 5.6592989 0.31558585 2 9
-1.8425517 5.0706291 -1.0486863 13 2
-2.0434911 5.6297193 0.52398032 1 10
-1.7897652 4.9360952 -0.83160573 6 3
-2.031038 5.604568 0.73194736 1 11
-3.3081532 9.1386719 -1.1933447 2 4
-2.0467601 5.660284 0.95331174 5 12
-1.8995117 5.255939 -0.4889437 36 5
-2.0212541 5.5989127 1.1570657 2 13
-1.9000311 5.2775369 -0.097907998 28 7
-1.9991894 5.5590472 1.5829374 1 15
-1.5744644 4.4142904 -1.2557901 14 0
-2.0133886 5.6511335 0.10471445 2 8
-1.6957202 4.7621303 -1.1670461 22 1
-2.036761 5.7262163 0.31851667 2 9
-1.8187108 5.1188326 -1.0559371 13 2
-1.9894682 5.6025438 0.52014548 1 10
-1.8655427 5.259378 -0.88385481 14 3
-1.9948584 5.6301837 0.73340976 1 11
-3.2380376 9.1490116 -1.1916386 2 4
-1.9742568 5.5813203 0.93766832 5 12
-1.8512321 5.2393398 -0.48615471 36 5
-1.9680696 5.5762072 1.1494334 2 13
-5.664659 16.058826 -0.89243275 8 6
-1.8555784 5.2721357 -0.097558953 31 7
-1.9545621 5.556468 1.5782787 1 15
-1.5619129 4.4801702 -1.2713192 13 0
-1.9607308 5.627284 0.10401635 2 8
-1.6398187 4.7115679 -1.1517494 21 1
-1.9813045 5.699141 0.31621388 2 9
-1.6978732 4.8866119 -1.0055635 10 2
-1.9401807 5.5902843 0.51770508 1 10
-1.8194509 5.2483287 -0.8797875 12 3
-1.9516045 5.63272 0.73194736 1 11
-3.1539645 9.1132383 -1.1840826 2 4
-1.8087565 5.2351871 -0.48458594 34 5
-1.9175638 5.5564055 1.1425643 2 13
-1.8122196 5.2660527 -0.097209901 30 7
-1.9109827 5.5593505 1.5751728 1 15
-1.5377815 4.5068846 -1.275978 12 0
-1.933993 5.6745696 0.10464463 2 8
-1.6261296 4.7739897 -1.1643466 22 1
-1.916446 5.632741 0.31181765 2 9
-1.7012134 5.005867 -1.0276973 12 2
-1.9030643 5.6030283 0.51770508 1 10
-1.7801598 5.2471857 -0.87759745 14 3
-1.9030249 5.6157923 0.72804755 1 11
-1.7676878 5.2194037 -0.67661864 4 4
-1.7695286 5.2338562 -0.48336574 37 5
-1.876901 5.5578408 1.1402746 2 13
-1.7670432 5.2476339 -0.096651427 30 7
-1.8623681 5.5371118 1.5653377 1 15
-1.5032247 4.508347 -1.2733897 14 0
-1.8826787 5.6496601 0.10394654 2 8
-1.5915306 4.781528 -1.1634469 22 1
-1.8780607 5.6456552 0.31181765 2 9
-1.7166241 5.1663795 -1.0582268 9 2
-1.8626463 5.6123962 0.51735646 1 10
-1.7381834 5.2404323 -0.87446874 14 3
-1.852272 5.5909276 0.72317278 1 11
-3.0420842 9.1930218 -1.1889575 2 4
-1.7266943 5.2271643 -0.48162264 37 5
-1.8417479 5.5819941 1.1425643 2 13
-1.7203665 5.2294497 -0.096092947 30 7
-1.8276545 5.5588355 1.5679258 1 15
-1.3252522 4.0666275 -1.1460507 10 0
-1.8308121 5.6246357 0.10324844 2 8
-1.4902229 4.5809913 -1.1121581 17 1
-1.8262569 5.6206388 0.30972421 2 9
-1.4920396 4.5974836 -0.93954355 4 2
-1.8035014 5.5605083 0.51142991 1 10
-1.7021648 5.2543187 -0.87478167 12 3
-1.8009725 5.5659485 0.71829796 1 11
-2.9543962 9.136076 -1.1789641 2 4
-1.789258 5.5396452 0.92202479 5 12
-1.6788331 5.2008753 -0.47813639 40 5
-1.7904559 5.5532932 1.1341687 2 13
-1.6761656 5.214385 -0.095604278 30 7
-1.774626 5.5273156 1.5555025 1 15
-1.4327213 4.5028725 -1.2661428 10 0
-1.786424 5.6179109 0.10289939 2 8
-1.4983176 4.7175808 -1.1427513 18 1
-1.8000411 5.6710129 0.31181765 2 9
-1.664807 5.2513151 -1.0708202 14 2
-1.782681 5.6299467 0.51665926 1 10
-1.6335812 5.1622 -0.85757387 8 3
-1.7630445 5.5780787 0.71829796 1 11
-2.8917375 9.160264 -1.1794516 2 4
-1.6406894 5.2067676 -0.47761348 42 5
-1.7481066 5.5544214 1.131879 2 13
-1.6361272 5.2145128 -0.09539485 33 7
-1.7282938 5.5116162 1.547738 2 15
-1.4100627 4.5383482 -1.2733897 10 0
-1.7436042 5.6187863 0.10268996 2 8
-1.4661714 4.7276702 -1.1427513 15 1
-1.7509511 5.652916 0.3101429 2 9
-1.6240438 5.2496805 -1.0681487 11 2
-1.7396097 5.6267228 0.51526475 1 10
-1.6470419 5.3339114 -0.88416773 3 3
-1.7065086 5.5333433 0.71098578 1 11
-2.8316574 9.1873236 -1.1804266 2 4
-1.7127085 5.5637884 0.92202479 5 12
-1.5996152 5.2028594 -0.47621897 42 5
-1.7021858 5.5399184 1.1265364 2 13
-1.5947411 5.206408 -0.095045805 31 7
-1.6858172 5.5106158 1.5441145 1 15
-1.3783447 4.5480814 -1.2733897 10 0
-1.7043378 5.6308212 0.10268996 2 8
-1.4421579 4.7676353 -1.1499498 16 1
-1.6871867 5.5847011 0.3057467 2 9
-1.5788476 5.232697 -1.0624245 13 2
-1.6738262 5.550983 0.50724638 1 10
-2.2272389 7.395627 -1.2233176 2 3
-1.674698 5.5679331 0.7139107 1 11
-2.7388766 9.1118145 -1.1682396 2 4
-1.6738242 5.5756097 0.92202479 5 12
-1.5535262 5.1814566 -0.47325566 40 5
-1.6499442 5.5065317 1.1173775 2 13
-1.5537765 5.2020864 -0.094766572 28 7
-1.637917 5.4907799 1.5353146 1 15
-1.3443722 4.5501823 -1.2713192 9 0
-1.654796 5.6080604 0.10206167 2 8
-1.4121476 4.7888012 -1.1526492 15 1
-1.637998 5.5618582 0.3038626 2 9
-1.5306447 5.2040396 -1.0544106 13 2
-1.6339087 5.5587106 0.50689781 1 10
-2.1822302 7.4337411 -1.2270721 2 3
-1.6290866 5.5566297 0.71098578 1 11
-2.6897097 9.1802444 -1.1745769 2 4
-1.5109514 5.1670513 -0.47098961 32 5
-1.6136625 5.525454 1.118904 2 13
-1.5123911 5.1955271 -0.094452426 24 7
-1.6011621 5.5076461 1.5368675 1 15
-1.3034878 4.5278969 -1.2625194 13 0
-1.5988958 5.5576978 0.10094472 2 8
-1.3722214 4.7760682 -1.1472504 19 1
-1.6001043 5.5728784 0.3038626 2 9
-1.457306 5.0822334 -1.0276973 10 2
-1.5819001 5.5240111 0.50271428 1 10
-2.1315799 7.4484234 -1.2270721 2 3
-1.5868622 5.552321 0.70903593 1 11
-2.6190159 9.1758919 -1.171652 2 4
-1.4688376 5.1563954 -0.46907222 35 5
-1.5707507 5.5214782 1.115851 2 13
-1.4722642 5.192492 -0.094208091 26 7
-1.5531025 5.4812431 1.5265148 1 15
-1.2695063 4.5255041 -1.2594135 13 0
-1.5600568 5.5687246 0.10094472 2 8
-1.3270732 4.7402592 -1.1364527 18 1
-1.5568571 5.5685253 0.30302522 2 9
-1.4751161 5.283267 -1.0662408 13 2
-1.5431918 5.5308127 0.50236571 1 10
-2.0763505 7.4517045 -1.2251948 1 3
-1.5448653 5.5517893 0.70757347 1 11
-2.5580812 9.2054281 -1.1731144 2 4
-1.427479 5.1473255 -0.46732911 35 5
-1.5216879 5.4944682 1.1082187 2 13
-4.5953836 16.604179 -0.90289998 9 6
-1.5631305 5.6556182 1.3546553 5 14
-1.4295932 5.179512 -0.093789227 28 7
-1.5173666 5.5012646 1.529103 1 15
-1.2309885 4.5121078 -1.2532018 15 0
-1.5179859 5.5679049 0.10073529 2 8
-1.2803208 4.7026267 -1.1252052 23 1
-1.5243058 5.6065054 0.30449063 2 9
-1.4376814 5.2915421 -1.0658592 13 2
-1.5098351 5.5647883 0.50445741 1 10
-2.0219409 7.4625587 -1.2245692 3 3
-1.4936203 5.5164528 0.70172375 1 11
-2.4802856 9.1732378 -1.1667771 2 4
-1.5174901 5.620172 0.92202479 5 12
-1.3894354 5.1494703 -0.46663183 35 5
-1.4894189 5.5277061 1.1127981 2 13
-1.3861387 5.1623287 -0.093300566 28 7
-1.4694587 5.4802594 1.5203031 1 15
-1.1954947 4.5056539 -1.2490608 12 0
-1.4755431 5.5689592 0.10056076 2 8
-1.2639189 4.7736168 -1.140052 21 1
-1.4800227 5.5977015 0.30344391 2 9
-1.3656992 5.172616 -1.0399091 13 2
-1.454684 5.5135465 0.49887949 1 10
-1.9657669 7.4612107 -1.2220662 3 3
-1.4480464 5.503962 0.69879889 1 11
-2.4383926 9.2748032 -1.1775017 2 4
-1.3519347 5.1532631 -0.46610889 32 5
-1.438854 5.4923892 1.1036394 2 13
-1.3470346 5.1602702 -0.093091138 31 7
-1.422877 5.4586062 1.5115032 1 15
-1.1775171 4.5662689 -1.2635547 12 0
-1.4405962 5.5904927 0.10077019 2 8
-1.1887987 4.6200199 -1.1013604 19 1
-1.4319384 5.5689592 0.30135047 2 9
-1.3260645 5.1646781 -1.0364745 7 2
-1.413188 5.5119882 0.49783361 1 10
-1.915915 7.4782462 -1.2226919 1 3
-1.4105484 5.5136914 0.69879889 1 11
-2.3627737 9.2492867 -1.1721394 2 4
-1.1633198 4.5572352 0.744941 3 12
-1.3100199 5.1394081 -0.46401718 30 5
-1.1472077 4.5072441 0.90405309 5 13
-1.1330241 4.461297 1.0626688 7 14
-1.2991815 5.1230283 -0.092253424 29 7
-1.1431205 4.5610604 -1.2599311 9 0
-1.1354983 4.5373635 0.081642359 4 8
-1.1847438 4.7376547 -1.1274546 17 1
-1.1220647 4.4936728 0.24273418 16 9
-1.3146734 5.2728662 -1.0563186 7 2
-1.1165024 4.4813685 0.40405402 16 10
-1.8703367 7.5182767 -1.2270721 1 3
-1.1083367 4.4618783 0.5644989 13 11
-1.1262085 4.53721 -0.57400465 3 4
-1.0982114 4.4310308 0.72304016 23 12
-1.2439522 5.0265846 -0.45303556 11 5
-1.0985919 4.4425263 0.88955158 15 13
-1.1131678 4.5082293 -0.24336222 17 6
-1.0841261 4.3971987 1.0455725 14 14
-1.0997252 4.4638295 -0.080246165 16 7
-1.0904454 4.4328141 1.2231789 37 15
-1.0920774 4.4900899 -1.2381904 10 0
-1.0830299 4.4596782 0.080106542 27 8
-1.0845473 4.4693184 -1.061769 14 1
-1.0727936 4.4276352 0.23875666 30 9
-1.0765532 4.4499378 -0.88993317 9 2
-1.066461 4.4115901 0.39708155 20 10
-1.0790023 4.4703002 -0.72835892 11 3
-1.0664649 4.4251204 0.55889291 16 11
-1.0726618 4.4542556 -0.56254894 10 4
-1.0497034 4.3656044 0.71115112 19 12
-1.0660419 4.4403825 -0.39952192 16 5
-1.059309 4.4157233 0.8826825 15 13
-1.0653863 4.4479098 -0.23969871 31 6
-1.0534015 4.4046602 1.0455725 14 14
-1.0564528 4.4208288 -0.07933864 20 7
-1.0451244 4.380187 1.2066144 20 15
-1.0422441 4.4262552 0.079373546 23 8
-1.0434999 4.4350486 -1.0518711 20 1
-1.035919 4.4097409 0.23739593 22 9
-1.0432211 4.4477878 -0.8880251 13 2
-1.034727 4.4150481 0.39673293 27 10
-1.033367 4.4161739 -0.71834713 12 3
-1.0287694 4.4034629 0.55523676 14 11
-1.0320646 4.4210401 -0.55743045 12 4
-1.0245787 4.3959126 0.71490556 22 12
-1.0321792 4.4320116 -0.39812744 16 5
-1.0243715 4.4124374 -0.23739593 29 6
-1.0141479 4.3718634 1.0361246 9 14
-1.0228567 4.4164085 -0.079129212 26 7
-1.0127786 4.3798485 1.2045439 20 15
-1.0137861 4.4371014 -1.2195554 17 0
-1.0085329 4.4176502 0.079094306 24 8
-1.00688 4.4175253 -1.0460224 23 1
-1.0005587 4.3933206 0.23613985 38 9
-1.005955 4.4241562 -0.88191921 17 2
-1.0021167 4.414392 0.39603567 19 10
-1.0054659 4.4327388 -0.71991152 16 3
-0.99789727 4.4064908 0.55474925 14 11
-0.99679697 4.4087749 -0.55499303 12 4
-0.98941147 4.379663 0.71115112 19 12
-0.99332017 4.4041262 -0.39498982 20 5
-0.98949063 4.3978739 -0.23624454 31 6
-0.98787278 4.3978505 1.0406237 9 14
-0.98893625 4.4097824 -0.078884877 31 7
-0.97998559 4.373445 1.2009205 19 15
-0.97479534 4.4042883 -1.2086849 18 0
-0.9798224 4.4343467 0.079268835 27 8
-0.97636956 4.4223738 -1.0455725 18 1
-0.97158068 4.4080005 0.23655853 24 9
-0.97335857 4.4234018 -0.88039279 17 2
-0.96776509 4.4016519 0.39429256 20 10
-0.97026211 4.4203553 -0.71678281 16 3
-0.96626008 4.409472 0.55426186 11 11
-0.96421677 4.4038229 -0.55353063 12 4
-0.96260804 4.403832 0.71396697 11 12
-0.96212459 4.4090066 -0.3948155 30 5
-0.94813561 4.3485341 0.86512804 100 13
-0.9562149 4.3929653 -0.23561651 31 6
-0.95300782 4.3855972 1.0361246 9 14
-0.95338124 4.3910084 -0.078431122 27 7
-0.95188481 4.3915081 1.2040263 16 15
-0.95251405 4.4506569 -1.2195554 17 0
-0.94926089 4.4430342 0.079303734 22 8
-0.93936926 4.4004951 -1.038824 24 1
-0.9441157 4.4303031 0.23739593 24 9
-0.94408762 4.4377699 -0.88191921 16 2
-0.93867135 4.4160962 0.39498982 19 10
-0.93486834 4.4057655 -0.7133413 15 3
-0.93915278 4.433588 0.55645543 8 11
-0.93344879 4.4104471 -0.55353063 12 4
-0.93265462 4.4143109 0.71459275 11 12
-0.92967582 4.4078178 -0.39411828 24 5
-0.9290871 4.4088373 0.87581331 31 13
-0.92634511 4.4034424 -0.23582584 38 6
-0.92517304 4.4054933 1.0392739 7 14
-0.92598808 4.4132137 -0.078710355 22 7
-0.92080903 4.3961554 1.2035086 15 15
-0.91007763 4.4023347 -1.2045439 19 0
-0.91862363 4.4515109 0.07933864 20 8
-0.91295385 4.4279408 -1.0437729 22 1
-0.91115022 4.4270048 0.23687255 30 9
-0.90913218 4.4250221 -0.87810302 19 2
-0.90741754 4.4205899 0.3948155 16 10
-0.90686315 4.4257307 -0.71553135 16 3
-0.90897322 4.4439263 0.55694294 9 11
-0.90422511 4.4246359 -0.55450553 12 4
-0.90576267 4.4400697 0.7177214 8 12
-0.90044892 4.4179478 -0.39446688 22 5
-0.89828503 4.415216 0.87581331 26 13
-0.89796793 4.421546 -0.23645388 31 6
-0.90329993 4.4517946 1.0487218 9 14
-0.89436358 4.4156504 -0.078640543 20 7
-0.89621896 4.4327731 1.2117908 14 15
-0.86193895 4.3214321 -1.1807325 8 0
-0.89143044 4.47335 0.07961788 20 8
-0.88125837 4.4303837 -1.042873 19 1
-0.88761574 4.4664063 0.23865199 28 9
-0.88433892 4.4580679 -0.88344568 20 2
-0.88272589 4.4580884 0.3976045 15 10
-0.8778671 4.4376149 -0.71646994 13 3
-0.88139719 4.4636426 0.55864912 9 11
-0.87868541 4.4581075 -0.55791789 12 4
-0.87933767 4.4655128 0.72085011 11 12
-0.87304026 4.4417219 -0.39603567 26 5
-0.87575656 4.4637632 0.88420898 10 13
-0.86861676 4.4314761 -0.23666322 32 6
-0.87481993 4.4713798 1.0518711 7 14
-0.8677308 4.4433756 -0.079024501 17 7
-0.87490582 4.4842768 1.2242141 12 15
-0.85294449 4.4334345 -1.2097203 13 0
-0.86771882 4.5187407 0.080315977 20 8
-0.85328633 4.4477625 -1.0455725 21 1
-0.85979104 4.490149 0.23959403 25 9
-0.85319424 4.4641328 -0.88344568 22 2
-0.85908628 4.4992204 0.40074208 15 10
-0.8513031 4.4669209 -0.72022432 13 3
-0.85726386 4.5067391 0.56328017 8 11
-0.84680223 4.4602327 -0.55743045 12 4
-0.8558715 4.5122995 0.72742033 8 12
-0.84571803 4.4672842 -0.39777881 20 5
-0.85514313 4.525713 0.89527589 2 13
-0.84692222 4.4864969 -0.23928 31 6
-0.84296942 4.4827347 -0.07961788 23 7
-0.78746438 4.2570605 -1.160027 13 0
-0.84087491 4.550252 0.08076974 16 8
-0.83062696 4.503581 -1.0572699 20 1
-0.83993179 4.5629716 0.24315289 15 9
-0.82911158 4.5085979 -0.89107805 19 2
-0.82785863 4.5195312 -0.72773325 13 3
-0.99800843 5.4538002 0.68076223 1 11
-0.8266992 4.5265727 -0.56498629 10 4
-0.8280732 4.5475659 -0.40440264 20 5
-0.98008817 5.3930731 1.0654775 2 13
-0.8229937 4.5376415 -0.24168746 16 6
-0.89776719 4.9647131 -0.088064842 19 7
-0.97268081 5.3897333 1.467504 1 15
-0.79255152 4.4583631 -1.2133437 11 0
