# .PCD v0.7 - Point Cloud Data file format
VERSION 0.7
FIELDS x y z intensity ring
SIZE 4 4 4 4 2
TYPE F F F F U
COUNT 1 1 1 1 1
WIDTH 1314
HEIGHT 1
VIEWPOINT 0 0 0 1 0 0 0
POINTS 1314
DATA ascii
-2.7755032 6.2544341 -0.84016734 28 4
-3.9004679 8.8060522 -0.84262168 11 5
-3.8932607 8.8022242 -0.50441402 11 6
-3.9386387 8.9174366 -0.17016095 10 7
-2.3862755 5.4464164 -1.5932901 14 0
-2.6339064 6.0201807 -1.5170699 15 1
-2.88028 6.5958304 -1.3990116 3 2
-3.603626 8.2640953 -1.4279339 1 3
-2.723846 6.2554579 -0.83772999 28 4
-3.8111005 8.7691145 -0.83652079 29 5
-4.8629937 11.205503 -0.64017349 17 6
-3.8238084 8.8236179 -0.16785724 20 7
-2.3436191 5.4522924 -1.5901842 15 0
-2.5948908 6.0455837 -1.5188695 15 1
-2.8465285 6.6446533 -1.4051175 7 2
-3.5256443 8.2418318 -1.4197993 3 3
-2.6738703 6.2597175 -0.83578002 30 4
-3.7411923 8.7753468 -0.83460337 23 5
-3.7574651 8.8263226 -0.50273925 23 6
-3.7558565 8.8353767 -0.167578 10 7
-2.3085001 5.4756427 -1.5922549 15 0
-2.5526185 6.0635533 -1.5188695 15 1
-2.6745954 6.3657155 -1.3421506 9 2
-2.7863405 6.6414104 -1.1407202 2 3
-2.6193686 6.2525973 -0.83236772 28 4
-3.6813753 8.8049278 -0.83495206 11 5
-6.7197623 16.095663 -0.91409993 9 6
-2.2702167 5.4916258 -1.5922549 15 0
-4.672255 11.31331 0.21365236 15 8
-2.5042794 6.0668149 -1.5152704 15 1
-2.5822256 6.2680569 -1.317727 13 2
-3.3982019 8.2610254 -1.4147935 1 3
-2.5575495 6.2266641 -0.826518 28 4
-3.6031938 8.789854 -0.83111715 11 5
-3.5203798 8.6006603 -0.48703846 36 6
-4.6156249 11.293338 -0.21295427 15 7
-2.2448823 5.5395679 -1.6015723 15 0
-2.4545546 6.0660858 -1.5107714 15 1
-2.531055 6.2677264 -1.3139107 22 2
-7.9911122 19.798578 1.8679218 3 10
-3.3374951 8.2772169 -1.4135419 2 3
-2.5080886 6.2296343 -0.82456803 30 4
-4.5430503 11.3069 -1.066089 15 5
-4.4433632 11.075554 -0.62541473 26 6
-4.5366697 11.325285 -0.21295427 15 7
-2.197598 5.5335603 -1.5953608 15 0
-2.4135818 6.0866966 -1.5116711 15 1
-2.4742332 6.2523847 -1.3070416 28 2
-3.266562 8.2672472 -1.4079103 1 3
-2.4514232 6.2137537 -0.82018077 27 4
-4.3910189 11.152951 -1.0486579 15 5
-4.3863978 11.158349 -0.62834555 26 6
-2.1638162 5.5613704 -1.5989841 12 0
-2.3696187 6.0997658 -1.5107714 15 1
-2.420588 6.2438788 -1.301699 30 2
-3.2002096 8.267745 -1.404156 2 3
-2.4022586 6.2159028 -0.81823081 27 4
-4.3646688 11.317177 -1.0612082 15 5
-4.3076735 11.186836 -0.62824088 17 6
-4.3594432 11.338996 -0.21204674 15 7
-2.1249378 5.5763412 -1.5989841 12 0
-2.3172748 6.0906606 -1.5044726 19 1
-2.3671827 6.2349296 -1.2963563 28 2
-3.1564152 8.326827 -1.4104134 1 3
-2.3545887 6.2213831 -0.81676841 28 4
-4.2236075 11.18335 -1.0458689 15 5
-4.2019873 11.143753 -0.62415868 26 6
-4.2350893 11.249377 -0.20981283 15 7
-2.0859559 5.5910397 -1.5989841 12 0
-2.2692559 6.0920811 -1.5008734 15 1
-2.3222289 6.247623 -1.2955931 24 2
-2.8033679 7.5541663 -1.2761924 4 3
-2.3069601 6.2265015 -0.81530601 26 4
-4.0873942 11.055588 -1.0312268 14 5
-4.1344604 11.20092 -0.62572873 17 6
-4.1495361 11.259907 -0.20946379 15 7
-2.0389233 5.5836897 -1.5927725 13 0
-2.2119853 6.0674953 -1.4909756 15 1
-2.266475 6.2304735 -1.2887239 30 2
-3.0061297 8.2772493 -1.3947699 1 3
-2.2593746 6.2312579 -0.81384355 33 4
-4.002552 11.056927 -1.0287864 14 5
-4.0466638 11.203215 -0.62426335 35 6
-4.0531888 11.239693 -0.20855626 15 7
-2.0070415 5.6177993 -1.5984664 11 0
-2.1591005 6.0534215 -1.4837772 15 1
-5.2008214 14.589471 0.8117308 2 9
-2.2213817 6.2383571 -1.2871976 30 2
-2.958982 8.3235788 -1.39915 1 3
-2.2065265 6.2206869 -0.81043118 30 4
-2.7241402 7.6927347 -0.71397984 10 5
-3.9263747 11.106217 -0.61735499 17 6
-1.9591924 5.6039762 -1.5907019 13 0
-2.1306894 6.1047754 -1.4927752 19 1
-2.1764843 6.2500057 -1.2864343 30 2
-2.883935 8.2955208 -1.3910154 2 3
-2.1576238 6.2168083 -0.80799377 28 4
-3.8236299 11.035758 -1.021814 21 5
-3.8469491 11.147065 -0.20583369 22 7
-1.9231457 5.6266575 -1.5932901 11 0
-2.0804665 6.0973701 -1.4873765 16 1
-2.1224971 6.2312245 -1.2795652 28 2
-2.8363059 8.3411427 -1.3953955 1 3
-2.1065197 6.2091613 -0.80506897 30 4
-3.765671 11.118793 -1.0270432 22 5
-3.7645609 11.1347 -0.61599427 9 6
-2.6364703 7.8160605 -0.14398235 7 7
-1.8799027 5.6249599 -1.589149 10 0
-2.0352144 6.1002989 -1.484677 17 1
-2.076463 6.2384391 -1.2780387 30 2
-2.7717798 8.3419924 -1.392267 1 3
-2.0517075 6.1856728 -0.8001942 24 4
-3.7092369 11.209124 -1.0329698 22 5
-3.6892347 11.168298 -0.616413 26 6
-1.8435849 5.6471291 -1.5917372 9 0
-2.605571 7.9906397 0.14670493 6 8
-1.9792928 6.073596 -1.4747791 20 1
-2.02072 6.2154427 -1.2704064 30 2
-2.7098155 8.3498669 -1.3903897 1 3
-2.0072498 6.1960688 -0.7997067 28 4
-2.8405023 8.789113 -0.80810803 11 5
-3.5891051 11.125351 -0.61264473 18 6
-1.7970753 5.6377754 -1.5855255 9 0
-1.9072998 5.9944158 -1.452284 21 1
-1.9713392 6.2106862 -1.2665902 30 2
-2.6490695 8.3610487 -1.3891382 1 3
-1.9567611 6.1872182 -0.79678184 27 4
-3.5327432 11.190802 -1.0266947 14 5
-4.267251 13.550473 -0.74453139 8 6
-1.7490647 5.6225133 -1.5777609 12 0
-1.8359324 5.9126692 -1.4293389 23 1
-1.9266936 6.2164593 -1.2650636 28 2
-2.5885937 8.3675632 -1.3872609 1 3
-1.9111769 6.193141 -0.79580688 26 4
-2.6955895 8.751277 -0.80113554 16 5
-1.7073853 5.623198 -1.5746551 11 0
-1.8323815 6.0462532 -1.4585826 21 1
-1.8764306 6.2072082 -1.2604843 28 2
-2.522125 8.3589544 -1.3828808 2 3
-1.864398 6.1908007 -0.79385698 26 4
-2.6086342 8.6840162 -0.79329151 27 5
-2.5989799 8.6683455 -0.47426847 12 6
-3.3474777 11.186088 -0.2038092 14 7
-1.668089 5.6349797 -1.5746551 10 0
-1.7978593 6.0850611 -1.4648812 15 1
-1.8308306 6.2126241 -1.2589579 26 2
-2.4721141 8.3941174 0.765576 1 10
-2.4525592 8.3384571 -1.3766234 6 3
-1.8166592 6.1884274 -0.79190701 31 4
-2.5333884 8.6523008 -0.78875941 27 5
-2.5470212 8.7327595 -0.15878199 13 7
-1.6088988 5.5778093 -1.5555025 16 0
-1.7574904 6.1049552 -1.4666809 15 1
-1.783082 6.2101569 -1.2559049 26 2
-2.3910253 8.3439808 -1.3747462 6 3
-1.7679534 6.1818738 -0.78946966 33 4
-2.5045114 8.7747183 -0.79834664 11 5
-2.4979296 8.7748642 -0.47814137 24 6
-3.9199886 13.797781 -0.25037223 23 7
-1.5923839 5.66888 -1.5777609 11 0
-1.7085146 6.0945592 -1.461282 20 1
-1.7386538 6.2145877 -1.2543784 26 2
-2.3325803 8.3543558 -1.3738077 5 3
-2.3896363 8.5702696 1.0924369 8 11
-1.7236906 6.1902404 -0.78898221 31 4
-2.3973148 8.6268997 -0.78335583 16 5
-3.0850406 11.124303 -0.60500371 18 6
-1.5522306 5.6739974 -1.576208 13 0
-1.672123 6.1248469 -1.4657811 16 1
-1.6910994 6.2114196 -1.2513254 30 2
-2.2648766 8.3361235 -1.368176 5 3
-1.6815119 6.2018304 -0.78898221 34 4
-2.3515942 8.6972771 -0.78823656 11 5
-3.007829 11.147496 -0.60510838 9 6
-2.3786314 8.8339758 -0.15968952 9 7
-1.514568 5.6921639 -1.5782787 13 0
-1.6263222 6.1250701 -1.4630816 17 1
-7.438077 28.052834 1.5209877 8 9
-1.6426692 6.2040958 -1.2475092 30 2
-2.2152023 8.3842001 -1.3734949 2 3
-1.631092 6.1865449 -0.78556985 36 4
-2.2604229 8.5978689 -0.77777785 16 5
-4.1442738 15.797016 -0.85590225 8 6
-2.8739643 10.978325 -0.19808482 13 7
-1.47189 5.6913767 -1.5751728 13 0
-2.8785458 11.14656 0.20094702 13 8
-1.5825477 6.1325016 -1.4621819 17 1
-1.5954026 6.200202 -1.2444563 32 2
-4.9764934 19.354107 1.7483442 1 10
-2.1163325 8.242568 -1.3478395 12 3
-1.5829353 6.1785517 -0.78313243 39 4
-2.2956717 8.9735479 1.4670426 5 12
-2.2121785 8.6597691 -0.78196126 22 5
-2.7966392 10.971643 -0.5933851 19 6
-2.8465471 11.191919 -0.20157529 14 7
-1.4231789 5.6659145 -1.5653377 14 0
-2.8064959 11.18966 0.20136586 13 8
-1.535906 6.1282778 -1.4585826 17 1
-1.5473187 6.1921425 -1.2406402 32 2
-1.7194375 6.896286 -1.1257026 12 3
-1.5349699 6.170188 -0.78069508 34 4
-2.1545458 8.6866045 -0.78300714 16 5
-2.7276461 11.021922 -0.59505987 28 6
-2.7798429 11.258114 -0.20241301 14 7
-1.3781009 5.6531882 -1.559126 15 0
-2.716013 11.158464 0.20045835 26 8
-1.4912459 6.1312761 -1.4567831 15 1
-1.5003505 6.18753 -1.2375872 34 2
-1.6415226 6.7852421 -1.1056789 18 3
-1.4806782 6.1344419 -0.77484536 24 4
-1.4636436 6.0824809 -0.54733807 28 5
-1.4537708 6.0553885 -0.32636705 22 6
-1.3386006 5.6626716 -1.559126 15 0
-2.6288586 11.138227 0.19976024 39 8
-1.4434847 6.1206741 -1.4518342 25 1
-1.4310597 6.0870061 -1.2154534 36 2
-1.4299229 6.0964961 -0.99179459 42 3
-1.4233453 6.0827765 -0.76704568 31 4
-1.4166182 6.0731478 -0.54559493 56 5
-1.4146296 6.0790076 -0.32709977 33 6
-1.3007575 5.6794119 -1.5611964 16 0
-2.5439086 11.125118 0.19920176 26 8
-1.38509 6.0622106 -1.4356377 42 1
-1.3859136 6.0853629 -1.2131636 34 2
-1.3798866 6.0735836 -0.98647583 33 3
-1.3799673 6.0886927 -0.76655823 27 4
-1.3711147 6.0692849 -0.54437476 42 5
-2.1873493 9.6902628 1.9309872 4 13
-1.380062 6.1238055 -0.32898384 11 6
-1.2610788 5.688354 -1.5611964 16 0
-2.4722285 11.169942 0.19969043 13 8
-1.3557813 6.1307178 -1.4495846 24 1
-1.3586062 6.1639113 -1.2269019 30 2
-1.3735039 6.2470598 -1.0130697 5 3
-1.3484803 6.1485934 -0.77289546 39 4
-1.8694688 8.5526257 -0.76592463 16 5
-2.9566443 13.560369 -0.7273652 8 6
-1.9136566 8.7989349 -0.15717638 9 7
-1.2148566 5.6667962 -1.5529144 15 0
-1.3479924 6.3039203 -1.4882761 11 1
-1.3155438 6.1732454 -1.2269019 32 2
-1.4156981 6.6603279 -1.0784594 3 3
-1.3038753 6.1500897 -0.77192044 31 4
-1.8210981 8.6119356 -0.7701081 21 5
-2.3289716 11.05177 -0.59191972 28 6
-1.8324342 8.7181492 -0.15550095 8 7
-1.1780077 5.6883817 -1.5565379 13 0
-1.295278 6.2711916 -1.4783784 16 1
-1.272701 6.1782112 -1.2261386 34 2
-1.7138067 8.3416166 -1.3487781 1 3
-1.2593182 6.1512632 -0.77094555 27 4
-1.7501736 8.5717316 -0.76540172 26 5
-2.2497108 11.047795 -0.590873 19 6
-1.1316833 5.6583815 -1.5461851 12 0
-1.256373 6.298974 -1.4828774 21 1
-1.2295409 6.186945 -1.2261386 24 2
-1.3252652 6.6869659 -1.0797108 13 3
-1.2181855 6.163588 -0.771433 27 4
-1.6833599 8.5485535 -0.76226407 31 5
-2.636667 13.426785 -0.71710736 17 6
-1.0987341 5.7002892 -1.5555025 12 0
-2.1477444 11.163545 0.19843386 12 8
-1.2222987 6.3592615 -1.4950247 13 1
-1.1833613 6.1799536 -1.2230858 26 2
-1.286703 6.7387409 -1.0865939 9 3
-1.1729012 6.1602416 -0.7699706 27 4
-1.6258663 8.5718422 -0.76330996 26 5
-2.103399 11.121305 -0.59317577 28 6
-1.0606766 5.7173176 -1.5580908 10 0
-2.0573773 11.111414 0.1972471 25 8
-1.1683055 6.3159013 -1.4828774 17 1
-1.1373422 6.1726179 -1.2200328 27 2
-1.2564023 6.8388743 -1.1012988 6 3
-1.1262891 6.1487536 -0.76753318 28 4
-1.5399195 8.4317932 -0.74988794 10 5
-2.9057722 15.973575 -0.85087812 8 6
-1.0088336 5.6521373 -1.5384204 11 0
-1.9915156 11.180285 0.19822444 12 8
-1.1290398 6.3448119 -1.4878262 14 1
-1.0925622 6.1647511 -1.2169799 27 2
-1.187485 6.7208261 -1.0809623 13 3
-1.0844127 6.1562767 -0.76753318 28 4
-1.5031666 8.5598211 -0.76034665 21 5
-1.9546833 11.176791 -0.59464121 9 6
-1.9422786 11.140229 -0.19738671 13 7
-0.98144084 5.7236109 -1.5560201 10 0
-1.8984985 11.095029 0.19647919 12 8
-1.0589048 6.1948376 -1.4509343 15 1
-1.0492539 6.1643038 -1.2154534 31 2
-1.1754129 6.9274035 -1.1128749 4 3
-1.0394201 6.1519542 -0.76607072 25 4
-1.475799 8.7626495 -0.77742916 21 5
-1.9945921 11.86831 2.3393183 9 13
-1.8614169 11.099556 -0.58982629 28 6
-0.94045842 5.7304873 -1.5560201 11 0
-1.8132443 11.072808 0.19585089 25 8
-1.0173798 6.2195654 -1.4549835 16 1
-1.003854 6.1639037 -1.2139269 29 2
-1.3429344 8.2732372 -1.327503 12 3
-0.99537116 6.1592345 -0.76607072 27 4
-1.391196 8.6372604 -0.76540172 26 5
-2.5358295 15.813995 -0.83936411 8 6
-1.7694547 11.071791 -0.19571128 13 7
-0.89823121 5.7294364 -1.5539496 11 0
-1.7364351 11.101305 0.19613016 25 8
-0.98096949 6.2786713 -1.4671308 13 1
-0.95972049 6.170929 -1.2139269 29 2
-1.283093 8.2787313 -1.3268772 11 3
-0.9511354 6.158186 -0.76509583 27 4
-1.3550911 8.8143806 -0.78021818 16 5
-1.6888885 11.024076 -0.58448797 19 6
-0.84677511 5.6591439 -1.5332441 10 0
-0.86153406 5.7784514 -1.3488065 16 1
-0.91431367 6.1619425 -1.210874 31 2
-1.2264251 8.2953043 -1.3281288 9 3
-0.90580845 6.1489644 -0.76314586 22 4
-1.2761785 8.705348 -0.76975954 21 5
-1.9758868 13.527699 -0.7164793 8 6
-1.6014425 11.004391 -0.19410567 33 7
-0.8167876 5.7318563 -1.5513614 8 0
-0.8811574 6.2068624 -1.4473351 15 1
-0.87182212 6.1720634 -1.2116373 31 2
-2.0064108 14.222305 1.2566115 4 10
-1.1712357 8.323225 -1.3312575 10 3
-0.86065382 6.1394114 -0.76119596 24 4
-1.5335324 10.995166 -0.97126353 13 5
-1.892948 13.62425 -0.72087556 26 6
-1.5355498 11.094534 -0.19550186 33 7
-0.77882242 5.7527342 -1.5555025 9 0
-0.79509336 5.8961363 -1.3735511 12 1
-0.82766771 6.1702161 -1.2101108 29 2
-1.1073449 8.2881241 -1.3243743 11 3
-0.81724799 6.1413345 -0.76070851 25 4
-1.7735976 13.399501 -1.1825291 20 5
-2.0943286 15.886557 -0.83978289 26 6
-1.4559755 11.089124 -0.19522263 20 7
-0.73593801 5.7369537 -1.5498085 9 0
-1.4298487 11.177197 0.19668862 12 8
-0.77020919 6.0291238 -1.4032447 12 1
-1.996719 15.673645 0.82805955 2 9
-0.7830897 6.1641579 -1.207821 31 2
-1.0514392 8.3113298 -1.3268772 9 3
-0.77534592 6.1547689 -0.76168346 27 4
-1.971236 15.736437 -1.3875195 27 5
-1.9907849 15.960247 -0.84292299 8 6
-0.68657178 5.6652393 -1.529103 11 0
-0.74957573 6.2123466 -1.4446357 14 1
-0.74003369 6.1694751 -1.207821 29 2
-0.97956961 8.2027426 -1.308418 13 3
-0.7309525 6.1482043 -0.76022106 22 4
-1.3122876 11.104015 -0.97823608 14 5
-1.3014936 11.062416 -0.58375531 29 6
-0.64284533 5.6334248 -1.5192679 13 0
-0.62459666 5.4990644 -1.277722 17 1
-0.69694465 6.1744914 -1.207821 29 2
-0.92999864 8.2780876 -1.3193684 20 3
-0.68646801 6.139348 -0.75851488 16 4
-1.2106218 10.948153 -0.57726568 9 6
-0.61152023 5.7126899 -1.5394558 9 0
-0.65801972 6.1776376 -1.4342879 17 1
-0.65324754 6.1634731 -1.2047681 29 2
-0.87611979 8.3077993 -1.3231229 3 3
-0.64255941 6.1341195 -0.75729614 21 4
-1.1253653 10.852837 -0.5718227 10 6
-0.56511182 5.6417527 -1.5192679 12 0
-1.1042695 11.063334 0.19407077 37 8
-0.60107732 6.0326595 -1.3996454 14 1
-0.60865325 6.1522536 -1.2017151 29 2
-0.81886894 8.321578 -1.3243743 1 3
-0.60194808 6.1502051 -0.7587586 16 4
-1.063282 10.942467 -0.96185076 13 5
-1.7750291 18.367105 -0.9670639 9 6
-0.52839792 5.6744132 -1.5270324 11 0
-1.0260825 11.060817 0.19389623 12 8
-0.57529658 6.2132893 -1.4405866 16 1
-0.56676841 6.1680832 -1.2040049 31 2
-0.75967896 8.3152876 -1.3224971 2 3
-0.55864066 6.1503029 -0.7582711 15 4
-1.0190499 11.306808 -0.99322683 14 5
-1.2114908 13.521205 -0.71145505 8 6
-0.49539763 5.7549539 -1.547738 9 0
-0.95088816 11.091619 0.19431511 12 8
-0.53672302 6.2734618 -1.4536338 15 1
-0.5210374 6.1405902 -1.197899 31 2
-1.7076123 20.166527 1.7706561 1 10
-0.69828922 8.2810211 -1.3162397 1 3
-0.51585561 6.1560316 -0.75851488 12 4
-0.9453752 11.353191 -0.9967131 14 5
-0.90538669 10.965587 -0.57663763 19 6
-1.1237621 13.697888 -0.23990077 21 7
-0.45186171 5.7159033 -1.5363499 10 0
-0.87222278 11.057964 0.193617 24 8
-0.49093264 6.2518001 -1.447785 17 1
-0.48014361 6.1557379 -1.2001886 29 2
-0.63793868 8.234376 -1.3081051 19 3
-0.47119439 6.137711 -0.75583369 15 4
-0.83943361 11.009869 -0.96603423 13 5
-0.83947659 11.087006 -0.5827086 9 6
-1.0149482 13.529919 -0.23682916 30 7
-0.41461113 5.7419691 -1.5425617 10 0
-0.79873401 11.115643 0.19452453 12 8
-0.44320834 6.1830783 -1.4311386 12 1
-0.43576673 6.1393571 -1.1963725 31 2
-0.57752097 8.1972485 -1.3015349 16 3
-0.42954385 6.1427565 -0.75607747 12 4
-0.7674979 11.087015 -0.97230941 13 5
-0.76259637 11.100566 -0.58312726 9 6
-0.37300912 5.72159 -1.5363499 9 0
-0.71308511 10.997228 0.19236042 36 8
-0.39953139 6.1782422 -1.4293389 15 1
-0.39264467 6.1383309 -1.1956092 31 2
-0.52303082 8.2444515 -1.308418 8 3
-0.3862749 6.1396623 -0.7553463 10 4
-0.52653122 8.4632463 -0.74186963 20 5
-0.68545556 11.1116 -0.58344132 19 6
-0.33485124 5.7549119 -1.5446322 9 0
-0.64483649 11.149668 0.19494337 12 8
-0.36312011 6.2976122 -1.4563332 13 1
-0.3495611 6.137002 -1.1948459 31 2
-0.46847001 8.3011522 -1.3168654 22 3
-0.34285143 6.1322989 -0.75412756 12 4
-0.7470594 13.531628 -1.1856667 20 5
-0.73185927 13.383611 -0.70245332 26 6
-0.29367599 5.7378163 -1.5394558 9 0
-0.31855106 6.2883162 -1.4536338 15 1
-0.30690414 6.1432147 -1.1956092 31 2
-0.40767726 8.2470055 -1.3077923 14 3
-0.30071035 6.1484218 -0.75583369 10 4
-0.52311069 10.970463 -0.57559091 29 6
-0.24879006 5.6529217 -1.516162 13 0
-0.37489706 8.5865107 0.1500209 19 8
-0.27303979 6.2787533 -1.4509343 12 1
-0.26260075 6.1374078 -1.1940827 34 2
-0.34881943 8.2536573 -1.308418 17 3
-0.25604331 6.1345496 -0.75388384 10 4
-0.44022855 10.866161 -0.5699386 20 6
-0.43970376 10.995536 -0.19208118 32 7
-0.21053404 5.6873398 -1.5249618 11 0
-0.31312856 8.4989395 0.14845017 12 8
-0.23062055 6.3194551 -1.4599323 14 1
-0.22039226 6.1272817 -1.1917931 31 2
-0.29262641 8.2558413 -1.308418 18 3
-0.29896253 8.6041546 -1.0570948 7 4
-0.36194965 10.741154 -0.56323957 20 6
-0.29513612 8.9437695 -0.15619904 8 7
-0.17263308 5.7156744 -1.5322088 11 0
-0.32956597 11.0394 0.19277929 24 8
-0.18713747 6.3052959 -1.4563332 14 1
-0.1776133 6.1286707 -1.1917931 29 2
-0.2439362 8.7329845 -1.0726941 7 4
-0.30168241 11.077563 -0.96952045 13 5
-0.23309302 8.7269077 -0.45752099 12 6
-0.13317707 5.7360535 -1.5373851 9 0
-0.25144219 10.995451 0.19197647 36 8
-0.1425861 6.2830696 -1.4509343 15 1
-0.13465011 6.1219101 -1.1902666 31 2
-0.1775434 8.2689972 -1.3099824 11 3
-0.22357932 10.673486 -1.3108268 5 4
-0.17715219 8.7487822 -0.765576 10 5
-0.17019679 8.6284781 -0.45228738 12 6
-0.094066568 5.7947917 -1.5529144 10 0
-0.13919878 8.7635603 0.15298781 21 8
-0.098531879 6.2722206 -1.4482349 14 1
-0.092146493 6.1384048 -1.1933196 25 2
-0.12049735 8.3174391 -1.3174912 2 3
-0.085920885 6.1531863 -0.75559002 7 4
-0.11540133 8.5864239 -0.75128251 15 5
-0.17321461 13.594239 -0.71250176 8 6
-0.053162262 5.7470126 -1.5399734 8 0
-0.10038322 11.05986 0.19305852 24 8
-0.054469034 6.2415767 -1.4410365 15 1
-0.050229717 6.1231847 -1.1902666 29 2
-0.063485026 8.2667084 -1.3093567 7 3
-0.042850588 6.1377559 -0.75364012 6 4
-0.055286713 8.56112 -0.74901646 26 5
-0.050454468 8.502182 -0.44558835 13 6
-0.045453012 8.6805592 -0.15152179 8 7
-0.014115829 5.7762198 -1.547738 9 0
-0.023079367 11.020298 0.19236042 24 8
-0.011966886 6.23206 -1.438787 21 1
-0.0074614193 6.1076794 -1.1872137 29 2
-0.0057764901 8.2748518 -1.310608 1 3
-0.0010700895 6.1319504 -0.75290889 9 4
0.0045200707 8.6330233 -0.75529164 26 5
0.0088990014 8.498333 -0.44537902 13 6
0.013666263 8.7006645 -0.15187085 8 7
0.026104938 5.7529955 -1.5415263 10 0
0.054033287 11.056185 0.19298871 36 8
0.031485174 6.2202992 -1.4360875 15 1
0.03522072 6.1154361 -1.1887401 31 2
0.052075934 8.288518 -1.3127981 2 3
0.058881808 8.6508322 -1.0622133 5 4
0.063040353 8.3996773 -0.7348972 20 5
0.087470166 10.894698 -0.57098538 10 6
0.074818447 8.7483473 -0.15270855 8 7
0.066671081 5.7874436 -1.5508437 9 0
0.07430011 6.1692638 -1.4243901 14 1
0.077913657 6.1150413 -1.1887401 31 2
0.11004423 8.2958536 -1.3140497 2 3
0.11645957 8.4457645 -1.0371082 6 4
0.12149692 8.4887018 -0.74274123 25 5
0.12925896 8.6112118 -0.45134532 25 6
0.17005342 10.947012 -0.19110386 13 7
0.10767823 5.8196735 -1.5596437 9 0
0.11732786 6.1666465 -1.4239402 14 1
0.1195357 6.1143694 -1.1887401 31 2
0.16674776 8.3067617 -1.3159269 2 3
0.17265712 8.3117743 -1.0207777 9 4
0.18079869 8.4896393 -0.74291551 10 5
0.18726486 8.5821772 -0.44987994 25 6
0.19398688 8.6145039 -0.15040484 8 7
0.14650691 5.7879057 -1.5513614 8 0
0.15930027 6.1657052 -1.4239402 14 1
0.16232328 6.117311 -1.1895033 29 2
0.22388089 8.2737999 -1.310921 2 3
0.22076163 7.953187 -0.97690481 9 4
0.23690489 8.3766413 -0.73315412 20 5
0.24860881 8.6305714 -0.45249674 38 6
0.25370991 8.5989475 -0.15016051 37 7
0.18647829 5.7422996 -1.5394558 9 0
0.20470236 6.203361 -1.4329382 13 1
0.20423691 6.092483 -1.184924 31 2
0.25247592 7.3776646 -1.1691914 5 3
0.21375851 6.1520586 -0.75583369 4 4
0.30892551 8.5886517 -0.45040327 38 6
0.31526309 8.6389332 -0.15089351 20 7
0.22579801 5.7215543 -1.5342795 9 0
0.24730422 6.1842561 -1.428889 9 1
0.24846698 6.1065578 -1.1879768 27 2
0.34147429 8.2855988 -1.313424 3 3
0.35198328 8.4332705 -1.0363771 9 4
0.31665468 7.4926658 -0.65610844 8 5
0.37695652 8.6684866 -0.15145199 12 7
0.26645645 5.7352767 -1.5384204 9 0
0.29019806 6.1765389 -1.4275393 11 1
0.29002732 6.1047254 -1.1879768 29 2
0.39729613 8.2712431 -1.3115468 2 3
0.41287917 8.4722452 -1.0414956 12 4
0.42375007 8.6026697 -0.75354856 26 5
0.54767376 11.00126 -0.57726568 9 6
0.38019815 7.531261 -0.13162605 9 7
0.30630875 5.7487636 -1.5425617 9 0
0.4018237 7.4920893 0.13096286 36 8
0.33558142 6.23669 -1.4419363 14 1
0.33285299 6.106473 -1.1887401 29 2
0.45546481 8.2761574 -1.3127981 2 3
0.46822596 8.4276161 -1.0363771 9 4
0.48044032 8.5398245 -0.74831921 26 5
0.48179385 8.4846697 -0.44537902 13 6
0.63099021 11.010255 -0.19250005 19 7
0.34550518 5.7310581 -1.5384204 10 0
0.37840381 6.2225246 -1.4392369 11 1
0.37595534 6.1118388 -1.1902666 29 2
0.50943649 8.2116566 -1.3030992 4 3
0.53014523 8.4736719 -1.0424705 12 4
0.53904146 8.5203552 -0.7469247 31 5
0.54762799 8.5847454 -0.45082197 25 6
0.38628811 5.7400713 -1.5415263 9 0
0.415905 6.1322389 -1.4189912 6 1
0.41727272 6.0894785 -1.1864504 29 2
0.56498337 8.1822824 -1.299032 9 3
0.5919075 8.5073891 -1.0471015 9 4
0.59850752 8.5163851 -0.7469247 26 5
0.60669696 8.5687599 -0.45019394 25 6
0.42520383 5.7218223 -1.5373851 9 0
0.47135592 6.2982535 -1.4581327 8 1
0.46007377 6.0903316 -1.1872137 27 2
0.60080373 7.9348912 0.69620007 2 10
0.62779009 8.252986 -1.310921 3 3
0.64765149 8.4555483 -1.0412518 9 4
0.65272796 8.444459 -0.74099815 30 5
0.6789006 8.7236137 -0.45856768 12 6
0.67555463 8.6222591 -0.15096332 8 7
0.46654889 5.7360439 -1.5420439 8 0
0.51324755 6.2695608 -1.452284 10 1
0.50419366 6.1065378 -1.1910298 23 2
0.68489683 8.2424965 -1.3099824 4 3
0.68356317 8.1917973 1.009322 2 11
0.69822621 8.3499327 -1.0288211 7 4
0.71420604 8.4874678 -0.74518156 25 5
0.92351389 10.8839 -0.57245076 10 6
0.5047121 5.7114792 -1.5363499 10 0
0.54803199 6.1648879 -1.428889 10 1
0.54539829 6.0990539 -1.1902666 31 2
0.73903924 8.2160015 -1.3065407 3 3
0.80023324 8.827239 -1.0882933 6 4
0.77390933 8.5202818 1.3550355 2 12
0.80003387 8.7739468 -0.77080542 10 5
1.6786715 18.303961 -0.96329564 9 6
0.54742336 5.7482977 -1.5472202 8 0
0.58515263 6.1105785 -1.4171916 10 1
0.58871549 6.1029143 -1.1917931 31 2
0.79905355 8.2381678 -1.310921 4 3
0.8391096 8.6042576 -1.0614821 7 4
1.0759033 10.953245 -0.96289659 20 5
1.0699526 10.834355 -0.57056665 30 6
1.091557 10.994263 -0.19284908 13 7
0.58577162 5.7270398 -1.5425617 10 0
0.62660241 6.0947132 -1.4144921 10 1
0.63009757 6.0869384 -1.1895033 34 2
0.85245484 8.1930933 -1.3046635 9 3
0.87375903 8.3553495 -1.0315022 9 4
1.1490023 10.913765 -0.96010768 27 5
1.1598606 10.961681 -0.57768434 9 6
1.424997 13.400394 -0.23522353 20 7
0.6293065 5.7554574 -1.5513614 8 0
1.2012198 10.950637 0.19229062 12 8
0.6848827 6.2335348 -1.447785 10 1
0.67171395 6.0745854 -1.1879768 34 2
0.91617686 8.245842 -1.3140497 1 3
0.9732545 8.7179651 -1.0770813 6 4
1.2291758 10.941115 -0.96324527 13 5
0.9747014 8.6352396 -0.45542756 12 6
1.2476598 11.001795 -0.19326794 13 7
0.6692484 5.7490048 -1.5508437 11 0
0.72612083 6.2092462 -1.4432859 13 1
0.71547961 6.0814471 -1.1902666 34 2
0.94357848 7.9842205 -1.2733767 9 3
1.0343276 8.7129297 -1.0773251 9 4
1.0409268 8.7165346 -0.7680164 16 5
1.3044671 10.875012 -0.5740208 20 6
0.70463502 5.7058463 -1.540491 10 0
1.3618636 10.996302 0.19340758 12 8
0.77113378 6.2175622 -1.4464353 15 1
0.75646067 6.0646152 -1.1879768 36 2
1.017956 8.1264038 -1.2971548 9 3
1.2135582 9.6469507 -1.1938322 16 4
1.3693161 10.824055 -0.9545297 13 5
1.364248 10.738834 -0.56732178 20 6
0.74945241 5.7391 -1.5508437 9 0
1.4396374 10.994457 0.19354719 12 8
0.80768132 6.1598577 -1.4342879 20 1
0.80288672 6.0903287 -1.1940827 38 2
1.0560051 7.9781008 -1.2746283 10 3
0.81199211 6.109993 -0.7568087 7 4
1.1745963 8.7219219 -0.15361607 8 7
0.78897363 5.7299008 -1.5498085 10 0
1.5130768 10.960368 0.19312833 24 8
0.8399893 6.0768542 -1.4162918 15 1
0.8335008 5.9990134 -1.1772915 31 2
0.83607721 5.9945302 -0.9586305 33 3
0.83536118 5.9665608 -0.73974699 31 4
0.84122127 5.9780431 -0.52816379 51 5
0.84278607 5.9665022 -0.31579518 32 6
1.2371469 8.7253895 -0.15382551 8 7
0.82784921 5.7166057 -1.547738 10 0
1.591276 10.961411 0.19333775 24 8
0.86977965 5.9840603 -1.3960463 47 1
0.8725211 5.9736223 -1.1734754 36 2
0.87475199 5.9670482 -0.95518899 35 3
0.87670344 5.9586201 -0.73950326 28 4
0.88235539 5.968082 -0.52781516 51 5
0.88676465 5.9762778 -0.31663257 32 6
1.2886062 8.6532469 -0.15270855 8 7
0.86744553 5.708777 -1.5472202 8 0
1.6665633 10.942127 0.19319814 24 8
0.9138822 5.9932542 -1.3996454 70 1
0.91777122 5.9906731 -1.1780548 38 2
1.2579706 8.1826706 -1.3112338 9 3
0.93644089 6.0700674 -0.75412756 13 4
1.6800961 10.852775 -0.96080488 13 5
2.4235175 15.583028 -0.82648951 17 6
1.3489816 8.6440411 -0.15270855 8 7
0.91183496 5.7311993 -1.5549849 11 0
0.97628617 6.1156611 -1.4297889 9 1
0.97405249 6.0812144 -1.1971357 29 2
1.3239828 8.2382803 -1.3215585 1 3
0.9803769 6.0731807 -0.7553463 10 4
1.369108 8.4531355 -0.74919075 21 5
2.5855939 15.911163 -0.84480709 17 6
1.3989877 8.5712576 -0.15159161 24 7
0.95209098 5.7324829 -1.5570555 11 0
1.815954 10.91022 0.19305852 12 8
1.033586 6.203064 -1.4518342 14 1
1.0171317 6.0781388 -1.197899 31 2
1.384081 8.244421 -1.3240615 1 3
1.0216931 6.0663667 -0.7553463 10 4
1.8347847 10.847904 -0.96254802 13 5
1.4303303 8.429781 -0.44810051 13 6
1.4485737 8.5102816 -0.15068409 20 7
0.99043638 5.7161798 -1.5544673 9 0
1.0695218 6.1534581 -1.4419363 14 1
1.0595404 6.0708899 -1.197899 29 2
1.4341099 8.1917496 -1.3171782 2 3
1.0629894 6.0532203 -0.75461507 12 4
1.5004926 8.5097179 -0.75598896 26 5
1.9413517 10.976345 -0.58417404 9 6
1.0279168 5.695817 -1.5508437 9 0
1.1228679 6.2033687 -1.4554334 12 1
1.1018945 6.0633454 -1.197899 29 2
1.4919689 8.1854267 -1.3178041 2 3
1.106648 6.053463 -0.75559002 12 4
1.549754 8.4522743 -0.75180542 31 5
1.9882846 10.801455 -0.57559091 19 6
1.0701535 5.7017932 -1.5544673 9 0
1.1639884 6.183887 -1.4527339 15 1
11.657825 61.87495 3.2997823 7 9
1.1467855 6.0749955 -1.2017151 31 2
1.5550034 8.2138987 -1.3240615 1 3
1.1537 6.0709424 -0.7587586 15 4
1.6150693 8.4745207 -0.75476873 21 5
2.0692606 10.826906 -0.57768434 19 6
1.1011821 5.6545558 -1.5435969 9 0
2.1241171 10.887033 0.193617 24 8
1.206798 6.179647 -1.4536338 14 1
1.1884108 6.0629883 -1.2009518 29 2
1.6100197 8.1912136 -1.3221843 1 3
1.194997 6.0629487 -0.7587586 15 4
1.6641402 8.412221 -0.75023663 10 5
2.1580093 10.878805 -0.58124322 29 6
2.1647837 10.883098 -0.19368681 13 7
1.1425439 5.6561985 -1.5461851 8 0
2.2064121 10.903298 0.19417547 12 8
1.2491369 6.1672506 -1.4527339 14 1
12.520605 61.706146 3.2997823 7 9
1.2322738 6.0622406 -1.2024784 31 2
1.6671658 8.1797743 -1.3221843 7 3
1.2380902 6.0583482 -0.75924611 18 4
1.7540464 8.5526371 -0.76383299 10 5
2.239532 10.890864 -0.5827086 29 6
2.2512028 10.918641 -0.19459434 13 7
1.1689453 5.5856853 -1.529103 11 0
2.2947867 10.946345 0.19522263 25 8
1.2777557 6.0897207 -1.4365374 12 1
4.4660206 21.247929 1.1378884 3 9
1.2737572 6.0496473 -1.2017151 29 2
1.7136228 8.1176834 -1.3140497 21 3
14.118292 66.765106 8.3790054 14 11
1.2795331 6.0456729 -0.7587586 16 4
1.7822556 8.3920641 -0.75058526 10 5
2.2922175 10.765569 -0.57684696 29 6
2.3273747 10.902658 -0.19459434 13 7
1.2164992 5.6170378 -1.5399734 8 0
2.3652153 10.902698 0.19473396 37 8
1.3318163 6.1339741 -1.4491347 14 1
13.366513 61.458961 3.2962234 7 9
1.3184681 6.0521169 -1.2040049 31 2
13.07443 59.964771 5.3694906 3 10
1.752129 8.0225363 -1.3005962 17 3
14.588296 66.684303 8.381443 14 11
1.3242562 6.0482273 -0.76022106 18 4
1.8690146 8.5078516 -0.76208979 10 5
2.3746223 10.782463 -0.57862639 39 6
1.2480866 5.5744748 -1.530656 8 0
2.4473939 10.913239 0.19522263 37 8
1.3810085 6.1530485 -1.4558831 16 1
1.3632754 6.0542564 -1.2062945 29 2
13.601346 60.354069 5.4127202 5 10
1.8341913 8.1257229 -1.3193684 10 3
1.3673247 6.0427074 -0.76070851 19 4
1.9195477 8.4557362 -0.75860357 10 5
2.4498453 10.765621 -0.57862639 19 6
1.2974161 5.6107988 -1.5430793 8 0
1.9748762 8.5269604 0.15277837 20 8
1.4226081 6.1375628 -1.4545335 11 1
1.409066 6.0598893 -1.2093475 31 2
14.105484 60.614693 5.4447937 5 10
1.8980492 8.1435013 -1.3243743 3 3
14.9827 64.181442 8.0923681 10 11
1.411284 6.0407472 -0.76168346 19 4
1.9967141 8.5197239 -0.765576 10 5
1.988252 8.4636688 -0.45563689 25 6
2.0001554 8.4943609 -0.1523246 97 7
1.3280364 5.5659013 -1.5332441 9 0
2.5967455 10.866333 0.1950132 37 8
1.4413985 6.0270309 -1.4306886 17 1
1.4504187 6.0460868 -1.2085842 31 2
14.533892 60.537987 5.4468851 6 10
1.9580841 8.1434975 -1.3265644 10 3
15.261265 63.372787 8.0036478 9 11
1.4529538 6.0288177 -0.76143968 22 4
2.0350771 8.4184294 -0.75773197 26 5
2.6239002 10.829364 -0.58396471 29 6
1.3811694 5.6146474 -1.5492908 8 0
2.6821053 10.886773 0.19571128 25 8
1.4885743 6.0376334 -1.4356377 15 1
1.4925929 6.0358133 -1.2085842 31 2
15.200244 61.421417 5.5357842 8 10
2.024868 8.1698933 -1.3331347 8 3
15.733924 63.388 8.0192471 9 11
1.4964433 6.0243063 -0.76217091 25 4
2.1183603 8.5026159 -0.76662189 10 5
2.7178259 10.884416 -0.58794218 28 6
1.4094161 5.5617976 -1.5373851 9 0
2.7619791 10.883289 0.19599053 12 8
1.5302061 6.0252061 -1.4351877 16 1
14.942999 58.752285 3.1771069 1 9
1.5405126 6.0480757 -1.2131636 29 2
15.200534 59.634132 5.3841333 4 10
2.0813706 8.1536427 -1.3328218 1 3
16.909597 66.146103 8.382905 14 11
1.5428952 6.0310206 -0.7643646 28 4
2.2444751 8.7543344 -0.79067689 11 5
2.7887685 10.845835 -0.58689547 28 6
2.815819 10.927313 -0.19696786 13 7
1.4496732 5.5574303 -1.538938 8 0
1.5643469 5.9842105 -1.4279894 21 1
15.376941 58.780605 3.1842246 2 9
1.5826371 6.0412488 -1.2139269 31 2
15.505258 59.102577 5.3457847 3 10
2.1488571 8.1851435 -1.3403307 1 3
17.507839 66.593903 8.4545641 14 11
1.5869837 6.027781 -0.76533955 27 4
2.833127 10.738123 -0.97161222 27 5
2.2488787 8.5056477 -0.46107981 12 6
2.9084427 10.969241 -0.19808482 13 7
1.4769586 5.5082502 -1.5280677 11 0
2.9200702 10.875073 0.196549 25 8
1.5817825 5.8868523 -1.4072938 22 1
1.6247745 6.0300527 -1.2139269 29 2
15.738106 58.368546 5.288959 1 10
2.2141867 8.2004557 -1.3453366 1 3
18.067696 66.822647 8.4994125 15 11
1.6279739 6.01684 -0.76533955 28 4
2.3445711 8.6413832 -0.78335583 11 5
2.976819 10.948972 -0.59464121 9 6
1.5184602 5.5089788 -1.5311736 9 0
3.0012414 10.873698 0.19689806 12 8
1.6456696 5.9583158 -1.4270895 15 1
3.9796934 14.389315 0.7824226 2 9
1.6689256 6.0261316 -1.2154534 29 2
16.147341 58.264931 5.2896562 1 10
2.2671528 8.16957 -1.3428336 1 3
16.77874 60.379421 7.6945872 5 11
1.6710062 6.0091519 -0.76582706 27 4
17.730625 63.675598 10.468908 11 12
2.3523998 8.4367247 -0.76627332 21 5
3.0370617 10.870216 -0.59150106 28 6
3.0788102 10.997422 -0.1993414 14 7
1.5474091 5.4647856 -1.521856 10 0
1.695737 5.9766779 -1.4342879 16 1
16.152615 56.854916 3.0975564 0 9
1.7120324 6.0181093 -1.2162166 31 2
16.44022 57.752209 5.2533994 0 10
2.3284681 8.1687403 -1.3453366 1 3
17.365486 60.841103 7.7686839 5 11
1.7172756 6.0126104 -0.76777691 28 4
18.205151 63.656616 10.486429 11 12
2.4320855 8.4928808 -0.77289706 10 5
3.1899955 11.117519 -0.6061551 9 6
3.1157346 10.837285 -0.19682825 13 7
1.5990025 5.5002265 -1.534797 8 0
1.7363278 5.9609523 -1.4333881 15 1
16.571512 56.817455 3.101743 0 9
1.7573072 6.0173173 -1.2185063 29 2
16.907862 57.857857 5.2736197 1 10
2.3887684 8.163661 -1.3472137 1 3
3.9131675 13.356026 1.7088521 1 11
1.7592099 6.0004749 -0.76777691 28 4
18.907286 64.40744 10.6316 13 12
2.4890699 8.468049 -0.77219987 21 5
3.1874101 10.82292 -0.59129167 19 6
3.2116859 10.884316 -0.19808482 13 7
1.6379144 5.4907804 -1.5353146 10 0
1.7695304 5.9206781 -1.4266397 24 1
17.280434 57.745094 3.1588938 0 9
1.8037814 6.019948 -1.2215593 28 2
17.317095 57.757492 5.275363 1 10
2.4547906 8.1770563 -1.3522196 2 3
17.353813 57.733517 7.4021006 1 11
1.8113499 6.0222645 -0.77216423 36 4
3.2308874 10.714732 -0.97910756 35 5
3.2444074 10.739223 -0.58794218 28 6
1.6716864 5.4644332 -1.5311736 11 0
1.8228164 5.9473062 -1.4360875 10 1
17.683147 57.623047 3.1588938 0 9
1.8457617 6.0072093 -1.2215593 28 2
17.820604 57.962746 5.3053441 2 10
2.5036771 8.1332884 -1.3478395 1 3
17.803247 57.762711 7.4215999 1 11
1.8504212 5.9999886 -0.77094555 28 4
3.3320944 10.777573 -0.98695159 28 5
3.3795781 10.910911 -0.59861875 28 6
3.4226089 11.029399 -0.20157529 14 7
1.7086411 5.4489422 -1.5301383 11 0
1.6832361 5.3580966 -1.2966179 25 1
18.739365 59.578728 3.2731957 6 9
1.8911934 6.0054131 -1.2238491 28 2
2.572284 8.1532888 -1.3540969 1 3
18.269455 57.837666 7.4474363 1 11
1.8922669 5.9869232 -0.77094555 27 4
3.3855858 10.685673 -0.98067641 28 5
3.4496205 10.868015 -0.59757197 18 6
3.4498296 10.848972 -0.19871311 28 7
1.7625914 5.4865417 -1.5441145 8 0
3.4992607 10.879353 0.19948101 13 8
1.8811961 5.8452206 -1.4176416 14 1
1.9403088 6.0144835 -1.2284284 30 2
18.599981 57.621075 5.2973261 1 10
2.6169963 8.097538 -1.3478395 2 3
18.373316 56.78326 7.3280039 0 11
1.9401317 5.9924521 -0.7733829 27 4
3.4945445 10.767901 -0.99043781 21 5
4.9913964 15.352839 -0.84606314 17 6
3.5762706 10.980536 -0.20157529 14 7
1.7930034 5.4502463 -1.5373851 10 0
1.8121665 5.4987965 -1.3366592 13 1
1.9822477 6.000792 -1.2284284 30 2
18.925543 57.259014 5.2760601 1 10
2.6765633 8.0884495 -1.3494039 4 3
19.221277 58.017895 7.5044713 2 11
1.9819168 5.9787626 -0.7733829 27 4
3.5935113 10.815089 -0.99706167 14 5
3.5865245 10.775204 -0.59516454 19 6
3.652842 10.955301 -0.20157529 14 7
1.8334757 5.4449196 -1.5394558 9 0
3.7044806 10.988606 0.20241301 13 8
1.9981285 5.9236364 -1.4432859 16 1
2.0354114 6.0202847 -1.2352976 32 2
20.00667 59.141171 5.462225 6 10
2.7361345 8.0789213 -1.3509682 7 3
19.996834 58.976433 7.646327 4 11
2.0312614 5.987339 -0.77630776 28 4
2.8992181 8.5261583 -0.78788787 11 5
3.6397617 10.685623 -0.59160572 38 6
1.8865435 5.4758234 -1.551879 9 0
2.0305343 5.8837528 -1.4369874 17 1
2.0773911 6.005928 -1.2352976 32 2
20.373451 58.868252 5.4500227 6 10
2.7834153 8.0334911 -1.3465881 9 3
20.322208 58.587826 7.6141539 3 11
2.0769165 5.9842644 -0.77777022 28 4
3.6389103 10.467175 -0.96952045 20 5
3.7241299 10.688244 -0.59317577 19 6
1.9054687 5.4078569 -1.5363499 10 0
3.831696 10.868594 0.20115645 13 8
2.0741556 5.8767843 -1.438787 25 1
2.1247678 6.0101581 -1.2391137 30 2
20.774626 58.698288 5.4475822 6 10
2.8657277 8.0925655 -1.3597286 3 3
21.420969 60.423912 7.8715415 7 11
2.1212997 5.9771018 -0.77874517 33 4
3.8373618 10.794448 -1.0022911 21 5
3.8410153 10.786828 -0.60008413 18 6
1.9513935 5.4202094 -1.5435969 10 0
2.0995631 5.8222003 -1.428889 21 1
2.1666749 5.9951777 -1.2391137 32 2
21.225183 58.697922 5.4608302 6 10
2.9315679 8.0983658 -1.3641087 2 3
21.736746 59.981754 7.833518 6 11
2.1673486 5.9774537 -0.78069508 33 4
3.9588985 10.894731 -1.0141442 14 5
3.9346719 10.810424 -0.60291028 18 6
3.9554119 10.849729 -0.20157529 14 7
2.000526 5.4372754 -1.5523967 8 0
2.1583524 5.8567705 -1.4410365 23 1
21.949013 59.495377 3.3234382 8 9
2.2166352 6.0020061 -1.2436931 32 2
22.729713 61.512352 5.737288 14 10
2.9825473 8.0628815 -1.3616058 3 3
22.154997 59.828533 7.833518 6 11
2.2186792 5.9882388 -0.78410745 31 4
3.2331598 8.7076559 -0.81264013 11 5
4.0706153 10.945554 -0.61201674 9 6
2.0221264 5.3797755 -1.5399734 12 0
2.1998775 5.8433833 -1.4414864 21 1
22.539894 59.807941 3.3496063 9 9
2.2640271 6.00108 -1.2467461 30 2
7.3118987 19.370842 1.8114449 1 10
3.058315 8.0936031 -1.3703661 2 3
24.343414 64.355003 8.4482279 14 11
2.266052 5.9874554 -0.78605735 31 4
4.055059 10.697521 -1.0008965 14 5
4.0752921 10.728295 -0.6014449 18 6
4.1136189 10.812136 -0.20192434 21 7
2.0707097 5.3943853 -1.5482556 20 0
2.2720847 5.9097357 -1.4617319 14 1
2.3118777 6.0038514 -1.2505622 30 2
23.872965 61.932636 5.807013 15 10
2.4053717 6.2369113 -1.0587486 3 3
25.298492 65.528572 8.6246939 17 11
2.3163872 5.9937081 -0.78898221 34 4
3.2996912 8.5247555 -0.79974109 11 5
3.6196671 9.3417397 1.9473966 1 13
4.1345115 10.664924 -0.59945607 28 6
4.1991391 10.80925 -0.20241301 21 7
2.1165397 5.4035497 -1.5549849 14 0
2.2731161 5.7943559 -1.4369874 25 1
2.3537362 5.987565 -1.2505622 28 2
2.5342462 6.4368572 -1.0956671 1 3
2.3567147 5.9736986 -0.78849471 31 4
3.3239772 8.41257 -0.79137415 22 5
4.1926928 10.594944 -0.59715331 28 6
2.1537173 5.3846784 -1.5539496 18 0
2.3123472 5.7725143 -1.4356377 24 1
2.3998661 5.9819202 -1.252852 30 2
24.396782 60.750191 5.7275267 13 10
3.2160933 8.0002861 -1.3656731 8 3
26.040588 64.745377 8.568634 16 11
2.4072583 5.979198 -0.79141963 34 4
3.3744311 8.3688316 -0.78945673 33 5
4.2983332 10.638741 -0.60134023 27 6
4.3571577 10.768102 -0.20276207 29 7
2.1876049 5.3605695 -1.5513614 12 0
4.4457746 10.883177 0.2052054 13 8
2.3754427 5.8121524 -1.4495846 22 1
2.4500501 5.9827619 -1.2566681 30 2
24.98951 60.991367 5.7665725 14 10
3.26737 7.9666734 -1.3637959 5 3
2.4474335 5.9585733 -0.79093212 31 4
3.5394855 8.6087427 1.4742386 3 12
3.4653661 8.4243002 -0.79695207 16 5
4.4592609 10.818985 -0.61327279 9 6
4.4444299 10.766997 -0.20332053 21 7
2.2368565 5.3737016 -1.5596437 13 0
2.3994679 5.7558541 -1.4396867 35 1
26.128469 62.646381 3.5572753 19 9
2.4907169 5.9659462 -1.2566681 28 2
25.42392 60.837482 5.7686644 14 10
3.3466675 8.0043907 -1.3741205 7 3
2.498174 5.9633141 -0.79385698 28 4
3.4824674 8.3006926 -0.78753924 22 5
4.5328054 10.788378 -0.61327279 18 6
4.5769038 10.872091 -0.20590349 22 7
2.2741342 5.3601308 -1.5601612 15 0
2.4667847 5.8057513 -1.4563332 15 1
2.5461483 5.980927 -1.2635372 30 2
2.6912959 6.3127069 -1.0869068 3 3
3.5108192 8.2270327 1.0982866 3 11
2.5418282 5.9534726 -0.79483193 28 4
4.5543237 10.646557 -1.0130984 14 5
4.6025019 10.743622 -0.61254007 18 6
4.6713009 10.888467 -0.20681101 14 7
2.3168678 5.356535 -1.5637847 12 0
4.7010298 10.858233 0.20653178 14 8
2.5064819 5.7866001 -1.4558831 20 1
2.5909646 5.970211 -1.2650636 32 2
2.7022293 6.2176757 -1.0737664 4 3
2.5864952 5.9428644 -0.79580688 28 4
3.6426258 8.3535328 -0.79730076 16 5
4.6829891 10.724041 -0.61327279 18 6
4.7472029 10.855589 -0.20681101 14 7
2.3464167 5.3225513 -1.5586084 13 0
4.7847877 10.843447 0.20688082 28 8
2.5483956 5.7725248 -1.4567831 20 1
2.6373463 5.96275 -1.2673534 32 2
3.5239625 7.9560289 -1.3781878 5 3
2.6375797 5.9464378 -0.79873174 30 4
3.7366025 8.4123049 -0.80531907 11 5
4.8015928 10.78962 -0.61892503 17 6
4.795198 10.760081 -0.20562425 22 7
2.3914316 5.3236642 -1.5637847 12 0
4.8765197 10.850754 0.20764874 28 8
2.5758393 5.7261591 -1.4495846 21 1
2.6859386 5.9625587 -1.2711695 30 2
3.4992495 7.7571926 -1.3478395 9 3
2.6921124 5.956821 -0.80263156 35 4
3.8511055 8.5094423 -0.81717223 11 5
4.8073201 10.607516 -0.61034197 18 6
4.9396396 10.879292 -0.20855626 15 7
2.4292204 5.3107762 -1.5648201 12 0
2.6082644 5.6943192 -1.4459854 20 1
2.740598 5.9722128 -1.2772754 32 2
3.3124695 7.208456 -1.2564818 7 3
2.7425518 5.9599991 -0.80555642 35 4
30.051455 65.246582 11.37748 20 12
3.3899188 7.3532991 -0.70840186 9 5
4.9231133 10.664364 -0.61557555 18 6
2.4792881 5.3217068 -1.5731021 9 0
2.6512473 5.6830368 -1.447785 21 1
2.7888753 5.9671631 -1.2803285 32 2
3.6658261 7.8328209 -1.3697404 10 3
2.7942023 5.9622769 -0.80848128 33 4
30.826717 65.718353 11.496996 22 12
3.8357513 8.1698904 -0.78963101 16 5
4.9676981 10.566475 -0.61191207 18 6
5.0891719 10.810151 -0.20855626 15 7
2.5155547 5.3025222 -1.5725845 11 0
2.6975501 5.6784692 -1.4513842 17 1
27.74548 58.352982 3.3862414 11 9
2.8372123 5.9617314 -1.2833813 32 2
3.7068233 7.7785048 -1.3647344 7 3
29.515461 61.88047 8.418004 14 11
2.8374689 5.946208 -0.80896878 35 4
31.129787 65.177132 11.440054 21 12
4.0370598 8.4449024 -0.81891537 11 5
5.1387916 10.735106 -0.62373996 26 6
5.1403151 10.723867 -0.20757893 15 7
2.5298266 5.2378621 -1.5586084 13 0
2.7498541 5.6858139 -1.4581327 14 1
2.8839028 5.9523783 -1.2856711 30 2
3.7817304 7.7950916 -1.3722433 10 3
2.8910556 5.9512515 -0.81238109 33 4
30.343666 62.40715 10.990774 16 12
4.0854554 8.3950138 -0.8168236 11 5
5.1996126 10.670241 -0.62206525 35 6
5.2939792 10.849464 -0.21072036 15 7
2.5714438 5.2304769 -1.5617142 13 0
5.3387551 10.849792 0.21106941 14 8
2.7989492 5.6857095 -1.4630816 17 1
6.9904108 14.187648 0.82889694 2 9
2.9358077 5.9532285 -1.2902504 30 2
30.042282 60.893002 5.9405355 19 10
3.8622973 7.8216372 -1.3816295 11 3
2.9395714 5.9451585 -0.814331 30 4
29.373251 59.354008 10.488932 11 12
4.1475015 8.3734283 -0.8175208 11 5
5.3227868 10.732092 -0.62782216 17 6
5.3251214 10.722692 -0.20897512 15 7
2.6096253 5.2158518 -1.5627494 22 0
2.8307164 5.6503515 -1.4590325 14 1
2.9861035 5.9501348 -1.2940667 28 2
3.8227906 7.6073861 -1.3484653 12 3
2.9863582 5.9351315 -0.81579345 30 4
30.366175 60.297813 10.692923 13 12
4.2049613 8.3424902 -0.81734651 28 5
5.5082684 10.913984 -0.64069682 8 6
5.4647894 10.813755 -0.21148828 15 7
2.659122 5.2233305 -1.5705141 15 0
2.6780467 5.2536993 -1.3614038 21 1
3.0400672 5.9536233 -1.2994094 28 2
7.0145111 13.731181 1.3489965 4 10
3.9747214 7.773984 -1.3828808 7 3
32.125221 62.778168 8.6588173 17 11
3.038573 5.9353433 -0.81871831 33 4
30.247747 59.033031 10.505827 23 12
4.2567358 8.3005199 -0.81612635 11 5
5.4566035 10.626524 -0.62604278 8 6
2.6919718 5.1977763 -1.5684435 15 0
2.6778798 5.1639447 -1.3429577 14 1
3.0851774 5.9392233 -1.3009357 28 2
31.709688 61.01775 6.0161862 21 10
4.005198 7.7004814 -1.3747462 11 3
30.777147 59.122326 8.1840153 11 11
3.0817695 5.9175072 -0.81920576 28 4
29.941486 57.443588 10.259912 9 12
4.3210278 8.2829685 -0.81734651 23 5
5.5796618 10.681999 -0.63159037 17 6
2.7083821 5.1412549 -1.5570555 16 0
2.7129543 5.1434021 -1.342508 17 1
33.890652 64.197876 3.8045101 31 9
3.1375744 5.9383688 -1.3055153 31 2
33.25032 62.905117 6.2250118 27 10
4.0717959 7.6967754 -1.3791263 10 3
32.197887 60.811264 8.4487152 14 11
3.1341591 5.9168963 -0.82213068 26 4
30.604532 57.728832 10.348766 10 12
4.3530402 8.2075977 -0.81281441 11 5
3.1493919 5.9281406 -0.35180232 11 6
2.7496829 5.1324391 -1.5601612 18 0
2.8317018 5.2788906 -1.3829991 28 1
3.1584125 5.8805547 -1.2975012 16 2
33.424534 62.180077 6.1762047 26 10
3.1566865 5.8699665 -1.0556198 29 3
7.0419197 13.083726 1.8243842 1 11
3.1471453 5.8424435 -0.8148185 28 4
30.839365 57.227016 10.296205 9 12
3.1428683 5.8271937 -0.57923704 45 5
3.1431684 5.8204546 -0.34667343 23 6
2.7919452 5.1271758 -1.5643023 15 0
5.8803434 10.789795 0.21449009 15 8
3.0373466 5.570888 -1.4648812 16 1
3.1890385 5.8394079 -1.2933035 32 2
3.1985373 5.8495188 -1.0559328 50 3
31.070129 56.774296 7.9466128 8 11
3.1925607 5.8313336 -0.81628096 28 4
31.657663 57.776043 10.434493 10 12
3.1949103 5.8283787 -0.58150309 56 5
3.182765 5.7966185 -0.34656873 23 6
2.833286 5.1177006 -1.5674082 16 0
5.9478331 10.739025 0.21428065 15 8
3.0950603 5.5836363 -1.4738793 15 1
3.2753947 5.901679 -1.3120028 13 2
3.3046343 5.9372573 -0.83431756 37 4
32.002151 57.472927 10.41885 21 12
4.659307 8.3608198 -0.83739239 29 5
5.822443 10.435139 -0.62625211 17 6
6.0378051 10.803385 -0.21602589 16 7
2.9059401 5.1656466 -1.5881137 11 0
3.165508 5.6201706 -1.489176 15 1
3.3406329 5.9214168 -1.3215431 5 2
30.84742 54.656094 5.4908118 7 10
4.4340239 7.8498931 -1.4279339 1 3
31.519753 55.756447 7.8642297 7 11
3.3547437 5.9319048 -0.83675498 31 4
32.529072 57.471603 10.459522 11 12
4.7372031 8.3627596 -0.84087861 29 5
6.0321112 10.63572 -0.64080149 17 6
2.9361789 5.1351709 -1.5850078 11 0
3.210479 5.6080799 -1.4918754 22 1
3.4336469 5.9882183 -1.341769 3 2
30.780138 53.658241 5.4120231 5 10
4.474946 7.7947655 -1.4235538 1 3
3.4039855 5.9221096 -0.83870488 28 4
6.9747853 12.124625 2.2154253 3 12
4.7974586 8.3329372 -0.84122723 29 5
6.1012282 10.584697 -0.64027816 17 6
6.1422062 10.642904 -0.21449009 24 7
2.9641953 5.1011834 -1.5808668 12 0
3.2671916 5.6158495 -1.4999737 19 1
3.7956247 6.5136933 -1.4654131 3 2
31.053625 53.269939 5.3945918 4 10
4.5312457 7.7667465 -1.4241794 3 3
30.951937 53.010353 7.5371323 2 11
3.451257 5.9084845 -0.84016734 28 4
32.56073 55.698685 10.218614 17 12
4.8832364 8.3499651 -0.84628218 24 5
6.1981874 10.581486 -0.64268559 17 6
6.3073983 10.755013 -0.2176315 16 7
3.0115206 5.1003289 -1.5870785 11 0
3.2735894 5.5375457 -1.4851269 26 1
3.8278742 6.4674325 -1.4608337 3 2
31.950743 53.939812 5.4848852 7 10
4.5880356 7.7425213 -1.425431 3 3
31.37278 52.900898 7.5517564 3 11
3.5045798 5.9047308 -0.8430922 26 4
31.686502 53.366192 9.8300295 4 12
5.0197816 8.4475555 -0.8597042 30 5
6.3527913 10.67808 -0.651164 26 6
6.4478407 10.820658 -0.21986541 17 7
3.0570965 5.0979362 -1.5927725 9 0
3.3302653 5.5468798 -1.493675 20 1
3.8860846 6.4624238 -1.4657948 4 2
4.6419768 7.7103019 -1.425431 4 3
32.669533 54.22105 7.772584 6 11
3.5590348 5.904542 -0.84650451 31 4
32.331776 53.596973 9.9138794 5 12
5.0802507 8.4183121 -0.86022717 18 5
6.4881382 10.734317 -0.65733969 17 6
6.5234213 10.779937 -0.21993522 17 7
3.0946226 5.0797691 -1.5938078 13 0
3.391233 5.5600963 -1.5035729 17 1
3.9269137 6.4307957 -1.4646499 4 2
4.6881695 7.6684141 -1.4235538 3 3
33.748539 55.159031 7.9397883 8 11
3.6126089 5.8998666 -0.84942937 33 4
34.734734 56.704178 10.532108 11 12
6.4613705 10.539875 -1.0816028 16 5
10.931252 17.810272 -1.0951823 9 6
6.5168328 10.601257 -0.21721266 16 7
3.1220133 5.0470862 -1.5901842 11 0
6.6343079 10.716754 0.22000504 16 8
3.402324 5.4938083 -1.4918754 21 1
31.515652 50.849415 3.1352382 0 9
3.9013443 6.2897744 -1.4387 5 2
10.229692 16.485956 1.6974453 1 10
4.7311702 7.6187167 -1.4204252 2 3
3.6704874 5.9014711 -0.85332924 28 4
34.200985 54.967579 10.253655 9 12
5.2057242 8.3600874 -0.86162168 24 5
6.733789 10.801463 -0.66707414 8 6
6.671174 10.684414 -0.21986541 17 7
3.1559937 5.0213456 -1.589149 12 0
3.468534 5.5122046 -1.5035729 14 1
3.934696 6.2457733 -1.4348837 5 2
4.7897835 7.5913482 -1.4216765 2 3
3.7327981 5.9092698 -0.85820401 30 4
34.37389 54.374134 10.188579 16 12
5.2852564 8.3572216 -0.86510789 12 5
6.7382383 10.638267 -0.65995646 17 6
3.1992855 5.012219 -1.5932901 12 0
3.4502645 5.3991842 -1.4792781 22 1
32.016159 50.062275 3.1143038 0 9
3.8702812 6.0471387 -1.3955771 8 2
36.642906 57.230869 5.945416 19 10
4.8149548 7.5144801 -1.4135419 1 3
3.7932551 5.9131422 -0.86259133 30 4
35.168827 54.781143 10.310596 9 12
6.8314176 10.636945 -1.1060064 17 5
6.8166604 10.597688 -0.66037518 26 6
6.8998203 10.714641 -0.22244836 17 7
3.2352502 4.9913826 -1.5938078 14 0
3.4793873 5.3618875 -1.4756789 19 1
32.286556 49.735981 3.1076047 0 9
3.9605498 6.0963874 -1.4131315 8 2
33.412121 51.391216 5.3628669 3 10
4.8767605 7.4980941 -1.4166707 1 3
34.390793 52.83596 7.740654 5 11
3.8431115 5.8998218 -0.86454117 26 4
6.8685083 10.532252 -1.1000798 17 5
6.8995566 10.567766 -0.6614219 43 6
3.2776446 4.9821568 -1.5979488 13 0
3.5093727 5.3283153 -1.4729795 21 1
32.940758 49.976295 3.1369128 0 9
3.977073 6.0292559 -1.4039726 8 2
33.352917 50.543995 5.2980232 1 10
4.9333453 7.4704556 -1.4179221 1 3
3.8919394 5.8867731 -0.86649108 26 4
34.974705 52.86105 10.039026 6 12
6.9968629 10.567109 -1.1087954 17 5
35.995331 54.341789 12.670099 21 13
7.0327506 10.609239 -0.66707414 17 6
3.3241496 4.9768243 -1.6036428 11 0
7.2354212 10.824488 0.22726524 17 8
3.5876486 5.3652434 -1.4900758 19 1
4.0103283 5.9882936 -1.4009198 8 2
33.842499 50.515152 5.3196378 2 10
5.0051799 7.4653654 -1.4235538 1 3
3.9484308 5.8825345 -0.86990345 21 4
34.646736 51.579273 9.8412933 9 12
7.0849195 10.539496 -1.1110613 17 5
36.715622 54.597481 12.789164 23 13
7.115572 10.573135 -0.66791159 26 6
3.3598979 4.9550953 -1.6041605 14 0
7.3153105 10.780327 0.22740486 17 8
3.6315846 5.3497396 -1.4927752 19 1
4.1061201 6.0397077 -1.4196191 7 2
34.19434 50.277657 5.3196378 2 10
5.1016307 7.495564 -1.4360685 1 3
35.73336 52.461819 7.7937889 6 11
4.0117555 5.8876371 -0.87477821 28 4
34.687698 50.869366 9.7518129 7 12
7.2485576 10.625996 -1.1253549 26 5
37.304016 54.644642 12.860909 24 13
7.2027326 10.542991 -0.66916758 8 6
7.3773489 10.786455 -0.22810295 18 7
3.417408 4.9649367 -1.6150309 11 0
3.6644239 5.3178358 -1.4909756 18 1
4.1415644 6.0035357 -1.4177109 8 2
5.1592722 7.4704146 -1.4379457 1 3
36.069317 52.187981 7.7894015 6 11
4.0776038 5.8954039 -0.88014042 32 4
35.831173 51.785427 9.9739494 6 12
7.3407116 10.60134 -1.1281439 18 5
