# .PCD v0.7 - Point Cloud Data file format
VERSION 0.7
FIELDS x y z intensity ring
SIZE 4 4 4 4 2
TYPE F F F F U
COUNT 1 1 1 1 1
WIDTH 1307
HEIGHT 1
VIEWPOINT 0 0 0 1 0 0 0
POINTS 1307
DATA ascii
-8.4843893 3.6416731 -1.4623495 9 3
-12.61129 5.4156294 1.6852095 7 11
-8.7667599 3.7683094 -1.171652 4 4
-11.529255 4.9628949 -1.0981623 67 5
-11.515444 4.9664841 -0.65723503 35 6
-11.556258 4.9912648 -0.21972579 51 7
-5.8733678 2.5574696 -1.716488 10 0
-6.537848 2.8508804 -1.6466417 20 1
-12.456504 5.4369359 0.71229243 2 9
-7.6171918 3.3278673 -1.6157707 10 2
-12.426942 5.4317813 1.1865382 2 10
-8.7845144 3.8433363 -1.5186659 9 3
-12.317641 5.3942509 1.651086 7 11
-8.9766092 3.932981 -1.203338 5 4
-5.7794409 2.5647166 -1.6942296 14 0
-6.4857311 2.8822091 -1.6385435 21 1
-12.127204 5.3917747 0.69554496 2 9
-7.5782204 3.3724554 -1.6123362 10 2
-12.09752 5.3886909 1.1586484 2 10
-8.6787615 3.867662 -1.5048997 11 3
-12.021395 5.3623261 1.6162314 5 11
-8.8474255 3.9502347 -1.1896886 4 4
-5.7336836 2.5912654 -1.6859473 13 0
-6.4340057 2.9118249 -1.6304452 22 1
-11.849121 5.3675199 0.68172824 2 9
-7.4936972 3.3977144 -1.5993611 7 2
-11.797467 5.3515673 1.1333733 3 10
-8.6335611 3.9199901 -1.5017711 19 3
-11.736075 5.3336039 1.5828393 3 11
-9.1221142 4.1475754 -1.2303931 6 4
-5.7628326 2.6530447 -1.6999235 11 0
-6.3887439 2.9452512 -1.6241466 22 1
-11.536636 5.3209038 0.66581815 2 9
-7.3687949 3.4017403 -1.5776089 10 2
-11.517462 5.3218107 1.1100155 2 10
-8.389719 3.8783708 -1.4639139 9 3
-11.445476 5.2958255 1.5484719 4 11
-8.5453424 3.9575551 -1.1562965 2 4
-5.7149024 2.6782732 -1.6911237 9 0
-6.2344732 2.9257507 -1.589954 22 1
-11.24612 5.282434 0.651164 2 9
-7.3501978 3.4556055 -1.5787537 7 2
-11.24118 5.2873025 1.086832 2 10
-8.3499279 3.9309559 -1.4617239 11 3
-11.169394 5.263063 1.5160547 3 11
-8.3817434 3.9512963 -1.1377723 7 4
-8.5992575 4.0758743 2.5498853 2 15
-5.5879679 2.6665208 -1.6590302 16 0
-6.2947793 3.0078511 -1.6106496 20 1
-10.979256 5.248601 0.63776606 2 9
-7.2840037 3.4852204 -1.569595 9 2
-10.952422 5.2451696 1.0624285 2 10
-8.0379438 3.8511357 -1.4116647 12 3
-10.932841 5.2428308 1.4887561 3 11
-9.0196924 4.329258 -1.2284431 12 4
-5.5362015 2.6894274 -1.649195 18 0
-6.277132 3.0534286 -1.6115494 11 1
-10.722337 5.2203693 0.62499607 2 9
-7.1776934 3.4976931 -1.5520406 7 2
-10.711375 5.2219715 1.042557 2 10
-8.0492373 3.9276133 -1.418548 11 3
-10.673861 5.2129083 1.4585325 3 11
-8.068922 3.9424503 -1.1026739 3 4
-5.4895821 2.7143133 -1.6409128 15 0
-6.2504225 3.0945828 -1.6101997 15 1
-10.427929 5.167398 0.6099233 2 9
-7.1056123 3.5241632 -1.5417367 10 2
-10.456917 5.1885834 1.021291 2 10
-7.5209346 3.7350576 -1.330006 8 3
-10.42034 5.179503 1.4287963 3 11
-8.4304628 4.1922584 -1.1560526 5 4
-9.2057467 4.585803 -0.89979583 19 5
-9.1775818 4.5777717 -0.53749031 21 6
-9.3116055 4.6507125 -0.18167956 12 7
-5.425631 2.7299938 -1.6274542 16 0
-6.1868987 3.1170983 -1.599402 15 1
-10.181166 5.133956 0.59757197 2 9
-7.0475345 3.5568788 -1.5344861 7 2
-10.207016 5.1536961 1.0003736 2 10
-7.7115273 3.8970623 -1.3684888 10 3
-10.174902 5.1464014 1.4000351 3 11
-9.1112595 4.610414 -1.2537918 19 4
-9.1778727 4.6501594 -0.90014446 57 5
-9.1436186 4.6408281 -0.53738564 43 6
-9.1969051 4.6739335 -0.18007393 47 7
-5.4270749 2.7783694 -1.6336659 16 0
-6.0522652 3.1024334 -1.5701584 21 1
-9.9469385 5.1010623 0.58584875 2 9
-6.9532957 3.5689063 -1.5192213 9 2
-9.9474859 5.1101203 0.97841036 2 10
-8.0116138 4.1174083 -1.4266826 12 3
-9.9454565 5.1156602 1.3732239 3 11
-8.9570704 4.6112142 -1.236974 10 4
-7.7344275 3.9903259 1.6917126 1 13
-5.3634844 2.7920532 -1.6202073 16 0
-5.8823919 3.0660949 -1.5314667 34 1
-9.7623396 5.0927815 0.57705635 2 9
-6.8551173 3.5791988 -1.5031934 9 2
-9.7358742 5.0854673 0.96097922 2 10
-7.1476426 3.7366962 -1.277444 4 3
-9.7125082 5.0818925 1.3459252 3 11
-8.7488031 4.5815449 -1.2126001 10 4
-9.641325 5.0510788 1.7239079 6 12
-5.3501973 2.8339779 -1.6222779 14 0
-5.8930111 3.1254582 -1.5400149 14 1
-9.53512 5.0613747 0.56575173 2 9
-5.8919053 3.1288252 -1.296738 4 2
-9.5233021 5.0614944 0.94354802 2 10
-7.7677422 4.1319203 -1.3935183 9 3
-9.5120668 5.0619144 1.3230138 3 11
-8.4835787 4.5183973 -1.1801828 12 4
-9.4480476 5.0363126 1.6957498 4 12
-8.6284199 4.6013412 -0.85552078 18 5
-5.2911634 2.8501885 -1.6103721 13 0
-5.8590426 3.1600463 -1.5368656 21 1
-9.3413715 5.0424361 0.55633128 2 9
-6.6932874 3.6160264 -1.4787698 9 2
-9.30194 5.0274425 0.925071 2 10
-6.9134073 3.7396226 -1.2449056 9 3
-9.2940493 5.0315642 1.2976649 3 11
-8.4273901 4.5642786 -1.1767704 11 4
-9.2459393 5.0117798 1.6657144 4 12
-8.4559698 4.585485 -0.8415758 23 5
-5.2423325 2.8712821 -1.6015723 15 0
-9.2664967 5.0774655 0.18443704 11 8
-5.8163342 3.1896288 -1.5314667 21 1
-9.1317272 5.0098386 0.54586405 2 9
-5.7065315 3.1333013 -1.2654454 4 2
-9.0780363 4.9886279 0.90624541 2 10
-7.1561036 3.9340994 -1.2934003 9 3
-9.0700111 4.9904022 1.2710973 2 11
-8.7378798 4.8116374 -1.224787 4 4
-9.0507021 4.9859533 1.6366177 3 12
-8.2492733 4.5482097 -0.82414466 23 5
-5.2614913 2.9285069 -1.6134779 13 0
-5.6821399 3.1665344 -1.5017732 15 1
-8.915123 4.9722881 0.53497815 2 9
-6.5365095 3.6486406 -1.4551095 8 2
-8.8751335 4.9560785 0.88933718 2 10
-7.1870914 4.0167284 -1.3040378 11 3
-8.8824902 4.968327 1.2496483 2 11
-7.4940333 4.1934228 -1.0544137 3 4
-8.8122988 4.9351254 1.599699 3 12
-8.1026125 4.5413952 -0.81264013 23 5
-8.6599731 4.8597479 -0.52042878 11 6
-5.2106528 2.948046 -1.6041605 13 0
-8.7283554 4.942286 0.17508255 29 8
-5.6632857 3.2080486 -1.502673 21 1
-8.7272978 4.9477234 0.52576709 6 9
-5.9678779 3.3860941 -1.3337549 5 2
-8.7120962 4.945137 0.87643814 3 10
-7.0334916 3.9955785 -1.2811985 4 3
-8.6940031 4.9428954 1.2279556 5 11
-7.3386126 4.173995 -1.0366207 2 4
-8.6763439 4.938868 1.5812398 3 12
-7.9339485 4.5199389 -0.79886949 28 5
-5.1497521 2.9612379 -1.5917372 13 0
-8.638176 4.9711857 0.17396559 9 8
-5.6356854 3.2445891 -1.5013233 23 1
-8.5402546 4.9207864 0.51655596 2 9
-6.073349 3.5022113 -1.3627579 5 2
-8.5531025 4.9341564 0.86388773 1 10
-6.8908067 3.9784088 -1.2602363 9 3
-8.5338135 4.9309688 1.2101626 2 11
-7.8506589 4.5380621 -1.1133984 3 4
-8.4621181 4.8954539 1.5483886 3 12
-7.7822881 4.5039778 -0.7866677 27 5
-5.09059 2.9747002 -1.5798315 15 0
-5.530477 3.2356362 -1.4792781 22 1
-8.4065866 4.9202876 0.51048499 2 9
-5.8647208 3.4353104 -1.3211615 7 2
-8.3843803 4.9151511 0.85029143 2 10
-6.8891263 4.0402107 -1.2649293 8 3
-8.3699398 4.9125762 1.1916386 2 11
-7.630506 4.482161 -1.0865872 1 4
-8.3059769 4.8808851 1.525862 3 12
-7.6098299 4.4753766 -0.77237415 26 5
-5.0253696 2.9826596 -1.5658553 12 0
-5.3541994 3.1816189 -1.4378871 20 1
-8.2484341 4.9053531 0.50294858 2 9
-6.2454896 3.7171509 -1.4127499 7 2
-8.1932344 4.8783336 0.83425474 2 10
-6.9048738 4.1144967 -1.2730639 8 3
-8.1990433 4.8895493 1.1721394 2 11
-8.0703344 4.8147016 -1.153859 3 4
-8.2004633 4.8962202 1.5127214 3 12
-7.4689379 4.4629889 -0.76121825 31 5
-4.968029 2.9957242 -1.5544673 13 0
-5.4619837 3.2974801 -1.4729795 21 1
-8.1045818 4.8967161 0.49624959 2 9
-5.5272245 3.3421323 -1.2555233 4 2
-8.0260057 4.854979 0.82065845 2 10
-7.1750827 4.3436751 -1.3284416 9 3
-8.035676 4.8684945 1.1536154 2 11
-6.7599144 4.097177 -0.97056752 1 4
-7.9971876 4.8509016 1.4814346 3 12
-7.3149743 4.4405808 -0.74866778 26 5
-4.8728633 2.9849236 -1.5311736 15 0
-5.3889942 3.3049664 -1.4594824 21 1
-7.9204054 4.8612375 0.48703846 2 9
-6.1126833 3.754668 -1.3944323 5 2
-7.8968563 4.852478 0.81089705 2 10
-6.9392991 4.2674155 -1.2902716 10 3
-7.8899145 4.8558054 1.1375285 2 11
-7.7859535 4.7936969 -1.1226605 3 4
-7.8588586 4.8423676 1.4620367 3 12
-7.1549082 4.4120631 -0.73542017 30 5
-4.8617473 3.0249934 -1.5342795 14 0
-6.1093044 3.8041856 0.12562242 28 8
-5.3045893 3.3043847 -1.4428362 24 1
-7.8015285 4.8635845 0.48180485 2 9
-6.0813255 3.7941318 -1.3932874 8 2
-7.7343307 4.8273177 0.79764932 1 10
-7.0668268 4.4141269 -1.3196814 11 3
-7.7581925 4.8497396 1.1233917 2 11
-7.6277485 4.7700472 -1.1046238 3 4
-7.667459 4.7986059 1.432627 4 12
-7.0395045 4.4090271 -0.72670454 25 5
-7.7010913 4.8252678 1.7665098 3 13
-4.8307118 3.052669 -1.5311736 13 0
-7.7033834 4.8717585 0.15909614 7 8
-5.223752 3.3048708 -1.4270895 21 1
-7.6155133 4.8217716 0.47238436 2 9
-5.847393 3.7051456 -1.3455851 7 2
-7.5658197 4.7958589 0.78370446 2 10
-6.6521854 4.2199779 -1.2477214 12 3
-7.5867243 4.8165379 1.1034052 2 11
-6.6860332 4.2463608 -0.97251743 14 4
-7.5670867 4.8096337 1.4201121 4 12
-6.7530246 4.2955241 -0.7002092 24 5
-7.576118 4.8209448 1.7455208 11 13
-6.6779876 4.2527065 -0.4149195 13 6
-6.7901316 4.3291211 -0.14056168 7 7
-4.8190379 3.0925794 -1.5342795 13 0
-7.5446754 4.8454528 0.15651318 7 8
-5.2235055 3.3560061 -1.4333881 14 1
-7.4707899 4.8035274 0.46547604 2 9
-5.9551144 3.8319273 -1.3764962 10 2
-7.4584413 4.8011088 0.77603471 2 10
-5.8155003 3.746397 -1.0956671 1 3
-7.449472 4.8026962 1.0882933 2 11
-6.5995059 4.2563515 -0.9642303 19 4
-7.4437022 4.8044958 1.4032173 4 12
-6.6358438 4.2863517 -0.691145 66 5
-7.4581814 4.819375 1.7260582 7 13
-6.6246548 4.2840414 -0.41345412 40 6
-5.8163657 3.7656567 -0.12094518 13 7
-4.7779083 3.1134901 -1.5280677 13 0
-7.4269128 4.8433914 0.15476793 7 8
-5.0775399 3.3125312 -1.3996454 26 1
-7.3501072 4.79879 0.46003309 2 9
-5.8624773 3.8304529 -1.3612314 11 2
-7.3313479 4.7920189 0.76627332 1 10
-6.5364113 4.2756782 -1.2370839 23 3
-7.3194308 4.7915254 1.0741564 2 11
-7.1575103 4.6873116 -1.0505139 3 4
-7.2579799 4.7567282 1.3744334 4 12
-6.6440768 4.3577046 -0.69515419 47 5
-7.3061686 4.7937799 1.6985818 5 13
-6.6480098 4.3652644 -0.4168036 13 6
-6.638792 4.3641877 -0.13867682 37 7
-4.7109437 3.1169226 -1.5135738 13 0
-7.2595334 4.8068013 0.15197556 6 8
-5.0689125 3.3575842 -1.4036945 22 1
-7.1899099 4.7661176 0.45207804 2 9
-5.2319098 3.4708104 -1.2204144 6 2
-7.1781898 4.7637601 0.75372285 2 10
-7.1766877 4.7699857 1.0580697 2 11
-7.0816326 4.7085896 -1.0441767 3 4
-7.1160536 4.7350588 1.353784 4 12
-6.5736933 4.3774781 -0.69097072 9 5
-7.1679535 4.7750092 1.6741582 3 13
-5.5737481 3.7158239 -0.35106963 11 6
-4.6602035 3.1303458 -1.5042564 13 0
-7.1428218 4.8015833 0.15023032 6 8
-5.0388803 3.38854 -1.4018949 19 1
-7.100122 4.7782836 0.4485192 2 9
-5.6504712 3.8055532 -1.3242146 7 2
-7.0456157 4.746963 0.7432642 2 10
-6.3532376 4.2836981 -1.2136188 14 3
-7.0773926 4.775557 1.0483202 2 11
-6.9301257 4.677947 -1.0266274 3 4
-6.994432 4.7249098 1.3368891 4 12
-7.0254841 4.7512455 1.6485898 2 13
-4.6398315 3.163892 -1.504774 11 0
-6.9802885 4.7634153 0.14750774 6 8
-4.9813018 3.400562 -1.392447 24 1
-6.9577479 4.7533746 0.44161084 2 9
-5.6804895 3.8836894 -1.3375711 11 2
-6.9399447 4.7465434 0.73559445 2 10
-6.2302618 4.2643514 -1.1957852 13 3
-6.9390655 4.7530556 1.0327208 2 11
-6.818696 4.6723542 -1.014928 3 4
-6.9058843 4.7356439 1.3262516 4 12
-6.8982654 4.7357311 1.6264559 2 13
-4.6287494 3.2039034 -1.5083975 9 0
-6.8515224 4.7459865 0.14548326 6 8
-4.8757505 3.3786488 -1.3695021 22 1
-6.8062258 4.7198849 0.43407446 2 9
-5.675818 3.9389224 -1.3429137 9 2
-6.8117146 4.7289743 0.72548437 1 10
-6.1094909 4.2446251 -1.1782646 11 3
-6.8111825 4.7356572 1.0185841 2 11
-6.6946497 4.6563683 -1.0012786 3 4
-6.7818637 4.720542 1.3087308 2 12
-5.3165555 3.7033663 -0.56686091 23 5
-6.7748351 4.7209172 1.6050854 2 13
-4.5462022 3.1939385 -1.4887272 9 0
-6.7364283 4.7361984 0.14373802 5 8
-4.7819109 3.3632765 -1.3497064 20 1
-6.7110438 4.7236037 0.43009692 2 9
-5.4603915 3.8461742 -1.2982645 7 2
-6.6808128 4.7075582 0.71502572 2 10
-6.0054483 4.2348084 -1.1638726 13 3
-6.6871295 4.7189965 1.0049347 2 11
-6.5792713 4.6446056 -0.98884791 4 4
-6.6454873 4.6948242 1.2887073 4 12
-6.688817 4.7306895 1.592492 2 13
-4.4803081 3.1934135 -1.4742333 10 0
-6.6193795 4.7215567 0.14192297 5 8
-4.7858739 3.4149902 -1.3573546 23 1
-6.6299744 4.7343535 0.42695674 2 9
-5.4963799 3.9277701 -1.3131475 13 2
-6.570816 4.6973062 0.70665878 2 10
-5.8897281 4.2135224 -1.1469777 12 3
-6.5943418 4.7193427 0.99567258 2 11
-5.0901723 3.6455495 -0.76875186 19 4
-6.5363092 4.6847138 1.2736895 2 12
-6.5432081 4.6948457 1.5653971 2 13
-4.4615989 3.2261002 -1.4752686 10 0
-6.5028462 4.7055459 0.14010793 5 8
-4.7498894 3.4383459 -1.3537554 26 1
-6.4584947 4.6786065 0.41795498 2 9
-4.6413803 3.3647392 -1.1143246 4 2
-6.4483681 4.6764207 0.69689733 1 10
-5.8001599 4.2094259 -1.1350887 13 3
-6.4464059 4.6801496 0.97812337 1 11
-6.3564425 4.618227 -0.96471781 3 4
-6.4243851 4.6710143 1.2580462 2 12
-6.4491949 4.6942172 1.550514 2 13
-4.4208436 3.2426822 -1.469057 11 0
-6.425529 4.7165685 0.13913059 5 8
-4.7075272 3.4567561 -1.3483566 23 1
-6.3492455 4.6656909 0.41293073 2 9
-5.3443398 3.9301174 -1.2894872 10 2
-6.3521914 4.6729794 0.68992484 2 10
-4.9012136 3.6082067 -0.96394926 15 3
-6.3240771 4.6591029 0.96447408 1 11
-6.2713203 4.6236157 -0.95667446 4 4
-6.3320303 4.6700807 1.2461572 2 12
-6.2962475 4.6504793 1.5215111 3 13
-5.6751976 4.193296 -0.3698059 12 6
-4.3572388 3.2442374 -1.4555984 10 0
-6.2898073 4.6848617 0.13689667 5 8
-4.6779833 3.4868603 -1.3470069 21 1
-6.2612643 4.670404 0.40937188 2 9
-5.330934 3.9778981 -1.2929219 14 2
-6.222805 4.6467891 0.67946619 1 10
-4.870522 3.6396384 -0.96301067 16 3
-6.2246175 4.6532211 0.95423704 2 11
-6.1355705 4.5899906 -0.94083142 3 4
-6.1972446 4.6395054 1.2261335 2 12
-6.2149262 4.6578221 1.5096809 3 13
-5.5907207 4.1930552 -0.36624706 12 6
-6.2522912 4.6909399 1.8045573 2 14
-4.3221526 3.2652617 -1.4514573 11 0
-6.2242193 4.7056317 0.13619858 4 8
-4.6830578 3.5417678 -1.3555551 24 1
-6.1775455 4.6754303 0.4060224 2 9
-5.2819858 4.000535 -1.2879608 10 2
-6.1139874 4.6323633 0.67109919 2 10
-4.8859186 3.7045839 -0.97114527 1 3
-6.1184168 4.6424489 0.94302505 1 11
-6.0369658 4.5823064 -0.93059438 3 4
-6.1080747 4.6396422 1.2148702 2 12
-6.107245 4.6440568 1.4913632 3 13
-5.5136304 4.1956973 -0.36310691 12 6
-6.0922418 4.6376839 1.7676654 6 14
-4.2839189 3.2836039 -1.4462808 11 0
-6.065094 4.650547 0.13340619 4 8
-4.59483 3.5257366 -1.3371091 22 1
-6.0346751 4.6322422 0.39869535 2 9
-4.6832414 3.5974743 -1.147907 17 2
-5.9930401 4.6069355 0.66133773 1 10
-5.9567285 4.5806756 -1.1901536 2 3
-6.0237474 4.6355619 0.93327552 1 11
-5.9513555 4.583159 -0.92230725 3 4
-6.0200171 4.637712 1.2036068 2 12
-6.0140524 4.6398082 1.4764801 3 13
-5.3995624 4.1672363 -0.35745463 23 6
-5.9779754 4.6169701 1.7438205 4 14
-4.2599435 3.3115022 -1.4457633 8 0
-5.9283085 4.6117377 0.13110249 4 8
-4.5738001 3.5593247 -1.3380089 18 1
-5.9738255 4.6521688 0.39681125 2 9
-4.6549144 3.6276681 -1.1471437 14 2
-5.9521151 4.6402721 0.66029191 1 10
-5.8280411 4.5468159 -1.1707556 3 3
-5.9286513 4.6286378 0.92352599 1 11
-5.8222289 4.5488224 -0.90719545 3 4
-5.8847713 4.59934 1.1829575 2 12
-5.9042134 4.6211791 1.4573992 3 13
-5.307435 4.1555791 -0.35326776 11 6
-5.8934417 4.6177282 1.728524 4 14
-4.2164216 3.3263452 -1.439034 9 0
-5.8488746 4.615849 0.13005532 4 8
-4.4839821 3.5412345 -1.319113 20 1
-5.8808379 4.647738 0.39283374 2 9
-5.2085452 4.1178913 -1.2906321 14 2
-5.8343835 4.6159892 0.65087909 1 10
-5.730309 4.5369039 -1.1576152 2 3
-5.8152747 4.6058235 0.91085154 2 11
-5.2209425 4.1380677 -0.81798708 8 4
-5.8114691 4.609417 1.1748229 3 12
-5.8041568 4.6085696 1.4406079 3 13
-5.2306499 4.156178 -0.35012761 11 6
-5.8137698 4.6211677 1.714577 3 14
-4.1689639 3.3363869 -1.4307518 9 0
-5.812573 4.6550846 0.12998553 4 8
-4.4667549 3.5785446 -1.3213625 24 1
-5.7640982 4.6212187 0.38718143 2 9
-5.1222868 4.1095986 -1.2765123 18 2
-5.7305384 4.5992441 0.64286077 1 10
-5.6245704 4.5174217 -1.1425974 2 3
-5.7264657 4.6025496 0.90207696 2 11
-5.1269507 4.1221724 -0.80775005 16 4
-5.6775713 4.5681462 1.1541736 3 12
-5.6868615 4.5772586 -0.6386773 8 5
-5.732089 4.6169572 1.4306859 3 13
-5.1113176 4.1198959 -0.34405661 11 6
-5.6933794 4.5906973 1.6884826 3 14
-4.1215725 3.3459289 -1.4224695 9 0
-5.656569 4.5936909 0.12719314 4 8
-4.4386387 3.607183 -1.3204627 23 1
-5.7015152 4.635148 0.385088 2 9
-5.0348001 4.0960498 -1.2616292 14 2
-5.664299 4.6114635 0.63902587 1 10
-5.5201702 4.4957261 -1.1275797 2 3
-5.6026778 4.5661755 0.88745266 2 11
-5.0395908 4.1101885 -0.79848802 15 4
-5.6585903 4.6166768 1.1566767 3 12
-5.6206594 4.5922713 1.4108418 3 13
-5.0367622 4.1166739 -0.34091645 23 6
-5.597837 4.5785141 1.6695868 3 14
-4.068872 3.34935 -1.4121168 9 0
-5.6212745 4.6305265 0.12712333 4 8
-4.4485731 3.6658151 -1.3308104 21 1
-5.5703988 4.5935154 0.378389 2 9
-4.9651971 4.0973606 -1.2513254 18 2
-5.5405889 4.5738087 0.62856722 1 10
-5.4429617 4.4964123 -1.1181936 2 3
-5.5278234 4.5697637 0.88062793 2 11
-4.9564252 4.0988536 -0.78971344 15 4
-5.5196919 4.5679107 1.1347758 3 12
-5.5439148 4.5928488 1.3993932 2 13
-4.952548 4.1058455 -0.33714828 22 6
-5.5267429 4.5851307 1.6578892 3 14
-4.0364919 3.3702464 -1.4090109 9 0
-5.4629788 4.5645185 0.12426113 3 8
-4.4198813 3.6942842 -1.3299106 21 1
-5.4830432 4.5861602 0.37462083 2 9
-4.8867912 4.0903397 -1.238732 16 2
-5.4810257 4.5893545 0.62542957 1 10
-5.3296771 4.4657912 -1.1012988 3 3
-5.4501529 4.5699797 0.87331581 2 11
-4.8820629 4.0950832 -0.7824012 19 4
-5.4574084 4.5809321 1.1285183 3 12
-5.4245396 4.5581856 1.3772594 3 13
-4.8595595 4.0863333 -0.33275205 22 6
-5.440918 4.5784345 1.6416928 3 14
-3.9951746 3.3833616 -1.4027992 10 0
-5.4309793 4.6025457 0.12426113 3 8
-4.4445233 3.7678955 -1.3452073 21 1
-5.4204321 4.5984859 0.37252739 2 9
-4.7967529 4.0722628 -1.2230858 18 2
-5.3516612 4.5449643 0.61427367 1 10
-5.0665655 4.3058901 -1.0531169 3 3
-5.3485565 4.548758 0.86210382 2 11
-4.7868285 4.0724702 -0.77167672 15 4
-5.3109841 4.5215979 1.1047403 3 12
-5.3447709 4.5551939 1.3650476 3 13
-4.7701278 4.0683174 -0.32856518 22 6
-5.3206787 4.5394726 1.6146986 4 14
-3.9626651 3.4036176 -1.3996935 9 0
-5.3297558 4.5794597 0.12265551 3 8
-4.412199 3.79375 -1.3434076 17 1
-5.2981534 4.5571303 0.36624706 2 9
-4.7213092 4.0638337 -1.210874 19 2
-5.2503595 4.5224018 0.60625535 1 10
-5.0700612 4.3686457 -1.0600001 3 3
-5.2573347 4.5332069 0.85235429 2 11
-4.7192059 4.0720706 -0.76533955 15 4
-5.2741022 4.5524807 1.1034888 3 12
-5.2593689 4.5461774 1.3513094 2 13
-4.7030463 4.0667262 -0.32584369 22 6
-5.2564378 4.5484543 1.6048008 4 14
-3.8927851 3.3899138 -1.383129 10 0
-5.2554436 4.5797696 0.12167817 3 8
-4.4097772 3.8441839 -1.3506061 19 1
-5.2361097 4.5677471 0.36415362 2 9
-4.6336637 4.0450511 -1.1956092 23 2
-5.2344637 4.5711393 0.60799843 1 10
-5.0662136 4.4273305 -1.0656317 3 3
-5.1807303 4.5305963 0.84504211 2 11
-4.625639 4.0465889 -0.75461507 15 4
-5.1530128 4.5111208 1.0847167 3 12
-5.192102 4.5469418 -0.60381496 7 5
-5.175149 4.5352874 1.3375711 3 13
-4.6385007 4.0678568 -0.32333156 22 6
-5.2048478 4.5661349 1.5985022 4 14
-3.8444085 3.395268 -1.3743292 12 0
-5.1492181 4.5492373 0.11993293 3 8
-4.3682332 3.8619676 -1.3461071 21 1
-5.2048965 4.6032825 0.36415362 2 9
-4.5619187 4.0374622 -1.1841607 23 2
-5.0860834 4.5045362 0.59440213 1 10
-5.0093465 4.4381337 -1.0600001 3 3
-5.0962982 4.5183463 0.83626753 2 11
-4.5467892 4.0339904 -0.74632788 15 4
-5.1280971 4.5513368 1.0859681 3 12
-5.0964026 4.5295715 1.3253593 2 13
-4.5510006 4.0462518 -0.3191447 21 6
-5.1029596 4.5401835 1.5769069 4 14
-3.7003114 3.3131111 -1.3308476 20 0
-5.0726528 4.5450416 0.11888579 3 8
-4.2997608 3.8538921 -1.3330599 26 1
-5.0626073 4.5408239 0.35640791 2 9
-4.3802109 3.9315171 -1.1440908 17 2
-5.0078645 4.4964566 0.58882421 1 10
-4.3581643 3.915853 -0.92796934 16 3
-5.014442 4.508687 0.82798034 1 11
-4.3539238 3.9161646 -0.71902919 15 4
-4.9875503 4.4892325 1.0628159 4 12
-4.3583016 3.9256096 -0.51317304 27 5
-5.0041962 4.5089602 1.3093314 2 13
-4.3713422 3.9415035 -0.30846813 30 6
-5.019053 4.5287013 1.5607104 4 14
-4.3508577 3.9271648 -0.10230601 22 7
-4.9746389 4.4933534 1.7962043 1 15
-3.7486031 3.4037955 -1.3567295 12 0
-4.9875197 4.5319324 0.11762922 3 8
-4.2395849 3.8536675 -1.3227122 22 1
-4.9923701 4.5411139 0.35368642 2 9
-4.3163605 3.9289625 -1.1345503 23 2
-4.932157 4.4910645 0.5835948 1 10
-4.3102794 3.9275556 -0.92358917 16 3
-4.93297 4.4981098 0.81969327 1 11
-4.3118124 3.9330866 -0.71659178 18 4
-4.9560866 4.5239434 1.0628159 4 12
-4.2969556 3.9250338 -0.50916386 38 5
-4.9088249 4.4855165 1.2925402 2 13
-4.31424 3.9449692 -0.3063747 40 6
-4.9240575 4.5057449 1.5409148 4 14
-4.3203845 3.9547431 -0.1022362 36 7
-4.9132338 4.5005693 1.7853339 15 15
-3.7432222 3.4468958 -1.3634588 14 0
-4.9189968 4.5327635 0.1167566 3 8
-4.2297716 3.8990223 -1.3281111 21 1
-4.9605455 4.5758567 0.35368642 2 9
-4.2945967 3.9643276 -1.1360768 31 2
-4.8772635 4.5037622 0.5808059 1 10
-4.2929106 3.9669356 -0.92577928 26 3
-4.8285747 4.4650512 0.80750632 1 11
-4.2929931 3.9711807 -0.71805423 25 4
-4.8316078 4.4725509 1.0427923 4 12
-4.2884507 3.9725382 -0.51142991 46 5
-4.8341899 4.4796433 1.2810917 2 13
-4.3027043 3.9899299 -0.30752611 100 6
-4.8496265 4.5002465 1.5274177 4 14
-4.3190503 4.0092974 -0.10286448 38 7
-4.8434772 4.4992619 1.7713577 9 15
-3.7247162 3.4782176 -1.3655293 14 0
-4.8375549 4.5205746 0.11556984 3 8
-4.1796718 3.9071631 -1.3209126 21 1
-4.8205452 4.509409 0.34594071 2 9
-4.2782812 4.0049462 -1.1391298 25 2
-4.7642617 4.4614377 0.57104445 1 10
-4.6211376 4.3304396 -1.0030578 3 3
-4.7625341 4.4660616 0.80165666 1 11
-4.2593727 3.9956224 -0.71707928 22 4
-4.7599397 4.468317 1.0340319 4 12
-4.7833872 4.4934702 -0.57418203 6 5
-4.7741842 4.4863958 1.2734593 2 13
-4.27038 4.0157666 -0.30721208 30 6
-4.8039002 4.5206375 1.5229187 4 14
-4.7697644 4.4932256 1.7558285 6 15
-3.6708851 3.4762423 -1.354659 11 0
-4.730401 4.4827099 0.11375479 3 8
-4.1367345 3.9215009 -1.3159637 23 1
-4.7512732 4.5072126 0.34321922 2 9
-4.2032313 3.9901104 -1.1265364 17 2
-4.7041054 4.4671493 0.56755817 1 10
-4.6337523 4.4034171 -1.0124439 3 3
-4.7053447 4.4745793 0.79726928 1 11
-4.1853509 3.981477 -0.7092796 15 4
-4.7314906 4.5041628 1.0346577 4 12
-4.7086225 4.4855275 -0.56895268 6 5
-4.7171655 4.4952364 1.2665902 2 13
-4.1959877 4.0013738 -0.3038626 29 6
-4.7158308 4.5002503 1.5049226 4 14
-4.681005 4.471704 1.7346053 5 15
-3.6548882 3.5098126 -1.3577647 11 0
-4.6586194 4.4768291 0.11277745 2 8
-4.1219015 3.9624391 -1.3200128 21 1
-4.6765103 4.4987335 0.34007907 2 9
-4.1469846 3.992126 -1.118904 17 2
-4.6641932 4.4915891 0.56651235 1 10
-4.5573797 4.3917975 -1.0024322 3 3
-4.6339831 4.4687362 0.79044467 1 11
-4.1160202 3.9706323 -0.7022112 13 4
-4.6146588 4.4547663 1.0158856 4 12
-4.6122565 4.4571152 1.2467461 2 13
-4.1449785 4.0083551 -0.30218783 28 6
-4.6086769 4.4598837 1.4806278 4 14
-4.5997219 4.455884 1.7159703 3 15
-3.6178405 3.5231123 -1.353106 13 0
-4.5928802 4.4757485 0.11193974 2 8
-4.0704165 3.9679923 -1.3123645 23 1
-4.5620685 4.4503818 0.33400813 2 9
-4.1133943 4.0154948 -1.1173775 8 2
-4.5842566 4.4767132 0.56058574 1 10
-4.4983535 4.3958941 -0.99617481 3 3
-4.5402236 4.4399114 0.77972013 1 11
-4.0584016 3.970119 -0.69709271 13 4
-4.5834455 4.4868755 1.0158856 4 12
-4.5032096 4.411407 -0.55152148 6 5
-4.5361562 4.4452353 1.2345343 2 13
-4.0455933 3.9672747 -0.29695424 27 6
-4.605248 4.5192471 1.4896258 4 14
-4.5133781 4.4337339 1.6952648 3 15
-3.5642896 3.5197787 -1.3422357 11 0
-4.5160069 4.4627237 0.11082278 2 8
-4.0883489 4.0415239 -1.3272111 20 1
-4.5138493 4.4652672 0.33275205 2 9
-4.4145374 4.3700719 -1.2074393 4 2
-4.493432 4.4497275 0.55326468 1 10
-4.4030123 4.3632298 -0.98178285 3 3
-4.4752884 4.4379525 0.77387041 1 11
-3.9911263 3.9592092 -0.69026798 15 4
-4.4622879 4.4296961 0.99586189 4 12
-4.4723024 4.4427381 -0.55152148 6 5
-4.457665 4.4297433 1.2215593 2 13
-3.9923074 3.9700711 -0.29507017 27 6
-4.4879417 4.4660635 1.4617319 4 14
-4.4535723 4.4365048 1.6843945 2 15
-3.5846784 3.5896859 -1.3593177 13 0
-4.4395404 4.4488473 0.10970583 2 8
-3.9113967 3.9209645 -1.2786218 21 1
-4.4487252 4.4627218 0.33023992 2 9
-4.3368111 4.3534956 -1.1944643 4 2
-4.4200826 4.4386344 0.54803526 1 10
-4.3417883 4.3630581 -0.97489971 3 3
-4.4022055 4.4268589 0.76655823 1 11
-3.9214027 3.944742 -0.68295586 15 4
-4.3811359 4.4102898 0.98459864 5 12
-4.4411774 4.4738522 -0.55152148 6 5
-4.4045048 4.4384589 1.2154534 2 13
-3.9279284 3.9609733 -0.29234868 26 6
-4.40453 4.4446859 1.4446357 4 14
-4.4007468 4.4455209 1.6761122 2 15
-3.545975 3.6008594 -1.3541414 16 0
-4.3915424 4.4626288 0.10928696 2 8
-3.6926014 3.7536843 -1.2156355 14 1
-4.3670559 4.4423962 0.32647175 2 9
-4.3200717 4.3976707 -1.1982806 4 2
-4.3498998 4.4295807 0.5431546 1 10
-4.2780175 4.3594251 -0.96739089 1 3
-4.3461738 4.431973 0.76217091 1 11
-3.8562484 3.9337471 -0.67637491 12 4
-4.3502398 4.4407682 0.98459864 5 12
-4.3377094 4.4326172 1.2055314 2 13
-3.8680625 3.9554553 -0.28994122 34 6
-4.3733935 4.4753256 1.4446357 4 14
-4.3210216 4.4263706 1.6574773 2 15
-3.5167127 3.6213698 -1.3525884 12 0
-4.3157172 4.4472575 0.10817002 2 8
-3.9024036 4.0227513 -1.2939185 16 1
-4.3303752 4.4670396 0.32605305 2 9
-4.2318931 4.3684978 -1.1822525 4 2
-4.2745166 4.4140401 0.53757662 1 10
-4.2062669 4.3465996 -0.95800477 1 3
-4.2764897 4.4222507 0.7553463 1 11
-3.8066154 3.9377379 -0.6724751 12 4
-4.3191323 4.4710293 0.98459864 5 12
-4.3090911 4.4637518 -0.54280597 6 5
-4.2575808 4.4119329 1.1917931 2 13
-3.8001492 3.9406698 -0.28690574 33 6
-4.3420424 4.5057497 1.4446357 4 14
-4.2525015 4.4174595 1.6429834 2 15
-3.4873369 3.6416459 -1.3510355 13 0
-4.2486181 4.439714 0.10726249 2 8
-3.6923685 3.8597932 -1.2331817 42 1
-4.2411199 4.4365258 0.32165682 2 9
-4.1823058 4.3780622 -1.1769099 4 2
-4.2243323 4.4236016 0.53513628 1 10
-4.1458178 4.344418 -0.95112169 3 3
-4.201673 4.4060273 0.74754661 1 11
-3.7516389 3.9354799 -0.66760033 12 4
-4.2878137 4.5010734 0.98459864 5 12
-4.2091365 4.4215727 -0.5340904 6 5
-4.1969008 4.4102607 1.1833974 2 13
-3.7450178 3.9381583 -0.2848123 32 6
-4.1869783 4.4106107 1.6295248 2 15
-3.4671342 3.6715217 -1.353106 15 0
-4.1681118 4.4169092 0.10600592 2 8
-3.6880641 3.9095757 -1.2408301 32 1
-4.1853824 4.4398675 0.31977272 2 9
-4.0789461 4.3299842 -1.1563026 4 2
-4.1578331 4.4152727 0.53060412 1 10
-4.0720682 4.3272204 -0.94110984 1 3
-4.1381731 4.4005461 0.74169689 1 11
-3.676486 3.9109523 -0.65906948 10 4
-2.7634575 2.9448419 0.78498828 2 13
-3.6764479 3.9204998 -0.28167215 38 6
-2.705512 2.8861201 0.91330135 14 14
-2.726274 2.9123416 1.0689226 15 15
-3.4572163 3.7126029 -1.3593177 14 0
-4.2060771 4.5183611 0.10775116 2 8
-3.6420994 3.9152517 -1.2345314 29 1
-2.8031383 3.014426 0.21572883 1 9
-4.0467057 4.3547726 -1.1555393 4 2
-2.7331955 2.9433274 0.35141194 6 10
-4.0425191 4.3548379 -0.94110984 1 3
-2.7202995 2.9325175 0.49113351 9 11
-3.6194024 3.9044967 -0.65370721 10 4
-2.6920309 2.905093 0.62730229 12 12
-4.0800872 4.4060931 -0.52537483 5 5
-3.6225514 3.9161105 -0.27957872 15 6
-2.7042665 2.9275079 -0.069565296 3 7
-3.4227178 3.7260895 -1.3556943 8 0
-2.7031693 2.944828 0.069774717 11 8
-3.5876956 3.9097989 -1.2250834 14 1
-2.676738 2.9191 0.20756441 12 9
-2.6898491 2.9354548 -0.77392131 3 2
-2.6754158 2.9207265 0.34653121 8 10
-2.6729004 2.9200265 -0.62698942 10 3
-2.6743035 2.9236073 0.48650244 9 11
-2.6706042 2.9216104 -0.48601499 12 4
-2.6490304 2.8990259 0.62198347 9 12
-2.6560466 2.9087412 -0.34461379 17 5
-2.6650493 2.9216709 -0.20725042 11 6
-2.6554842 2.915271 -0.068832293 11 7
-2.6364362 2.8953743 1.0492525 91 15
-2.6607566 2.9385262 -1.0621934 10 0
-2.6476548 2.9250808 0.068867192 12 8
-2.6406331 2.9193723 -0.90880221 15 1
-2.6370311 2.9174361 0.20609902 12 9
-2.6390171 2.9206581 -0.76514411 12 2
-2.6410947 2.925009 0.3447881 13 10
-2.6201773 2.9038801 -0.61948055 8 3
-2.6511686 2.9392583 0.48601499 13 11
-2.6182454 2.9047952 -0.48016527 9 4
-2.6506932 2.9428592 0.62730229 21 12
-2.6156769 2.905004 -0.34199914 13 5
-2.6146955 2.9079926 -0.20494762 16 6
-2.6070065 2.9024963 -0.06809929 18 7
-2.6247385 2.9397371 -1.0559818 9 0
-2.6293185 2.9469366 0.068937011 17 8
-2.5864635 2.8999233 -0.8971048 17 1
-2.6219156 2.9417384 0.2065177 14 9
-2.5919349 2.9101465 -0.75751179 15 2
-2.6338594 2.958256 0.34653121 13 10
-2.5893362 2.910295 -0.61697763 11 3
-2.6379817 2.9670553 0.48747739 15 11
-2.5979023 2.9230034 -0.48016527 16 4
-2.6117187 2.9406152 0.62292212 27 12
-2.6019471 2.9306431 -0.34287068 26 5
-2.5850544 2.915715 -0.20421492 15 6
-2.6025889 2.9385903 -0.068518147 22 7
-2.6067042 2.9608893 -1.057017 11 0
-2.6237304 2.9812782 0.069320954 17 8
-2.586746 2.941323 -0.90430319 18 1
-2.6282053 2.9895175 0.20861115 19 9
-2.5772493 2.9336207 -0.75903821 16 2
-2.6315444 2.9975343 0.34897158 13 10
-2.5798907 2.9397299 -0.61948055 11 3
-2.6190336 2.9864354 0.48772117 8 11
-2.5905166 2.9559975 -0.48260266 13 4
-2.5984855 2.9682245 -0.34513673 21 5
-2.6253912 3.0010731 0.7750662 154 13
-2.5940738 2.9663186 -0.2065177 25 6
-2.5951643 2.9717495 -0.068867192 21 7
-2.6387448 3.0227187 1.0751344 201 15
-2.5978892 2.9916918 -1.0616758 12 0
-2.5794344 2.973583 -0.90880221 15 1
-2.5695603 2.9663811 -0.7628544 14 2
-3.7666337 4.349854 0.50341159 1 10
-2.5722303 2.9726069 -0.62260926 9 3
-3.7874658 4.3800864 0.71098578 1 11
-2.6118762 3.0216196 -0.49040228 1 4
-3.7285507 4.3195682 -0.49922809 5 5
-2.6202931 3.0367105 0.77964556 147 13
-3.3323801 3.8646889 -0.26743674 31 6
-2.6204419 3.0411725 0.9267984 151 14
-3.2290287 3.7713656 -1.33033 16 0
-3.7245722 4.3532133 0.1000023 2 8
-3.3071971 3.8667591 -1.1746944 42 1
-3.74371 4.3802218 0.3019785 2 9
-3.6771905 4.3054385 -1.1005863 4 2
-3.7051265 4.3396769 0.49922809 1 10
-3.6386499 4.264833 -0.88792211 1 3
-3.7361894 4.3822508 0.70708597 1 11
-3.6440008 4.2756362 -0.68978053 1 4
-3.6983056 4.3454914 -0.49922809 5 5
-3.2936773 3.8741624 -0.26649469 44 6
-2.616811 3.0801847 0.933097 184 14
-2.6225338 3.0901985 1.0860047 16 15
-3.2287903 3.8248167 -1.3412004 12 0
-3.6528296 4.3301978 0.098885335 2 8
-3.6615584 4.3451591 0.2977916 2 9
-3.5812874 4.2529135 -1.0807421 4 2
-3.6644752 4.3532438 0.49783361 1 10
-3.5859008 4.2629199 -0.88229048 3 3
-3.662076 4.3565626 0.69879889 1 11
-3.5834153 4.2644958 -0.68393081 1 4
-2.5900936 3.0845642 0.63793981 138 12
-3.2396052 3.8649201 -0.26429659 49 6
-2.6027529 3.1073408 0.93579644 167 14
-3.2106597 3.8576584 -1.3448237 13 0
-3.6173959 4.3494444 0.098745719 2 8
-3.1706605 3.8136575 -1.1450008 15 1
-3.5902922 4.321456 0.29444212 2 9
-3.5941474 4.3291702 -1.0937172 4 2
-3.5729189 4.3051286 0.48946664 1 10
-3.1878369 3.8438599 -0.79093277 6 3
-3.6062384 4.3514538 0.69392407 1 11
-3.5586216 4.2955236 -0.68490577 3 4
-2.5886509 3.1269169 0.64294571 161 12
-2.5748911 3.1136131 0.78536987 6 13
-3.1807382 3.8489513 -0.2616798 41 6
-2.5884397 3.1344521 0.93849587 151 14
-2.5877373 3.1369455 1.0896282 9 15
-2.6248574 3.198967 -1.1087809 5 0
-3.5463691 4.32511 0.097628765 4 8
-3.1328409 3.8221359 -1.1409518 28 1
-3.5473797 4.330965 0.2933954 2 9
-3.5190711 4.2994637 -1.0799789 4 2
-3.5326831 4.3176317 0.48807216 1 10
-3.1459196 3.8476703 -0.78717828 13 3
-3.5280442 4.318109 0.68466198 1 11
-3.495898 4.2802882 -0.67856854 3 4
-2.5892406 3.1724598 0.64857739 174 12
-3.4813087 4.2669835 -0.48179695 5 5
-2.5816245 3.1665111 0.79414707 3 13
-3.1348658 3.8478389 -0.26010972 46 6
-2.5768905 3.1640859 0.94209504 151 14
-2.5901535 3.1849091 1.099981 7 15
-3.0969517 3.8285139 -1.3194594 13 0
-3.4916997 4.3180504 0.096930668 3 8
-3.0938332 3.8287568 -1.1364527 35 1
-3.5027571 4.3363667 0.29213932 2 9
-3.4502642 4.2744322 -1.0677671 3 2
-3.4824402 4.3173766 0.48528317 1 10
-3.0911384 3.8336263 -0.77998233 19 3
-3.4861152 4.3265662 0.68222463 1 11
-7.9801068 9.9110718 -1.5623652 1 4
-2.5774949 3.2023213 0.65108031 170 12
-3.4514346 4.2911839 -0.48179695 5 5
-2.5766737 3.2058804 0.79948968 2 13
-3.0860863 3.8410604 -0.25822562 44 6
-2.5766985 3.2093511 0.95019323 115 14
-2.5659971 3.1994522 1.0989457 3 15
-3.0696154 3.8479958 -1.318942 16 0
-3.4589758 4.3391943 0.096860856 3 8
-3.0506976 3.8283908 -1.1301541 38 1
-3.4649332 4.3513398 0.2915113 2 9
-3.3885558 4.2584724 -1.0578451 3 2
-3.4281659 4.3097954 0.48179695 1 10
-3.0421743 3.8272786 -0.7743507 23 3
-3.4410093 4.3321457 0.67929977 1 11
-3.3674238 4.2410231 -0.6649192 1 4
-2.5698094 3.2388067 0.65483475 133 12
-3.4213924 4.3151746 -0.48179695 5 5
-3.0393548 3.8374615 -0.25655088 43 6
-3.014019 3.8328846 -1.3065187 16 0
-3.3940036 4.3192115 0.095883526 1 8
-3.0094523 3.8312039 -1.1247553 33 1
-3.3876092 4.3157234 0.28753379 2 9
-3.3199701 4.232594 -1.0456334 3 2
-3.3783245 4.3085375 0.47900796 1 10
-2.9861405 3.8111055 -0.76684189 23 3
-3.3862057 4.3248029 0.67442501 1 11
-3.320605 4.2425442 -0.66150689 1 4
-3.3911834 4.3389554 -0.48179695 5 5
-2.9866793 3.8255265 -0.25435278 47 6
-3.0274243 3.9057481 -1.3241183 14 0
-3.3417277 4.3143425 0.095255233 1 8
-2.9492249 3.8089781 -1.1121581 30 1
-3.3353994 4.310833 0.28564969 2 9
-3.2735302 4.2339225 -1.0402907 3 2
-3.3311074 4.3099461 0.4765676 1 10
-2.944972 3.8130994 -0.76308739 23 3
-3.3559301 4.3483377 0.67442501 1 11
-3.2707641 4.241046 -0.65760702 1 4
-2.5569019 3.3166115 0.66328222 96 12
-3.3000133 4.283608 -0.47308138 5 5
-2.930666 3.8082964 -0.25184065 45 6
-3.0064356 3.9365225 -1.3272241 15 0
-3.2775497 4.2930632 0.094277903 1 8
-2.9077108 3.8113914 -1.1067592 32 1
-3.2826707 4.3059998 0.28376558 2 9
-3.2248521 4.231689 -1.0341848 3 2
-3.2591398 4.279779 0.47064099 1 10
-2.8984706 3.8089232 -0.7580815 23 3
-3.2942455 4.3305807 0.66808778 1 11
-7.7050648 10.136348 -1.5633401 1 4
-2.5378828 3.3411152 0.66453367 110 12
-3.2700274 4.3065419 -0.47308138 5 5
-2.8960989 3.8196208 -0.25121263 48 6
-2.5484707 3.3623579 0.97403812 126 14
-2.9788802 3.9574153 -1.3272241 13 0
-3.2563617 4.3291912 0.094557136 1 8
-2.8646357 3.8097923 -1.1004605 28 1
-3.233331 4.3032656 0.28209084 2 9
-3.1803434 4.2358174 -1.0296054 3 2
-3.2220039 4.2928681 0.46959516 2 10
-2.8433652 3.7911375 -0.75057268 24 3
-3.2346003 4.3159194 0.66223812 1 11
-3.1731455 4.2354608 -0.64980739 1 4
-2.5431731 3.4007642 0.82543975 113 13
-2.8406689 3.8013489 -0.2487005 41 6
-2.5388303 3.4036219 1.1377686 146 15
-2.9304612 3.9501877 -1.3179066 15 0
-3.1887014 4.2998571 0.093440183 1 8
-2.8217249 3.8077786 -1.094162 26 1
-3.2015891 4.3219633 0.28188148 2 9
-3.1140594 4.206872 -1.0173936 3 2
-3.187218 4.3088489 0.46889788 1 10
-2.7940049 3.7786372 -0.74431533 23 3
-3.2216632 4.360189 0.66565043 1 11
-7.5486422 10.223773 -1.5604153 1 4
-2.5232491 3.4187009 0.67298114 161 12
-3.1504512 4.2716045 -0.46436578 4 5
-2.8028834 3.8045156 -0.24765378 41 6
-2.5316262 3.4426129 1.1450155 121 15
-2.9035051 3.9700432 -1.3179066 13 0
-3.1208484 4.27035 0.092323236 1 8
-2.7865443 3.8143086 -1.0905627 10 1
-3.1124568 4.2635517 0.2766479 2 9
-3.0661016 4.2031322 -1.0112877 3 2
-3.1108584 4.2660503 0.46192542 1 10
-2.7489438 3.7725072 -0.73930937 18 3
-7.4041109 10.172201 -1.5448159 2 4
-2.5225594 3.468183 0.6792385 176 12
-3.1213024 4.2929502 -0.46436578 4 5
-2.5364296 3.4910975 0.83879644 87 13
-2.7504396 3.7884336 -0.24535099 39 6
-2.8508694 3.9557376 -1.3065187 16 0
-3.0706685 4.262289 0.091694944 1 8
-2.8088048 3.9016759 -1.1099085 14 1
-3.0600314 4.2522163 0.27455446 1 9
-3.021374 4.2015905 -1.0059451 3 2
-3.0670481 4.2682486 0.45983368 1 10
-2.7139819 3.778296 -0.73680639 18 3
-3.0871568 4.300983 0.65005112 1 11
-7.3005195 10.178478 -1.5379913 2 4
-2.5219145 3.5173812 0.68549597 176 12
-3.0912559 4.3146362 -0.46436578 4 5
-2.7152898 3.7940743 -0.24451362 38 6
-2.5154073 3.5173717 0.9983328 140 14
-2.7180409 3.8274844 -1.2578605 28 0
-3.0308316 4.2711067 0.091415711 3 8
-2.9494927 4.1580191 -1.1769439 3 1
-3.0133553 4.251193 0.27308905 1 9
-2.9957695 4.2295113 -1.0074716 3 2
-3.0003338 4.2375226 0.45425573 1 10
-2.6709027 3.775044 -0.73242623 21 3
-3.0150459 4.2646112 0.64127654 1 11
-7.2178259 10.212985 -1.5355538 2 4
-2.5103543 3.5547004 0.68925035 170 12
-3.060302 4.3366461 -0.46436578 4 5
-2.676564 3.7970829 -0.2434669 46 6
-2.5036399 3.5543997 1.0037316 133 14
-2.6502779 3.7877996 -1.238708 21 0
-2.9757316 4.2561064 0.090647802 3 8
-2.9125795 4.1673269 -1.1737946 3 1
-2.9813154 4.2688513 0.27287969 1 9
-2.9302154 4.1988034 -0.99525976 3 2
-2.9775167 4.2681699 0.45530161 1 10
-2.6241493 3.7644296 -0.72679466 21 3
-2.9851999 4.2855563 0.64127654 1 11
-7.1576939 10.279417 -1.5379913 2 4
-2.4967587 3.5883539 0.692379 162 12
-2.9162149 4.1943207 -0.44693464 4 5
-2.6203682 3.7730246 -0.24074543 44 6
-2.5020964 3.6054127 1.0131795 127 14
-2.5115583 3.623095 1.1812501 180 15
-2.6084177 3.7839432 -1.231461 21 0
-2.9221263 4.2421932 0.089914799 3 8
-2.8425217 4.1281734 -1.1571481 4 1
-2.9310627 4.259944 0.27099562 1 9
-2.8941593 4.2094507 -0.99297011 3 2
-2.9273334 4.2592974 0.45216399 1 10
-2.5866239 3.7663732 -0.72366595 23 3
-2.9956443 4.3652153 0.65005112 1 11
-7.1441526 10.414255 -1.5506657 1 4
-2.4861658 3.6268785 0.6964463 145 12
-2.9168789 4.2568059 -0.45146674 4 5
-2.49786 3.6480319 0.85940373 19 13
-2.5804298 3.771446 -0.23948936 46 6
-2.4927404 3.6501129 1.184356 146 15
-2.5667446 3.7796853 -1.2242141 19 0
-2.8864417 4.2520595 0.08970537 3 8
-2.7556548 4.0624418 -1.1333034 7 1
-2.8997564 4.2764897 0.27078626 1 9
-2.8301997 4.177043 -0.98075831 3 2
-2.8640182 4.230134 0.44693464 1 10
-2.5277107 3.7348144 -0.71427983 22 3
-7.0312552 10.404669 -1.5418911 1 4
-2.4791131 3.6699076 0.7014522 145 12
-2.8581073 4.2341299 -0.44693464 4 5
-2.5368335 3.7624269 -0.23781461 43 6
-2.4764655 3.6798172 1.1884971 137 15
-2.528065 3.7778029 -1.2180026 21 0
-2.8277884 4.2288861 0.088797845 3 8
-2.765842 4.1378098 -1.14905 4 1
-2.8387706 4.2501245 0.26785544 1 9
-2.7682731 4.1477108 -0.96930981 3 2
-2.8484278 4.2694201 0.44902641 1 10
-2.4884248 3.7326481 -0.71052545 20 3
-2.8251178 4.2408957 0.62567729 1 11
-6.9184599 10.389502 -1.5326289 2 4
-2.4687519 3.7101498 0.70583236 155 12
-2.82848 4.2539787 -0.44693464 4 5
-2.4884074 3.7467694 -0.23572117 38 6
-2.4687045 3.7199233 1.0307257 124 14
-2.475265 3.7340512 1.2004027 108 15
-2.4888711 3.7760041 -1.2117908 21 0
-2.7761977 4.2151241 0.088099748 1 8
-2.7229564 4.1358585 -1.1432012 3 1
-2.7826853 4.2297935 0.26534331 1 9
-2.753269 4.1882629 -0.97427082 4 2
-2.8010454 4.2625604 0.44623742 1 10
-2.4492962 3.7301137 -0.70677096 20 3
-2.795444 4.2605138 0.62567729 1 11
-6.810925 10.384428 -1.5248294 2 4
-2.459034 3.7520757 0.71052545 138 12
-2.4468808 3.7406516 -0.23425576 37 6
-2.4661307 3.772954 1.0406237 115 14
-2.4456191 3.7673619 -1.2035086 20 0
-2.7358205 4.2176266 0.087750703 1 8
-2.6759927 4.1269712 -1.135553 2 1
-2.7248514 4.2055368 0.26262185 1 9
-2.7207615 4.2024384 -0.97312593 3 2
-2.7474036 4.245213 0.44240254 1 10
-2.4081779 3.7238996 -0.70239085 20 3
-2.7656319 4.2799263 0.62567729 1 11
-2.6769171 4.1458101 -0.60593444 1 4
-2.4077284 3.7374935 -0.2329997 39 6
-2.6819983 4.1712341 1.3287771 12 15
-2.3967526 3.750581 -1.1926383 17 0
-2.6632497 4.1692147 0.086354509 9 8
-2.6254225 4.113162 -1.126555 14 1
-2.662467 4.1744103 0.2594817 12 9
-2.6396403 4.1402144 -0.95442665 14 2
-2.6484425 4.1572213 0.43124664 13 10
-2.3729823 3.7277055 -0.69988787 20 3
-2.6621509 4.1835704 0.6088593 6 11
-2.6116943 4.1074429 -0.59764731 9 4
-2.6148636 4.1171865 -0.42671451 18 5
-2.3702261 3.7377601 -0.23195298 40 6
-2.6161919 4.1304188 -0.085342273 13 7
-2.647948 4.1837897 1.3267065 14 15
-2.3663948 3.7606821 -1.1905677 16 0
-2.6216388 4.1695442 0.085970551 11 8
-2.5966432 4.1313906 -1.126555 7 1
-2.6321971 4.191205 0.25937703 7 9
-2.6026411 4.147357 -0.95175534 6 2
-2.6384127 4.2059894 0.4343842 3 10
-2.3301141 3.7174015 -0.69488198 20 3
-2.6437361 4.2210188 0.61154038 1 11
-2.6135042 4.1743698 -0.60471576 3 4
-2.6156354 4.182641 -0.43159524 4 5
-2.3292649 3.7304983 -0.23048759 42 6
-2.6280198 4.2106133 1.1459007 5 14
-2.6211545 4.2028794 -0.086459227 3 7
-2.6074383 4.1841378 1.3210124 3 15
-2.3258383 3.7541194 -1.1833206 17 0
-2.6068838 4.2093935 0.086424313 3 8
-2.5513301 4.1229038 -1.1193565 5 1
-2.6004555 4.2039289 0.25906301 1 9
-2.5609317 4.1432662 -0.94679433 4 2
-2.585952 4.1870136 0.43054935 1 10
-2.2881534 3.7062826 -0.68987608 21 3
-2.6232815 4.2524328 0.61349034 1 11
-6.4268909 10.426363 -1.5038677 2 4
-2.5841391 4.2004571 0.95862442 2 13
-2.2954478 3.732656 -0.22965018 37 6
-2.5708129 4.1886172 1.3168714 1 15
-2.2881565 3.7500751 -1.1771091 17 0
-2.55037 4.1830969 0.085516788 1 8
-2.5069807 4.1135497 -1.1121581 3 1
-2.5565021 4.1980987 0.25759763 1 9
-2.5023484 4.1124063 -0.93572736 3 2
-2.557394 4.2045174 0.43054935 1 10
-2.2458076 3.6951575 -0.68487018 20 3
-2.5935297 4.2706428 0.61349034 1 11
-6.3289895 10.425749 -1.4975306 1 4
-2.5412452 4.1944423 0.95328182 2 13
-2.2507153 3.7178366 -0.22776611 44 6
-2.5325172 4.1915812 1.3122126 1 15
-2.2529697 3.7510519 -1.1724503 20 0
-2.5300722 4.2140756 0.085796036 3 8
-2.4661736 4.1108971 -1.1067592 3 1
-2.507324 4.1811452 0.25550416 1 9
-2.4662271 4.11587 -0.93267435 3 2
-2.5116012 4.1949196 0.42776039 1 10
-2.2145185 3.7001877 -0.68299294 21 3
-6.2153201 10.401517 -1.487781 2 4
-2.5070708 4.1973186 0.7743507 3 12
-2.4791939 4.1539402 -0.42322829 4 5
-2.5219581 4.2289414 0.95709801 2 13
-2.2059257 3.7004747 -0.22577733 34 6
-2.4841721 4.175518 1.3018599 1 15
-2.2037835 3.7263927 -1.160027 22 0
-2.4863479 4.2075338 0.08530736 3 8
-2.4282231 4.1108098 -1.1022601 3 1
-2.4658902 4.177907 0.25424811 3 9
-2.4434149 4.1431351 -0.93496412 3 2
-2.460731 4.1741571 0.42392552 1 10
-2.1745944 3.6917303 -0.67861283 21 3
-6.1322966 10.423053 -1.4848562 2 4
-2.4496782 4.1670356 0.76559031 3 12
-2.456332 4.1833711 0.94297814 2 13
-2.1729629 3.7037263 -0.22504464 27 6
-2.4412954 4.1694193 1.2946129 1 15
-2.1699402 3.7283297 -1.1558858 18 0
-2.4267547 4.1729302 0.084260218 3 8
-2.3837953 4.1007056 -1.0950617 3 1
-2.4326501 4.1881123 0.25382942 3 9
-2.3848684 4.1091514 -0.92351556 3 2
-2.4095342 4.1533203 0.42009068 1 10
-2.1329193 3.6794767 -0.67360687 19 3
-2.4545298 4.2376966 0.60130334 1 11
-6.0613742 10.469042 -1.4853437 2 4
-2.3571391 4.0777535 -0.41207233 4 5
-2.4192088 4.1868181 0.93992513 2 13
-2.1310749 3.6911311 -0.22336988 33 6
-2.3889828 4.1461873 1.2821896 1 15
-2.1284976 3.7165656 -1.1476036 26 0
-2.3916039 4.1793571 0.084050797 3 8
-2.3376923 4.0868001 -1.0869635 2 1
-2.3934419 4.1876535 0.2527827 3 9
-3.7327995 6.5363374 -1.4631234 3 2
-2.3706024 4.1527381 0.41834757 1 10
-2.09935 3.6805508 -0.67110395 19 3
-5.9842033 10.504208 -1.4843687 2 4
-2.3912578 4.2008328 0.76559031 3 12
-2.3569176 4.1421914 -0.41695309 4 5
-2.3588719 4.1489902 0.92771345 2 13
-2.0953908 3.6885521 -0.22232316 31 6
-2.3599768 4.1627655 1.2821896 1 15
-2.0939641 3.7161875 -1.1429449 17 0
-2.3611379 4.1920547 0.083980985 3 8
-2.2976348 4.0826411 -1.0815647 3 1
-2.3413796 4.1620703 0.25027055 3 9
-2.3183656 4.1245284 -0.91969937 3 2
-2.3474071 4.1796098 0.41939342 1 10
-2.0684466 3.6844203 -0.66922677 19 3
-5.9446998 10.606334 -1.4928997 2 4
-2.3626082 4.2170119 0.76559031 3 12
-2.3375163 4.1790643 0.93076634 2 13
-2.0624375 3.6887834 -0.22148579 29 6
-2.3249998 4.1669226 1.2785661 1 15
-2.0573776 3.7100806 -1.1367333 15 0
-2.3163075 4.18045 0.083422504 3 8
-2.2641268 4.0879574 -1.0788652 3 1
-2.3142002 4.1818094 0.25047991 3 9
-2.2971146 4.1543584 -0.92275238 3 2
-2.3015542 4.164103 0.4162558 2 10
-2.0331242 3.6814787 -0.66609806 20 3
-2.3180408 4.2008557 0.58911645 1 11
-5.8637371 10.630908 -1.490706 1 4
-2.3140414 4.1988029 0.75933295 3 12
-2.2719455 4.1258264 -0.41207233 4 5
-2.3128026 4.2017579 0.93229276 2 13
-2.0250847 3.6820912 -0.22022973 29 6
-2.2912052 4.1745853 1.275978 1 15
-2.0166254 3.6972182 -1.1284511 15 0
-2.29281 4.2070532 0.083631933 1 8
-2.2318034 4.0968194 -1.0770656 2 1
-2.2754028 4.1803212 0.24943319 4 9
-2.2492959 4.1357994 -0.91511995 2 2
-2.2667179 4.1695671 0.41520998 1 10
-1.9922872 3.6678097 -0.66109216 18 3
-5.7477264 10.594812 -1.4799815 2 4
-2.2790236 4.2044358 0.75745571 3 12
-2.2430863 4.1415873 -0.41207233 4 5
-2.2721965 4.1970844 0.92771345 2 13
-1.9936278 3.6855989 -0.21960169 32 6
-2.2473228 4.1632791 1.2676958 1 15
-1.9779819 3.6873724 -1.1212041 17 0
-2.2407095 4.1806588 0.082794219 3 8
-2.1957877 4.0985575 -1.0734664 2 1
-2.232965 4.1714535 0.24796779 3 9
-3.6296256 6.7862787 -1.4959426 3 2
-2.220645 4.1536632 0.41207233 1 10
-1.9554638 3.6607206 -0.65733767 20 3
-2.2591612 4.232811 0.58911645 1 11
-5.7203403 10.722253 -1.4921683 2 4
-2.206872 4.1400571 0.74306375 3 12
-2.1860201 4.1043906 -0.40684301 4 5
-2.2206974 4.1712537 0.91855454 2 13
-1.9528414 3.6712141 -0.21792693 31 6
-2.199182 4.1430335 1.2568253 1 15
-1.9431782 3.6840043 -1.1160278 16 0
-2.1890945 4.1537409 0.081956498 3 8
-2.1435039 4.0689607 -1.061769 2 1
-2.177743 4.1374531 0.24503697 4 9
-2.1310194 4.0521193 -0.88993317 2 2
-2.1860323 4.1584826 0.41102645 1 10
-1.928941 3.6725345 -0.65702486 34 3
-1.9189749 3.658211 -0.50722027 3 4
-2.1889193 4.1763587 0.74681824 3 12
-2.0334568 3.8830392 -0.38348526 3 5
-2.16785 4.1414318 0.90863246 2 13
-1.9160565 3.6635206 -0.21667089 61 6
-2.163054 4.1445847 1.2526842 1 15
-1.8667194 3.5997269 -1.0865225 33 0
-2.1471612 4.1440668 0.081467837 3 8
-1.8237797 3.5214338 -0.91555077 18 1
-2.1414599 4.1383662 0.2441996 3 9
-1.8348863 3.548943 -0.77659267 33 2
-2.1496277 4.1594839 0.409632 1 10
-1.8334705 3.5507603 -0.63293391 29 3
-2.1543355 4.1757331 0.57692951 1 11
-1.8269703 3.5427246 -0.48942733 25 4
-1.8312033 3.5570269 -0.35001746 40 5
-2.1334968 4.1459904 0.90634274 2 13
-1.8365518 3.5720098 -0.21049525 39 6
-1.8277851 3.559541 -0.069844536 40 7
-2.1120205 4.1166139 1.2397434 1 15
-1.8239962 3.5782485 -1.0761696 21 0
-2.1254401 4.1732097 0.08174707 1 8
-2.1016526 4.1318517 0.24294353 4 9
-1.6730874 3.292135 -0.71782345 17 2
-2.104296 4.1424141 0.40649435 1 10
-1.6727431 3.2957289 -0.58537781 12 3
-1.799502 3.5500803 -0.48869613 39 4
-2.1125445 4.1712689 0.74056083 3 12
-1.7919347 3.5412796 -0.34722847 47 5
-2.0956371 4.1432657 0.90252656 2 13
-1.7935545 3.5490921 -0.2084018 35 6
-1.7902763 3.5472214 -0.069355868 37 7
-2.0806201 4.1260834 1.2381904 1 15
-1.6561954 3.3059034 -0.99075931 16 0
-2.0765624 4.1486063 0.080979168 2 8
-1.6523606 3.3025656 -0.85256451 12 1
-2.078114 4.1571422 0.24357156 3 9
-1.7044511 3.4126303 -0.74148381 17 2
-2.0646462 4.1356134 0.40440264 1 10
-1.7757796 3.5601048 -0.63011813 34 3
-2.0958228 4.2054057 0.57692951 1 11
-1.7667078 3.5465648 -0.48650244 23 4
-2.0657704 4.1505461 0.73430347 3 12
-1.7653923 3.5501363 -0.34687987 30 5
-2.0544288 4.1331811 0.89718395 2 13
-1.7642901 3.5525839 -0.20787844 25 6
-1.7707994 3.5703824 -0.069565296 21 7
-2.0457597 4.1283917 1.2345669 1 15
-1.767032 3.5895011 -1.0720285 22 0
-2.0351932 4.1378803 0.080490492 2 8
-1.7659675 3.5920837 -0.92409897 35 1
-2.03143 4.1356955 0.24147813 4 9
-1.7636195 3.5936418 -0.77811909 31 2
-2.0251942 4.1284614 0.40231091 1 10
-1.7587062 3.5883791 -0.63293391 26 3
-2.0664124 4.2199349 0.57692951 1 11
-1.7680861 3.6123018 -0.49381462 28 4
-2.0488932 4.1897101 0.73868364 3 12
-1.7589341 3.5999663 -0.3505404 36 5
-2.0255218 4.1474242 0.89718395 2 13
-1.7718536 3.631227 -0.2117513 51 6
-1.7633516 3.618609 -0.070263386 25 7
-1.9974401 4.1026225 1.2226613 1 15
-1.7678002 3.6536152 -1.0875577 22 0
-2.0017583 4.1408358 0.080281071 1 8
-1.7618244 3.6461327 -0.93489659 5 1
-1.9928122 4.1278439 0.24022207 3 9
-1.7757932 3.6815996 -0.79452866 9 2
-1.9814708 4.1098461 0.39917332 1 10
-1.7505281 3.6340811 -0.63887841 24 3
-2.0083473 4.1786337 0.73430347 3 12
-1.9870874 4.1380982 -0.40161365 4 5
-1.997246 4.1611147 0.89718395 2 13
-1.7470956 3.6432035 -0.2117513 50 6
-1.9694681 4.1161237 1.2226613 1 15
-1.7497134 3.6815715 -1.0922165 13 0
-1.965939 4.1402588 0.080001831 1 8
-1.9234955 4.0526981 -1.0356746 2 1
-1.9519653 4.1163907 0.23875666 4 9
-1.7685399 3.7329402 -0.80292428 3 2
-1.9459085 4.1091738 0.39777881 1 10
-1.7183564 3.6319287 -0.63637549 24 3
-5.0915823 10.776191 -1.4634072 2 4
-1.9369632 4.1032357 0.71866006 2 12
-1.9547501 4.1446624 -0.40091643 4 5
-1.9447073 4.1252337 0.88649869 2 13
-1.7148105 3.640857 -0.21091393 41 6
-1.9357542 4.1192822 1.2195554 1 15
-1.7321391 3.7112026 -1.0973928 7 0
-1.9183946 4.1140113 0.07923393 2 8
-1.8902159 4.0554299 -1.0329752 2 1
-1.9130622 4.1081905 0.23750059 2 9
-1.6919203 3.6366129 -0.77964556 15 2
-1.9104528 4.1082063 0.39638433 1 10
-1.6846354 3.6259217 -0.63324684 24 3
