# .PCD v0.7 - Point Cloud Data file format
VERSION 0.7
FIELDS x y z intensity ring
SIZE 4 4 4 4 2
TYPE F F F F U
COUNT 1 1 1 1 1
WIDTH 1333
HEIGHT 1
VIEWPOINT 0 0 0 1 0 0 0
POINTS 1333
DATA ascii
19.965916 1.7151912 -1.7532248 38 5
22.66234 1.9348776 -1.1920038 51 6
6.4424243 0.52740377 -1.7320172 6 0
7.3128567 0.59479976 -1.6938814 14 1
8.7727957 0.70738536 -1.7107936 10 2
11.050416 0.88521594 -1.7558208 9 3
14.742331 1.1731964 -1.8158534 7 4
6.4671402 0.48399717 -1.7377111 9 0
7.3362651 0.54517955 -1.6983805 14 1
8.7930708 0.64881015 -1.7138464 10 2
11.052244 0.80968875 -1.7551949 9 3
14.821439 1.0754117 -1.824628 7 4
6.4510112 0.43865481 -1.7325348 7 0
7.3592491 0.4965423 -1.7028794 14 1
8.8130579 0.58845347 -1.7168994 10 2
11.085222 0.73433781 -1.759575 9 3
14.864068 0.97685033 -1.8290153 7 4
20.49007 1.3358111 -1.7964542 37 5
25.071436 1.6169089 -1.3166682 43 6
6.4828401 0.39537469 -1.7402993 6 0
7.378098 0.44609737 -1.7064787 15 1
26.756636 1.6130704 1.4048018 21 9
8.8442945 0.53009975 -1.722242 9 2
11.153066 0.66261488 -1.7695868 9 3
14.914124 0.87561548 -1.8343775 7 4
27.021975 1.5580817 -1.4185139 11 6
6.5028038 0.35104039 -1.744958 9 0
7.4082761 0.39603052 -1.7127774 15 1
8.8596249 0.46741849 -1.7245318 10 2
11.165412 0.58320588 -1.7708384 9 3
14.959522 0.77353114 -1.8392524 7 4
6.4915881 0.30499908 -1.7413346 6 0
7.4459 0.34592927 -1.7208756 15 1
8.868557 0.40582034 -1.7256767 10 2
11.169211 0.5052371 -1.7708384 9 3
14.920929 0.66711736 -1.83389 7 4
6.5263739 0.26098716 -1.7501343 9 0
7.4637108 0.29455701 -1.7244748 15 1
8.8495932 0.34305966 -1.7214788 10 2
11.207998 0.42860773 -1.7764701 9 3
14.883565 0.56136221 -1.8287715 9 4
6.5241761 0.21529071 -1.7490991 9 0
7.4850626 0.2430758 -1.7289737 14 1
8.8243017 0.28040078 -1.7161362 10 2
11.23046 0.35097307 -1.7795987 9 3
14.89109 0.45757073 -1.829259 9 4
6.4521341 0.16782926 -1.7294289 3 0
7.5060582 0.19131081 -1.7334728 14 1
8.8456707 0.21927522 -1.7199525 10 2
11.20499 0.27189028 -1.7752185 9 3
14.909799 0.35397705 -1.8312089 9 4
32.12376 0.72339267 -1.683962 9 6
6.3604369 0.12101681 -1.7045823 4 0
7.5383854 0.1394808 -1.7406713 13 1
8.8881798 0.15980057 -1.7279664 10 2
11.210531 0.19568281 -1.7758442 9 3
14.951602 0.25054359 -1.8360838 9 4
33.649666 0.52860546 -1.7637218 7 6
6.3417959 0.077483781 -1.6994059 4 0
7.554749 0.088347591 -1.7442704 14 1
8.9106722 0.097982936 -1.732164 10 2
11.231377 0.11762066 -1.778973 9 3
14.937107 0.14600043 -1.8341339 9 4
34.854839 0.30416575 -1.8267344 12 6
6.3305969 0.032042284 -1.6963001 5 0
7.539598 0.034214061 -1.7406713 12 1
8.9877062 0.036079697 -1.7470472 10 2
11.208227 0.037169166 -1.7752185 9 3
14.87424 0.041538805 -1.8263341 9 4
6.3171439 -0.01212806 -1.6926767 6 0
7.4324732 -0.018160995 -1.7159266 6 1
9.0682278 -0.02848877 -1.7626936 10 2
11.231917 -0.041167311 -1.778973 9 3
14.913869 -0.062471431 -1.8312089 9 4
6.3323588 -0.056366947 -1.6968178 6 0
7.3561673 -0.069332294 -1.6983805 7 1
9.14046 -0.090935737 -1.7768134 10 2
11.191871 -0.11720527 -1.7727156 9 3
14.909098 -0.16654316 -1.8307214 9 4
6.3144441 -0.099195205 -1.6921589 5 0
7.3594222 -0.11946541 -1.6992803 7 1
9.1729736 -0.15531047 -1.783301 10 2
11.190781 -0.19533579 -1.7727156 9 3
14.99098 -0.26952025 -1.8409585 9 4
38.252445 -0.73448449 -2.0050952 2 6
6.3097348 -0.14318791 -1.6911237 5 0
7.3389263 -0.17038821 -1.6947813 7 1
9.2148447 -0.22037825 -1.7916965 7 2
11.204943 -0.2738429 -1.7752185 9 3
15.008577 -0.37466499 -1.8433958 9 4
38.26635 -1.0020398 -2.0061419 2 6
6.3317537 -0.18792206 -1.6973354 4 0
7.3336625 -0.22150137 -1.6938814 7 1
8.9854517 -0.27766985 -1.7474288 4 2
11.222502 -0.35268131 -1.7783473 9 3
15.043209 -0.4832646 -1.8480269 10 4
37.675541 -1.2498266 -1.9755778 2 6
6.3302469 -0.23322594 -1.6973354 5 0
7.343574 -0.27441043 -1.6965809 7 1
8.8636227 -0.33585829 -1.7241502 4 2
11.251273 -0.43419698 -1.7833531 9 3
15.065256 -0.5892821 -1.8511955 9 4
6.3091645 -0.27656731 -1.6921589 4 0
7.3297982 -0.32515296 -1.6938814 7 1
64.548843 -2.8859906 3.3862414 11 9
8.8099995 -0.39697817 -1.714228 4 2
64.718361 -2.9275246 5.6679125 12 10
11.275594 -0.51399374 -1.7877333 9 3
15.080606 -0.69535655 -1.8536329 9 4
6.318656 -0.32119492 -1.6952648 4 0
7.335135 -0.37671608 -1.6956811 6 1
8.828661 -0.45805523 -1.7184259 4 2
11.115993 -0.58256459 -1.7630166 4 3
64.828323 -3.4202001 7.9709873 8 11
15.109081 -0.8024109 -1.8577764 10 4
44.401909 -2.4047213 -2.3304157 0 6
6.3163233 -0.3641969 -1.6952648 4 0
7.3207273 -0.42595646 -1.6929817 7 1
8.8115282 -0.51887137 -1.7157546 4 2
11.017004 -0.65453064 -1.747999 5 3
15.162717 -0.90879869 -1.8650886 10 4
44.782742 -2.7390299 -2.3513501 0 6
6.3136268 -0.40828389 -1.6952648 4 0
7.3292437 -0.47781464 -1.6956811 7 1
8.8292398 -0.58179432 -1.7199525 4 2
11.02005 -0.731951 -1.7492503 5 3
15.286725 -1.0233829 -1.8811754 11 4
6.2990608 -0.45152229 -1.6921589 4 0
7.3335037 -0.52953178 -1.6974807 7 1
58.033585 -4.2108064 3.049407 0 9
8.8543348 -0.64556074 -1.7256767 4 2
58.064747 -4.2436309 5.0935559 1 10
11.022552 -0.80944562 -1.7505019 4 3
15.352458 -1.1354963 -1.8901937 9 4
46.329464 -3.4835298 -2.4348783 0 6
6.2996073 -0.49578989 -1.6931943 4 0
7.3257427 -0.5804081 -1.6965809 6 1
8.8242931 -0.70378572 -1.7207156 4 2
11.016788 -0.88445443 -1.7505019 4 3
15.067149 -1.2202146 -1.8560703 4 4
6.2864628 -0.5378347 -1.6906061 11 0
7.3216224 -0.63025904 -1.6965809 6 1
8.8230762 -0.76571274 -1.7214788 4 2
11.012313 -0.96151567 -1.7508147 4 3
15.026855 -1.3199651 -1.8521705 4 4
6.2748599 -0.58099657 -1.6885355 12 0
7.2995806 -0.67973167 -1.6925317 4 1
8.7979698 -0.82545632 -1.7176627 4 2
11.01123 -1.0389287 -1.7517534 4 3
15.029132 -1.4259645 -1.8536329 4 4
6.2956414 -0.62727886 -1.6952648 7 0
7.2849627 -0.72970426 -1.6902822 15 1
8.8115253 -0.88882744 -1.7214788 4 2
10.993883 -1.1147794 -1.7501891 4 3
15.036584 -1.5326635 -1.8558265 3 4
6.341053 -0.67654377 -1.7087234 4 0
7.3087549 -0.78366101 -1.6970307 21 1
8.8051052 -0.95032138 -1.7214788 4 2
11.009399 -1.1940595 -1.7539434 3 3
15.037357 -1.6388909 -1.857289 3 4
6.3211956 -0.71573937 -1.7045823 4 0
7.3267775 -0.83348542 -1.7024295 6 1
8.773428 -1.0042595 -1.7165178 12 2
11.013234 -1.2664837 -1.7558208 3 3
15.073484 -1.7440616 -1.8631387 3 4
6.3157797 -0.76205647 -1.7045823 4 0
7.3359475 -0.88904637 -1.7060288 3 1
8.7913523 -1.0700985 -1.7214788 4 2
10.980124 -1.3442994 -1.7520663 11 3
15.092142 -1.8557559 -1.8670385 3 4
6.3216619 -0.80870217 -1.7076882 4 0
7.3216662 -0.94052494 -1.7042291 3 1
8.7930088 -1.1357707 -1.723387 3 2
11.015281 -1.4286803 -1.7592622 13 3
15.068634 -1.9624227 -1.8658198 2 4
6.3158622 -0.85281557 -1.7076882 3 0
7.3303709 -0.99371064 -1.7078284 3 1
8.8159885 -1.2013706 -1.7294928 3 2
11.050053 -1.5117041 -1.7664583 4 3
15.032934 -2.0646019 -1.8631387 13 4
6.3250556 -0.89906245 -1.7118292 3 0
7.3579803 -1.0498161 -1.7159266 2 1
8.7918396 -1.2606587 -1.7264398 3 2
11.058782 -1.5916246 -1.7695868 3 3
15.1046 -2.1819885 -1.8738631 3 4
6.3224463 -0.94376779 -1.7128645 3 0
7.3311992 -1.0982714 -1.7114276 2 1
8.7675247 -1.3181384 -1.723387 3 2
11.075037 -1.6709877 -1.773967 4 3
15.073298 -2.2850044 -1.8719133 2 4
6.3120584 -0.98618472 -1.7118292 3 0
7.3351054 -1.1499584 -1.7141271 2 1
8.7697449 -1.3811473 -1.7256767 3 2
11.086515 -1.7519647 -1.7777214 3 3
15.073079 -2.3900383 -1.8738631 2 4
6.3050199 -1.0302267 -1.7118292 3 0
7.3115139 -1.1986166 -1.7105279 2 1
8.7911358 -1.4459063 -1.7317824 3 2
11.093824 -1.8306034 -1.7808502 3 3
15.083445 -2.4997525 -1.8772755 1 4
6.2902436 -1.0718216 -1.7097588 3 0
7.2955022 -1.247043 -1.7087282 1 1
8.8040476 -1.51123 -1.736362 3 2
11.096348 -1.9106894 -1.7833531 3 3
15.081729 -2.605067 -1.8792255 1 4
6.299922 -1.1176498 -1.7144175 2 0
7.3213801 -1.3028182 -1.7168264 2 1
8.8051519 -1.5731936 -1.7386516 3 2
11.102529 -1.9896592 -1.7864817 3 3
15.102724 -2.7146876 -1.8841002 1 4
6.2921681 -1.1605058 -1.7144175 2 0
7.3391695 -1.357585 -1.7231251 2 1
8.8174028 -1.6373926 -1.7432311 3 2
11.104265 -2.0680788 -1.7889848 3 3
15.110722 -2.825165 -1.8875126 1 4
6.2912917 -1.2069575 -1.716488 2 0
7.3139582 -1.4071224 -1.7195259 1 1
8.7633467 -1.6907272 -1.7348354 3 2
11.100819 -2.149739 -1.7908621 3 3
15.102323 -2.9328587 -1.888975 1 4
6.2637658 -1.2470769 -1.7113116 2 0
7.3192439 -1.4612008 -1.7231251 2 1
8.8203249 -1.767278 -1.7485738 3 2
11.108779 -2.231853 -1.7946163 3 3
15.093155 -3.0405724 -1.8904375 2 4
15.861169 -3.2241082 -0.28251958 55 7
6.2643666 -1.2927277 -1.7138997 1 0
7.305048 -1.5114731 -1.7222252 1 1
8.8116159 -1.8296101 -1.749337 3 2
11.081325 -2.3069365 -1.7927393 3 3
15.106538 -3.1531687 -1.8948246 2 4
6.2400756 -1.3332002 -1.7097588 1 0
7.2905073 -1.5616184 -1.7213255 1 1
8.7564011 -1.8820058 -1.7409414 3 2
11.111294 -2.3942282 -1.800248 3 3
15.035649 -3.2480757 -1.8887312 2 4
6.2532516 -1.3817331 -1.7159703 2 0
7.2946486 -1.6158489 -1.7249247 1 1
8.8043766 -1.9567205 -1.7531532 3 2
11.078884 -2.4683044 -1.7977451 4 3
15.084289 -3.3689737 -1.8977495 2 4
6.2491035 -1.4266449 -1.7175232 2 0
7.2717924 -1.664127 -1.7222252 1 1
8.8019829 -2.0207741 -1.7554429 3 2
11.088332 -2.551791 -1.8021252 3 3
15.070073 -3.4764299 -1.8989682 2 4
6.2371116 -1.4697937 -1.7170056 2 0
7.2543077 -1.7135088 -1.7208756 1 1
8.7880239 -2.0806401 -1.7554429 3 2
11.074551 -2.628119 -1.8027509 2 3
15.080196 -3.5898283 -1.9033556 2 4
6.2626309 -1.520876 -1.7268407 2 0
7.2405825 -1.7623864 -1.7204256 1 1
8.7923565 -2.1465971 -1.759259 3 2
11.055933 -2.7053695 -1.8027509 2 3
15.074691 -3.6971202 -1.905793 2 4
6.2406163 -1.5617461 -1.7237349 2 0
7.2281027 -1.8128918 -1.7204256 1 1
8.7771568 -2.2079265 -1.759259 3 2
11.075085 -2.7921457 -1.8090084 2 3
15.038892 -3.7998393 -1.9045743 2 4
93.269608 -23.739454 -1.6799338 138 7
6.2333031 -1.6062396 -1.7247702 2 0
7.2247043 -1.8657451 -1.7226752 1 1
8.7767324 -2.2730863 -1.7623119 3 2
11.036203 -2.8644333 -1.8058797 2 3
15.090765 -3.925225 -1.9145676 2 4
6.2069983 -1.6457558 -1.7206291 2 0
7.2435207 -1.9246447 -1.7303236 1 1
8.7496738 -2.3297434 -1.7600222 3 2
11.046987 -2.9476354 -1.8108855 2 3
15.095592 -4.0392046 -1.9187111 2 4
6.2217469 -1.6950763 -1.7278759 2 0
7.2528119 -1.9800634 -1.7357224 1 1
8.7824287 -2.404248 -1.7699443 3 2
11.03376 -3.0267761 -1.812137 2 3
15.102203 -4.1513338 -1.9230984 1 4
6.1948795 -1.7343043 -1.7237349 2 0
7.2238011 -2.0264382 -1.7321231 1 1
8.7658606 -2.4639723 -1.7699443 3 2
11.047127 -3.1114492 -1.8177687 2 3
15.103419 -4.2652969 -1.9269981 2 4
6.2086139 -1.7849829 -1.7309818 2 0
7.2057328 -2.0757413 -1.7312233 2 1
8.7404604 -2.5244565 -1.768418 3 2
11.024579 -3.1904209 -1.8177687 2 3
15.061835 -4.3673167 -1.9255358 1 4
6.2052655 -1.8310174 -1.7335701 3 0
7.2060165 -2.1304157 -1.7348225 2 1
8.6736832 -2.570909 -1.7584958 3 2
11.028548 -3.2751815 -1.8221489 2 3
15.050005 -4.4780226 -1.9279732 1 4
6.1886334 -1.8731738 -1.7325348 3 0
7.1872377 -2.1795397 -1.7339227 2 1
8.711875 -2.6485307 -1.7699443 3 2
11.035649 -3.3613043 -1.8271548 2 3
15.010781 -4.5806627 -1.9269981 2 4
6.1440396 -1.9065993 -1.7237349 2 0
7.1792903 -2.2319767 -1.7357224 2 1
8.6856747 -2.7069495 -1.768418 3 2
11.011914 -3.4382646 -1.8271548 2 3
15.023907 -4.6995687 -1.932848 2 4
6.1508303 -1.9558855 -1.7294289 3 0
7.1412516 -2.2749448 -1.7303236 3 1
8.7151909 -2.7830482 -1.77834 3 2
10.953778 -3.5042241 -1.8215232 2 3
15.066347 -4.8285742 -1.9425975 2 4
6.1002879 -1.9868133 -1.7190762 2 0
7.1474276 -2.3319979 -1.7357224 2 1
8.6544971 -2.8303976 -1.7699443 3 2
11.049186 -3.6199703 -1.8415467 1 3
15.060562 -4.9429245 -1.9462537 2 4
6.1247554 -2.0421853 -1.7299466 2 0
7.123579 -2.3793695 -1.7339227 2 1
8.6903772 -2.9094462 -1.7813929 3 2
10.99368 -3.6869698 -1.8365408 2 3
15.053912 -5.0574279 -1.9499096 3 4
6.1012068 -2.0817745 -1.7273583 2 0
7.139987 -2.4403877 -1.742021 2 1
8.670372 -2.9685321 -1.7813929 3 2
11.020648 -3.7796593 -1.8453012 2 3
15.033257 -5.1675625 -1.9518596 3 4
6.1051359 -2.1296184 -1.7325348 2 0
7.130569 -2.4915025 -1.7438205 2 1
8.6864958 -3.0419672 -1.7890252 3 2
10.97908 -3.8512743 -1.8427982 2 3
15.020208 -5.2776661 -1.9547845 3 4
6.0610065 -2.161804 -1.7242525 2 0
7.1386933 -2.550401 -1.7501192 2 1
8.6655884 -3.1010234 -1.7890252 3 2
10.95633 -3.9272492 -1.843424 1 3
14.992339 -5.3857536 -1.9560032 5 4
6.0606723 -2.2083004 -1.7283937 2 0
7.0918779 -2.5882432 -1.7429208 1 1
8.6437273 -3.1614447 -1.7890252 3 2
10.943485 -4.0090785 -1.8459269 2 3
14.95906 -5.4890451 -1.9564906 5 4
6.0632124 -2.257298 -1.7335701 2 0
7.0955472 -2.6458609 -1.7483196 2 1
8.7133999 -3.2560732 -1.8081062 3 2
10.955932 -4.1006141 -1.85281 2 3
14.985431 -5.617733 -1.9650215 3 4
6.0581408 -2.3036919 -1.7366759 2 0
7.0951138 -2.7022686 -1.7528186 1 1
8.5987444 -3.2818215 -1.7890252 3 2
10.904894 -4.1685362 -1.8490556 2 3
14.969948 -5.7314405 -1.9681902 5 4
6.0239015 -2.3389368 -1.7314996 1 0
7.0688109 -2.7489102 -1.751019 1 1
8.5646496 -3.3374949 -1.7867355 3 2
10.912331 -4.2589288 -1.8553129 2 3
14.9647 -5.8495421 -1.9728212 3 4
6.0325689 -2.3908992 -1.7387464 2 0
7.0530701 -2.7996302 -1.7519189 1 1
8.614109 -3.4262288 -1.8020002 3 2
10.930046 -4.3540134 -1.8634475 2 3
14.960372 -5.9685826 -1.9776958 3 4
6.0228939 -2.4358532 -1.740817 1 0
7.0387716 -2.850996 -1.7532685 1 1
8.5535975 -3.4715168 -1.7943679 3 2
10.910363 -4.4346762 -1.8653249 3 3
14.96982 -6.0938368 -1.9845206 2 4
5.966454 -2.4616318 -1.7294289 1 0
7.0042887 -2.8941126 -1.7496693 1 1
8.5618048 -3.5446649 -1.801237 3 2
10.926581 -4.5304065 -1.8734595 2 3
14.983745 -6.2217951 -1.9920764 2 4
5.9776134 -2.515213 -1.7377111 2 0
6.9982796 -2.9489946 -1.7532685 1 1
8.5296154 -3.6012964 -1.7997105 3 2
10.880132 -4.6004233 -1.8709565 3 3
14.981988 -6.3440523 -1.9976823 2 4
6.0060678 -2.5766861 -1.7511697 1 0
6.9703593 -2.9947028 -1.7514689 1 1
10.869516 -4.6856518 -1.8747108 3 3
14.966495 -6.4610806 -2.0015824 2 4
5.9489927 -2.6015241 -1.7397816 2 0
6.9492826 -3.0432916 -1.7514689 1 1
8.5187063 -3.7359045 -1.8081062 3 2
10.857266 -4.7682667 -1.8781524 4 3
15.008236 -6.6037822 -2.0132816 2 4
5.9629121 -2.6561067 -1.7490991 1 0
6.9355254 -3.0936983 -1.7532685 1 1
8.4924173 -3.795285 -1.8081062 3 2
10.848956 -4.8552451 -1.8825326 4 3
15.008227 -6.7260823 -2.0193753 2 4
5.9618154 -2.7056541 -1.7542756 1 0
6.9208555 -3.1452668 -1.7550682 1 1
8.4657154 -3.85448 -1.8081062 3 2
10.8112 -4.9292269 -1.8819069 4 3
14.987991 -6.8430614 -2.0230312 1 4
5.9147239 -2.7342389 -1.7459934 2 0
6.9093394 -3.1984184 -1.7577676 1 1
8.4207878 -3.9052272 -1.8042899 3 2
10.80519 -5.0178952 -1.8869127 5 3
14.947052 -6.9508777 -2.0240064 2 4
5.8954916 -2.7754645 -1.7459934 1 0
6.9027061 -3.254055 -1.7618166 1 1
8.386219 -3.9605665 -1.8027636 3 2
10.75204 -5.0847621 -1.8837841 8 3
14.937633 -7.0737495 -2.0293684 2 4
5.8834319 -2.8188682 -1.7480639 1 0
6.8680978 -3.2950637 -1.7586673 1 1
8.3767605 -4.0260625 -1.8065797 3 2
10.758119 -5.1775327 -1.89098 4 3
14.924903 -7.1924977 -2.0342433 2 4
5.8844457 -2.8700359 -1.7542756 1 0
6.8624377 -3.3514836 -1.7631663 1 1
8.32376 -4.0723653 -1.801237 3 2
10.742998 -5.2629399 -1.8947345 4 3
14.895713 -7.3070078 -2.0371683 2 4
5.8954124 -2.9265082 -1.763593 1 0
6.8441081 -3.4019127 -1.7645161 2 1
8.3127012 -4.1391268 -1.8050531 3 2
10.780243 -5.3748307 -1.9078751 2 3
14.920708 -7.4489465 -2.0476489 2 4
45.207203 -22.638079 -2.6496651 1 6
5.8334537 -2.9466894 -1.7511697 1 0
6.8114967 -3.4452124 -1.7622666 3 1
8.3186293 -4.2148061 -1.8126855 3 2
10.735412 -5.4463849 -1.9066235 2 3
14.901968 -7.5700135 -2.0522799 2 4
45.140598 -23.000284 -2.655108 0 6
5.795558 -2.978512 -1.7459934 2 0
6.7959428 -3.4971395 -1.7645161 5 1
8.2890015 -4.2727776 -1.8126855 3 2
10.718191 -5.5320706 -1.910378 2 3
14.968676 -7.7358379 -2.0688543 2 4
5.8499513 -3.0582807 -1.7687694 1 0
6.7713628 -3.5444984 -1.7645161 5 1
8.2450609 -4.3232479 -1.8096325 3 2
10.724783 -5.6306372 -1.9185126 2 3
14.928363 -7.8475389 -2.0708041 1 4
5.7943435 -3.0809071 -1.7584167 1 0
6.7533336 -3.5953476 -1.7663157 4 1
8.2423954 -4.3954844 -1.8157386 3 2
10.713092 -5.7202582 -1.9235184 1 3
14.974748 -8.0058498 -2.0849409 1 4
5.7964849 -3.1341476 -1.7656636 1 0
6.7314963 -3.6442628 -1.7672155 4 1
8.1984768 -4.4440017 -1.8126855 3 2
10.708632 -5.8118925 -1.9297757 2 3
14.988255 -8.1481218 -2.0946906 2 4
47.189266 -25.717743 -2.8165121 0 6
5.7750173 -3.1735301 -1.7656636 1 0
6.7184858 -3.6965735 -1.7703648 6 1
8.2067995 -4.5229235 -1.8214628 4 2
10.68855 -5.897963 -1.9335302 2 3
15.050597 -8.3152323 -2.1112647 2 4
5.7459755 -3.210001 -1.763593 1 0
6.704421 -3.7500463 -1.7735142 4 1
8.1664591 -4.5753098 -1.8195547 10 2
10.647115 -5.9724388 -1.9335302 2 3
15.012951 -8.4317675 -2.1141896 2 4
5.7200656 -3.2481294 -1.7625577 2 0
6.6679134 -3.7909811 -1.7708147 5 1
8.1309071 -4.6302676 -1.8187915 6 2
10.636049 -6.0642352 -1.9391619 3 3
15.117496 -8.6298628 -2.1373446 2 4
5.7106357 -3.2957087 -1.7666988 2 0
6.6412845 -3.8374391 -1.7708147 4 1
8.1425629 -4.7124872 -1.8287135 3 2
10.593455 -6.1383405 -1.9391619 2 3
15.132431 -8.7790222 -2.1480694 2 4
5.6608257 -3.3198583 -1.7584167 2 0
6.6395397 -3.8985107 -1.7775632 3 1
8.1619272 -4.8000708 -1.8405437 4 2
10.567365 -6.2221684 -1.9422905 2 3
15.228099 -8.9771976 -2.1704934 2 4
5.6590848 -3.372153 -1.7651459 2 0
6.6104884 -3.9437697 -1.7771133 3 1
8.1273794 -4.8545079 -1.8401619 3 2
10.511205 -6.2858438 -1.9397876 3 3
15.347275 -9.1924324 -2.1965733 4 4
43.168198 -25.917566 -2.6387792 0 6
5.6409593 -3.4135954 -1.7666988 2 0
6.5951576 -3.9957426 -1.7802627 3 1
8.0932903 -4.911129 -1.8401619 3 2
10.4907 -6.3734312 -1.9441677 2 3
15.338688 -9.3334036 -2.2046165 11 4
5.6213245 -3.4569099 -1.7682518 2 0
6.55478 -4.0356822 -1.7771133 4 1
8.0939045 -4.9891453 -1.8481761 4 2
10.478442 -6.4690905 -1.9504251 2 3
15.474097 -9.5644598 -2.2336216 4 4
5.597054 -3.4960694 -1.7682518 2 0
6.5578389 -4.100976 -1.7856615 7 1
8.069643 -5.0542297 -1.8508474 3 2
10.433023 -6.5420861 -1.9504251 3 3
15.729748 -9.8749046 -2.2804193 8 4
5.5643539 -3.5298841 -1.7656636 3 0
6.5191793 -4.1403899 -1.7829621 7 1
8.0590086 -5.1262484 -1.8565717 4 2
10.407092 -6.6274948 -1.9541795 3 3
15.829482 -10.092262 -2.305037 11 4
43.600922 -27.873232 -2.7120495 0 6
5.5525675 -3.5770142 -1.7698047 3 0
6.5097671 -4.1984754 -1.7883608 7 1
8.031271 -5.1877117 -1.8584797 3 2
10.403698 -6.727879 -1.9623141 3 3
16.160229 -10.462524 -2.3637781 4 4
43.907837 -28.503185 -2.7434511 0 6
5.533927 -3.619921 -1.7718753 3 0
6.4737768 -4.2395492 -1.7865613 9 1
8.0023403 -5.2465644 -1.8600061 3 2
10.37748 -6.8115444 -1.9660686 3 3
16.343904 -10.744106 -2.4015574 5 4
42.985653 -28.322294 -2.6978142 0 6
5.4995022 -3.6510937 -1.7687694 4 0
6.4382777 -4.2792015 -1.7847617 15 1
7.9883971 -5.317533 -1.8653487 3 2
10.349399 -6.8969727 -1.9698231 2 3
16.537905 -11.033582 -2.4410431 6 4
41.35257 -27.662231 -2.6073778 0 6
5.4802866 -3.6937175 -1.77084 4 0
6.4034009 -4.3207741 -1.783412 9 1
7.9673467 -5.3841648 -1.8691651 3 2
10.323903 -6.9845529 -1.9742032 2 3
16.430889 -11.128733 -2.436656 6 4
5.4543667 -3.7318869 -1.77084 4 0
6.4277434 -4.4028158 -1.7987086 6 1
7.9781322 -5.4729743 -1.8806137 3 2
10.33351 -7.0967155 -1.9854665 1 3
16.365883 -11.252165 -2.4386058 6 4
40.46899 -27.896837 -2.5759759 0 6
5.4313536 -3.7720778 -1.7718753 4 0
6.4208498 -4.4642687 -1.8054571 7 1
7.9461741 -5.5330248 -1.88214 3 2
10.309643 -7.1867576 -1.9904724 2 3
16.296698 -11.372962 -2.4400682 7 4
39.621937 -27.722973 -2.5343168 0 6
5.408711 -3.8111863 -1.7729106 4 0
6.3664274 -4.4910207 -1.7987086 5 1
7.9179497 -5.5937815 -1.8844297 3 2
10.283065 -7.2727356 -1.9948525 2 3
16.273991 -11.522627 -2.4483552 6 4
38.943726 -27.645187 -2.5029149 0 6
5.3756866 -3.844358 -1.77084 5 0
6.3571029 -4.5512381 -1.8050072 5 1
7.8882785 -5.655786 -1.8867195 3 2
10.276976 -7.3765984 -2.0036128 2 3
16.202822 -11.64291 -2.4498179 6 4
38.749779 -27.916389 -2.5029149 0 6
5.358098 -3.8886008 -1.7739457 5 0
6.3425169 -4.608108 -1.8099562 6 1
7.839076 -5.7037883 -1.8844297 3 2
10.260354 -7.4737525 -2.0104959 2 3
16.114731 -11.751063 -2.448843 6 4
38.660358 -28.264029 -2.5098233 0 6
5.3370423 -3.9304953 -1.7760164 5 0
6.3148975 -4.6557431 -1.8113058 5 1
7.8085423 -5.7653728 -1.8867195 3 2
10.265115 -7.5874705 -2.0217593 2 3
16.022726 -11.856194 -2.4473803 6 4
38.606461 -28.640339 -2.5192437 0 6
5.3218527 -3.9769101 -1.7801574 4 0
6.2869215 -4.7032185 -1.8126557 6 1
7.7681017 -5.8197455 -1.8867195 3 2
10.281428 -7.7110996 -2.0355256 2 3
15.958614 -11.982065 -2.4503052 6 4
38.115158 -28.690552 -2.5001936 0 6
5.2908807 -4.011632 -1.7791222 4 0
6.2632475 -4.7540636 -1.8153551 6 1
7.7585425 -5.8975959 -1.8943518 3 2
10.265071 -7.811398 -2.0430343 2 3
15.871418 -12.090779 -2.4498179 6 4
37.320286 -28.502563 -2.4610462 0 6
5.2719321 -4.0555387 -1.782228 9 0
6.2299056 -4.7976732 -1.8153551 3 1
7.692307 -5.9324331 -1.8882459 3 2
10.260323 -7.9215002 -2.0530462 2 3
15.770914 -12.189148 -2.4473803 6 4
36.7257 -28.456587 -2.4348783 0 6
5.2419682 -4.0910559 -1.7817104 10 0
6.1916533 -4.8374496 -1.8140053 4 1
7.6873159 -6.0124736 -1.8970231 4 2
10.268379 -8.0398674 -2.0655608 2 3
15.70418 -12.31365 -2.4503052 6 4
36.060024 -28.335699 -2.4034767 0 6
5.200366 -4.1158519 -1.7770516 9 0
6.2013507 -4.9133682 -1.8266027 2 1
7.6482296 -6.0684352 -1.8977863 4 2
10.264592 -8.1531315 -2.0761983 3 3
15.638647 -12.435084 -2.4532301 6 4
35.349068 -28.178406 -2.3691442 0 6
5.192596 -4.1689887 -1.7842987 4 0
6.1547461 -4.9467745 -1.8230033 2 1
7.6225019 -6.1352224 -1.9019842 3 2
10.250492 -8.2592964 -2.0849588 4 3
15.54218 -12.536481 -2.4517674 6 4
35.142166 -28.416964 -2.3685162 1 6
5.1633644 -4.2051377 -1.7842987 4 0
6.150269 -5.0142498 -1.8320013 1 1
30.488174 -24.874411 2.0621414 0 9
7.6098995 -6.2131205 -1.9096165 4 2
10.238467 -8.3681583 -2.0943449 10 3
15.463502 -12.652224 -2.4532301 6 4
35.131317 -28.816139 -2.3812864 1 6
5.1577115 -4.2607679 -1.7925807 4 0
6.1301308 -5.0694838 -1.8365004 1 1
30.352013 -25.109369 2.0644443 1 9
7.5719695 -6.2685304 -1.9107615 4 2
10.201042 -8.4540405 -2.098412 13 3
15.377851 -12.762403 -2.4537175 6 4
35.100204 -29.192532 -2.3925908 0 6
5.1404376 -4.3057008 -1.7967219 4 0
6.0581508 -5.0797896 -1.8252529 1 1
30.273895 -25.402813 2.0711434 1 9
7.564106 -6.3515391 -1.9199202 4 2
10.191673 -8.5669966 -2.1087368 19 3
15.2967 -12.871893 -2.4546924 6 4
5.1131978 -4.3439837 -1.7977571 4 0
6.0834036 -5.1737208 -1.8436987 1 1
30.217495 -25.717102 2.0795171 1 9
7.5225701 -6.4067373 -1.9206835 4 2
10.221808 -8.7148352 -2.1275089 4 3
15.221565 -12.991258 -2.45713 6 4
36.288734 -31.048317 -2.5029149 0 6
5.0798192 -4.3770528 -1.7967219 3 0
6.0205755 -5.1931548 -1.8356007 3 1
30.159689 -26.033142 2.0879955 0 9
7.4746871 -6.456531 -1.9199202 4 2
10.280257 -8.8893471 -2.1525385 3 3
15.130499 -13.097206 -2.45713 6 4
36.146523 -31.366354 -2.5081487 0 6
5.0578671 -4.4200368 -1.7998277 3 0
5.9812398 -5.2324929 -1.8347007 4 1
30.105032 -26.345684 2.0965786 2 9
7.4541984 -6.5279555 -1.9260262 4 2
10.290811 -9.0216217 -2.1675563 3 3
15.056596 -13.218233 -2.4600549 6 4
34.84351 -30.653896 -2.4321568 0 6
5.0305548 -4.4569244 -1.8008629 3 0
5.9586072 -5.2847223 -1.83875 7 1
30.027925 -26.650667 2.104115 2 9
7.4319286 -6.6006951 -1.932132 4 2
25.5797 -22.726692 2.9936256 1 10
10.378158 -9.2271233 -2.1994689 4 3
14.969878 -13.328304 -2.4610295 6 4
5.0330162 -4.5238013 -1.8132863 3 0
5.9264321 -5.3324389 -1.8405495 7 1
29.964094 -26.979794 2.1131167 3 9
7.3885841 -6.6550455 -1.9328952 4 2
25.09231 -22.617018 2.955451 10 10
10.542157 -9.508872 -2.2485893 5 3
14.86468 -13.421845 -2.45908 6 4
34.214188 -30.969166 -2.4185495 0 6
4.9727578 -4.5327997 -1.8029336 4 0
5.9120932 -5.3946996 -1.847748 7 1
29.906275 -27.30818 2.1224325 1 9
7.361064 -6.7262883 -1.938238 4 2
24.660276 -22.541615 2.9230292 12 10
10.549852 -9.6502352 -2.2645457 6 3
14.770616 -13.525293 -2.45908 6 4
34.594517 -31.755619 -2.4610462 0 6
4.9438281 -4.5700283 -1.8039688 3 0
5.8771482 -5.4384894 -1.8486477 7 1
29.854546 -27.635937 2.1320624 0 9
7.3338323 -6.7935801 -1.9431988 3 2
24.224682 -22.455873 2.88991 11 10
10.512891 -9.7486858 -2.270803 6 3
14.678741 -13.630781 -2.4595673 6 4
4.9407997 -4.629993 -1.8143215 3 0
5.8399935 -5.4783673 -1.8486477 8 1
29.79777 -27.972179 2.1419015 0 9
7.3148437 -6.8714986 -1.9508314 3 2
23.815733 -22.380108 2.859231 11 10
10.48487 -9.8597317 -2.2795632 7 3
14.588511 -13.733103 -2.4600549 6 4
25.966576 -24.503912 -1.8711153 10 6
4.9027548 -4.6590505 -1.812251 3 0
5.8185487 -5.5351224 -1.8540466 7 1
7.3178678 -6.9711471 -1.9645696 3 2
23.410828 -22.309416 2.8292496 15 10
10.427217 -9.943594 -2.2820661 7 3
14.492281 -13.834615 -2.4600549 6 4
25.926184 -24.810251 -1.8806405 9 6
4.8756733 -4.6985259 -1.8143215 3 0
5.7769589 -5.5729017 -1.8531467 7 1
7.269022 -7.0220656 -1.9645696 3 2
23.002352 -22.228632 2.7985709 15 10
10.368905 -10.027134 -2.2845693 6 3
14.40105 -13.940972 -2.4610295 6 4
4.8565698 -4.7459517 -1.8194979 3 0
5.7574158 -5.6321754 -1.8594455 7 1
7.2198224 -7.0726409 -1.9645696 3 2
22.6175 -22.164162 2.7705069 16 10
10.315575 -10.115873 -2.2883236 7 3
14.311874 -14.049517 -2.4624922 6 4
34.325081 -33.778297 -2.5238495 0 6
4.8241529 -4.7788992 -1.8194979 3 0
5.7217126 -5.6739779 -1.8603452 7 1
7.213306 -7.1631217 -1.9760182 3 2
22.382713 -22.234756 2.7602224 24 10
10.271696 -10.210922 -2.2939553 6 3
14.224353 -14.155008 -2.4639544 6 4
34.165062 -34.081684 -2.529083 0 6
4.8015766 -4.8234143 -1.8236392 3 0
5.690207 -5.7220755 -1.8630446 7 1
7.1769557 -7.2272358 -1.9798342 3 2
22.322392 -22.486624 2.7720754 24 10
10.208508 -10.290798 -2.2958324 6 3
14.136365 -14.265248 -2.4659045 6 4
34.142536 -34.538109 -2.5452025 0 6
4.7515459 -4.8402748 -1.8174274 3 0
5.6583071 -5.7700086 -1.8657441 7 1
26.019245 -26.55143 1.9482585 2 9
7.1702814 -7.3220501 -1.992046 3 2
22.27636 -22.755816 2.7860205 23 10
10.147469 -10.373112 -2.2983353 6 3
14.044754 -14.372108 -2.4673669 6 4
25.811619 -26.477869 -1.9378959 10 6
4.7445116 -4.9010887 -1.8277801 3 0
25.825033 -26.686621 0.64821732 18 8
5.6178875 -5.8093705 -1.8657441 7 1
25.718533 -26.604425 1.9392567 10 9
7.1393738 -7.3904548 -1.9973886 3 2
22.22212 -23.019718 2.799268 23 10
10.084855 -10.450472 -2.3002126 7 3
13.933059 -14.458374 -2.4654171 6 4
4.6990342 -4.9206958 -1.8231214 2 0
5.5916653 -5.8615756 -1.870243 7 1
25.682384 -26.940899 1.9506661 10 9
7.0984364 -7.451488 -2.0004416 3 2
22.159723 -23.27 2.8112955 20 10
10.011653 -10.520621 -2.3002126 7 3
13.84272 -14.566802 -2.4673669 6 4
4.6570816 -4.9471622 -1.8205333 2 0
5.5629282 -5.9156346 -1.8747422 7 1
25.680426 -27.327753 1.96532 9 9
7.0798488 -7.5366359 -2.0099821 4 2
22.107183 -23.549995 2.8259375 20 10
9.9253016 -10.580468 -2.2977097 7 3
13.735259 -14.657295 -2.466392 6 4
4.636888 -4.9951277 -1.8262272 2 0
5.5214939 -5.9543271 -1.8747422 7 1
25.622053 -27.649935 1.9755778 8 9
7.0790925 -7.6447253 -2.0252469 4 2
22.055929 -23.826574 2.84058 20 10
9.8538761 -10.652401 -2.2983353 7 3
13.621819 -14.74116 -2.464442 6 4
4.5953808 -5.0202527 -1.8236392 2 0
5.4876814 -6.0013576 -1.8774415 7 1
25.562616 -27.965219 1.9856265 7 9
7.0123291 -7.6767888 -2.021049 3 2
21.991137 -24.091812 2.8538277 19 10
9.783803 -10.722146 -2.2989612 7 3
13.491835 -14.806554 -2.4595673 6 4
4.5766387 -5.0686216 -1.8298507 2 0
5.4519248 -6.0443602 -1.879241 7 1
25.503159 -28.294317 1.9963028 6 9
7.0229468 -7.7970347 -2.0397482 4 2
21.957289 -24.386044 2.8709102 16 10
9.7139959 -10.796062 -2.3002126 7 3
13.380123 -14.886235 -2.4576173 7 4
4.5437112 -5.1033349 -1.830886 2 0
5.4225459 -6.0968351 -1.8837402 8 1
25.432381 -28.614988 2.0063515 6 9
6.9800754 -7.8590846 -2.0431828 6 2
21.905565 -24.672831 2.8865983 2 10
9.6357679 -10.86066 -2.299587 7 3
13.306154 -15.013453 -2.4632235 10 4
4.5168939 -5.1450934 -1.8345095 2 0
5.3849888 -6.1404033 -1.8855397 7 1
25.35968 -28.93754 2.0165045 4 9
6.953495 -7.9401159 -2.0515785 3 2
9.5545082 -10.921717 -2.2983353 7 3
13.159219 -15.058146 -2.4554236 10 4
4.4796004 -5.1750412 -1.8339919 3 0
5.357286 -6.1955361 -1.8909385 8 1
25.334528 -29.308943 2.0303214 1 9
6.9506211 -8.0466919 -2.0668433 3 2
9.4838181 -10.990986 -2.299274 8 3
12.981208 -15.065434 -2.4417744 13 4
4.4643421 -5.2289205 -1.8422741 3 0
5.3225784 -6.2407551 -1.8936379 7 1
6.915916 -8.120429 -2.0733306 4 2
9.418376 -11.070468 -2.3020899 7 3
12.765236 -15.020333 -2.4203253 16 4
14.116541 -16.651546 -1.1440641 30 6
4.4177761 -5.248136 -1.8381329 3 0
5.2864051 -6.2867098 -1.8963374 8 1
6.9133439 -8.2331638 -2.0897403 3 2
9.3281651 -11.120816 -2.2989612 6 3
12.55297 -14.981273 -2.3998513 13 4
14.135659 -16.894072 -1.9271878 34 5
14.056308 -16.817122 -1.1486697 30 6
4.3736267 -5.2699299 -1.8350271 5 0
5.2597995 -6.3444662 -1.9026359 7 1
6.8945079 -8.3281078 -2.1015704 4 2
9.2679262 -11.20698 -2.3033414 7 3
12.349463 -14.949171 -2.3808398 12 4
14.053311 -17.029852 -1.9317199 34 5
14.063036 -17.065893 -1.1589276 30 6
4.3367295 -5.3003349 -1.8350271 4 0
5.212913 -6.3780136 -1.9017363 7 1
6.858768 -8.4006968 -2.108058 3 2
9.1814394 -11.257558 -2.3008385 6 3
12.149526 -14.918042 -2.3623157 9 4
14.027122 -17.241917 -1.9446188 34 5
14.03598 -17.271269 -1.1663592 20 6
4.3126822 -5.3447657 -1.8402034 4 0
5.1742706 -6.4194179 -1.903536 6 1
6.8787374 -8.5462561 -2.1324816 3 2
9.0976734 -11.315224 -2.299587 6 3
12.06994 -15.033457 -2.3671904 17 4
14.063475 -17.535261 -1.9665822 33 5
14.022455 -17.502886 -1.1753609 20 6
4.2815404 -5.384562 -1.8433093 5 0
5.128202 -6.4562798 -1.903536 6 1
6.9934049 -8.8139973 -2.187053 4 2
9.0091105 -11.370745 -2.2977097 6 3
12.033682 -15.204521 -2.3808398 8 4
4.2498031 -5.4219241 -1.8458976 6 0
5.0769973 -6.484252 -1.9012864 3 1
7.0631714 -9.0339451 -2.2290308 9 2
8.9246454 -11.427135 -2.2964582 7 3
11.995621 -15.375807 -2.394489 9 4
39.094566 -50.23727 -3.3361034 11 6
4.2177539 -5.4591045 -1.8484857 4 0
5.055418 -6.5503922 -1.9102844 1 1
6.9651771 -9.0379381 -2.2179639 6 2
8.8289862 -11.468813 -2.2923908 5 3
11.960591 -15.553595 -2.4091134 13 4
24.89868 -32.46032 -2.143995 1 6
4.1818805 -5.4914908 -1.849521 3 0
5.035521 -6.619648 -1.9201821 1 1
21.338743 -28.072033 1.8479828 4 9
6.9090362 -9.0957241 -2.2202537 6 2
8.7415409 -11.520729 -2.2905138 5 3
11.92366 -15.731636 -2.4237378 13 4
24.634121 -32.583965 -2.1407502 1 6
4.1388021 -5.5143709 -1.8474505 4 0
5.0102262 -6.6827059 -1.9282805 1 1
21.217838 -28.310926 1.8541584 16 9
6.8469648 -9.1425419 -2.2202537 6 2
8.665287 -11.583128 -2.2911394 5 3
11.903831 -15.935362 -2.4422619 16 4
24.578863 -32.975075 -2.1554043 1 6
4.1080661 -5.551733 -1.8505563 5 0
4.9715734 -6.7260575 -1.9309798 2 1
21.143084 -28.625444 1.8650444 19 9
6.7841363 -9.1916981 -2.2206352 7 2
8.576005 -11.63221 -2.2889495 6 3
11.872782 -16.121513 -2.4583485 15 4
36.34473 -49.477345 -3.2174056 4 6
4.0771756 -5.5912032 -1.8541797 6 0
4.947443 -6.7921052 -1.9399779 2 1
21.081772 -28.952761 1.876977 15 9
6.7191033 -9.2344885 -2.219872 7 2
8.5024357 -11.698304 -2.2905138 5 3
11.852055 -16.330929 -2.4776042 12 4
4.0435338 -5.6251006 -1.8562503 6 0
4.8988228 -6.8224573 -1.9390782 2 1
21.030497 -29.310192 1.8905842 14 9
6.6350236 -9.2540474 -2.2133844 6 2
8.4136591 -11.747741 -2.2886364 5 3
11.875756 -16.600119 -2.5061214 10 4
4.0051517 -5.652494 -1.8562503 6 0
4.8646541 -6.8731408 -1.9440269 3 1
20.978123 -29.661383 1.9039823 13 9
6.5820785 -9.313426 -2.216819 7 2
8.3209686 -11.786987 -2.2851949 6 3
11.928366 -16.915802 -2.5414634 13 4
3.9732208 -5.6891274 -1.8593562 6 0
4.8311377 -6.9252734 -1.9494258 3 1
20.913939 -30.001741 1.9166476 9 9
6.5028214 -9.3354578 -2.2114763 7 2
8.2371597 -11.838488 -2.2842562 4 3
11.986671 -17.252987 -2.5794866 6 4
3.9367876 -5.7237806 -1.8614267 6 0
4.7891831 -6.9709101 -1.9525751 3 1
20.834368 -30.348221 1.9292083 8 9
6.4402947 -9.3882284 -2.2130029 7 2
8.1589346 -11.906905 -2.2861335 5 3
11.909987 -17.407129 -2.5897238 6 4
33.152428 -48.581425 -3.0823789 0 6
3.9000621 -5.7582026 -1.8634971 6 0
4.7479138 -7.0179143 -1.9561743 3 1
20.75761 -30.705011 1.9423969 7 9
6.3740487 -9.4356995 -2.2133844 6 2
8.0735226 -11.964984 -2.2861335 5 3
11.805925 -17.516188 -2.5936236 7 4
32.536121 -48.400608 -3.0564201 0 6
3.8619125 -5.7885036 -1.8645325 6 0
4.7052879 -7.0606194 -1.9588737 3 1
20.680014 -31.055317 1.9553763 7 9
6.3025823 -9.471796 -2.2114763 7 2
7.9941688 -12.027637 -2.287385 4 3
11.720681 -17.654409 -2.6019106 7 4
31.935005 -48.230236 -3.0315082 0 6
3.8288333 -5.8266253 -1.868156 5 0
4.6783376 -7.1275077 -1.9683217 3 1
20.602911 -31.412701 1.9687741 6 9
6.2319994 -9.5089979 -2.20995 9 2
7.9024329 -12.071584 -2.2851949 6 3
11.661243 -17.83383 -2.6162913 5 4
31.359682 -48.087303 -3.0086896 0 6
3.7828145 -5.8451037 -1.8655677 6 0
4.6453915 -7.1861806 -1.9755201 3 1
20.542543 -31.790419 1.9836376 5 9
6.1713896 -9.5577936 -2.2114763 7 2
7.8147283 -12.116793 -2.2836306 5 3
11.577297 -17.978228 -2.6255534 5 4
30.776855 -47.903084 -2.9839871 0 6
3.7585196 -5.8951511 -1.8733324 5 0
4.5932283 -7.2127032 -1.9741703 4 1
20.487371 -32.195923 1.9999664 4 9
6.1002998 -9.594018 -2.20995 7 2
7.729948 -12.171055 -2.2836306 5 3
11.486555 -18.106901 -2.6328654 5 4
30.213165 -47.755581 -2.9615872 1 6
3.7152174 -5.917974 -1.872297 5 0
4.5572577 -7.2677078 -1.9804692 5 1
20.391478 -32.544647 2.0127363 4 9
6.0373411 -9.6430273 -2.2114763 7 2
7.6573586 -12.244822 -2.287385 5 3
11.407192 -18.262415 -2.6438336 7 4
29.646708 -47.592392 -2.9385595 0 6
3.6839693 -5.9601994 -1.8774734 5 0
4.5360966 -7.3474326 -1.9935162 6 1
20.327364 -32.951389 2.0290651 3 9
5.9533906 -9.6582022 -2.2053704 9 2
7.5716882 -12.297981 -2.287385 5 3
11.318933 -18.405863 -2.6530957 7 4
29.096548 -47.444061 -2.9167879 1 6
3.6503036 -5.9989762 -1.8816146 4 0
4.4907646 -7.3889136 -1.9962157 7 1
20.264381 -33.355267 2.0453939 2 9
5.8854747 -9.6951447 -2.2046072 7 2
7.4939485 -12.359369 -2.2892623 5 3
11.222032 -18.537075 -2.6606517 5 4
28.551968 -47.275154 -2.894388 1 6
3.6073999 -6.0203695 -1.8805792 4 0
4.4503722 -7.4360309 -2.0007145 6 1
20.182735 -33.749622 2.0608854 1 9
5.817646 -9.7359972 -2.2046072 7 2
7.4054575 -12.407992 -2.2886364 5 3
11.111858 -18.640312 -2.6645515 5 4
28.033445 -47.157433 -2.8751283 1 6
3.5672448 -6.0487351 -1.8816146 5 0
4.4092317 -7.4853892 -2.0056636 5 1
20.098469 -34.134048 2.0759583 0 9
5.7611971 -9.7922897 -2.2084234 7 2
7.3148222 -12.447894 -2.2867594 5 3
11.007571 -18.761951 -2.6708887 5 4
27.499941 -46.98518 -2.8531473 1 6
3.52793 -6.0762172 -1.8826498 5 0
4.3640442 -7.5253439 -2.008363 4 1
20.041925 -34.588051 2.0950086 1 9
5.6828566 -9.8152838 -2.2046072 9 2
7.2415872 -12.522597 -2.2911394 5 3
10.894504 -18.862226 -2.6745448 7 4
26.987843 -46.857567 -2.8338876 0 6
3.4988408 -6.1241827 -1.8898968 4 0
4.3229914 -7.5759373 -2.013762 4 1
19.950508 -34.976959 2.1102908 1 9
5.6061931 -9.8366804 -2.2007911 7 2
7.1659527 -12.588766 -2.2942681 5 3
10.780209 -18.968889 -2.678932 3 4
26.441723 -46.640564 -2.8098133 0 6
3.4589679 -6.1512237 -1.890932 4 0
4.2923169 -7.6425672 -2.0236597 4 1
19.862228 -35.394066 2.1270382 1 9
5.5268226 -9.8567419 -2.1965933 6 2
7.0836849 -12.648829 -2.2961452 5 3
10.6867 -19.10593 -2.6879506 5 4
25.971481 -46.565865 -2.7943215 1 6
3.4140701 -6.1718411 -1.8898968 3 0
4.2614756 -7.7132845 -2.0344574 5 1
19.805765 -35.878075 2.1477633 1 9
5.4626169 -9.9036808 -2.1985013 9 2
6.9894876 -12.687593 -2.2942681 5 3
10.579848 -19.228769 -2.6947751 5 4
25.803303 -47.033215 -2.8114877 0 6
3.3801329 -6.2124944 -1.8950732 3 0
4.214036 -7.7548327 -2.0376067 6 1
5.3905349 -9.9363995 -2.1973565 6 2
6.9054475 -12.744761 -2.2958324 6 3
10.496368 -19.396437 -2.707937 5 4
25.662113 -47.560238 -2.8322129 1 6
3.3385019 -6.2393475 -1.8961084 3 0
4.1836758 -7.8287492 -2.0493042 6 1
5.3256564 -9.9824505 -2.1992648 7 2
6.8153758 -12.790916 -2.2955196 5 3
10.396137 -19.535835 -2.7171991 5 4
25.511063 -48.080505 -2.8525193 1 6
3.3038564 -6.2795992 -1.9012847 2 0
4.1280127 -7.8560414 -2.0488544 4 1
5.2467151 -10.002001 -2.1954484 7 2
6.7332473 -12.852183 -2.2980225 5 3
10.278827 -19.644873 -2.7223177 3 4
25.360458 -48.613358 -2.8735583 1 6
3.2705874 -6.323102 -1.9074965 2 0
4.0927439 -7.9227586 -2.0587521 5 1
5.1839132 -10.047951 -2.1977382 9 2
6.6392756 -12.885425 -2.2958324 6 3
10.210437 -19.850313 -2.7408419 3 4
25.206753 -49.131378 -2.8939693 1 6
3.2248449 -6.3400517 -1.9059435 2 0
4.0678458 -8.0077677 -2.0735989 6 1
5.115416 -10.087398 -2.1985013 7 2
6.5420184 -12.917363 -2.2933295 6 3
10.112716 -19.993752 -2.7510788 4 4
24.862244 -49.304371 -2.8938646 1 6
3.1960528 -6.3935142 -1.915261 2 0
4.0518827 -8.1161737 -2.0942943 7 1
5.0387506 -10.106172 -2.1950669 6 2
35.083797 -70.428764 6.8839087 45 10
6.4512992 -12.956288 -2.2923908 5 3
10.009996 -20.138521 -2.7613158 4 4
24.379696 -49.177204 -2.8765938 1 6
3.1590052 -6.4312768 -1.9199197 3 0
4.0552001 -8.2667341 -2.1257875 7 1
4.968895 -10.147257 -2.1962116 7 2
34.804985 -71.108627 6.9264407 46 10
6.3592911 -13.003896 -2.2927039 6 3
9.9057493 -20.282829 -2.7715528 4 4
23.875034 -49.037941 -2.8583808 1 6
3.1039553 -6.4322953 -1.9137081 2 0
4.0329213 -8.3685741 -2.1446834 8 1
34.175133 -70.978981 4.1285744 46 9
4.890274 -10.165777 -2.1927772 6 2
33.667072 -70.017548 6.797102 43 10
6.2709174 -13.053316 -2.2936423 5 3
9.7776451 -20.380127 -2.7754526 4 4
23.404581 -48.936756 -2.8428895 1 6
3.0622833 -6.4607911 -1.9157786 2 0
3.9844043 -8.4176626 -2.1500821 9 1
4.8267326 -10.215645 -2.1962116 7 2
33.211468 -70.322937 6.8040743 43 10
6.1830087 -13.103924 -2.294894 5 3
9.6452837 -20.469439 -2.7783775 4 4
22.967262 -48.896488 -2.831166 1 6
3.0383003 -6.5275493 -1.9292372 1 0
3.9370418 -8.4700136 -2.1563809 8 1
4.7570848 -10.248263 -2.1962116 7 2
6.0920081 -13.142122 -2.2942681 5 3
9.5371571 -20.611946 -2.7886147 4 4
22.525126 -48.815933 -2.8175588 1 6
2.993798 -6.548079 -1.9292372 2 0
3.8898187 -8.5196609 -2.1622295 10 1
4.6894951 -10.290157 -2.1981196 6 2
6.0066576 -13.198714 -2.296771 5 3
9.4163475 -20.719755 -2.7944641 4 4
22.070045 -48.720932 -2.8031139 1 6
2.9401019 -6.5511951 -1.9240609 1 0
3.8182907 -8.5199347 -2.1554811 9 1
32.600605 -72.811356 4.1809106 48 9
4.6239548 -10.336981 -2.2011726 6 2
5.9151726 -13.242131 -2.2970841 6 3
9.2811708 -20.806744 -2.797389 4 4
20.395426 -45.873505 -2.6310334 0 6
2.9145403 -6.617528 -1.9375196 1 0
3.7587185 -8.5463829 -2.1554811 9 1
4.5516777 -10.36901 -2.2011726 6 2
5.8202019 -13.277676 -2.2961452 5 3
9.1691189 -20.947411 -2.8076262 4 4
21.181589 -48.552029 -2.7761087 1 6
2.8912592 -6.6909146 -1.9530486 1 0
3.7097719 -8.5974655 -2.1617796 9 1
4.4706368 -10.380699 -2.196975 7 2
5.7297068 -13.323429 -2.2970841 6 3
9.0210886 -21.007263 -2.8071387 4 4
20.722673 -48.419621 -2.7601986 1 6
2.8354304 -6.6895924 -1.9468369 1 0
3.6435833 -8.608798 -2.1581805 9 1
4.4102802 -10.440594 -2.2030807 7 2
5.6457667 -13.384945 -2.3008385 7 3
8.8988724 -21.128273 -2.8149383 4 4
20.294476 -48.349487 -2.7480567 1 6
2.7856944 -6.7020888 -1.9447664 2 0
3.583395 -8.6340256 -2.1581805 9 1
4.3458753 -10.486694 -2.2065153 6 2
5.5613251 -13.439493 -2.3036542 5 3
8.7640343 -21.221075 -2.819082 4 4
19.094948 -46.373737 -2.6283119 1 6
2.7516787 -6.7495174 -1.9530486 2 0
3.5245419 -8.6582165 -2.1581805 9 1
4.2666483 -10.502227 -2.2034624 6 2
5.4733057 -13.492633 -2.3061571 5 3
8.6171474 -21.274715 -2.8183508 4 4
19.41885 -48.111675 -2.7190626 1 6
2.7073584 -6.7757392 -1.9551191 2 0
3.4647324 -8.6844215 -2.1586304 10 1
4.1954036 -10.53723 -2.2046072 7 2
5.3833547 -13.541529 -2.3080344 5 3
8.47647 -21.35465 -2.8210318 6 4
18.990671 -48.013916 -2.7059786 1 6
2.658582 -6.7908759 -1.9540838 2 0
3.4004729 -8.6993227 -2.1563809 9 1
4.1110368 -10.538827 -2.1988828 6 2
5.2894025 -13.580624 -2.3083472 6 3
8.3178282 -21.389257 -2.8178632 4 4
18.546043 -47.864113 -2.6901731 1 6
2.6173332 -6.8255053 -1.9587426 2 0
3.3368711 -8.7155704 -2.1545811 9 1
4.053226 -10.603242 -2.2065153 6 2
5.2031803 -13.632921 -2.3111632 5 3
8.169713 -21.450516 -2.8183508 4 4
18.148218 -47.800648 -2.6796012 1 6
2.5796456 -6.866672 -1.9654719 3 0
3.2692573 -8.7161865 -2.1491826 9 1
3.971534 -10.611055 -2.2023175 9 2
5.1286221 -13.724426 -2.320549 8 3
8.0367012 -21.540966 -2.8229818 2 4
17.722208 -47.679058 -2.6657844 1 6
2.5343113 -6.891767 -1.9675424 3 0
3.2083273 -8.7387972 -2.1491826 9 1
3.8973579 -10.638524 -2.2023175 7 2
5.0225062 -13.732068 -2.3158562 7 3
7.8398218 -21.469748 -2.8064075 2 4
17.300161 -47.557621 -2.6521771 1 6
2.486136 -6.9092922 -1.9675424 3 0
3.1518528 -8.7738209 -2.1523318 10 1
3.8203435 -10.658079 -2.2007911 7 2
4.9251866 -13.763078 -2.3152304 7 3
7.689744 -21.523958 -2.8064075 4 4
16.910139 -47.515419 -2.6431754 1 6
2.4404049 -6.9337687 -1.969613 3 0
3.0898767 -8.7937717 -2.1518817 9 1
3.7458432 -10.684491 -2.2007911 9 2
4.8328977 -13.808312 -2.3171074 7 3
7.5667949 -21.655825 -2.8166444 4 4
16.492662 -47.3871 -2.6295681 1 6
2.3957109 -6.961597 -1.9727188 4 0
3.0322094 -8.8261871 -2.1545811 9 1
3.6807086 -10.738239 -2.2065153 6 2
4.7402167 -13.85293 -2.3189847 7 3
7.4096489 -21.691216 -2.814451 4 4
16.093887 -47.302551 -2.6185775 1 6
2.3384304 -6.952518 -1.9654719 4 0
2.9736195 -8.8563776 -2.1568308 10 1
3.6081491 -10.771119 -2.2080419 6 2
4.6521597 -13.911912 -2.323365 7 3
7.2530069 -21.727354 -2.812501 4 4
15.683244 -47.173054 -2.6052842 1 6
2.2994847 -6.9980392 -1.9737542 4 0
2.9165769 -8.8917341 -2.16043 10 1
3.5292008 -10.784851 -2.2057521 6 2
4.5635138 -13.97034 -2.3277452 6 3
7.0999193 -21.773684 -2.8120134 4 4
15.311585 -47.152218 -2.5981665 0 6
2.2564762 -7.0323157 -1.9789305 4 0
2.8568075 -8.9193029 -2.1622295 10 1
3.4598937 -10.821712 -2.2084234 9 2
4.479125 -14.034951 -2.3333766 7 3
6.9621897 -21.868116 -2.8178632 4 4
14.910563 -47.004047 -2.5843496 1 6
2.207401 -7.0438251 -1.9778951 4 0
2.7907946 -8.9218035 -2.1581805 9 1
3.3749042 -10.815619 -2.2023175 7 2
4.3845596 -14.077195 -2.335254 7 3
6.8190699 -21.933954 -2.8203006 4 4
14.618674 -47.225288 -2.5908394 1 6
2.1717279 -7.1034031 -1.9903185 3 0
2.7381098 -8.9727545 -2.1658287 10 1
3.3126471 -10.875901 -2.20995 7 2
4.2978311 -14.136954 -2.34026 7 3
6.660018 -21.96203 -2.8178632 4 4
14.455153 -47.847565 -2.6195195 0 6
2.125396 -7.1294994 -1.9934243 3 0
2.6765144 -8.995388 -2.1667287 10 1
3.2369704 -10.906856 -2.2114763 7 2
4.196559 -14.167347 -2.34026 7 3
6.4969645 -21.975628 -2.8137197 4 4
14.278177 -48.513084 -2.6502931 0 6
2.0777278 -7.1515837 -1.995495 3 0
2.6136494 -9.013854 -2.1667287 10 1
3.164839 -10.936179 -2.2130029 7 2
4.1120882 -14.237334 -2.3471429 7 3
6.3389902 -22.005188 -2.8117697 4 4
14.121702 -49.215805 -2.6833694 0 6
2.0353169 -7.1878657 -2.0017066 3 0
2.5511742 -9.0276842 -2.1658287 10 1
3.083087 -10.939112 -2.2091868 9 2
4.0158019 -14.277105 -2.3490202 7 3
6.1783323 -22.009604 -2.806895 4 4
13.9347 -49.874882 -2.7139337 1 6
1.9850867 -7.2019 -2.0017066 3 0
2.4844701 -9.0321217 -2.1626794 9 1
3.0066438 -10.960368 -2.2091868 7 2
3.9306371 -14.358139 -2.3577805 7 3
6.0182471 -22.029221 -2.8039701 4 4
13.56731 -49.901566 -2.7101655 1 6
1.9377615 -7.2267785 -2.0048125 3 0
2.4228647 -9.0548944 -2.1640291 10 1
2.9320786 -10.988679 -2.2107131 7 2
3.8343704 -14.400502 -2.3602834 7 3
5.8500371 -22.016979 -2.7971454 4 4
13.178785 -49.844452 -2.7020011 1 6
1.8999314 -7.2887349 -2.018271 3 0
2.3546851 -9.0527287 -2.1595302 10 1
2.8582492 -11.020283 -2.2130029 7 2
3.7386918 -14.446042 -2.3634121 7 3
5.6723647 -21.965025 -2.7854459 4 4
12.788236 -49.770817 -2.693104 1 6
1.8499495 -7.3055663 -2.0193064 3 0
2.2880871 -9.0557213 -2.1563809 9 1
2.7831619 -11.047585 -2.2145293 7 2
3.4195991 -13.603945 -2.2216825 8 3
5.5203309 -22.009867 -2.7861772 4 4
12.39936 -49.694164 -2.6842067 1 6
1.7979804 -7.3145514 -2.018271 3 0
2.2248106 -9.071475 -2.1563809 9 1
2.7078338 -11.074373 -2.2160556 9 2
3.289897 -13.485474 -2.1985302 4 3
3.4445186 -14.15145 -1.7883109 4 4
7.4010234 -30.498981 -2.7457545 15 5
12.055892 -49.795044 -2.6850441 1 6
1.7486635 -7.3344417 -2.0203414 4 0
2.1605246 -9.0829935 -2.1554811 9 1
2.6286438 -11.085366 -2.2145293 9 2
3.1738448 -13.415841 -2.1835127 17 3
3.2731354 -13.867963 -1.7495564 19 4
7.1514177 -30.394753 -2.7318096 15 5
11.657758 -49.664112 -2.6735303 0 6
1.705246 -7.3803515 -2.029659 3 0
2.0992491 -9.1073494 -2.1577303 10 1
2.5503097 -11.09962 -2.2137661 7 2
3.0659845 -13.376058 -2.1735008 17 3
3.1576574 -13.809198 -1.7393193 31 4
6.9301929 -30.405085 -2.7283232 15 5
11.245663 -49.457996 -2.6581435 1 6
1.6587408 -7.4146991 -2.0358706 4 0
2.0356178 -9.1217833 -2.1577303 10 1
2.4744627 -11.124821 -2.2152925 9 2
2.957979 -13.331568 -2.162863 20 3
3.0362937 -13.718493 -1.7251827 19 4
6.7230744 -30.451553 -2.7283232 15 5
10.864052 -49.371452 -2.6493509 1 6
1.6077533 -7.4298759 -2.036906 4 0
1.9673637 -9.1148186 -2.1527817 9 1
2.4003353 -11.149083 -2.216819 7 2
2.8613601 -13.324353 -2.158483 19 3
2.9354613 -13.716062 -1.7222577 14 4
10.495718 -49.293842 -2.6412914 1 6
1.5603088 -7.4557734 -2.0410471 4 0
1.9088598 -9.1451674 -2.1568308 10 1
2.319243 -11.15019 -2.2137661 9 2
2.7618487 -13.313058 -2.1534772 21 3
2.8251395 -13.654079 -1.7120206 19 4
10.124373 -49.23484 -2.6342783 1 6
1.5112798 -7.4816341 -2.0451882 3 0
1.8457377 -9.1620913 -2.1577303 10 1
2.2456136 -11.177268 -2.2160556 7 2
2.6680624 -13.316053 -2.1509743 25 3
2.7379084 -13.71435 -1.7171392 23 4
4.7305589 -23.825579 -1.2730199 21 6
1.4714079 -7.5486321 -2.0607173 4 0
1.7833304 -9.1744423 -2.1577303 10 1
2.1667805 -11.188818 -2.2152925 9 2
2.5626738 -13.270351 -2.1406496 24 3
2.6553814 -13.789198 -1.7242076 18 4
4.5303345 -23.681473 -1.2635994 31 6
1.4350662 -7.6460609 -2.0845287 3 0
1.7199554 -9.1905003 -2.1586304 10 1
2.0860977 -11.190162 -2.2126212 6 2
2.4674397 -13.274324 -2.1384594 25 3
2.6111429 -14.088467 -1.759306 14 4
4.3522439 -23.643774 -1.259936 21 6
1.4049822 -7.7851706 -2.1197281 4 0
1.6526469 -9.1850214 -2.1545811 9 1
2.0124283 -11.229575 -2.2175822 7 2
2.368804 -13.258166 -2.1331406 19 3
2.4288263 -13.635359 -1.700565 27 4
4.2145534 -23.828955 -1.2682049 10 6
1.358183 -7.8385696 -2.1316338 6 0
1.5891465 -9.2001762 -2.1554811 9 1
1.9352779 -11.239144 -2.216819 7 2
2.2781694 -13.272037 -2.1328278 10 3
2.3011346 -13.462181 -1.6769222 23 4
3.0040748 -17.686066 -0.9401632 9 6
1.308916 -7.8724065 -2.1383629 7 0
1.5271243 -9.2146254 -2.1563809 7 1
1.857406 -11.256255 -2.2175822 7 2
2.1822519 -13.268127 -2.129699 9 3
2.2537642 -13.747867 -1.7105582 30 4
3.7695167 -23.171171 -1.2303138 10 6
1.2536209 -7.8794451 -2.1378453 6 0
1.4648932 -9.2385349 -2.1595302 10 1
1.7789066 -11.257002 -2.2152925 7 2
2.0940406 -13.296331 -2.1318891 9 3
2.1408224 -13.655403 -1.6971526 13 4
2.7537947 -17.686335 -0.93806982 18 6
1.204317 -7.9164433 -2.1456099 7 0
1.3999311 -9.2348051 -2.1563809 9 1
1.7067182 -11.311854 -2.2236881 7 2
2.0035131 -13.326255 -2.1343923 12 3
2.0404708 -13.62058 -1.6910591 31 4
2.6759875 -17.948294 -1.5876291 34 5
3.4097674 -22.952263 -1.2160784 10 6
1.1495751 -7.928483 -2.1466453 7 0
1.3359828 -9.24821 -2.1572804 9 1
1.6237955 -11.296288 -2.2183454 7 2
1.9056704 -13.306674 -2.1290734 14 3
1.9767349 -13.854594 -1.7183578 18 4
2.5130215 -17.768543 -0.94047725 18 6
1.0984174 -7.9669342 -2.1549275 9 0
1.2708555 -9.2534513 -2.1563809 9 1
1.5443616 -11.303458 -2.2175822 7 2
1.8159223 -13.343143 -2.1328278 14 3
1.8586322 -13.710689 -1.6988587 18 4
2.411814 -17.88518 -1.5789135 33 5
2.3862536 -17.76586 -0.93943048 36 6
1.040769 -7.9590845 -2.1507864 7 0
1.2082376 -9.2775564 -2.1599801 9 1
4.1716332 -32.119785 1.6974646 6 9
1.467934 -11.333433 -2.2213984 7 2
2.9324856 -22.671812 2.0000501 6 10
1.7181766 -13.32023 -2.1271961 17 3
2.9049597 -22.582935 2.7956829 8 11
1.7426345 -13.565817 -1.6793597 10 4
2.2934575 -17.952969 -1.5834455 34 5
2.2462869 -17.657265 -0.93283617 27 6
0.9879936 -7.9774876 -2.1538923 7 0
1.1455362 -9.2894344 -2.1608799 9 1
1.3912349 -11.347061 -2.2221618 7 2
1.620768 -13.276713 -2.1184359 18 3
1.6495376 -13.571453 -1.6786286 9 4
2.1410882 -17.718933 -1.5614822 33 5
2.10744 -17.517475 -0.92467177 27 6
0.93272519 -7.9880276 -2.1549275 9 0
1.0793082 -9.2855911 -2.1581805 9 1
3.6612468 -31.594927 1.6669004 7 9
1.3126595 -11.362349 -2.2233064 6 2
1.5262358 -13.272006 -2.1159329 19 3
2.0001585 -17.473816 -2.1595249 15 4
2.0479641 -18.00268 -1.5851886 34 5
2.0354288 -17.976307 -0.94811827 27 6
0.87904209 -8.0135489 -2.1601038 9 0
1.0144562 -9.2929001 -2.1581805 9 1
3.3571882 -30.853296 1.626497 32 9
