# .PCD v0.7 - Point Cloud Data file format
VERSION 0.7
FIELDS x y z intensity ring
SIZE 4 4 4 4 2
TYPE F F F F U
COUNT 1 1 1 1 1
WIDTH 1295
HEIGHT 1
VIEWPOINT 0 0 0 1 0 0 0
POINTS 1295
DATA ascii
-2.5562463 -7.5477662 -2.135257 4 0
-3.0984697 -9.1330338 -2.2265656 7 1
-3.8642967 -11.364301 -2.3332126 4 2
-5.1374154 -15.082435 -2.5236011 3 3
-6.8270626 -20.008572 -2.5958173 21 4
-6.8571525 -20.050943 -1.853977 36 5
-6.8611326 -20.028326 -1.1095223 29 6
-2.6139364 -7.5443406 -2.1393983 4 0
-3.1608763 -9.1074972 -2.2256656 7 1
-3.9383805 -11.322211 -2.3301597 4 2
-5.2373862 -15.031279 -2.5210981 4 3
-6.9770479 -19.99041 -2.5997169 19 4
-7.0101237 -20.040194 -1.8574631 36 5
-7.0126772 -20.013865 -1.1114064 29 6
-2.6652508 -7.5222664 -2.1383629 5 0
-3.2230773 -9.0815363 -2.224766 7 1
-4.0252223 -11.316638 -2.334739 4 2
-5.3342414 -14.972019 -2.5173438 3 3
-7.1337852 -19.989824 -2.6060543 19 4
-7.149858 -19.990767 -1.8574631 36 5
-7.1589661 -19.983223 -1.1124532 29 6
-2.7137537 -7.4925771 -2.135257 4 0
-3.2850697 -9.05515 -2.2238662 7 1
-4.0960779 -11.26612 -2.3301597 4 2
-5.4386334 -14.934415 -2.5173438 4 3
-7.2799692 -19.958183 -2.6084917 24 4
-7.3111334 -20.000246 -1.8630412 36 5
-7.3120327 -19.970268 -1.1145467 29 6
-2.7686779 -7.4806967 -2.1373277 4 0
-3.3536251 -9.0466127 -2.2274654 7 1
-4.1677933 -11.218845 -2.3263433 4 2
-5.5400062 -14.888679 -2.5160923 4 3
-7.4309063 -19.938498 -2.6126354 31 4
-7.4631305 -19.982313 -1.8661788 36 5
-7.4610672 -19.944923 -1.1160121 29 6
-2.8113382 -7.439992 -2.1311162 4 0
-3.4151247 -9.0235758 -2.2274654 7 1
-4.2496309 -11.204902 -2.3293962 4 2
-5.6328039 -14.828463 -2.5123379 4 3
-7.5798635 -19.922705 -2.6172664 26 4
-7.6046495 -19.945946 -1.8675733 35 5
-7.6066284 -19.919798 -1.1174774 29 6
-2.8701653 -7.4382071 -2.1362925 4 0
-3.4794431 -9.00315 -2.2283652 7 1
-4.3291688 -11.178623 -2.3301597 6 2
-5.7347589 -14.785095 -2.5117123 4 3
-7.7317019 -19.902611 -2.6216536 22 4
-7.7740684 -19.970348 -1.8748943 35 5
-7.7614703 -19.907146 -1.1197803 29 6
-2.9177749 -7.4072046 -2.1331868 5 0
-3.5393517 -8.9713888 -2.2265656 7 1
-4.4143224 -11.166385 -2.3339758 4 2
-5.8378386 -14.744699 -2.5117123 4 3
-7.8748503 -19.859219 -2.6231158 26 4
-7.9383135 -19.978544 -1.880821 35 5
-7.9135518 -19.88588 -1.1216643 29 6
-2.9679735 -7.383069 -2.1321514 4 0
-3.6048076 -8.9536915 -2.2283652 7 1
-4.4877639 -11.124371 -2.331686 4 2
-5.9258332 -14.666952 -2.5054548 4 3
-8.0378733 -19.864483 -2.6311593 15 4
-8.0716047 -19.907866 -1.8794264 35 5
-8.0687199 -19.870861 -1.1239672 29 6
-3.0209112 -7.3657441 -2.1331868 4 0
-3.6657462 -8.9247017 -2.2274654 7 1
-4.5578432 -11.074615 -2.3278699 4 2
-6.0295877 -14.628878 -2.5060804 4 3
-8.193779 -19.850088 -2.6367655 22 4
-8.2632532 -19.988716 -1.8923255 35 5
-8.2271175 -19.862022 -1.1266886 30 6
-3.063314 -7.3230877 -2.1269751 4 0
-3.732481 -8.9096775 -2.2301648 7 1
-4.6452723 -11.072301 -2.3339758 4 2
-6.1320844 -14.594782 -2.5073318 3 3
-8.3506393 -19.836315 -2.6426151 21 4
-8.3793793 -19.875463 -1.887096 35 5
-8.3807688 -19.84972 -1.1292007 30 6
-3.1055124 -7.2842956 -2.1217985 4 0
-3.789979 -8.8768959 -2.2283652 7 1
-4.710104 -11.01072 -2.3278699 4 2
-6.2307129 -14.544353 -2.5060804 4 3
-8.5026884 -19.819145 -2.6479774 19 4
-8.538065 -19.872887 -1.8923255 35 5
-8.5365124 -19.831089 -1.1315035 30 6
-3.1657984 -7.287796 -2.1290457 4 0
-3.8472044 -8.8437462 -2.2265656 7 1
-4.7927852 -10.996402 -2.331686 4 2
-6.3216643 -14.483501 -2.5029516 4 3
-8.6580639 -19.808102 -2.6543145 17 4
-8.6873446 -19.809107 -1.133597 30 6
-3.213768 -7.2625442 -2.1280103 5 0
-3.9073126 -8.8173542 -2.2265656 7 1
-4.8691173 -10.967113 -2.3324494 4 2
-6.4136848 -14.425697 -2.5004489 3 3
-8.8155241 -19.790697 -2.6601644 21 4
-8.8631992 -19.869728 -1.9034814 35 5
-8.8425341 -19.786268 -1.1357951 20 6
-3.2640667 -7.2358398 -2.1269751 5 0
-3.9687033 -8.7856159 -2.2256656 7 1
-4.9426146 -10.921258 -2.3301597 4 2
-6.5069618 -14.357841 -2.4966943 4 3
-8.8288898 -19.445137 -2.6221409 19 4
-9.0150509 -19.827562 -1.905573 35 5
-9.0079069 -19.775194 -1.1388304 30 6
-3.309305 -7.198256 -2.122834 4 0
-4.0314713 -8.7569904 -2.2256656 7 1
-5.0140591 -10.871348 -2.3271067 6 2
-6.6012568 -14.292976 -2.4935656 4 3
-8.8794327 -19.199247 -2.5972795 29 4
-9.1733484 -19.807531 -1.9097565 34 5
-9.1659164 -19.755306 -1.1413426 30 6
-3.3611162 -7.1784759 -2.1238692 4 0
-4.0891972 -8.7215757 -2.2238662 7 1
-5.0879421 -10.836967 -2.3271067 4 2
-6.6798997 -14.208385 -2.4866827 4 3
-8.976882 -19.059568 -2.5867989 29 4
-9.3114071 -19.743006 -1.9097565 34 5
-9.3240566 -19.743027 -1.1442734 30 6
-3.4082367 -7.1519442 -2.122834 4 0
-4.1451111 -8.6865044 -2.2220664 7 1
-5.1566997 -10.787011 -2.3240535 4 2
-6.7686949 -14.140022 -2.482928 4 3
-9.065218 -18.912104 -2.5750995 30 4
-9.4921312 -19.767324 -1.9184722 34 5
-9.487627 -19.731453 -1.1474136 30 6
-3.4580839 -7.1279759 -2.122834 4 0
-4.2056513 -8.6573553 -2.2220664 7 1
-5.2370367 -10.76134 -2.3263433 4 2
-6.8542666 -14.065788 -2.478235 4 3
-9.176136 -18.805536 -2.5692496 30 4
-9.6312885 -19.677296 -1.1481464 20 6
-3.497498 -7.0828743 -2.1166222 4 0
-4.2677169 -8.631278 -2.2229664 7 1
-5.2998381 -10.699887 -2.3210008 4 2
-6.9479084 -14.008744 -2.4766707 4 3
-9.2983694 -18.723236 -2.5668123 30 4
-9.8013783 -19.675722 -1.1520191 20 6
-3.5572696 -7.0789981 -2.122834 4 0
-4.326118 -8.5977907 -2.2220664 7 1
-5.3814745 -10.676652 -2.3240535 4 2
-7.0259542 -13.921103 -2.4697876 4 3
-9.4270611 -18.654325 -2.5663247 30 4
-9.9050903 -19.540901 -1.1481464 20 6
-3.6013253 -7.0436721 -2.1197281 4 0
-4.3895888 -8.5743179 -2.2238662 7 1
-5.437963 -10.603884 -2.3164213 4 2
-7.1130452 -13.852383 -2.466346 4 3
-9.5625095 -18.598652 -2.5677874 30 4
-10.096195 -19.577782 -1.1544266 20 6
-3.6509688 -7.0224233 -2.1207633 4 0
-4.4370527 -8.5234976 -2.2184672 7 1
-5.5190935 -10.584031 -2.3202376 4 2
-7.1961994 -13.782633 -2.4625916 4 3
-9.7035999 -18.561277 -2.5716872 29 4
-8.9700985 -17.13636 -1.6922158 37 5
-10.058561 -19.18314 -1.135167 20 6
-3.689657 -6.9803305 -2.115587 4 0
-4.4986119 -8.4999895 -2.2202671 8 1
-5.5799737 -10.525404 -2.3156581 6 2
-7.2815127 -13.717627 -2.4597759 4 3
-9.8534489 -18.531641 -2.5770495 30 4
-8.8910217 -16.700478 -1.6552618 36 5
-10.438812 -19.583052 -1.1630096 30 6
-3.7413421 -6.9571514 -2.1166222 4 0
-4.5611691 -8.4710121 -2.2211666 7 1
-5.6458631 -10.472368 -2.3126051 4 2
-7.3691592 -13.646052 -2.4563344 4 3
-10.016569 -18.525263 -2.5858238 29 4
-8.8518343 -16.350655 -1.6266748 35 5
-10.624378 -19.592127 -1.168034 30 6
-3.7824068 -6.9173026 -2.1124811 4 0
-4.6201973 -8.4389629 -2.2211666 7 1
-5.7300968 -10.448914 -2.3164213 4 2
-7.4385777 -13.547522 -2.4478867 4 3
-10.167652 -18.494894 -2.5914299 29 4
-8.8466291 -16.072025 -1.6050601 34 5
-10.784037 -19.559456 -1.1705462 30 6
-3.8268514 -6.8839736 -2.1104105 5 0
-4.6752081 -8.3996906 -2.219367 7 1
-5.8010879 -10.409667 -2.3164213 6 2
-7.5171456 -13.472425 -2.4435067 4 3
-10.954021 -19.551811 -1.1745237 30 6
-3.8698189 -6.8510385 -2.1083403 5 0
-4.7303543 -8.3642807 -2.2184672 7 1
-5.8620076 -10.348415 -2.3118417 6 2
-7.5895782 -13.381816 -2.4366236 4 3
-9.9109936 -17.453596 -2.464442 3 4
-11.124843 -19.535606 -1.1781871 20 6
-3.921401 -6.8305559 -2.1104105 5 0
-4.7808638 -8.3175373 -2.2148681 7 1
-5.9303513 -10.304873 -2.3110785 4 2
-7.6666789 -13.305883 -2.4322433 4 3
-10.075268 -17.457911 -2.4749229 9 4
-9.2024307 -15.926234 -1.6092436 34 5
-11.283564 -19.504377 -1.1809087 20 6
-3.9639115 -6.7970314 -2.1083403 5 0
-4.839334 -8.288168 -2.2157679 7 1
-5.996201 -10.253052 -2.308789 6 2
-7.7573895 -13.248628 -2.4316175 4 3
-10.221973 -17.436878 -2.4817474 9 4
-9.3065863 -15.856356 -1.6085464 34 5
-11.450833 -19.478504 -1.1841534 10 6
-3.9994473 -6.7492495 -2.1021285 4 0
-4.8911123 -8.2441244 -2.2130685 7 1
-6.051816 -10.188368 -2.3034463 6 2
-7.8231568 -13.154769 -2.4241087 4 3
-10.357678 -17.388968 -2.4851599 4 4
-9.4537954 -15.852601 -1.6148217 35 5
-10.061665 -16.851843 -1.0286109 9 6
-4.0552564 -6.7384219 -2.1073048 4 0
-4.9471126 -8.2106419 -2.2130685 7 1
-6.122797 -10.14587 -2.3034463 6 2
-7.9045887 -13.082926 -2.42098 4 3
-9.589119 -15.852242 -2.2748132 2 4
-9.6055336 -15.854377 -1.6217941 35 5
-10.075484 -16.610422 -1.0181438 9 6
-4.1001859 -6.7066498 -2.1062696 5 0
-4.9961748 -8.1626081 -2.2094693 7 1
-6.1914244 -10.099532 -2.3026831 4 2
-7.9812655 -13.003853 -2.4166 4 3
-8.2851019 -13.483052 -1.9430851 6 4
-9.7514887 -15.844621 -1.6277206 35 5
-10.191202 -16.539677 -1.0181438 9 6
-4.1469073 -6.6778617 -2.1062696 5 0
-5.0448074 -8.1142902 -2.2058702 7 1
-6.2638569 -10.059394 -2.3034463 6 2
-7.2462745 -11.623532 -2.1694334 7 3
-8.1950912 -13.130182 -1.9004307 5 4
-4.1851802 -6.6356773 -2.1021285 4 0
-5.1034141 -8.0821686 -2.2067699 7 1
-6.3192415 -9.9921894 -2.2981036 4 2
-7.2892041 -11.512578 -2.1581702 7 3
-8.1611481 -12.874808 -1.8716695 9 4
-10.421136 -16.395775 -1.0181438 9 6
-4.225152 -6.5965371 -2.0990226 4 0
-5.1555037 -8.0397816 -2.2049701 7 1
-6.3803587 -9.9346142 -2.2950509 4 2
-7.4078588 -11.521225 -2.1694334 9 3
-8.1852894 -12.7157 -1.8568015 12 4
-8.3775864 -12.99449 -1.3526571 26 5
-4.2668881 -6.560401 -2.096952 5 0
-5.2072535 -7.9970622 -2.2031708 7 1
-6.4409804 -9.8766727 -2.2919979 4 2
-7.3973994 -11.330287 -2.1431525 11 3
-8.2086964 -12.558549 -1.8421772 13 4
-8.4244518 -12.869008 -1.3456846 26 5
-10.649043 -16.248674 -1.0181438 9 6
-4.314714 -6.5336766 -2.0979872 5 0
-5.24791 -7.9377546 -2.196872 7 1
-6.5227799 -9.8511105 -2.2965772 4 2
-7.4905062 -11.299773 -2.1472197 13 3
-8.2643375 -12.452971 -1.8351088 16 4
-8.4456987 -12.711797 -1.3352259 25 5
-10.833033 -16.280352 -1.0248427 9 6
-4.3580689 -6.5001869 -2.096952 5 0
-5.3031964 -7.9009256 -2.196872 7 1
-6.5743532 -9.7836695 -2.2912345 6 2
-7.5451951 -11.215745 -2.1409624 17 3
-8.3433094 -12.383448 -1.8334025 33 4
-8.4673872 -12.55342 -1.3247672 25 5
-4.3956933 -6.4607887 -2.0938461 5 0
-5.3546591 -7.8614235 -2.1959722 7 1
-6.6491318 -9.7472658 -2.2935243 6 2
-7.6277652 -11.169323 -2.1422138 17 3
-8.5818367 -12.533457 -1.3289508 25 5
-4.4275169 -6.4108682 -2.0876343 5 0
-5.4027624 -7.8142309 -2.1932726 7 1
-6.6991363 -9.6747837 -2.2874184 5 2
-7.7033043 -11.112552 -2.141588 18 3
-8.5404167 -12.306378 -1.8392524 19 4
-8.6736746 -12.479783 -1.329648 25 5
-4.4766011 -6.3861299 -2.089705 5 0
-5.4504685 -7.7667522 -2.1905735 7 1
-6.7732887 -9.6374168 -2.2897081 6 2
-7.8193455 -11.113431 -2.1522255 15 3
-8.6238356 -12.243208 -1.8387648 19 4
-8.7239723 -12.371608 -1.3244187 25 5
-11.275986 -15.966972 -1.0244241 9 6
-4.518836 -6.3515735 -2.0886698 4 0
-5.5000358 -7.7221627 -2.1887739 7 1
-6.8432913 -9.5974827 -2.2912345 4 2
-7.8925157 -11.056734 -2.1515999 19 3
-8.882021 -12.410853 -1.3352259 25 5
-4.5551801 -6.3112698 -2.0855639 4 0
-5.5479035 -7.6782289 -2.186974 7 1
-6.9032216 -9.5399303 -2.2889447 4 2
-7.9811025 -11.017362 -2.1547287 10 3
-8.8767033 -12.235687 -1.8560703 2 4
-9.0433807 -12.451717 -1.3463819 26 5
-11.470395 -15.776064 -1.022226 38 6
-4.6070766 -6.2878623 -2.0886698 4 0
-5.602706 -7.6383324 -2.186974 7 1
-6.9533868 -9.4693508 -2.2836022 6 2
-8.033988 -10.924959 -2.1478455 8 3
-8.4005384 -11.410882 -1.7398069 1 4
-9.1300907 -12.388279 -1.3463819 26 5
-11.671947 -15.814101 -1.0300764 9 6
-4.6347251 -6.2338414 -2.081423 5 0
-5.6512413 -7.5927792 -2.1851747 7 1
-7.0045419 -9.397315 -2.2782595 6 2
-8.0994301 -10.854357 -2.1450298 9 3
-8.6439381 -11.571428 -1.7734429 1 4
-4.6747236 -6.1990643 -2.0803876 4 0
-5.6887031 -7.5354724 -2.1797757 7 1
-7.075449 -9.3588152 -2.2805493 6 2
-8.1981602 -10.832051 -2.1515999 17 3
-9.3530741 -12.344577 -1.9016495 3 4
-4.7144623 -6.1640325 -2.0793524 4 0
-5.7351227 -7.4903884 -2.1779761 7 1
-7.1461544 -9.319788 -2.2828391 6 2
-8.3005695 -10.813603 -2.1591089 19 3
-9.3377018 -12.151555 -1.8816628 12 4
-4.7431688 -6.1126537 -2.0731406 4 0
-5.7824941 -7.4440112 -2.1761765 7 1
-7.2014008 -9.2572737 -2.2797861 6 2
-8.4098425 -10.799033 -2.1678691 19 3
-9.4467154 -12.117382 -1.8865376 12 4
-12.265893 -15.693982 -1.0438931 28 6
-4.788116 -6.0824285 -2.0741758 5 0
-5.8246708 -7.3912168 -2.1725771 7 1
-7.2585554 -9.197526 -2.2774963 6 2
-8.5119686 -10.774158 -2.1747522 19 3
-9.5754108 -12.10719 -1.8953122 13 4
-14.995869 -18.913296 -1.2649603 21 6
-4.7991209 -6.009603 -2.0607173 3 0
-5.8736973 -7.3473268 -2.1716774 7 1
-7.3209934 -9.1479053 -2.2774963 4 2
-8.6221619 -10.762218 -2.1841383 21 3
-9.6919994 -12.080302 -1.9016495 14 4
-15.189339 -18.891722 -1.2704031 21 6
-4.7961478 -5.9227505 -2.0420823 3 0
-5.9162102 -7.2980933 -2.168978 7 1
-7.3624043 -9.0691385 -2.2706273 6 2
-8.7244911 -10.73549 -2.1910214 24 3
-9.8115835 -12.060249 -1.9089615 12 4
-15.367558 -18.842491 -1.274276 21 6
-4.837379 -5.8891225 -2.0420823 3 0
-5.9571128 -7.2445717 -2.1653788 7 1
-7.4364429 -9.0339718 -2.2744434 4 2
-8.8438444 -10.732261 -2.2025976 23 3
-9.9107056 -12.009829 -1.9118865 12 4
-15.545099 -18.797478 -1.2783582 21 6
-4.8684826 -5.8433347 -2.0379412 4 0
-6.0000548 -7.1938276 -2.1626794 7 1
-7.4983807 -8.9775124 -2.27368 6 2
-8.9558954 -10.711133 -2.2113578 18 3
-10.070753 -12.031682 -1.9265107 13 4
-15.763945 -18.786737 -1.2852665 21 6
-4.8917012 -5.7885456 -2.0306942 3 0
-6.0450969 -7.1458135 -2.1608799 7 1
-7.5314021 -8.8933039 -2.2652845 4 2
-9.0643635 -10.692113 -2.220118 21 3
-9.7074194 -11.434455 -1.8416896 13 4
-15.846162 -18.625757 -1.281603 10 6
-4.9083629 -5.7287097 -2.0213768 3 0
-6.078371 -7.086751 -2.1554811 7 1
-7.580514 -8.8256159 -2.2614682 4 2
-9.1903019 -10.688485 -2.2326329 20 3
-10.318566 -11.987973 -1.9421101 13 4
-15.761818 -18.266689 -1.2644368 21 6
-4.9355655 -5.6797209 -2.0162005 3 0
-6.1251411 -7.0412011 -2.1545811 7 1
-7.6522584 -8.7843227 -2.2645214 6 2
-9.2984514 -10.662774 -2.2407675 18 3
-9.5351696 -10.922676 -1.7802675 7 4
-15.702186 -17.94278 -1.2495735 21 6
-4.9725423 -5.6422272 -2.0151651 3 0
-6.1560974 -6.9778109 -2.1482825 7 1
-7.6900005 -8.7042027 -2.2576523 4 2
-9.4014559 -10.630154 -2.2476506 21 3
-10.130968 -11.442924 -1.8765444 9 4
-15.609639 -17.587742 -1.2324072 10 6
-4.9963617 -5.5900922 -2.0089536 3 0
-6.2020621 -6.9317603 -2.1473827 7 1
-7.7505798 -8.6503038 -2.2576523 6 2
-9.533474 -10.628963 -2.2614169 22 3
-10.023607 -11.163653 -1.8421772 13 4
-15.569027 -17.297232 -1.2196373 10 6
-5.027483 -5.5464849 -2.0058477 3 0
-6.2424474 -6.879632 -2.1446834 7 1
-7.7870135 -8.5698318 -2.250783 6 2
-9.6499786 -10.608908 -2.2714286 19 3
-9.9970531 -10.978918 -1.8231655 13 4
-15.492817 -16.972752 -1.2043551 20 6
-5.0347037 -5.4771185 -1.9934243 4 0
-6.2982402 -6.8444896 -2.1473827 7 1
-7.8306904 -8.4979324 -2.2462037 6 2
-9.7613115 -10.581936 -2.280189 22 3
-10.135406 -10.975944 -1.8343775 15 4
-15.437265 -16.676569 -1.1909571 10 6
-5.0701828 -5.4390111 -1.9923891 4 0
-6.3272581 -6.7804046 -2.1410842 7 1
-7.8844628 -8.4373207 -2.2446773 4 2
-9.8808289 -10.562581 -2.2908266 21 3
-10.394959 -11.100531 -1.8672822 21 4
-15.41115 -16.416948 -1.1800712 10 6
-5.1186485 -5.4147115 -1.9965302 3 0
-6.3583651 -6.7190833 -2.1356852 7 1
-7.9323702 -8.3706713 -2.2416241 4 2
-10.008709 -10.550668 -2.3033414 18 3
-10.491342 -11.047839 -1.8706945 10 4
-15.31331 -16.086187 -1.1639519 20 6
-5.1269131 -5.348166 -1.9851422 9 0
-6.4051166 -6.674531 -2.1356852 7 1
-7.9906149 -8.3150883 -2.2416241 6 2
-10.119099 -10.518973 -2.3117888 17 3
-10.360291 -10.758417 -1.83389 18 4
-15.275426 -15.823696 -1.1526471 20 6
-5.1547008 -5.3025451 -1.9815186 18 0
-6.4352503 -6.6128912 -2.1302865 7 1
-8.0251102 -8.2380047 -2.2355182 6 2
-10.260801 -10.521977 -2.3277452 22 3
-10.523906 -10.776723 -1.8494893 6 4
-15.16486 -15.496672 -1.1363184 10 6
-5.1744018 -5.2508245 -1.9753071 18 0
-6.4719009 -6.5606127 -2.1275871 7 1
-8.0493107 -8.1482592 -2.2263594 6 2
-10.375674 -10.492227 -2.3371313 18 3
-10.68081 -10.789485 -1.8641136 19 4
-15.146065 -15.262827 -1.1268979 10 6
-5.205471 -5.209106 -1.9732366 6 0
-6.5147886 -6.5125151 -2.1266873 7 1
-8.0865488 -8.0724487 -2.2210169 4 2
-10.499026 -10.46975 -2.3483946 20 3
-10.800881 -10.759485 -1.8719133 13 4
-15.076574 -14.982147 -1.1139185 19 6
-5.2238336 -5.1549993 -1.9665072 4 0
-6.5489936 -6.4559302 -2.1230881 7 1
-8.1455069 -8.0185518 -2.2217801 6 2
-10.633835 -10.45714 -2.3621607 19 3
-10.867233 -10.675474 -1.8704509 19 4
-15.029597 -14.728346 -1.1028234 19 6
-5.2486191 -5.107626 -1.9623661 4 0
-6.5799303 -6.3964701 -2.1185889 7 1
-8.185812 -7.9492455 -2.2179639 6 2
-10.765734 -10.443661 -2.3756142 13 3
-11.031323 -10.686362 -1.8858064 20 4
-14.954309 -14.456349 -1.0900534 9 6
-5.2860513 -5.0744572 -1.9634014 3 0
-6.6064386 -6.3353477 -2.1131902 7 1
-8.2609606 -7.9109139 -2.2233064 6 2
-10.854085 -10.383266 -2.3790557 7 3
-11.138673 -10.640628 -1.8914124 16 4
-14.878502 -14.183468 -1.0772835 19 6
-5.3081965 -5.0232229 -1.958225 4 0
-6.6374431 -6.2745237 -2.1086912 7 1
-8.280302 -7.8193502 -2.2137661 7 2
-10.906549 -10.285004 -2.3743625 5 3
-11.344173 -10.686473 -1.9135926 9 4
-14.85299 -13.957645 -1.068177 19 6
-5.3205361 -4.9649553 -1.9499428 4 0
-6.6668301 -6.214747 -2.104192 7 1
-8.3202381 -7.7451839 -2.2095683 10 2
-10.965067 -10.196505 -2.3715467 6 3
-11.41123 -10.600261 -1.9123739 13 4
-14.810894 -13.724648 -1.0582331 19 6
-5.3323231 -4.9067597 -1.9416605 3 0
-6.6985788 -6.1575003 -2.1005929 7 1
-8.3771029 -7.6923532 -2.2107131 9 2
-11.037129 -10.124302 -2.3721726 6 3
-11.634264 -10.657104 -1.9372352 19 4
-14.771297 -13.502238 -1.0488126 9 6
-5.3655996 -4.8703485 -1.9416605 3 0
-6.7345624 -6.1065259 -2.0987935 7 1
-8.4262342 -7.6297317 -2.2095683 6 2
-11.104609 -10.044353 -2.3715467 6 3
-11.755138 -10.621587 -1.9452786 21 4
-14.71981 -13.26774 -1.0385549 19 6
-5.3821955 -4.8173113 -1.9354489 4 0
-6.7770281 -6.0593629 -2.0987935 7 1
-8.4809017 -7.5748153 -2.2103314 6 2
-11.152086 -9.9501238 -2.3671668 6 3
-11.858649 -10.565669 -1.9501534 23 4
-14.675446 -13.047802 -1.0291344 19 6
-5.4061723 -4.7728934 -1.9323431 3 0
-6.7947307 -5.9924684 -2.0915949 7 1
-8.5350475 -7.5167217 -2.2107131 7 2
-11.212381 -9.8641968 -2.3652894 6 3
-12.006336 -10.551538 -1.962584 20 4
-14.649032 -12.842337 -1.02097 19 6
-5.4379034 -4.7337675 -1.9318254 2 0
-6.8275757 -5.9372153 -2.0888956 7 1
-8.5830526 -7.4558744 -2.20995 7 2
-11.26136 -9.7721109 -2.3615351 6 3
-12.148718 -10.527262 -1.9737961 21 4
-14.594094 -12.619527 -1.0111308 18 6
-5.4444323 -4.6730404 -1.922508 2 0
-6.8451886 -5.8691101 -2.0816972 7 1
-8.6227617 -7.3827748 -2.2065153 6 2
-11.306979 -9.6707354 -2.3565292 6 3
-12.395477 -10.590484 -2.001826 23 4
-14.532015 -12.385219 -1.0006636 18 6
-5.4695501 -4.6286774 -1.9199197 2 0
-6.8711133 -5.8085976 -2.077198 7 1
-8.6758165 -7.3264441 -2.2072787 6 2
-11.333286 -9.5604305 -2.3483946 6 3
-12.438748 -10.478108 -1.9969513 22 4
-14.516606 -12.202481 -0.99385995 18 6
-5.4949965 -4.58639 -1.9178492 2 0
-6.8670859 -5.7255049 -2.0641508 5 1
-8.7116642 -7.2531347 -2.2034624 6 2
-11.384567 -9.4684458 -2.3452659 6 3
-12.680792 -10.535277 -2.02425 23 4
-14.502779 -12.031894 -1.648638 36 5
-14.478415 -11.998887 -0.98548621 18 6
-5.5089817 -4.5331845 -1.9116375 2 0
-6.8391466 -5.6217365 -2.0439053 6 1
-8.746911 -7.1796851 -2.1996462 6 2
-11.432059 -9.3737078 -2.3415112 6 3
-12.694139 -10.397435 -2.0147443 17 4
-13.352638 -10.921228 -1.5091888 31 5
-5.5509958 -4.5031347 -1.915261 2 0
-6.838861 -5.5419555 -2.0322077 6 1
-8.7815628 -7.1060934 -2.1958301 4 2
-11.481861 -9.2812481 -2.3383827 6 3
-12.754063 -10.298583 -2.0127943 20 4
-13.428557 -10.827744 -1.5091888 31 5
-13.930585 -11.220508 -0.93744171 9 6
-5.5325093 -4.4244566 -1.8981789 2 0
-6.8530226 -5.4746175 -2.0250094 6 1
-8.8278875 -7.0421667 -2.1950669 6 2
-11.524747 -9.1836309 -2.3340025 6 3
-13.095889 -10.42441 -2.0552046 35 4
-13.447676 -10.6891 -1.5029136 31 5
-13.831829 -10.982638 -0.92561382 9 6
-5.5541615 -4.3785472 -1.8950732 2 0
-14.734355 -11.607291 0.32740712 31 8
-6.8757668 -5.4145823 -2.0205104 6 1
-8.886095 -6.9876471 -2.1973565 4 2
-11.554403 -9.0761042 -2.3271194 6 3
-13.187087 -10.347434 -2.0581295 16 4
-13.656842 -10.70064 -1.5179044 31 5
-14.279341 -11.176329 -0.95031637 9 6
-14.803576 -11.57415 -0.32800052 36 7
-5.5769658 -4.3337398 -1.8924849 2 0
-14.745533 -11.450183 0.32587135 30 8
-6.8764529 -5.3377709 -2.0097127 6 1
-8.8756971 -6.8797345 -2.1828551 6 2
-11.57219 -8.960146 -2.3180461 5 3
-13.296691 -10.284267 -2.0639794 18 4
-13.967743 -10.787714 -1.5440512 32 5
-14.293763 -11.027567 -0.9461295 9 6
-14.684448 -11.316718 -0.32360253 35 7
-5.5886827 -4.2806025 -1.8862734 2 0
-14.736186 -11.278898 0.32391667 30 8
-6.907361 -5.2848964 -2.0079131 6 1
-8.932869 -6.8247571 -2.1851447 6 2
-11.620327 -8.8683567 -2.3152304 6 3
-13.649165 -10.405413 -2.1073649 17 4
-13.659068 -10.397888 -1.5018677 31 5
-14.267064 -10.848929 -0.93932581 18 6
-14.667551 -11.141351 -0.32150823 35 7
-5.6107202 -4.2356629 -1.8836851 2 0
-14.654929 -11.055316 0.32042617 30 8
-6.895854 -5.2001739 -1.9939661 5 1
-8.955205 -6.743329 -2.1790388 4 2
-11.659858 -8.7703886 -2.3108501 7 3
-14.059516 -10.563857 -2.1592813 10 4
-13.798259 -10.3525 -1.5091888 31 5
-14.193821 -10.637666 -0.92959136 9 6
-14.639322 -10.959585 -0.31920451 35 7
-5.6324034 -4.1906247 -1.8810968 2 0
-6.9022708 -5.1298203 -1.985418 6 1
-8.9894505 -6.671288 -2.1759858 6 2
-11.704931 -8.6770124 -2.3077216 7 3
-14.118562 -10.454818 -2.1570876 15 4
-14.188767 -10.495307 -1.5440512 32 5
-14.190625 -10.481358 -0.92456704 9 6
-14.5964 -10.769261 -0.31662154 34 7
-5.6256905 -4.1249261 -1.8691912 2 0
-14.614033 -10.711534 0.31627253 29 8
-6.9049015 -5.0573258 -1.97597 14 1
-9.0124702 -6.5937147 -2.1706433 6 2
-11.744584 -8.5831518 -2.303967 7 3
-14.085372 -10.278769 -2.1410007 16 4
-14.129246 -10.288119 -0.91598397 18 6
-14.590359 -10.608302 -0.31487635 34 7
-5.6473746 -4.0820127 -1.8671206 2 0
-14.558776 -10.515575 0.31348014 29 8
-6.9202051 -4.9965205 -1.9705712 25 1
-9.0232458 -6.5053782 -2.1622477 6 2
-11.801012 -8.4986439 -2.3033414 6 3
-14.088943 -10.135121 -2.1310074 10 4
-14.132569 -10.140329 -0.91158777 9 6
-14.499695 -10.392251 -0.31138584 33 7
-5.6599989 -4.0312791 -1.8619443 1 0
-6.9739738 -4.9616432 -1.97597 7 1
-9.0716429 -6.4445 -2.1630108 6 2
-11.839112 -8.4011879 -2.299274 5 3
-14.037892 -9.9504194 -2.1127272 15 4
-14.14525 -10.011693 -1.5161612 31 5
-14.095378 -9.9653225 -0.90467948 27 6
-14.480421 -10.226173 -0.30943117 33 7
-5.7069807 -4.0049839 -1.868156 2 0
-14.445484 -10.129879 0.30796516 28 8
-6.9669528 -4.8837514 -1.9642726 5 1
-9.1131964 -6.3787594 -2.1622477 6 2
-11.852146 -8.2866383 -2.2905138 5 3
-14.015877 -9.7885275 -2.0990777 8 4
-14.023667 -9.7684965 -0.89567763 26 6
-14.426711 -10.038031 -0.3067784 33 7
-5.7220883 -3.9562559 -1.8640147 2 0
-14.489532 -10.010594 0.30740669 28 8
-6.9848428 -4.8239217 -1.9597737 5 1
-9.16397 -6.3194399 -2.163774 6 2
-11.886933 -8.1880045 -2.2861335 4 3
-13.966125 -9.6094236 -2.0815284 12 4
-14.053754 -9.6552687 -1.4917578 31 5
-13.956485 -9.5776892 -0.88709456 17 6
-5.7527623 -3.9183865 -1.8650501 2 0
-6.9957933 -4.7596917 -1.9534749 5 1
-9.1429081 -6.2111797 -2.1485093 6 2
-11.920923 -8.0892897 -2.2817533 5 3
-13.929349 -9.4415188 -2.0661731 10 4
-13.960134 -9.4375153 -0.88311702 17 6
-5.7896028 -3.8845878 -1.868156 3 0
-6.993238 -4.6868696 -1.9435771 4 1
-9.1632032 -6.1319151 -2.1431668 6 2
-11.942616 -7.9828186 -2.2751832 6 3
-15.665666 -10.459554 -2.3128366 6 4
-5.7779002 -3.8185124 -1.8557327 3 0
-6.9965119 -4.6186099 -1.9354788 3 1
-9.1861172 -6.0548286 -2.1385872 6 2
-11.965058 -7.8775249 -2.2689257 6 3
-15.662007 -10.299762 -2.3016248 11 4
-5.8108945 -3.7822957 -1.8578032 3 0
-7.0220518 -4.5654025 -1.9336793 3 1
-9.2018175 -5.9734473 -2.1324816 6 2
-12.016448 -7.7916517 -2.2683001 7 3
-15.658555 -10.141608 -2.2906563 9 4
-5.8404098 -3.743722 -1.8588384 3 0
-7.0406232 -4.5078635 -1.9300802 4 1
-9.2300625 -5.9006009 -2.1294286 6 2
-12.058896 -7.700129 -2.2661099 8 3
-15.665377 -9.9914799 -2.2813942 9 4
-5.8598695 -3.6987326 -1.8567679 3 0
-7.0323596 -4.4336557 -1.9192824 4 1
-9.2367878 -5.8167143 -2.1217961 6 2
-12.106013 -7.6147127 -2.2651713 7 3
-15.684314 -9.8502035 -2.2740822 9 4
-5.8570189 -3.6414213 -1.8479681 2 0
-7.0656862 -4.387743 -1.9201821 5 1
-9.2571459 -5.7396746 -2.1172168 6 2
-12.145443 -7.5216932 -2.2626684 7 3
-15.737494 -9.7348604 -2.2721322 9 4
-5.8707652 -3.5933819 -1.8443446 2 0
-7.0828452 -4.3301768 -1.9165829 3 1
-9.2591381 -5.6540208 -2.1088212 6 2
-12.194674 -7.4378195 -2.2623556 8 3
-15.791509 -9.6164904 -2.2701821 9 4
-5.8950872 -3.553339 -1.8443446 3 0
-7.0954585 -4.2718148 -1.9120839 2 1
-9.268096 -5.5710373 -2.1019521 6 2
-12.227673 -7.3413181 -2.258914 7 3
-15.819145 -9.4863224 -2.2648201 9 4
-5.9031363 -3.5022395 -1.8391682 3 0
-7.1083446 -4.2122412 -1.9075849 2 1
-9.2831078 -5.4922037 -2.0966094 6 2
-12.263319 -7.2467327 -2.2560983 8 3
-15.476408 -9.1345015 -2.2065666 6 4
-55.949245 -32.930321 -3.4023609 15 6
-5.9341159 -3.464839 -1.8412387 3 0
-7.1207438 -4.1526952 -1.9030858 2 1
-9.256753 -5.3897228 -2.0821078 4 2
-12.31532 -7.1619353 -2.2564111 7 3
-15.637643 -9.0830679 -2.2204597 9 4
-5.9313583 -3.4079292 -1.8329566 3 0
-7.1191378 -4.0854249 -1.8949877 3 1
-9.1688833 -5.2553229 -2.0542498 4 2
-12.326068 -7.0563536 -2.2495279 7 3
-15.843719 -9.0554333 -2.24069 11 4
-5.9476919 -3.363673 -1.830886 3 0
-7.1230259 -4.0234537 -1.8886892 3 1
-9.1643066 -5.1680365 -2.0450909 4 2
-12.364705 -6.9643097 -2.2476506 6 3
-16.03302 -9.0194016 -2.2587266 11 4
-5.9710302 -3.3220682 -1.830886 3 0
-7.1577559 -3.9774117 -1.8904886 2 1
-9.1683741 -5.0883884 -2.0382218 4 2
-12.39109 -6.8684916 -2.2438962 7 3
-16.244967 -8.9899158 -2.2796881 11 4
-16.370436 -9.0481577 -1.6364362 35 5
-5.9782538 -3.2729981 -1.8262272 2 0
-7.1402078 -3.9042916 -1.8787912 5 1
-9.1623163 -5.0016832 -2.029063 4 2
-12.424863 -6.7742567 -2.2413933 7 3
-16.459198 -8.9626722 -2.301137 11 4
-5.994153 -3.2275202 -1.8241568 2 0
-7.1655741 -3.8534253 -1.8783413 7 1
-9.1554956 -4.9153104 -2.0199041 4 2
-12.430072 -6.6649466 -2.2338843 7 3
-16.664865 -8.9243937 -2.3211238 11 4
-17.489742 -9.3386555 -1.0390781 9 6
-6.0506854 -3.2036738 -1.8345095 2 0
-7.1785188 -3.7960203 -1.8747422 7 1
-9.1270866 -4.8182755 -2.006166 4 2
-12.462319 -6.5706353 -2.2313814 7 3
-16.876062 -8.8864489 -2.3418415 12 4
-6.048914 -3.1488657 -1.8272625 2 0
-7.1944714 -3.7404189 -1.8720427 7 1
-9.1248245 -4.737946 -1.9985336 16 2
-12.464668 -6.4638329 -2.2238727 7 3
-17.076956 -8.8405161 -2.3610969 11 4
-6.0478525 -3.0961745 -1.8205333 2 0
-7.2093534 -3.6860378 -1.8693433 7 1
-9.1541815 -4.6723418 -1.9977702 10 2
-12.467253 -6.355125 -2.2163637 7 3
-17.248184 -8.7808094 -2.3764522 9 4
-6.0831256 -3.0608251 -1.8246742 2 0
-7.2174983 -3.626869 -1.8648442 7 1
-9.177803 -4.6039181 -1.9958621 3 2
-12.472461 -6.2484665 -2.2094805 7 3
-17.539854 -8.77565 -2.4081383 13 4
-6.10781 -3.0199933 -1.8257096 2 0
-7.2356548 -3.5729403 -1.8630446 8 1
-9.1780233 -4.5241108 -1.9889932 3 2
-12.489194 -6.1481562 -2.2047877 8 3
-17.686199 -8.6950264 -2.419838 9 4
-6.1356945 -2.9806571 -1.8277801 2 0
-7.2428875 -3.5138342 -1.8585455 7 1
-9.180336 -4.4478369 -1.9828871 3 2
-12.4863 -6.0414929 -2.1969659 7 3
-17.893049 -8.6421328 -2.4398243 10 4
-6.131434 -2.9271717 -1.8205333 1 0
-7.2771921 -3.4694841 -1.8612449 8 1
-9.1757097 -4.3667622 -1.9752548 3 2
-12.497843 -5.9397569 -2.1916471 8 3
-18.168457 -8.6231298 -2.469317 12 4
-6.1552176 -2.8859363 -1.8215685 2 0
-7.2835879 -3.4103315 -1.8567461 8 1
-9.1518669 -4.2792592 -1.9638064 3 2
-12.486077 -5.8303151 -2.1825738 7 3
-18.417131 -8.5841389 -2.4949093 10 4
-18.763903 -8.7338104 -1.8107476 37 5
-6.1677003 -2.8407395 -1.8194979 2 0
-7.2853875 -3.3509028 -1.8513472 7 1
-9.2064981 -4.2267308 -1.969149 3 2
-12.492359 -5.7273622 -2.1766293 8 3
-18.511236 -8.4751062 -2.4997842 10 4
-6.1587319 -2.7859521 -1.8112158 2 0
-7.2831635 -3.2900054 -1.8450485 7 1
-9.1849422 -4.1413736 -1.9584637 3 2
-12.49683 -5.62679 -2.1706848 7 3
-18.59565 -8.3611221 -2.5034404 12 4
-6.2058005 -2.7565136 -1.8194979 2 0
-7.301826 -3.2387741 -1.8441486 7 1
-9.1482906 -4.0501451 -1.9447254 3 2
-12.500513 -5.5264206 -2.1647403 8 3
-18.778883 -8.2863874 -2.5202582 14 4
-6.1934867 -2.6981487 -1.8101805 2 0
-7.3248148 -3.1864419 -1.8441486 7 1
-9.1230154 -3.9611213 -1.9332769 3 2
-12.512554 -5.4250407 -2.1600473 6 3
-18.850449 -8.1573191 -2.5219643 13 4
-6.2055297 -2.6507249 -1.80811 2 0
-7.3079944 -3.117125 -1.8342509 3 1
-9.1113863 -3.8788188 -1.9248812 3 2
-12.503788 -5.3152709 -2.1519127 6 3
-18.875877 -8.0123348 -2.5178208 11 4
-6.2417016 -2.6148036 -1.8132863 2 0
-7.3493543 -3.0743003 -1.8391999 2 1
-9.1248951 -3.8114128 -1.9222099 4 2
-12.515978 -5.2201519 -2.1478455 8 3
-18.825058 -7.8361197 -2.503684 10 4
-6.2343397 -2.561975 -1.8060393 2 0
-7.3520803 -3.0168073 -1.8347007 2 1
-9.1331139 -3.7401783 -1.9183939 4 2
-12.495433 -5.1094723 -2.1381464 7 3
-18.673962 -7.6245079 -2.476629 6 4
-6.2556577 -2.5198324 -1.8070747 2 0
-7.3584986 -2.9595892 -1.8311015 2 1
-9.1237459 -3.6640234 -1.9111431 3 2
-12.493254 -5.0095968 -2.1318891 7 3
-18.170153 -7.2712178 -2.4030199 5 4
-6.2906322 -2.4842906 -1.812251 1 0
-7.3675952 -2.9051454 -1.8284022 2 1
-9.1509285 -3.6009593 -1.9115247 4 2
-12.373486 -4.8615761 -2.1056082 4 3
-18.136063 -7.1147494 -2.3920517 8 4
-6.2717881 -2.4263723 -1.8018982 2 0
-7.3804269 -2.8508308 -1.8266027 2 1
-9.1428709 -3.524276 -1.9046555 4 2
-12.294665 -4.7317967 -2.0865231 4 3
-18.122292 -6.9637542 -2.3837645 9 4
-6.2885747 -2.3825278 -1.8018982 2 0
-7.3819218 -2.7923415 -1.8221035 3 1
-9.1360283 -3.4485745 -1.8981681 4 2
-12.249764 -4.6165895 -2.0733826 4 3
-18.170464 -6.8370709 -2.3837645 8 4
-6.3267894 -2.3466306 -1.80811 2 0
-7.3939257 -2.7380323 -1.8203038 3 1
-9.1298256 -3.3754165 -1.8920621 4 2
-12.219749 -4.5105305 -2.0630579 4 3
-18.187948 -6.6990733 -2.3798649 8 4
-6.2990365 -2.2876837 -1.7956866 2 0
-7.4050641 -2.6849833 -1.8185043 2 1
-9.1568613 -3.3129294 -1.8928252 4 2
-12.16548 -4.3942385 -2.048666 6 3
-18.192043 -6.5603013 -2.3745024 9 4
-6.3130336 -2.2430058 -1.795169 2 0
-7.4162817 -2.6306129 -1.8167046 1 1
-9.1501541 -3.2384439 -1.8867195 6 2
-12.156746 -4.2953835 -2.0420959 14 3
-18.106356 -6.3869171 -2.3574409 8 4
-6.3194146 -2.1957076 -1.7925807 3 0
-7.4565592 -2.5864387 -1.8221035 2 1
-9.1539879 -3.1680617 -1.8829032 4 2
-12.136026 -4.1929884 -2.0336483 4 3
-18.000378 -6.2085695 -2.3379416 9 4
-23.651163 -8.1391363 -2.1883063 28 5
-6.3528814 -2.1577506 -1.7977571 3 0
-7.4375234 -2.5218058 -1.8131055 1 1
-9.1684427 -3.1015632 -1.8813769 4 2
-12.090141 -4.0828824 -2.0211337 4 3
-17.926655 -6.0434389 -2.32283 9 4
-6.3457894 -2.1060431 -1.7915455 3 0
-7.4808459 -2.4783988 -1.8194041 1 1
-9.1712294 -3.0313208 -1.8775605 4 2
-12.073327 -3.983526 -2.0136247 3 3
-17.889217 -5.8920622 -2.312593 9 4
-6.3566608 -2.0604997 -1.7905102 3 0
-7.4831328 -2.4213147 -1.815805 1 1
-9.1566715 -2.9557586 -1.8703098 4 2
-12.067001 -3.8882334 -2.007993 3 3
-17.827869 -5.734201 -2.2994308 8 4
-6.3598399 -2.0125744 -1.7874043 4 0
-7.4775553 -2.3619699 -1.8104061 2 1
-9.1152906 -2.872292 -1.8577164 3 2
-12.048627 -3.7896736 -2.0004842 2 3
-17.852316 -5.6048474 -2.2974811 9 4
-6.3589687 -1.9635658 -1.7832633 4 0
-7.490139 -2.3085611 -1.8095063 2 1
-9.1726513 -2.8201244 -1.8653487 3 2
-12.003029 -3.683444 -1.9885952 3 3
-17.79611 -5.4510045 -2.2852941 9 4
-6.3688221 -1.9180113 -1.782228 4 0
-7.4986067 -2.2539718 -1.8077066 2 1
-9.1808338 -2.7526355 -1.8630592 3 2
-11.979248 -3.5848329 -1.9804606 3 3
-17.814709 -5.3209548 -2.2828567 9 4
-6.3523989 -1.8647954 -1.7739457 4 0
-7.5104198 -2.2004709 -1.8068069 1 1
-9.1885204 -2.6851723 -1.8607695 3 2
-11.950884 -3.4856305 -1.9717003 3 3
-17.828548 -5.1898012 -2.2799318 9 4
-6.3801217 -1.8246514 -1.7780869 4 0
-7.4993649 -2.1404967 -1.8005083 3 1
-9.1503954 -2.6048312 -1.8493209 3 2
-11.891319 -3.3783569 -1.957934 2 3
-17.822332 -5.0532913 -2.2745697 9 4
-6.3740945 -1.7748833 -1.7729106 4 0
-7.5028596 -2.0849586 -1.7978089 4 1
-9.1981831 -2.5508826 -1.8554269 3 2
-11.887386 -3.289963 -1.9535539 2 3
-17.822729 -4.9192414 -2.2701821 9 4
-6.3748412 -1.7284217 -1.7698047 4 0
-7.5225205 -2.0353665 -1.7991585 6 1
-9.1892309 -2.4794447 -1.8500841 3 2
-11.837582 -3.1873765 -1.9416648 2 3
-17.817463 -4.7875099 -2.2653077 9 4
-6.3830156 -1.6828911 -1.7687694 9 0
-7.5290079 -1.9808184 -1.7973589 7 1
-9.209692 -2.4178374 -1.8508474 3 2
-11.824606 -3.0977185 -1.9360331 2 3
-17.838924 -4.6599936 -2.263845 9 4
-6.3830948 -1.6365258 -1.7656636 13 0
-7.5272131 -1.9256601 -1.7937597 6 1
-9.2263479 -2.3534803 -1.8508474 3 2
-11.83063 -3.0111909 -1.9335302 3 3
-17.922182 -4.5516529 -2.270426 11 4
-6.3924894 -1.5914582 -1.7651459 10 0
-7.5366907 -1.8721237 -1.7928599 7 1
-9.2044401 -2.2795739 -1.8432151 3 2
-11.81301 -2.9190497 -1.9272728 3 3
-17.267374 -4.257257 -2.183655 2 4
-6.4090781 -1.5481508 -1.7666988 4 0
-7.5306315 -1.8148963 -1.7883608 6 1
-9.220129 -2.2152615 -1.8432151 3 2
-11.798522 -2.8282225 -1.9216411 2 3
-17.175043 -4.1075153 -2.1682997 3 4
-6.3971586 -1.498085 -1.7604873 4 0
-7.5469136 -1.7631669 -1.7892607 7 1
-9.219698 -2.1488853 -1.8401619 3 2
-11.798262 -2.7433703 -1.9185126 2 3
-17.042791 -3.9503074 -2.1480694 5 4
-30.982674 -7.1472206 -1.6663771 9 6
-6.4034395 -1.4536507 -1.759452 3 0
-7.535933 -1.7065908 -1.7838619 7 1
-9.238306 -2.0853322 -1.8409253 3 2
-11.76702 -2.6496563 -1.910378 3 3
-16.956947 -3.8089788 -2.1339324 5 4
-6.4398475 -1.414714 -1.7666988 3 0
-7.5514708 -1.6547728 -1.7847617 7 1
-9.2446136 -2.0207233 -1.8393987 3 2
-11.796363 -2.5720239 -1.9122552 3 3
-16.864798 -3.6647911 -2.1190643 21 4
-6.4306703 -1.3657092 -1.7615224 4 0
-7.5437746 -1.5979767 -1.7802627 7 1
-9.2357864 -1.9496528 -1.8348193 3 2
-11.787404 -2.4818475 -1.9078751 3 3
-16.788952 -3.5257487 -2.1063898 3 4
-6.4551878 -1.3238848 -1.7656636 3 0
-7.5471101 -1.5437083 -1.778463 7 1
-9.2257595 -1.8820324 -1.8302399 3 2
-11.773053 -2.3952541 -1.9028691 3 3
-16.717827 -3.389128 -2.0944467 2 4
-6.4640493 -1.2799165 -1.7656636 4 0
-7.5345006 -1.4877726 -1.7730643 15 1
-9.2174845 -1.8134122 -1.8260422 4 2
-11.762349 -2.307683 -1.8984889 2 3
-16.637255 -3.2550571 -2.0815284 2 4
-6.4500551 -1.2304138 -1.759452 4 0
-7.5217304 -1.4307657 -1.7676654 15 1
-9.2453508 -1.7519442 -1.8290951 4 2
-11.778174 -2.2255073 -1.8984889 2 3
-16.558136 -3.1197116 -2.0688543 1 4
-6.4432874 -1.1825657 -1.7553109 4 0
-7.5679574 -1.384886 -1.7762135 5 1
-9.2419052 -1.6845382 -1.8260422 4 2
-11.777876 -2.1404033 -1.895986 2 3
-16.466221 -2.983515 -2.0547173 3 4
-49.555138 -8.9163723 -2.6387792 0 6
-6.4780211 -1.1422508 -1.7625577 3 0
-7.5582485 -1.3286422 -1.7717146 5 1
-9.2260838 -1.6168469 -1.8206996 4 2
-11.772712 -2.0567842 -1.8928572 2 3
-16.424065 -2.8576019 -2.0469177 3 4
-49.484787 -8.5563936 -2.6318707 0 6
-6.4589801 -1.0936146 -1.7553109 3 0
-7.5805674 -1.279436 -1.7748638 6 1
-9.210042 -1.5478443 -1.815357 4 2
-11.775095 -1.9725897 -1.89098 2 3
-16.306076 -2.7228534 -2.029856 3 4
-37.961407 -6.2912774 -2.0166092 3 6
-6.4893403 -1.0522077 -1.7615224 3 0
-7.593163 -1.2271043 -1.7757636 7 1
-9.2167463 -1.4828844 -1.8145936 4 2
-11.780777 -1.8890849 -1.8897287 2 3
-16.287443 -2.6029968 -2.0252249 5 4
-29.16045 -4.6394377 -2.5832961 27 5
-49.386387 -7.8308816 -2.6205664 0 6
-6.5003462 -1.0074681 -1.7625577 3 0
-7.5784335 -1.1704946 -1.7703648 6 1
-9.2113504 -1.4161168 -1.8115407 4 2
-11.758532 -1.801409 -1.884097 2 3
-16.238499 -2.4790399 -2.0169377 5 4
-49.277924 -7.4613786 -2.6119831 0 6
-6.5033989 -0.96149904 -1.7615224 3 0
-7.5806365 -1.1167084 -1.7690151 4 1
-9.2520924 -1.3563311 -1.8176465 4 2
-11.782549 -1.7209882 -1.8859742 2 3
-16.167013 -2.3527491 -2.0059695 3 4
-49.313 -7.1149025 -2.6111457 0 6
-6.5329089 -0.91930372 -1.7677342 3 0
-7.5998268 -1.0653816 -1.7717146 5 1
-9.1738358 -1.2795047 -1.8004738 12 2
-11.755144 -1.6332543 -1.8797168 2 3
-16.090624 -2.2270374 -1.9945139 5 4
-6.5334229 -0.87290537 -1.7661812 2 0
-7.5916262 -1.0102425 -1.7681153 5 1
-9.1747608 -1.2143977 -1.7989473 10 2
-11.746675 -1.5485662 -1.876588 1 3
-16.050671 -2.1074138 -1.9876893 5 4
-42.820126 -5.5689621 -2.2630069 0 6
-6.5316916 -0.82630402 -1.7641107 2 0
-7.5868926 -0.95575869 -1.7654159 4 1
-9.2102861 -1.1537324 -1.8042899 3 2
-11.768961 -1.4679884 -1.8784653 2 3
-16.007864 -1.9882121 -1.9806207 3 4
-6.5142822 -0.7779336 -1.757899 2 0
-7.6049914 -0.90414751 -1.7681153 4 1
-9.2259159 -1.0903282 -1.8058165 3 2
-11.755381 -1.3830199 -1.8747108 2 3
-15.942489 -1.8671709 -1.9708712 2 4
-6.4945974 -0.72963417 -1.7511697 2 0
-7.6014342 -0.84995162 -1.7658658 3 1
-9.2254972 -1.0250232 -1.8042899 3 2
-11.752969 -1.2996156 -1.8728336 2 3
-15.911724 -1.7510487 -1.9655088 2 4
-6.5398788 -0.68852472 -1.76204 2 0
-7.6091208 -0.79706776 -1.7663157 4 1
-9.2205448 -0.96098226 -1.8020002 3 2
-11.769403 -1.2204005 -1.8740851 2 3
-15.959107 -1.6435858 -1.9698963 2 4
-6.5232658 -0.6419121 -1.7563461 2 0
-7.6104918 -0.74487412 -1.7654159 4 1
-9.2153044 -0.89545029 -1.7997105 3 2
-11.748143 -1.1353573 -1.8693922 4 3
-15.934355 -1.5314986 -1.9655088 1 4
-6.5102735 -0.59477359 -1.7516873 2 0
-7.6174469 -0.69190097 -1.7658658 3 1
-9.2252417 -0.8314482 -1.8004738 3 2
-11.732172 -1.0511994 -1.8656377 4 3
-15.901159 -1.416344 -1.9601468 1 4
-6.5412178 -0.55158144 -1.7589344 2 0
-7.6143236 -0.63805521 -1.7640662 3 1
-9.2308216 -0.76702142 -1.8004738 3 2
-11.654572 -0.96227551 -1.8521842 7 3
-15.938358 -1.3075708 -1.9635592 2 4
-6.5352783 -0.50515729 -1.7563461 3 0
-7.6302509 -0.58577663 -1.7667656 3 1
-9.2279987 -0.70357651 -1.7989473 3 2
-11.660851 -0.88292563 -1.8521842 12 3
-15.856039 -1.1894412 -1.952347 1 4
-6.5366387 -0.46052548 -1.7558285 2 0
-7.6301732 -0.53355366 -1.7658658 3 1
-9.2366028 -0.63940698 -1.7997105 3 2
-11.704176 -0.80406845 -1.8581288 5 3
-15.850094 -1.0777696 -1.9506408 2 4
-50.24044 -3.3633859 -2.6388838 0 6
-6.5339828 -0.41337425 -1.7542756 3 0
-7.6299057 -0.47869569 -1.7649659 3 1
-9.2408419 -0.57490772 -1.7997105 3 2
-11.707659 -0.72017342 -1.8578159 9 3
-15.815621 -0.96455503 -1.9455223 2 4
-6.5289936 -0.36731431 -1.752205 3 0
-7.6272244 -0.42509371 -1.7636162 3 1
-9.2290363 -0.5079062 -1.7966576 3 2
-11.704512 -0.63799375 -1.8565645 3 3
-15.824101 -0.85146308 -1.9457661 2 4
-6.5584683 -0.32191041 -1.759452 3 0
-7.6222854 -0.37012562 -1.7618166 3 1
-9.2598104 -0.44478169 -1.8020002 3 2
-11.712723 -0.55440867 -1.8571903 3 3
-15.807849 -0.73995203 -1.9430851 2 4
-6.5527387 -0.27807966 -1.7573814 3 0
-7.6148372 -0.31915814 -1.7595671 3 1
-9.2704706 -0.38206512 -1.8035268 3 2
-11.692457 -0.47575074 -1.8534358 3 3
-15.766787 -0.63326138 -1.937479 2 4
-50.043343 -1.9487226 -2.6246483 0 6
-6.562243 -0.23259829 -1.759452 3 0
-7.6129847 -0.26585093 -1.7586673 3 1
-9.2807045 -0.319224 -1.8050531 3 2
-11.667786 -0.3952153 -1.8490556 3 3
-15.745031 -0.52231741 -1.9343103 3 4
-6.544364 -0.18737373 -1.7542756 3 0
-7.6243582 -0.21430032 -1.7609169 3 1
-9.2787819 -0.25431931 -1.8042899 3 2
-11.666311 -0.31364581 -1.8484299 2 3
-15.625191 -0.41189259 -1.9191986 12 4
-6.5204039 -0.14113741 -1.7475463 2 0
-7.5964437 -0.16044974 -1.7541683 3 1
-9.2802982 -0.19115463 -1.8042899 3 2
-11.660275 -0.23406972 -1.8471783 2 3
-15.661425 -0.30344814 -1.9233421 4 4
-6.5540514 -0.097239822 -1.7563461 3 0
-7.6032057 -0.10882407 -1.7555181 3 1
-9.2499981 -0.12593368 -1.7981842 3 2
-11.665576 -0.15271166 -1.8478041 2 3
-15.6929 -0.19721489 -1.9269981 3 4
-6.5255942 -0.051252399 -1.7485816 2 0
-7.5998826 -0.055710644 -1.7546182 3 1
-9.2388611 -0.062887713 -1.7958944 3 2
-11.662395 -0.073278069 -1.8471783 2 3
-15.666103 -0.087497763 -1.9235859 3 4
-6.5122685 -0.0068186531 -1.744958 3 0
-7.6059318 -0.0039815521 -1.7559679 3 1
-9.2155161 0.0016069225 -1.791315 3 2
-11.670524 0.00814531 -1.8484299 2 3
-15.666336 0.019136529 -1.9235859 3 4
-6.5469308 0.038850512 -1.7542756 3 0
-7.6018767 0.049090978 -1.7550682 3 1
-9.2152796 0.065943316 -1.791315 3 2
-11.634626 0.089350455 -1.8427982 2 3
-15.663837 0.12849517 -1.9233421 2 4
-6.5233192 0.084254801 -1.7480639 3 0
-7.6013489 0.10215908 -1.7550682 3 1
-9.2577829 0.13088708 -1.7997105 3 2
-11.653471 0.1708601 -1.8459269 2 3
-15.64271 0.23754109 -1.9209048 2 4
-6.5187087 0.12971878 -1.7470287 3 0
-7.6160369 0.15554415 -1.7586673 3 1
-9.2252388 0.19484986 -1.7936047 3 2
-11.612495 0.25135475 -1.8396695 2 3
-15.606932 0.34599033 -1.9167612 2 4
-6.5273004 0.17548282 -1.7496167 2 0
-7.5874939 0.20796102 -1.7523687 3 1
-9.2001028 0.25858968 -1.7890252 3 2
-11.642052 0.33332649 -1.8446754 2 3
-15.596199 0.45471114 -1.9157863 2 4
-6.5104704 0.2205245 -1.7454758 2 0
-7.5683289 0.26032373 -1.7483196 4 1
-9.2098455 0.32322317 -1.791315 3 2
-11.659182 0.41529557 -1.8478041 2 3
-15.584709 0.56329155 -1.9148113 2 4
-6.5184231 0.26636517 -1.7480639 3 0
-7.5896916 0.31412131 -1.7537185 5 1
-9.1799049 0.38635421 -1.7859724 3 2
-11.628367 0.49550727 -1.843424 2 3
-15.566514 0.67148441 -1.9131051 2 4
-6.4932499 0.31075612 -1.7418523 3 0
-7.5736885 0.36643866 -1.7505691 3 1
-9.1927481 0.44960043 -1.7890252 3 2
-11.597104 0.57327956 -1.8390437 2 3
-15.545587 0.77934396 -1.9111552 2 4
-6.4948416 0.35515809 -1.7428875 3 0
-7.5729647 0.41809016 -1.751019 5 1
-9.1972265 0.51420534 -1.7905518 3 2
-11.596764 0.65445125 -1.8396695 2 3
-15.553794 0.88593179 -1.9128615 2 4
-6.5191984 0.40215722 -1.7501343 3 0
-7.5659709 0.47070721 -1.7501192 5 1
-9.1935139 0.57679486 -1.7905518 3 2
-11.59204 0.73337013 -1.8396695 2 3
-15.52742 0.99322522 -1.910424 2 4
-6.497036 0.44520211 -1.744958 3 0
-7.5625916 0.52219635 -1.7501192 4 1
-9.1461763 0.63795829 -1.7821561 3 2
-11.543286 0.81123334 -1.8327864 3 3
-15.492578 1.0969352 -1.9070116 2 4
-6.5053282 0.49142069 -1.7480639 3 0
-7.5432177 0.57379621 -1.74652 4 1
-9.1610746 0.70329791 -1.7859724 3 2
-11.521586 0.89058304 -1.8302835 3 3
-15.498396 1.2061415 -1.9087178 2 4
-6.461308 0.53348774 -1.7371935 2 0
-7.5448537 0.6269297 -1.7478697 3 1
-9.1637669 0.76789069 -1.7874987 3 2
-11.483594 0.96833873 -1.8252774 3 3
-15.53707 1.3183357 -1.9145676 2 4
-6.4997578 0.58237451 -1.7485816 2 0
-7.5558195 0.68098503 -1.7514689 3 1
-9.1073465 0.82723176 -1.7775766 3 2
-11.496226 1.0502857 -1.8284062 3 3
-15.517603 1.4258682 -1.9133489 2 4
-6.4859185 0.62680644 -1.7459934 2 0
-7.5508814 0.73371798 -1.7514689 3 1
-9.1521521 0.89576298 -1.7874987 3 2
-11.52793 1.134385 -1.8346636 3 3
-15.467495 1.5329537 -1.9084741 2 4
-6.4889531 0.67400092 -1.7480639 2 0
-7.5454378 0.78773028 -1.7514689 3 1
-9.1144352 0.95635504 -1.7813929 3 2
-11.472371 1.2118677 -1.8271548 2 3
-15.446546 1.639852 -1.9072554 2 4
-6.4917698 0.72013938 -1.7501343 2 0
-7.5320072 0.83952647 -1.7496693 3 1
-9.1151628 1.0224274 -1.7829194 3 2
-11.491112 1.2950248 -1.8315349 2 3
-15.454141 1.7525798 -1.9096928 2 4
-6.4711022 0.76475966 -1.7459934 1 0
-7.5548353 0.89684689 -1.7564179 3 1
-9.1389933 1.0897597 -1.7890252 3 2
-11.477629 1.3767524 -1.8309091 2 3
-15.457294 1.862327 -1.9116427 2 4
-6.4428844 0.80478758 -1.7397816 2 0
-7.5371189 0.94547766 -1.7537185 3 1
-9.1313629 1.1519417 -1.7890252 3 2
-11.476085 1.453838 -1.8321607 2 3
-15.468235 1.9678093 -1.9145676 2 4
-6.433279 0.84924066 -1.7387464 2 0
-7.5264711 0.99756145 -1.7528186 2 1
-9.0958548 1.2120301 -1.7836826 3 2
-11.457824 1.5328702 -1.8309091 2 3
-15.410837 2.0699325 -1.9092052 2 4
-6.4463277 0.89679456 -1.7439228 2 0
-7.5154634 1.0495428 -1.7519189 3 1
-9.0949488 1.2765909 -1.7852092 3 2
-11.454668 1.6139233 -1.8321607 2 3
-15.405837 2.1788599 -1.910424 2 4
-6.4399099 0.94177657 -1.7439228 2 0
-7.5079532 1.1019833 -1.7519189 3 1
-9.0938177 1.3396133 -1.7867355 3 2
-11.462957 1.6947446 -1.8352894 3 3
-15.409886 2.2892771 -1.9128615 2 4
-6.4333506 0.98558837 -1.7439228 2 0
-7.5041308 1.1536551 -1.7528186 3 1
-9.0958843 1.4048654 -1.7890252 3 2
-11.419614 1.7698891 -1.8302835 2 3
-15.421409 2.3983831 -1.9162737 2 4
-6.4110522 1.0280322 -1.7397816 2 0
-7.4766536 1.2029201 -1.7483196 2 1
-9.0858555 1.4683325 -1.7890252 3 2
-11.403078 1.8489374 -1.8296577 2 3
-15.416045 2.5078988 -1.9177362 2 4
-6.418962 1.0753167 -1.7439228 2 0
-7.5141969 1.2628373 -1.7591172 2 1
-9.0637684 1.5297676 -1.7867355 3 2
-11.405476 1.9311392 -1.8321607 2 3
-15.347278 2.6068192 -1.911399 2 4
-6.4189105 1.1214331 -1.7459934 2 0
-7.4629688 1.3078669 -1.7492194 3 1
-9.0647459 1.5934668 -1.7890252 3 2
-11.392066 2.0087292 -1.8321607 2 3
-15.39712 2.7260087 -1.9199297 2 4
-6.4092278 1.1647539 -1.7454758 2 0
-7.4673133 1.3610798 -1.7523687 3 1
-9.0379524 1.6538826 -1.7859724 3 2
-11.389422 2.0903487 -1.8340379 2 3
-15.401634 2.835063 -1.9228547 2 4
-6.4028382 1.2098291 -1.7459934 2 0
-7.4633737 1.4142668 -1.7537185 3 1
-9.0184717 1.7154694 -1.7844458 3 2
-100.01049 19.041838 8.9069681 48 10
-11.386194 2.1720345 -1.8359152 2 3
-15.389266 2.9440134 -1.9238297 2 4
-44.545326 8.5780697 -2.3774135 0 6
-6.4094019 1.2574736 -1.7501343 2 0
-7.4303732 1.4618205 -1.7483196 2 1
-9.0679092 1.790561 -1.7966576 3 2
-11.366878 2.2507021 -1.8352894 2 3
-15.374179 3.0525351 -1.9245608 3 4
-44.092648 8.810585 -2.3564789 0 6
-6.3777504 1.2975674 -1.7439228 1 0
-7.4199867 1.5136588 -1.7483196 3 1
-9.0013342 1.8427958 -1.7859724 3 2
-11.350888 2.3300004 -1.8352894 3 3
-15.364161 3.16219 -1.9260232 3 4
-42.30117 8.760149 -2.2639492 0 6
-6.3647556 1.3412641 -1.7428875 2 0
-7.4283051 1.5694515 -1.7528186 3 1
-8.980567 1.9039654 -1.7844458 3 2
-11.315022 2.4050834 -1.8321607 3 3
-15.260166 3.2520015 -1.9157863 19 4
-6.3590121 1.3864889 -1.7439228 2 0
-7.44382 1.6270986 -1.7591172 2 1
-9.0130806 1.976707 -1.7936047 3 2
-11.321108 2.4891059 -1.8359152 3 3
-15.279741 3.3678551 -1.9211485 3 4
-6.3491774 1.4308479 -1.7439228 2 0
-7.4018664 1.6721559 -1.7519189 2 1
-8.9760847 2.0343721 -1.7890252 3 2
-11.276485 2.5619545 -1.8315349 4 3
-15.279082 3.4797354 -1.9240733 3 4
-6.3352704 1.474263 -1.7428875 2 0
-7.3976035 1.7255589 -1.7537185 2 1
-8.9352655 2.0891659 -1.7836826 3 2
-11.25494 2.6377504 -1.8309091 4 3
-15.275672 3.591316 -1.9267545 4 4
-6.3363605 1.520054 -1.7459934 1 0
-7.3705287 1.7722281 -1.7501192 3 1
-8.9319143 2.1542568 -1.7859724 3 2
-11.240091 2.717186 -1.8315349 22 3
-15.258591 3.6970773 -1.9277295 4 4
-36.375008 8.8605442 -1.9620752 3 6
-53.719742 13.115327 -0.96522284 61 7
-6.2955875 1.5568345 -1.7377111 1 0
-7.3617597 1.8245785 -1.751019 4 1
-8.8937931 2.2108772 -1.7813929 3 2
-11.230433 2.7979782 -1.8330992 9 3
-15.263225 3.8112066 -1.9316292 4 4
-45.078007 11.297715 9.0332804 1 13
-35.002735 8.7855864 -1.8913169 4 6
-6.3145189 1.6083759 -1.7459934 2 0
-7.3658366 1.8802651 -1.7550682 6 1
-8.9085732 2.2807043 -1.7874987 3 2
-44.800419 11.477791 4.0461183 1 10
-11.231672 2.8817134 -1.8365408 4 3
-44.814842 11.514819 5.6813059 1 11
-15.332374 3.9423888 -1.9438162 4 4
-44.625835 11.491189 7.2986073 1 12
-34.30629 8.8658161 -1.8569846 5 6
-6.3068738 1.6534017 -1.7470287 2 0
-7.3468757 1.9301586 -1.7537185 5 1
-8.8620586 2.3348374 -1.7813929 3 2
-11.213191 2.9605565 -1.8368537 4 3
-15.431135 4.0828409 -1.959903 6 4
-33.332504 8.8628616 -1.8075794 6 6
-6.3063688 1.7004079 -1.7501343 2 0
-7.3294597 1.9803842 -1.7528186 5 1
-8.8663864 2.402297 -1.7855908 22 2
-11.203687 3.0418758 -1.8387309 4 3
-15.339045 4.1732769 -1.9518596 7 4
-32.248741 8.816206 -1.7521032 7 6
-6.2868981 1.7423279 -1.7480639 2 0
-33.195869 9.2060289 0.60130525 24 8
-7.3154554 2.0315034 -1.7528186 5 1
-8.8441544 2.4610162 -1.7844458 10 2
-11.186527 3.1191275 -1.8393567 4 3
-15.256007 4.2652926 -1.9450349 6 4
-31.561108 8.8595333 -1.7179801 8 6
-6.3009067 1.7924815 -1.7553109 3 0
-7.3295693 2.0892642 -1.7595671 6 1
-8.8361969 2.5253956 -1.7863539 4 2
-11.194865 3.2058468 -1.8443626 4 3
-15.203723 4.3624682 -1.9421101 7 4
-31.018703 8.9413633 -1.6918123 9 6
-6.2734036 1.8320941 -1.7511697 3 0
-7.3222861 2.1425724 -1.7613667 7 1
-8.811265 2.5832736 -1.7848274 4 2
-11.184156 3.2853141 -1.8462398 5 3
-15.092921 4.4449468 -1.9318731 7 4
-30.382536 8.9824123 -1.6604108 10 6
-6.2564316 1.8758289 -1.7501343 3 0
-8.8259315 2.6579823 -1.7916965 4 2
-11.205161 3.3809013 -1.8537486 8 3
-15.018923 4.5401978 -1.9265107 7 4
-29.601118 8.9878635 -1.6212634 10 6
-6.2468772 1.9205967 -1.7511697 4 0
-7.2800908 2.24243 -1.7586673 41 1
-8.8263941 2.7237861 -1.7955128 4 2
-11.130933 3.4413407 -1.8453012 7 3
-14.914806 4.622611 -1.9172486 7 4
-6.2226038 1.9595903 -1.7480639 4 0
