# .PCD v0.7 - Point Cloud Data file format
VERSION 0.7
FIELDS x y z intensity ring
SIZE 4 4 4 4 2
TYPE F F F F U
COUNT 1 1 1 1 1
WIDTH 1315
HEIGHT 1
VIEWPOINT 0 0 0 1 0 0 0
POINTS 1315
DATA ascii
10.681554 -6.7109213 -1.9979812 3 3
15.102786 -9.5033703 -2.1909673 6 4
5.5736961 -3.5440018 -1.7698047 3 0
6.5131965 -4.1461678 -1.7825122 5 1
36.217815 -23.073296 2.250551 2 9
8.0396318 -5.1237831 -1.8531371 3 2
10.694866 -6.82651 -2.0095575 4 3
15.052798 -9.6192636 -2.1934047 6 4
17.153967 -10.98308 3.9592869 8 13
5.5559363 -3.5860488 -1.7718753 3 0
6.4979177 -4.1988668 -1.7861114 5 1
36.204159 -23.41256 2.259553 1 9
8.0893726 -5.2352524 -1.8729813 3 2
10.706177 -6.9367433 -2.0205078 3 3
14.998633 -9.729063 -2.1951108 8 4
5.530766 -3.6247485 -1.7718753 3 0
6.4700747 -4.2451968 -1.7865613 3 1
36.144138 -23.724201 2.2658331 1 9
10.747837 -7.0680676 -2.0374026 4 3
14.932003 -9.8346281 -2.1953545 6 4
5.5252671 -3.6751504 -1.7780869 3 0
6.4507613 -4.2956195 -1.7892607 3 1
36.123886 -24.073425 2.2750442 1 9
8.0066214 -5.3397527 -1.8706915 3 2
10.803373 -7.2131295 -2.0574262 3 3
14.897723 -9.9581013 -2.2002294 6 4
5.4770613 -3.6984987 -1.77084 3 0
6.4125433 -4.3350921 -1.7870111 3 1
36.097214 -24.421276 2.2840459 1 9
7.9951582 -5.4131289 -1.8767973 3 2
10.863944 -7.3637424 -2.0787015 6 3
14.839338 -10.069666 -2.2019355 8 4
39.880695 -27.133429 -2.5279317 0 6
5.4574819 -3.7410142 -1.7729106 3 0
6.4014039 -4.3929858 -1.79241 3 1
36.060844 -24.765404 2.2926292 1 9
7.9701171 -5.4777098 -1.8798503 3 2
10.839936 -7.4584408 -2.0840201 5 3
14.776852 -10.178648 -2.2031541 6 4
39.861214 -27.529226 -2.5388174 0 6
5.4375749 -3.7834363 -1.774981 3 0
6.3801732 -4.4442525 -1.7951094 2 1
36.025806 -25.103914 2.3012121 1 9
7.9584136 -5.5498013 -1.8859563 3 2
10.808354 -7.5456219 -2.0877745 5 3
14.715193 -10.288386 -2.2046165 6 4
5.421165 -3.8270457 -1.7780869 3 0
6.3720546 -4.5033226 -1.8014081 2 1
35.996426 -25.458607 2.3106327 1 9
7.9354992 -5.6165671 -1.8897724 3 2
10.787648 -7.6437354 -2.094032 5 3
14.667487 -10.404388 -2.2080288 6 4
5.3911743 -3.8625488 -1.7770516 3 0
6.3372936 -4.5454264 -1.8005083 5 1
35.967094 -25.816431 2.3202627 1 9
7.8960948 -5.6718302 -1.8897724 3 2
10.753268 -7.7326999 -2.0977864 5 3
14.591273 -10.504214 -2.2075415 6 4
5.3672028 -3.902364 -1.7780869 3 0
6.3290396 -4.60676 -1.8072568 6 1
35.931282 -26.172733 2.3296831 1 9
7.9134202 -5.7684498 -1.9035107 3 2
10.711787 -7.8168988 -2.1002893 5 3
14.532012 -10.616362 -2.2097349 8 4
5.3522644 -3.9489143 -1.782228 4 0
6.299859 -4.6531482 -1.8081565 7 1
35.895451 -26.532162 2.3393128 1 9
7.9045243 -5.8469052 -1.9111431 3 2
10.66648 -7.8985438 -2.1021667 5 3
14.484653 -10.737652 -2.2138786 6 4
5.3245654 -3.9861836 -1.782228 3 0
6.282815 -4.7087026 -1.8126557 7 1
35.84037 -26.880379 2.3478959 1 9
7.866653 -5.9043036 -1.9119062 3 2
10.648981 -8.0012941 -2.1096754 5 3
14.418855 -10.845672 -2.2153411 6 4
5.3058381 -4.0302696 -1.7853339 4 0
6.2653012 -4.764246 -1.8171545 7 1
35.821892 -27.249466 2.3587818 1 9
7.8450274 -5.9719825 -1.9164857 3 2
10.616267 -8.0903559 -2.1140556 5 3
14.35699 -10.956907 -2.2175348 8 4
39.732391 -30.388699 -2.6215084 1 6
5.2660389 -4.0568604 -1.7811928 3 0
6.2419863 -4.8139219 -1.819854 7 1
35.792057 -27.623352 2.3694582 1 9
7.8668494 -6.0758066 -1.932132 4 2
10.593907 -8.190856 -2.1209388 5 3
14.289927 -11.060454 -2.2187536 6 4
5.2406325 -4.0959044 -1.782228 4 0
6.2235746 -4.8693905 -1.8243531 7 1
35.758739 -27.99814 2.3801348 1 9
7.8366036 -6.1402659 -1.9351848 4 2
10.536467 -8.2646151 -2.1209388 5 3
14.252954 -11.19182 -2.2250907 5 4
5.2149382 -4.1347909 -1.7832633 4 0
6.1955338 -4.9175653 -1.8261526 7 1
35.715672 -28.368841 2.3903928 1 9
7.8457999 -6.2363601 -1.9481598 4 2
10.487787 -8.3453522 -2.1228158 4 3
14.183788 -11.298472 -2.226553 6 4
12.89029 -10.312304 4.4232173 1 15
5.1919665 -4.17594 -1.7853339 3 0
6.1473913 -4.9496994 -1.8221035 4 1
35.683514 -28.741589 2.4012787 1 9
7.8276262 -6.3093338 -1.9542658 10 2
10.469173 -8.4475574 -2.1306376 6 3
14.107655 -11.399713 -2.2270405 5 4
39.485443 -31.974682 -2.6627491 0 6
12.774792 -10.363294 4.4076886 5 15
5.1843805 -4.2282777 -1.7925807 4 0
6.1452575 -5.0173097 -1.8315514 3 1
35.642845 -29.121426 2.4121644 1 9
7.8350644 -6.4060788 -1.9672408 4 2
10.420643 -8.5291977 -2.1328278 5 3
14.052767 -11.514348 -2.2306967 8 4
17.148094 -14.060558 3.5122671 7 12
39.421772 -32.381405 -2.673635 0 6
5.1368732 -4.2495914 -1.7863692 3 0
6.1280913 -5.0750046 -1.8369503 3 1
35.610905 -29.512283 2.4238877 1 9
7.829442 -6.4932055 -1.977163 4 2
10.376043 -8.614357 -2.1359563 5 3
13.984253 -11.622324 -2.2326467 8 4
16.220459 -13.499994 -1.8463073 36 5
5.1189194 -4.2952833 -1.7905102 3 0
6.1119103 -5.1339574 -1.8427991 1 1
35.559948 -29.89126 2.4345641 1 9
7.8094621 -6.5691915 -1.9836504 3 2
10.317163 -8.6878576 -2.1362693 6 3
13.910361 -11.726065 -2.233865 6 4
15.921106 -13.435336 -1.8226008 37 5
5.1108766 -4.3496966 -1.7982749 2 0
6.078886 -5.1790285 -1.8436987 1 1
35.541111 -30.290668 2.4473341 1 9
7.8258095 -6.6744294 -1.9992968 4 2
10.269807 -8.7681437 -2.1387722 6 3
13.819108 -11.815151 -2.2324028 5 4
15.630146 -13.377739 -1.7999403 37 5
5.0767622 -4.3805981 -1.7967219 3 0
6.0582404 -5.2330241 -1.8481979 2 1
35.498016 -30.684336 2.4590576 1 9
7.7968407 -6.7443142 -2.0038762 4 2
10.230742 -8.8590231 -2.1434653 5 3
13.738365 -11.90894 -2.2324028 6 4
5.0809474 -4.4464669 -1.8091452 3 0
6.033287 -5.2854638 -1.8517971 3 1
35.442127 -31.070969 2.4701526 1 9
7.8115516 -6.8529587 -2.0199041 4 2
10.161225 -8.9237127 -2.141901 6 3
13.67278 -12.02029 -2.2353277 6 4
15.432868 -13.586767 -1.7988945 37 5
5.0324435 -4.4664416 -1.8029336 3 0
6.0166354 -5.3455758 -1.8580956 3 1
35.406452 -31.479546 2.4829226 1 9
7.8104544 -6.9490867 -2.0321159 4 2
10.122281 -9.0154543 -2.1469069 6 3
13.594458 -12.120734 -2.2363026 6 4
15.096874 -13.47921 -1.7706561 38 5
4.9982677 -4.4988809 -1.8018982 4 0
5.9950957 -5.4017987 -1.8630446 3 1
35.390518 -31.910536 2.4973674 1 9
7.8390045 -7.0731487 -2.0523417 6 2
10.064959 -9.091197 -2.1481583 6 3
13.503618 -12.210019 -2.2353277 6 4
4.9810061 -4.5466895 -1.8070747 5 0
5.9629922 -5.4487782 -1.8648442 3 1
35.340805 -32.315865 2.5097187 1 9
7.8126078 -7.1489091 -2.0584474 4 2
10.012898 -9.171917 -2.1506615 6 3
13.420974 -12.306678 -2.235815 6 4
4.9533958 -4.5852895 -1.8086276 6 0
5.9405313 -5.5048451 -1.8697932 4 1
35.298862 -32.73291 2.5229073 1 9
7.7855344 -7.2246432 -2.0645535 4 2
9.9688854 -9.2604179 -2.1550415 6 3
13.337639 -12.402777 -2.2363026 6 4
4.945209 -4.6422358 -1.8174274 4 0
5.9161568 -5.5595279 -1.8742923 4 1
35.235359 -33.134521 2.5348399 1 9
7.7377677 -7.2815104 -2.0653167 4 2
9.9183702 -9.3433323 -2.1581702 7 3
13.296943 -12.53917 -2.2441022 6 4
4.904284 -4.6686549 -1.8143215 5 0
5.9054151 -5.6275826 -1.8832903 4 1
35.243198 -33.596848 2.5517969 1 9
7.689446 -7.3353662 -2.0656981 4 2
9.8688307 -9.4242706 -2.161299 7 3
13.250684 -12.671479 -2.2511706 8 4
4.8751726 -4.7046118 -1.8153569 4 0
5.87398 -5.674418 -1.8855397 3 1
35.168621 -33.997543 2.56352 1 9
7.6676807 -7.4175358 -2.0737123 4 2
9.7971201 -9.4874401 -2.1600473 7 3
13.152723 -12.750328 -2.2492208 9 4
4.8573976 -4.7533946 -1.8210509 6 0
5.860672 -5.7411981 -1.8940878 4 1
7.6381335 -7.4928818 -2.0798182 4 2
9.7362852 -9.561142 -2.161299 6 3
13.091702 -12.86967 -2.2540956 9 4
4.8336935 -4.7967148 -1.8246742 3 0
5.8232141 -5.7847209 -1.8949877 4 1
7.6051245 -7.5654078 -2.0851607 4 2
9.6679001 -9.6274862 -2.1609859 5 3
12.914372 -12.873865 -2.2389839 19 4
4.8191528 -4.8495278 -1.8319213 3 0
5.8183832 -5.8611908 -1.9066852 5 1
7.5728054 -7.6365137 -2.0905035 4 2
9.6118746 -9.7028942 -2.1631761 6 3
12.706912 -12.845162 -2.2185097 23 4
4.7643938 -4.8601456 -1.8236392 3 0
5.8097119 -5.9326825 -1.9170328 7 1
7.5302896 -7.7004256 -2.0935564 4 2
9.5521851 -9.7782383 -2.1650534 6 3
12.522135 -12.831908 -2.201448 23 4
4.7518315 -4.9155116 -1.8319213 2 0
5.7762752 -5.9815078 -1.9197323 7 1
7.4817991 -7.758461 -2.0950828 6 2
9.4891691 -9.8503771 -2.1663048 6 3
12.324883 -12.807448 -2.1824365 20 4
16.022362 -16.672979 -2.0230591 32 5
4.7307286 -4.9625487 -1.8370978 2 0
5.7424393 -6.0301552 -1.9224317 7 1
7.4518046 -7.836113 -2.1019521 4 2
9.4256115 -9.9221125 -2.1675563 6 3
12.136786 -12.789503 -2.1648872 21 4
4.703907 -5.0038991 -1.8402034 2 0
5.7268815 -6.0985093 -1.9314297 15 1
7.4237766 -7.9165869 -2.1095843 4 2
9.3804226 -10.013622 -2.1731877 6 3
11.963109 -12.784057 -2.1497755 20 4
16.446018 -17.617691 -1.2630761 21 6
4.6530995 -5.0196157 -1.8339919 2 0
5.6828423 -6.1369123 -1.9309798 25 1
7.3736591 -7.9739866 -2.1111107 4 2
9.3344116 -10.104984 -2.1788194 6 3
11.776641 -12.762223 -2.1322262 13 4
16.184652 -17.582191 -1.2523996 21 6
4.6427073 -5.0790701 -1.843827 2 0
5.6819105 -6.2224855 -1.9453768 6 1
7.3297963 -8.0355959 -2.1141639 4 2
9.2747269 -10.178508 -2.1810095 5 3
11.603091 -12.751631 -2.1168706 11 4
15.93684 -17.532793 -2.072912 31 5
15.950477 -17.566263 -1.2435024 21 6
4.6119084 -5.1148582 -1.8453798 3 0
5.6642036 -6.2885275 -1.9539249 7 1
7.2682667 -8.0807323 -2.1126373 6 2
9.2126846 -10.253294 -2.1831996 6 3
11.461659 -12.769744 -2.1068773 12 4
15.89916 -17.738579 -2.0840681 30 5
15.895399 -17.753077 -1.2488407 21 6
4.5889244 -5.1613684 -1.8505563 3 0
5.6227517 -6.3308315 -1.9548247 7 1
7.2220974 -8.1430283 -2.1156902 4 2
9.1854181 -10.367632 -2.1938372 6 3
11.368285 -12.84499 -2.1061463 10 4
15.872857 -17.978901 -1.2569004 21 6
4.5782499 -5.222332 -1.8609091 3 0
5.5912561 -6.3845911 -1.9593236 7 1
7.1754122 -8.2050714 -2.1187432 4 2
9.1284094 -10.449357 -2.1975915 6 3
11.301828 -12.950964 -2.1105335 10 4
15.754822 -18.098316 -1.2575285 21 6
4.5517864 -5.2658587 -1.8650501 3 0
5.5580106 -6.4367452 -1.9633728 5 1
7.1142683 -8.247776 -2.1172168 6 2
9.0854397 -10.544173 -2.2044747 7 3
11.246098 -13.070179 -2.1171145 16 4
15.593535 -18.16119 -1.254493 21 6
4.5058112 -5.2849593 -1.8609091 4 0
5.5456567 -6.511518 -1.9746205 6 1
7.0743208 -8.3181801 -2.1225593 4 2
9.0218391 -10.619386 -2.2069776 6 3
11.181276 -13.175182 -2.1217456 20 4
15.652195 -18.48912 -1.2695658 10 6
4.4862084 -5.3369894 -1.868156 3 0
5.5476823 -6.6067848 -1.9917165 6 1
7.0261679 -8.3793993 -2.1256123 4 2
8.9614353 -10.69877 -2.2104194 5 3
11.123417 -13.294025 -2.1283264 20 4
15.955774 -19.096434 -2.1771505 28 5
36.698364 -43.968666 -3.0014675 0 6
4.4759598 -5.4009027 -1.879544 3 0
5.5188212 -6.666369 -1.9980152 7 1
6.9750037 -8.4373255 -2.127902 4 2
8.8965883 -10.773256 -2.2129223 5 3
11.103603 -13.460172 -2.1424632 6 4
18.92053 -22.99329 -1.5605537 12 6
4.4332561 -5.4260345 -1.8774734 3 0
5.5633287 -6.8164554 -2.0313082 7 1
6.947185 -8.5211258 -2.1370609 4 2
8.8455057 -10.861134 -2.218554 5 3
12.121573 -14.904959 -2.3589032 4 4
18.65283 -22.985071 -1.5513426 24 6
4.4204617 -5.4861708 -1.8878261 3 0
5.5265775 -6.8663101 -2.0349073 7 1
6.8826084 -8.5632982 -2.1355343 6 2
8.7793589 -10.934943 -2.2210569 5 3
12.050888 -15.025836 -2.3649967 5 4
18.544313 -23.180235 -1.5557388 12 6
4.3772478 -5.5108466 -1.8857557 3 0
5.4809294 -6.9077787 -2.0358069 7 1
6.8534284 -8.6468735 -2.1446934 4 2
8.7071772 -10.997547 -2.2216825 4 3
11.965393 -15.134517 -2.3688965 5 4
18.146118 -23.00172 -1.5354325 23 6
4.3400826 -5.5450706 -1.886791 3 0
5.4313588 -6.9468222 -2.0358069 7 1
6.7874427 -8.6937847 -2.14393 4 2
52.065281 -66.712486 7.4037061 52 10
8.6360455 -11.073539 -2.2241855 5 3
11.898267 -15.272992 -2.3771837 6 4
17.151026 -22.071169 -1.4648836 11 6
4.3130655 -5.5905304 -1.8919673 3 0
5.3803496 -6.9814835 -2.0349073 7 1
6.7361631 -8.7534046 -2.1469829 4 2
51.661442 -67.156464 7.4127698 52 10
8.560936 -11.136692 -2.2248113 5 3
11.810694 -15.380877 -2.3810833 5 4
16.544741 -21.600529 -1.4259456 22 6
4.2715926 -5.6174288 -1.890932 3 0
5.3314786 -7.0188751 -2.0349073 7 1
6.6701427 -8.7939615 -2.1454566 4 2
51.708965 -68.198158 7.4877238 53 10
8.4925222 -11.208783 -2.2273142 5 3
11.719802 -15.485116 -2.3844957 5 4
16.273201 -21.556103 -1.4154785 11 6
4.2693462 -5.6965814 -1.9074965 3 0
5.2940269 -7.0715241 -2.0394061 7 1
6.6312943 -8.8674593 -2.1523256 4 2
8.4231234 -11.275825 -2.2291915 4 3
11.630402 -15.592017 -2.3883955 5 4
15.887599 -21.345934 -1.394544 11 6
4.2235837 -5.7161875 -1.9043906 4 0
5.2527137 -7.1168027 -2.0421057 7 1
6.5668969 -8.9103785 -2.1515625 4 2
8.3488836 -11.340717 -2.2304428 5 3
11.549873 -15.706003 -2.3937578 5 4
16.102024 -21.952351 -1.426783 11 6
4.1835747 -5.7455339 -1.9043906 4 0
5.2097797 -7.162756 -2.044805 7 1
6.5183759 -8.9750671 -2.1561418 4 2
8.2787886 -11.411517 -2.2329459 5 3
11.462075 -15.816793 -2.3983889 4 4
15.928487 -22.036713 -1.4250035 22 6
4.154624 -5.790297 -1.909567 3 0
5.1687293 -7.2116241 -2.0484045 7 1
6.4532743 -9.0171633 -2.1553786 6 2
8.2172995 -11.494748 -2.2379518 5 3
11.365218 -15.915812 -2.4013138 4 4
13.237907 -18.586292 -1.1958767 10 6
4.1252518 -5.8349347 -1.9147433 4 0
5.1250019 -7.2570829 -2.0511036 7 1
16.548693 -23.441889 1.5038215 8 9
6.4053283 -9.0801306 -2.1599579 4 2
8.13204 -11.540726 -2.2360744 4 3
11.260682 -16.004511 -2.4027762 4 4
13.225845 -18.839436 -1.2063439 10 6
4.0986929 -5.8818989 -1.9209551 4 0
5.0866189 -7.3077946 -2.0556028 7 1
6.3372989 -9.1181774 -2.1584315 6 2
8.0670443 -11.619933 -2.2404547 5 3
11.174108 -16.113413 -2.4076509 4 4
4.061903 -5.9167399 -1.9230256 5 0
5.0376816 -7.3463407 -2.0565026 7 1
6.2928381 -9.1870184 -2.1645374 4 2
7.9922261 -11.681096 -2.2417061 5 3
11.092697 -16.236925 -2.4144754 4 4
4.0237012 -5.9474521 -1.9240609 16 0
4.9962893 -7.3933773 -2.0601017 7 1
6.217567 -9.2144518 -2.1607211 6 2
7.9060664 -11.730054 -2.2404547 5 3
10.983507 -16.320559 -2.4154506 4 4
4.0078149 -6.0162864 -1.9370018 14 0
4.9562106 -7.4484096 -2.0655005 7 1
6.1639538 -9.2739849 -2.1645374 6 2
7.8394022 -11.812664 -2.2454607 5 3
10.897819 -16.439857 -2.421788 4 4
10.981924 -16.617071 4.5984497 4 14
3.9858518 -6.0748086 -1.9468369 3 0
4.9062276 -7.4860897 -2.0664005 7 1
6.1103334 -9.3375692 -2.169117 4 2
7.7610674 -11.873717 -2.246712 4 3
10.771929 -16.498917 -2.4193504 4 4
12.342336 -18.95479 -1.1854095 10 6
3.9601209 -6.128448 -1.9551191 3 0
4.8580723 -7.5267072 -2.0681999 7 1
6.0253587 -9.3459425 -2.1614842 4 2
7.690762 -11.94288 -2.2498407 4 3
10.686543 -16.620468 -2.4261751 4 4
12.32087 -19.206472 -1.1958767 10 6
3.9203892 -6.1585212 -1.9561545 3 0
4.8150921 -7.5727558 -2.071799 7 1
5.9831147 -9.424243 -2.1698802 6 2
7.6220074 -12.019634 -2.254221 4 3
10.597595 -16.731394 -2.4317811 5 4
3.8649874 -6.1660972 -1.9499428 4 0
4.7683129 -7.6160965 -2.0744987 7 1
5.9250731 -9.4747381 -2.1721697 6 2
7.5567608 -12.098042 -2.2592268 5 3
10.503642 -16.842026 -2.4371433 6 4
3.8533723 -6.2415767 -1.9654719 3 0
4.7184072 -7.6516957 -2.0753984 7 1
5.8711352 -9.5359325 -2.1767492 4 2
7.4783249 -12.1606 -2.2611041 4 3
10.419929 -16.963877 -2.4444554 7 4
3.8076975 -6.2650242 -1.9644365 3 0
4.6810541 -7.711102 -2.0825968 7 1
19.25845 -31.736942 1.9455371 2 9
5.8101616 -9.5823898 -2.1782756 6 2
7.4137983 -12.241636 -2.2667358 4 3
10.321787 -17.070183 -2.4493303 6 4
3.7768695 -6.3106894 -1.9706483 4 0
4.628458 -7.7427864 -2.0825968 7 1
5.740777 -9.6149731 -2.1767492 6 2
7.3423171 -12.316849 -2.2711158 4 3
10.249026 -17.213387 -2.459811 9 4
3.7475579 -6.3595524 -1.9778951 3 0
4.5894852 -7.7976236 -2.0888956 7 1
5.7030549 -9.7012157 -2.1874344 4 2
7.284472 -12.406157 -2.2786248 4 3
10.16577 -17.334063 -2.4673669 7 4
3.7091773 -6.3909507 -1.9799658 3 0
4.5376692 -7.8278904 -2.0888956 7 1
5.6250892 -9.7194204 -2.1828551 6 2
7.1899719 -12.438351 -2.275496 4 3
10.059454 -17.423489 -2.4702919 7 4
10.520216 -18.273067 -1.1050215 19 6
3.6625531 -6.4133344 -1.9789305 3 0
4.4887042 -7.869535 -2.0915949 7 1
5.574585 -9.7891617 -2.1897242 6 2
7.1146808 -12.508847 -2.2792504 4 3
9.9513006 -17.517454 -2.4737041 7 4
3.6404023 -6.4791679 -1.9913538 3 0
4.4317484 -7.8972807 -2.0906951 7 1
5.5157051 -9.8449688 -2.1935403 4 2
7.038754 -12.578898 -2.2830048 4 3
9.8558788 -17.635019 -2.4805288 6 4
3.6062946 -6.5247145 -1.9975655 3 0
4.3859248 -7.9450879 -2.0951941 7 1
5.4468398 -9.883235 -2.1935403 6 2
6.9660077 -12.655419 -2.2880106 5 3
9.736351 -17.710356 -2.4815037 6 4
3.5749671 -6.581531 -2.0068829 3 0
4.335001 -7.9907289 -2.0987935 7 1
5.3892064 -9.9505177 -2.1996462 4 2
6.8786907 -12.716567 -2.2898879 5 3
9.6307993 -17.82666 -2.4878411 7 4
3.5580602 -6.6608553 -2.0234473 4 0
4.2827797 -8.0276747 -2.1005929 7 1
5.3251448 -9.9982958 -2.201936 6 2
6.7878909 -12.760792 -2.2892623 5 3
9.5284634 -17.935534 -2.4936907 6 4
3.5150652 -6.6923742 -2.0255179 4 0
4.2230105 -8.0504761 -2.0987935 7 1
5.2570367 -10.038706 -2.2026992 6 2
6.7050467 -12.820122 -2.2914524 6 3
9.4122095 -18.019211 -2.4961281 6 4
3.4593952 -6.6995854 -2.0203414 4 0
4.1792102 -8.1040096 -2.105092 7 1
5.2047644 -10.105675 -2.2095683 4 2
6.6293755 -12.8883 -2.2955196 5 3
9.2970629 -18.105673 -2.499053 6 4
11.152246 -21.774654 -1.2821264 31 6
3.4259574 -6.7470927 -2.0275886 4 0
4.1310019 -8.1461725 -2.1086912 7 1
5.1305408 -10.134757 -2.2080419 4 2
6.5338888 -12.923691 -2.2936423 8 3
9.1736088 -18.168535 -2.499053 6 4
10.994637 -21.80349 -2.1363616 29 5
10.949671 -21.752079 -1.2762648 31 6
3.3834043 -6.7771697 -2.029659 4 0
4.0841522 -8.1915426 -2.1131902 7 1
5.0544386 -10.155384 -2.204989 4 2
6.4668722 -13.010319 -2.3011513 5 3
9.0629683 -18.257229 -2.5027092 4 4
10.791105 -21.767145 -2.1255541 29 5
10.757064 -21.736603 -1.2710311 31 6
3.3423026 -6.8104482 -2.0327649 4 0
4.0351615 -8.2331514 -2.1167896 7 1
5.0007272 -10.221295 -2.211858 6 2
6.384234 -13.066461 -2.3033414 6 3
8.9309368 -18.311134 -2.5014904 6 4
10.605725 -21.773886 -2.1189303 29 5
10.55644 -21.701555 -1.2647508 31 6
3.2884505 -6.8237486 -2.029659 4 0
3.9795244 -8.2688389 -2.1185889 7 1
4.9343495 -10.266574 -2.2141476 6 2
6.2974062 -13.126058 -2.3058443 6 3
8.8123178 -18.392729 -2.5041714 4 4
10.400141 -21.735968 -2.1081231 30 5
10.361281 -21.693638 -1.259936 31 6
3.2556086 -6.8779702 -2.0389764 4 0
3.9266965 -8.3069906 -2.1212883 7 1
4.8607588 -10.30162 -2.2141476 6 2
6.2165632 -13.192932 -2.3099115 5 3
8.6972265 -18.48254 -2.5080714 4 4
10.192215 -21.689035 -2.0966187 30 5
10.155297 -21.649717 -1.2532369 31 6
3.2058845 -6.897027 -2.0379412 4 0
3.8735304 -8.3448076 -2.1239879 7 1
4.7888737 -10.330906 -2.2133844 4 2
6.1365757 -13.256453 -2.3136661 4 3
8.5746422 -18.557222 -2.5100212 4 4
9.9804506 -21.629404 -2.0840681 30 5
9.9450054 -21.582298 -1.2453866 21 6
3.1604681 -6.9222035 -2.0389764 4 0
3.8214908 -8.3816185 -2.1266873 7 1
4.7215142 -10.374807 -2.2156742 6 2
6.0487843 -13.30976 -2.3155432 5 3
8.4669971 -18.656736 -2.5156271 6 4
9.746994 -21.517067 -2.066637 31 5
9.6977844 -21.438288 -1.2331399 31 6
3.1120648 -6.9440989 -2.0389764 4 0
3.766067 -8.4152079 -2.1284869 7 1
4.6617813 -10.436199 -2.2217801 6 2
5.9669828 -13.37692 -2.3199234 5 3
8.3559294 -18.758909 -2.521477 6 4
9.5560684 -21.493561 -2.0579214 31 5
9.5170841 -21.436104 -1.2291625 31 6
3.0697331 -6.9798031 -2.0431178 4 0
3.7119286 -8.4520006 -2.1311862 7 1
4.5856566 -10.461297 -2.2202537 4 2
5.860775 -13.389297 -2.3149173 4 3
8.2358952 -18.842255 -2.5248892 6 4
9.4285841 -21.591444 3.7315884 18 12
9.4183416 -21.598816 4.5801797 15 13
9.3847485 -21.542305 -1.2314651 31 6
9.4014025 -21.601114 5.4388666 29 14
3.0301151 -7.0223484 -2.0493293 5 0
3.652833 -8.4777079 -2.1311862 7 1
9.2930336 -21.588552 1.2317792 20 9
4.5140634 -10.496663 -2.2210169 4 2
9.284276 -21.59934 2.0568755 17 10
5.7593632 -13.411737 -2.3117888 4 3
9.2696838 -21.606956 2.8868413 18 11
8.0994577 -18.888348 -2.5234268 6 4
9.2682829 -21.634954 3.7278337 23 12
9.237793 -21.584591 -2.0540864 31 5
9.2719564 -21.674871 4.582469 20 13
9.196455 -21.519142 -1.2264409 51 6
9.2372055 -21.645851 -0.41079476 34 7
2.9674625 -7.0113082 -2.0400119 4 0
9.1723795 -21.69294 0.41110891 44 8
3.5965931 -8.5101833 -2.1329858 7 1
9.1537428 -21.680504 1.2333493 20 9
4.4406743 -10.52792 -2.2210169 4 2
9.2137547 -21.854567 2.0750039 17 10
5.6686611 -13.458898 -2.3130403 5 3
7.9350772 -18.867575 -2.5131898 6 4
9.0412846 -21.529406 -2.0429306 31 5
9.0220652 -21.525717 -1.2231961 20 6
2.9243674 -7.0461283 -2.044153 4 0
3.5445538 -8.5530882 -2.137485 7 1
4.3794188 -10.5833 -2.2263594 4 2
5.5739007 -13.48987 -2.3117888 4 3
7.8228393 -18.970228 -2.5195272 6 4
8.9362822 -21.702536 -2.0533893 31 5
2.882165 -7.0801849 -2.0482941 5 0
3.484786 -8.5734053 -2.136585 7 1
4.3098559 -10.624532 -2.2286491 4 2
5.4840374 -13.539439 -2.3136661 4 3
7.6979966 -19.034077 -2.5209894 6 4
2.8398244 -7.1180768 -2.0534704 5 0
3.4277322 -8.6047668 -2.1383848 7 1
4.2413802 -10.668956 -2.2317021 4 2
5.3922973 -13.584738 -2.3149173 4 3
7.5744367 -19.111345 -2.5241582 4 4
2.7914689 -7.1413269 -2.0545056 4 0
3.3675771 -8.6284866 -2.1383848 7 1
18.251579 -46.81287 2.6332316 0 9
4.1696434 -10.705625 -2.2332287 4 2
5.3001904 -13.629416 -2.316169 4 3
7.4559183 -19.20262 -2.5292766 6 4
2.7443092 -7.1678581 -2.0565763 5 0
9.2378445 -24.140934 0.45117962 51 8
3.305865 -8.6481457 -2.137485 7 1
17.590361 -46.040474 2.5829892 0 9
4.0896769 -10.715415 -2.2294126 6 2
5.2171445 -13.69102 -2.320549 4 3
7.341433 -19.306156 -2.5361013 6 4
2.6940992 -7.1827536 -2.055541 5 0
9.0690842 -24.204838 0.45117962 51 8
3.2551231 -8.6923475 -2.1428835 7 1
9.069169 -24.24369 1.3565482 25 9
4.017518 -10.751061 -2.2309389 4 2
5.1297216 -13.749319 -2.3243036 4 3
7.2250962 -19.396605 -2.5414634 6 4
2.6452203 -7.2050142 -2.0565763 5 0
3.1943619 -8.714859 -2.1428835 7 1
16.83045 -45.966503 2.5654042 0 9
3.9518063 -10.80466 -2.2362814 4 2
8.9405451 -24.457636 2.2782512 2 10
5.0376754 -13.795929 -2.3261807 4 3
7.1112642 -19.506254 -2.5492632 8 4
2.5987737 -7.2342134 -2.0596819 5 0
3.1373904 -8.7479544 -2.1455832 7 1
15.72372 -43.890514 2.4433565 0 9
3.8723116 -10.820894 -2.2339919 4 2
16.216009 -45.339417 4.21276 1 10
4.9571891 -13.875407 -2.3336897 4 3
6.9882512 -19.592817 -2.5541377 6 4
2.5533295 -7.2667618 -2.0638232 4 0
3.0775318 -8.7733221 -2.1464829 7 1
15.578085 -44.459133 2.4688966 1 9
3.8070502 -10.877314 -2.2400978 6 2
15.832641 -45.261578 4.1951547 2 10
4.8602014 -13.909676 -2.3336897 4 3
6.8630681 -19.674866 -2.5585253 6 4
2.503792 -7.2880635 -2.0648584 5 0
3.0212657 -8.8093395 -2.1500821 7 1
15.018767 -43.841248 2.4287026 0 9
3.7233925 -10.881336 -2.2355182 6 2
15.41764 -45.082569 4.1684847 1 10
4.7776613 -13.986261 -2.3408856 4 3
6.7486105 -19.78994 -2.5672998 6 4
2.4479322 -7.2907147 -2.0607173 5 0
2.9596913 -8.8302174 -2.1500821 7 1
14.775739 -44.134422 2.4391699 0 9
3.6560519 -10.933131 -2.2408609 6 2
15.045059 -45.017151 4.1526227 1 10
4.6830306 -14.028645 -2.3424499 4 3
6.6291132 -19.893068 -2.5746119 6 4
2.3981781 -7.3112984 -2.0617526 5 0
2.9028249 -8.8654804 -2.1536813 7 1
14.431254 -44.1264 2.4330988 1 9
3.5723228 -10.935994 -2.2362814 6 2
14.747108 -45.172222 4.1573286 1 10
4.5960045 -14.094801 -2.3480816 4 3
6.4986734 -19.96529 -2.5780244 6 4
2.3529699 -7.3462601 -2.0669291 5 0
2.8384876 -8.8781042 -2.1518817 7 1
14.472805 -45.321972 2.4933898 0 9
3.4923084 -10.949444 -2.2339919 6 2
14.471328 -45.399361 4.1688333 0 10
4.4998889 -14.134071 -2.349333 4 3
6.3603387 -20.013954 -2.5785117 6 4
2.3085437 -7.3846335 -2.0731406 5 0
2.7729561 -8.8865442 -2.1491826 7 1
14.072852 -45.154953 2.4787359 1 9
3.4251177 -11.003551 -2.2400978 4 2
4.4052076 -14.178348 -2.3515232 4 3
6.2275157 -20.080622 -2.5814366 6 4
2.251298 -7.3820925 -2.0679643 5 0
2.7165234 -8.9243279 -2.1536813 7 1
13.78864 -45.355289 2.4843881 0 9
3.3447928 -11.015923 -2.237808 4 2
4.3141379 -14.235222 -2.3559034 4 3
6.0837259 -20.112207 -2.5799742 6 4
2.2030108 -7.40874 -2.0710702 5 0
2.649718 -8.9281301 -2.1500821 7 1
14.817978 -49.992615 2.7326698 0 9
3.2666922 -11.03524 -2.2370448 6 2
14.132319 -47.771137 4.3584843 1 10
4.2286468 -14.312354 -2.3637249 4 3
5.9454145 -20.161808 -2.5809493 6 4
2.1512353 -7.4239392 -2.0710702 5 0
2.5916555 -8.9613867 -2.1536813 7 1
3.1893244 -11.049676 -2.2355182 6 2
13.657753 -47.380451 4.3140349 2 10
4.1333146 -14.348398 -2.3649766 4 3
5.8143821 -20.237164 -2.5853364 8 4
2.1059024 -7.4570012 -2.0762465 5 0
2.5316544 -8.9825716 -2.1545811 7 1
13.958456 -49.592335 2.7000124 0 9
3.112108 -11.071671 -2.2355182 4 2
13.298829 -47.343803 4.3023558 1 10
4.0357108 -14.386415 -2.3665409 4 3
5.6818495 -20.295389 -2.5877738 8 4
2.0604479 -7.4957371 -2.0829759 6 0
2.4719768 -9.011302 -2.1572804 8 1
13.389296 -48.842522 2.6541657 0 9
3.0413387 -11.10964 -2.2389529 7 2
12.965362 -47.425884 4.3014846 1 10
3.942379 -14.430702 -2.3693566 4 3
5.5421119 -20.34222 -2.5887487 8 4
2.004885 -7.4927926 -2.0783172 5 0
2.4085717 -9.0203886 -2.1554811 7 1
12.988295 -48.710949 2.642024 1 9
2.9611802 -11.121117 -2.2370448 6 2
12.731896 -47.849979 4.3319888 1 10
3.8476264 -14.480783 -2.3731112 4 3
5.4045353 -20.38331 -2.5892363 8 4
1.9534993 -7.5103455 -2.0793524 5 0
2.3504343 -9.0558462 -2.1599801 7 1
13.13597 -50.683552 2.7439744 0 9
2.8834682 -11.141518 -2.2370448 6 2
12.346646 -47.740948 4.3142095 1 10
3.750391 -14.522591 -2.3756142 5 3
5.2710233 -20.455147 -2.5936236 8 4
1.9052795 -7.540657 -2.0840108 6 0
2.2871566 -9.0720348 -2.1599801 8 1
2.8065724 -11.165185 -2.237808 6 2
12.020337 -47.854965 4.316824 1 10
3.6532378 -14.565664 -2.3784299 4 3
5.1343555 -20.516479 -2.5967922 10 4
1.8562709 -7.5687857 -2.0881522 6 0
2.2209868 -9.0764236 -2.1572804 7 1
2.7322788 -11.199765 -2.2408609 6 2
11.70153 -48.001591 4.322576 1 10
3.5528631 -14.596573 -2.3793685 4 3
4.9966197 -20.574972 -2.5997169 10 4
1.8024923 -7.5778008 -2.0871167 6 0
2.162967 -9.11446 -2.1626794 7 1
11.473944 -48.424931 2.6081104 1 9
2.6540258 -11.218566 -2.2408609 6 2
11.409217 -48.264381 4.3389616 1 10
3.4495118 -14.615252 -2.3784299 4 3
4.8478532 -20.5881 -2.5970359 7 4
1.7499791 -7.592082 -2.0876343 5 0
2.100158 -9.1331367 -2.1635792 8 1
10.924661 -47.585056 2.5587051 0 9
2.5712545 -11.217686 -2.2370448 6 2
3.3557639 -14.675565 -2.3843744 4 3
4.7075372 -20.636925 -2.5989857 7 4
1.6969346 -7.6041145 -2.0876343 5 0
2.0363464 -9.1475763 -2.1635792 8 1
10.77851 -48.498528 2.6037142 0 9
2.4945786 -11.243029 -2.2385712 6 2
3.2566421 -14.714064 -2.3868773 4 3
4.5659199 -20.680918 -2.6004484 8 4
1.6429915 -7.611999 -2.0865991 5 0
1.9699739 -9.1501389 -2.1608799 9 1
2.4204664 -11.271266 -2.2408609 6 2
3.1564128 -14.73589 -2.3868773 4 3
4.4230862 -20.720053 -2.6014233 7 4
1.59272 -7.6305709 -2.0886698 5 0
1.9076462 -9.1633358 -2.1608799 9 1
2.3441119 -11.299423 -2.2431507 6 2
3.0526597 -14.753699 -2.3862517 4 3
4.3052187 -20.862442 -2.6155601 7 4
1.5458952 -7.6736984 -2.0974696 6 0
1.8436275 -9.1764307 -2.1608799 9 1
2.2686889 -11.322817 -2.2446773 6 2
2.9583583 -14.805129 -2.3912575 4 3
4.1730328 -20.960131 -2.6240909 12 4
1.4888341 -7.65939 -2.0907402 5 0
1.7855725 -9.2117243 -2.1662786 8 1
2.1873519 -11.326814 -2.2423875 6 2
2.857168 -14.837059 -2.3931346 4 3
4.0793071 -21.243429 -2.6560206 8 4
1.434971 -7.6676989 -2.0902226 6 0
1.7233651 -9.2354593 -2.168978 9 1
2.1173856 -11.380042 -2.2500198 4 2
2.758271 -14.867817 -2.3950119 4 3
3.9290967 -21.261629 -2.6548018 10 4
1.3827451 -7.677289 -2.0902226 6 0
1.6597724 -9.2431402 -2.1680782 8 1
2.0351214 -11.379086 -2.2469668 4 2
2.6544087 -14.886711 -2.3950119 4 3
3.7891488 -21.315243 -2.6582143 10 4
1.331749 -7.7019835 -2.0943637 6 0
1.5958658 -9.2583427 -2.168978 8 1
1.9596137 -11.404284 -2.2492564 6 2
2.5520155 -14.898593 -2.3940732 4 3
3.6462564 -21.376402 -2.6626017 10 4
1.2744721 -7.6901293 -2.0886698 5 0
1.5318279 -9.2731037 -2.169878 8 1
1.8747718 -11.398643 -2.2454405 6 2
2.4456599 -14.918423 -2.3943863 5 3
3.4908497 -21.364113 -2.6579707 8 4
1.2234766 -7.716011 -2.0933285 6 0
1.4658353 -9.2758722 -2.1680782 8 1
1.8008065 -11.434412 -2.2500198 6 2
2.3480384 -14.960093 -2.3984535 4 3
3.3428433 -21.395807 -2.6589456 8 4
1.1706386 -7.7222505 -2.0928109 5 0
1.404992 -9.3010502 -2.1716774 8 1
1.7212272 -11.448647 -2.2504015 7 2
2.2406149 -14.956585 -2.3953247 4 3
3.1945643 -21.426476 -2.6599205 8 4
1.1156253 -7.7323418 -2.0933285 6 0
1.3389537 -9.314724 -2.1725771 8 1
1.6429302 -11.472045 -2.252691 7 2
2.1365964 -14.993748 -2.3987663 4 3
3.0538304 -21.51115 -2.6677201 7 4
7.1066442 -50.502445 -2.6727977 0 6
1.0616169 -7.7399416 -2.0933285 6 0
1.2723094 -9.3122597 -2.169878 7 1
1.5605328 -11.481562 -2.2523096 6 2
2.031338 -15.004383 -2.3981407 4 3
2.9057019 -21.547682 -2.6696699 7 4
6.7211051 -50.305347 -2.6598182 0 6
1.0078053 -7.7490802 -2.0938461 5 0
1.2072676 -9.3209152 -2.169878 7 1
1.4848542 -11.51139 -2.2561257 4 2
1.9299161 -15.02374 -2.3990791 4 3
2.7607338 -21.610764 -2.6750324 7 4
6.3850574 -50.401447 -2.6625397 0 6
0.95361978 -7.7442555 -2.0907402 5 0
1.1437953 -9.3289165 -2.169878 7 1
1.4001786 -11.486395 -2.2492564 6 2
1.8264116 -15.048614 -2.4009564 4 3
2.6173825 -21.660585 -2.678932 9 4
6.0268731 -50.39323 -2.6598182 0 6
0.90331763 -7.7833476 -2.0995402 6 0
1.0799811 -9.3482895 -2.1725771 8 1
1.3224106 -11.499561 -2.2500198 6 2
1.7214671 -15.039109 -2.3975151 4 3
2.3667037 -20.804569 -2.5709558 11 4
5.6658235 -50.274315 -2.6514444 0 6
0.84926963 -7.7797132 -2.096952 5 0
1.0167462 -9.3592987 -2.1734772 7 1
1.244203 -11.528032 -2.2538359 6 2
1.6153795 -15.04094 -2.3959506 4 3
2.3414779 -21.909765 -2.7054996 11 4
5.2475653 -49.677059 -2.6179495 0 6
0.79611379 -7.7969837 -2.1000578 5 0
0.94941187 -9.3467808 -2.168978 8 1
1.1629051 -11.528625 -2.2523096 6 2
1.512504 -15.07347 -2.3993921 4 3
2.1961536 -22.002613 -2.7150056 7 4
0.74129552 -7.7985053 -2.0990226 5 0
0.8841359 -9.3531818 -2.168978 7 1
1.0816581 -11.528643 -2.250783 6 2
1.4072362 -15.083663 -2.3993921 4 3
1.9146905 -20.639713 -2.5451195 16 4
1.9075886 -20.680878 -1.8170229 37 5
1.8888549 -20.635296 -1.0859712 39 6
0.68785089 -7.8150377 -2.1021285 4 0
0.81813866 -9.3513613 -2.1671786 8 1
1.001289 -11.514224 -2.2465851 7 2
1.3048725 -15.096829 -2.400018 4 3
1.7688557 -20.632799 -2.5426822 19 4
1.7601179 -20.657957 -1.8138852 37 5
1.7470051 -20.631754 -1.0851338 29 6
0.63448328 -7.8176131 -2.1016109 6 0
0.75634634 -9.380022 -2.1725771 7 1
0.92197651 -11.534632 -2.2492564 6 2
1.1996032 -15.107539 -2.4003308 4 3
1.627123 -20.628531 -2.5407324 17 4
1.6130601 -20.633989 -1.8107476 37 5
1.6002972 -20.609594 -1.0833544 39 6
0.57889253 -7.8083649 -2.0979872 5 0
0.68969852 -9.3695259 -2.168978 8 1
0.83871484 -11.503587 -2.2420058 7 2
1.0939608 -15.113576 -2.400018 4 3
1.4817909 -20.621569 -2.5385387 24 4
1.4681201 -20.632824 -1.8097019 37 5
1.4576424 -20.638193 -1.0842965 29 6
0.52565956 -7.8314915 -2.1031637 5 0
0.62427235 -9.3741121 -2.168978 8 1
0.75967634 -11.52875 -2.245822 7 2
0.98855209 -15.122816 -2.4003308 4 3
1.3353486 -20.593775 -2.5339077 27 4
1.3207266 -20.590872 -1.8051698 37 5
1.3120035 -20.623951 -1.0830404 29 6
0.47027716 -7.8234005 -2.1000578 4 0
0.55788618 -9.3626804 -2.1653788 7 1
0.67998123 -11.547492 -2.2484932 6 2
0.8838715 -15.145124 -2.4028337 4 3
1.1894838 -20.566919 -2.5295203 24 4
1.1799004 -20.651312 -1.8097019 37 5
1.165285 -20.584749 -1.0805283 29 6
0.41605788 -7.8342099 -2.1021285 5 0
0.49312273 -9.3780231 -2.1680782 7 1
0.59792387 -11.524509 -2.2431507 6 2
0.77852422 -15.158817 -2.4040852 4 3
1.0454699 -20.566793 -2.5285454 26 4
1.0350996 -20.647102 -1.808656 37 5
1.0198658 -20.558472 -1.0787488 39 6
0.3607327 -7.8234153 -2.098505 6 0
0.42781836 -9.3851309 -2.168978 7 1
0.51771712 -11.534286 -2.2442954 7 2
0.67250162 -15.159936 -2.4034593 4 3
0.9009918 -20.553761 -2.526108 21 4
0.88921314 -20.614017 -1.8051698 37 5
0.87691092 -20.57906 -1.0794816 29 6
0.30686218 -7.845046 -2.1036813 6 0
0.36213705 -9.3839941 -2.1680782 7 1
0.4373287 -11.541543 -2.2450588 7 2
0.56546867 -15.132678 -2.3984535 4 3
0.75703913 -20.547647 -2.5246456 22 4
0.74887961 -20.619593 -1.8051698 37 5
0.73201442 -20.550747 -1.0777022 39 6
0.25202394 -7.8450661 -2.1031637 7 0
0.29612431 -9.3707113 -2.164479 7 1
0.3591249 -11.556026 -2.2473485 7 2
0.46293491 -15.151971 -2.4009564 4 3
0.61333406 -20.544493 -2.5236704 22 4
0.6040917 -20.596436 -1.8027295 37 5
0.59125006 -20.525307 -1.0761321 29 6
0.19847259 -7.840807 -2.1016109 6 0
0.23252606 -9.3803024 -2.1662786 8 1
0.27853581 -11.562178 -2.2481117 7 2
0.35686371 -15.142984 -2.3990791 3 3
0.47283983 -20.520407 -2.5202582 24 4
0.45975268 -20.57625 -1.8006377 37 5
0.44794193 -20.528934 -1.0761321 29 6
0.14390561 -7.8516583 -2.1041989 7 0
0.16696531 -9.3778 -2.1653788 8 1
0.19740823 -11.540284 -2.2435322 7 2
0.25113887 -15.145107 -2.3990791 4 3
0.32985821 -20.541073 -2.5224519 14 4
0.31628066 -20.590908 -1.8016834 37 5
0.30443674 -20.519579 -1.0755041 29 6
0.088824198 -7.8292904 -2.0979872 7 0
0.10161836 -9.3904295 -2.1680782 8 1
0.11651908 -11.509971 -2.2374265 7 2
0.14502251 -15.106985 -2.3928218 4 3
0.18614262 -20.50913 -2.5183084 21 4
0.17285512 -20.632462 -1.8051698 37 5
0.16114672 -20.517212 -1.0752947 29 6
0.034256935 -7.8509703 -2.1036813 6 0
0.03598351 -9.3714218 -2.1635792 8 1
0.036186162 -11.518356 -2.2389529 7 2
0.039490268 -15.083925 -2.3890674 4 3
0.042940732 -20.501987 -2.5173333 19 4
0.028620007 -20.497684 -1.7933165 37 5
0.01789172 -20.501858 -1.0744573 29 6
-0.019212149 -7.8626132 -2.1067872 6 0
-0.027828714 -9.3792458 -2.1653788 8 1
-0.042302772 -11.541894 -2.2435322 7 2
-0.063190356 -15.08582 -2.3893805 4 3
-0.096585087 -20.495852 -2.5166023 29 4
-0.11094493 -20.505373 -1.7940139 37 5
-0.12150417 -20.47554 -1.0730966 38 6
-0.074066654 -7.8584242 -2.105752 6 0
-0.093152426 -9.3632336 -2.1617796 8 1
-0.12267035 -11.521688 -2.2397161 9 2
-0.16835326 -15.071185 -2.3871903 6 3
-0.23932014 -20.464903 -2.5129461 25 4
-0.25444236 -20.531992 -1.7964542 37 5
-0.26467958 -20.492167 -1.0740386 39 6
-0.12854481 -7.8345361 -2.0995402 6 0
-0.1588466 -9.3818388 -2.1662786 7 1
-0.20320633 -11.526439 -2.2408609 6 2
-0.27367342 -15.075567 -2.3881288 4 3
-0.38211212 -20.458765 -2.5124586 21 4
-0.39847121 -20.565569 -1.7995917 37 5
-0.40749702 -20.477837 -1.0734105 29 6
-0.18346293 -7.8431048 -2.1021285 5 0
-0.2243392 -9.3805008 -2.1662786 9 1
-0.28333294 -11.511001 -2.2381897 7 2
-0.37836617 -15.051567 -2.3846872 4 3
-0.52477914 -20.449646 -2.5117273 27 4
-0.53982627 -20.478636 -1.7922707 37 5
-0.55023223 -20.466509 -1.0729918 28 6
-0.23803766 -7.8358393 -2.1005754 6 0
-0.28958124 -9.3709154 -2.164479 8 1
-0.3638106 -11.512667 -2.2389529 7 2
-0.48254693 -15.020918 -2.3803072 4 3
-0.66733247 -20.439529 -2.5109961 19 4
-0.67987072 -20.4944 -1.7940139 37 5
-0.69343752 -20.472149 -1.0735153 39 6
-0.29324037 -7.8474998 -2.1041989 5 0
-0.35529062 -9.3764544 -2.1662786 8 1
-0.44171438 -11.498153 -2.2366631 9 2
-0.46648666 -11.979483 -1.8988018 5 3
-0.81032568 -20.442308 -2.5119712 18 4
-0.82276726 -20.485174 -1.7936652 37 5
-0.83114481 -20.42704 -1.0714217 19 6
-0.34690577 -7.8511128 -2.105752 6 0
-0.41858271 -9.3621387 -2.1635792 8 1
-0.52090579 -11.471254 -2.2320838 7 2
-0.54657137 -11.898975 -1.8865999 12 3
-0.94853222 -20.416489 -2.5095336 19 4
-0.96835804 -20.610451 -1.8051698 37 5
-0.97592026 -20.466627 -1.0738293 29 6
-0.40111589 -7.8369236 -2.1026461 6 0
-0.48353004 -9.3512039 -2.1617796 9 1
-0.59795219 -11.447837 -2.2282674 9 2
-0.62359786 -11.820019 -1.8747108 21 3
-1.0917823 -20.423244 -2.51124 13 4
-1.1068501 -20.503714 -1.7964542 37 5
-1.1122724 -20.405664 -1.0710031 38 6
-0.4536669 -7.8205109 -2.0990226 5 0
-0.54716951 -9.3476963 -2.1617796 8 1
-0.67808938 -11.447304 -2.2290308 7 2
-0.70386302 -11.777912 -1.8687663 21 3
-1.2304157 -20.409397 -2.5105085 18 4
-1.2477829 -20.45969 -1.7933165 37 5
-1.2560524 -20.419329 -1.0721544 28 6
-0.50888002 -7.8267927 -2.1016109 6 0
-0.61267024 -9.347537 -2.1626794 8 1
-0.75721157 -11.430537 -2.2267411 9 2
-0.78738588 -11.792422 -1.8718951 20 3
-1.3731341 -20.404268 -2.5109961 16 4
-1.3900474 -20.44253 -1.7926192 37 5
-1.3972105 -20.390139 -1.0711079 28 6
-0.56406224 -7.8307562 -2.1036813 6 0
-0.67622 -9.3197079 -2.1572804 8 1
-0.83584428 -11.409307 -2.2236881 10 2
-0.86358821 -11.703897 -1.8587546 16 3
-1.514814 -20.384289 -2.5097775 22 4
-1.5300531 -20.444517 -1.7936652 37 5
-1.5410305 -20.399801 -1.0721544 28 6
-0.61704278 -7.8054428 -2.0979872 5 0
-0.74064791 -9.3069906 -2.1554811 7 1
-0.91285741 -11.395526 -2.2221618 10 2
-0.94386786 -11.705624 -1.860006 17 3
-1.6105777 -19.801413 -2.439337 22 4
-1.6753464 -20.465107 -1.7964542 37 5
-1.6788659 -20.376898 -1.0715265 28 6
-0.66916555 -7.7895145 -2.0948815 5 0
-0.80364478 -9.2978506 -2.1545811 7 1
-0.99170917 -11.381052 -2.2206352 10 2
-1.0252191 -11.694812 -1.8593802 17 3
-1.1886607 -13.478076 -1.6613231 2 4
-1.8131984 -20.437353 -1.7950596 37 5
-1.8210826 -20.364681 -1.0715265 28 6
-0.72478175 -7.7981176 -2.098505 6 0
-0.86817372 -9.2881327 -2.1536813 7 1
-1.0687859 -11.370129 -2.219872 10 2
-1.1044292 -11.68363 -1.8587546 16 3
-1.2601416 -13.23231 -1.6320744 3 4
-1.9621449 -20.377659 -1.0728873 38 6
-0.77765328 -7.7910805 -2.0979872 5 0
-0.930987 -9.2781305 -2.1527817 7 1
-1.1489278 -11.370203 -2.2213984 9 2
-1.1895597 -11.71101 -1.8643861 19 3
-1.3364691 -13.089139 -1.6155001 6 4
-1.8988512 -18.374798 -0.96811062 27 6
-0.8312043 -7.7777791 -2.0959167 5 0
-0.99407202 -9.2559052 -2.1491826 7 1
-1.2278568 -11.358002 -2.2206352 9 2
-1.2644622 -11.639578 -1.8543743 18 3
-1.419199 -13.000555 -1.6057506 12 4
-1.4491931 -13.189941 -1.1609144 19 5
-1.9345942 -17.52334 -0.92393911 9 6
-0.88613921 -7.7775445 -2.0974696 6 0
-1.0573364 -9.2371216 -2.1464829 7 1
-1.3073453 -11.351103 -2.2210169 10 2
-1.3729364 -11.86594 -1.8919187 21 3
-1.5039665 -12.939064 -1.5994134 19 4
-1.5375366 -13.14784 -1.1581255 19 5
-2.3418663 -19.935373 -1.0519528 19 6
-0.93948686 -7.7634974 -2.0953991 6 0
-1.1208574 -9.221777 -2.1446834 7 1
-1.385843 -11.335854 -2.219872 10 2
-1.421075 -11.573732 -1.8468655 30 3
-1.591103 -12.902636 -1.5962448 20 4
-2.5185075 -20.219793 -1.067863 19 6
-0.99145222 -7.7395034 -2.0907402 5 0
-1.1857064 -9.2175932 -2.1455832 7 1
-1.4639397 -11.318114 -2.2183454 9 2
-1.5112537 -11.636009 -1.8584416 21 3
-1.6785733 -12.87153 -1.5938075 20 4
-2.3141866 -17.57799 -0.92917269 9 6
-1.0441658 -7.7228217 -2.0881522 6 0
-1.2510759 -9.216815 -2.1473827 7 1
-1.5441256 -11.33123 -2.2229249 9 2
-1.5829259 -11.570654 -1.8496813 21 3
-1.7662274 -12.843763 -1.5918574 25 4
-1.8146187 -13.144651 -1.1609144 19 5
-2.4145889 -17.423346 -0.92184561 9 6
-1.0994279 -7.7346611 -2.0933285 6 0
-1.3126827 -9.2003689 -2.1455832 7 1
-1.6220801 -11.3124 -2.2213984 9 2
-1.6743563 -11.633619 -1.8615704 11 3
-1.8541789 -12.835374 -1.592345 41 4
-1.8891655 -13.01336 -1.1504558 18 5
-2.5188897 -17.287481 -0.91556531 9 6
-1.1511167 -7.7115121 -2.0891874 6 0
-1.3745706 -9.1755629 -2.141984 7 1
-1.6992627 -11.289152 -2.2191086 7 2
-1.8048064 -11.947834 -1.9138194 16 3
-1.9937246 -13.151845 -1.633293 5 4
-1.97637 -12.976217 -1.1483641 18 5
-2.6334803 -17.229988 -0.91347188 9 6
-1.2058207 -7.709013 -2.0907402 7 0
-1.4385947 -9.1657429 -2.141984 7 1
-1.7786461 -11.280893 -2.219872 7 2
-1.8221173 -11.517406 -1.8468655 19 3
-2.0749114 -13.070948 -1.625006 4 4
-2.0713036 -12.989649 -1.1508044 18 5
-2.7347701 -17.092854 -0.90719157 9 6
-1.2608579 -7.7080336 -2.0928109 7 0
-1.5006548 -9.1439371 -2.1392844 7 1
-1.8579954 -11.272075 -2.2206352 7 2
-1.9514663 -11.800638 -1.8944216 19 3
-2.1722865 -13.093351 -1.629637 7 4
-2.1599731 -12.96308 -1.1497585 18 5
-2.8573267 -17.093042 -0.90823823 9 6
-1.3084223 -7.6707077 -2.0850463 6 0
-1.5635176 -9.1373539 -2.1401844 7 1
-1.935344 -11.263037 -2.2213984 9 2
-2.0559051 -11.927242 -1.9169482 18 3
-2.9564724 -16.974815 -0.90300471 9 6
-1.3626308 -7.6730371 -2.0881522 6 0
-1.6229433 -9.1111507 -2.136585 7 1
-2.0154195 -11.268929 -2.2252147 9 2
-2.1042562 -11.730205 -1.8875386 12 3
-2.2982991 -12.773417 -1.5935637 27 4
-3.0812066 -17.005396 -0.90572619 9 6
-1.4148281 -7.6635838 -2.0881522 6 0
-1.6849223 -9.0998926 -2.136585 7 1
-2.0927944 -11.25881 -2.2259779 7 2
-2.1963611 -11.781634 -1.8981761 9 3
-2.3874185 -12.75706 -1.5935637 23 4
-3.1828461 -16.909445 -0.90174866 9 6
-1.4696304 -7.653264 -2.0881522 6 0
-1.7470486 -9.0722942 -2.1329858 7 1
-2.1698558 -11.236215 -2.2244515 7 2
-2.281364 -11.769494 -1.8988018 13 3
-2.4779365 -12.747876 -1.5945386 23 4
-3.2853582 -16.79215 -0.89672434 8 6
-1.5222691 -7.6390276 -2.0871167 6 0
-1.8149238 -9.0828085 -2.1383848 7 1
-2.2540638 -11.239649 -2.2282674 7 2
-2.3603568 -11.737789 -1.8962989 14 3
-2.5692272 -12.741941 -1.596001 23 4
-3.4191902 -16.851011 -0.90112054 9 6
-1.5724355 -7.6130786 -2.0829759 6 0
-1.877498 -9.0661001 -2.137485 7 1
-2.3292806 -11.208261 -2.2252147 7 2
-2.4192765 -11.610794 -1.8784653 24 3
-2.6589289 -12.727581 -1.5964885 23 4
-3.5494826 -16.887323 -0.90436542 9 6
-1.6295862 -7.6208076 -2.0881522 6 0
-1.9374775 -9.037528 -2.1338856 7 1
-2.4107754 -11.207082 -2.2282674 7 2
-2.5465007 -11.807961 -1.9131937 16 3
-2.7493975 -12.716471 -1.5974635 22 4
-3.6698365 -16.873842 -0.90499347 9 6
-1.684001 -7.6149035 -2.089705 7 0
-2.001368 -9.0275869 -2.1347857 7 1
-2.4844468 -11.178914 -2.2259779 7 2
-2.5709705 -11.539701 -1.8725207 18 3
-2.8372421 -12.693091 -1.596976 22 4
-3.7907369 -16.875755 -0.90645891 9 6
-1.7314945 -7.5844307 -2.0845287 5 0
-2.0601609 -9.0023575 -2.132086 7 1
-2.5589154 -11.145988 -2.2229249 10 2
-2.6594446 -11.556122 -1.8781524 18 3
-2.9262512 -12.68509 -1.5984384 23 4
-3.9156804 -16.880009 -0.90813363 9 6
-1.785287 -7.5759187 -2.0855639 5 0
-2.1211672 -8.9801693 -2.1302865 8 1
-2.6439064 -11.15842 -2.2290308 7 2
-2.7537503 -11.594932 -1.8875386 16 3
-3.0174968 -12.675938 -1.5999008 23 4
-4.8195648 -20.136858 -1.0851338 19 6
-1.8358521 -7.5538845 -2.0829759 6 0
-2.181963 -8.9575682 -2.1284869 8 1
-2.7161508 -11.116803 -2.2244515 7 2
-2.8571811 -11.667521 -1.9025562 18 3
-3.1134889 -12.68541 -1.6038008 25 4
-4.1146183 -16.676319 -0.90017855 9 6
-1.8890119 -7.5427575 -2.0834932 5 0
-2.2397013 -8.9232159 -2.1239879 8 1
-2.8042102 -11.14756 -2.2343736 7 2
-2.9104567 -11.54437 -1.8856614 20 3
-3.2000246 -12.655667 -1.6028258 24 4
-1.9369357 -7.5166292 -2.07987 6 0
-2.2984378 -8.9002171 -2.1221881 7 1
-2.8790119 -11.116308 -2.2320838 7 2
-3.0177772 -11.627019 -1.9025562 16 3
-3.2890933 -12.645119 -1.6042881 24 4
-4.3007112 -16.451822 -0.8911767 44 6
-1.9938205 -7.5197306 -2.0845287 4 0
-2.3615179 -8.8877211 -2.1230881 8 1
-2.9505703 -11.081276 -2.2290308 7 2
-3.1172209 -11.682552 -1.9150709 20 3
-3.3813958 -12.63719 -1.606238 23 4
-4.4198542 -16.449173 -0.8926422 53 6
-2.0398805 -7.4873452 -2.0793524 5 0
-2.4178531 -8.8564014 -2.119489 8 1
-3.0309691 -11.071769 -2.2313204 7 2
-3.142266 -11.454765 -1.8812811 20 3
-3.4736502 -12.636849 -1.6091629 23 4
-2.0889776 -7.46176 -2.0762465 5 0
-2.4827814 -8.850563 -2.1221881 8 1
-3.1071279 -11.046559 -2.2305572 7 2
-3.243592 -11.508601 -1.893796 16 3
-3.56826 -12.635217 -1.6120878 24 4
-2.1463568 -7.4655614 -2.081423 5 0
-2.542351 -8.8255253 -2.1203887 7 1
-3.1950672 -11.062322 -2.2381897 7 2
-3.334841 -11.523626 -1.9000533 16 3
-3.6619117 -12.629063 -1.6145252 22 4
-2.1973293 -7.4466891 -2.0803876 5 0
-2.6016929 -8.800086 -2.1185889 7 1
-3.2677541 -11.024689 -2.2351367 10 2
-3.4129598 -11.49249 -1.8988018 18 3
-3.7511222 -12.606996 -1.6150126 23 4
-2.2459054 -7.420073 -2.0772817 5 0
-2.6608026 -8.7742491 -2.1167896 8 1
-3.3480663 -11.012877 -2.2374265 9 2
-3.4758401 -11.411695 -1.8894157 18 3
-3.8459971 -12.603285 -1.6179376 22 4
-2.2907822 -7.3820729 -2.0710702 5 0
-2.7219937 -8.7554588 -2.1167896 8 1
-3.4272053 -10.996732 -2.2389529 7 2
-3.5683761 -11.428634 -1.8962989 19 3
-3.9409993 -12.598862 -1.6208624 21 4
-3.989352 -12.722258 -1.1664925 19 5
-5.1562734 -16.413527 -0.90164393 45 6
-2.3410912 -7.3622179 -2.0700347 5 0
-2.7818673 -8.7325287 -2.1158895 8 1
-3.5026994 -10.968798 -2.2381897 9 2
-3.644465 -11.392154 -1.8944216 14 3
-4.0349183 -12.589947 -1.6232998 20 4
-6.4088326 -19.913404 -1.0963337 9 6
-2.4014058 -7.3732486 -2.0777996 6 0
-2.8391376 -8.7017794 -2.1131902 8 1
-3.5791905 -10.944077 -2.2381897 9 2
-3.7239084 -11.366433 -1.8944216 28 3
-4.1239524 -12.565242 -1.6237873 20 4
-5.3620296 -16.299122 -1.5011705 31 5
-6.5664501 -19.925085 -1.099474 19 6
-2.4460998 -7.3361444 -2.0721054 5 0
-2.9010532 -8.6854439 -2.11409 7 1
-3.6517651 -10.907653 -2.2358999 7 2
-3.8270371 -11.411328 -1.9063107 16 3
-4.2103095 -12.532383 -1.6232998 24 4
-5.4756885 -16.26129 -1.5011705 46 5
-6.7136917 -19.903357 -1.1008346 29 6
-2.4985027 -7.3225451 -2.0731406 5 0
-2.9603567 -8.6612911 -2.1131902 8 1
-3.735461 -10.904181 -2.2404792 7 2
-3.8950672 -11.350699 -1.900679 17 3
-4.308023 -12.532721 -1.6271995 27 4
-5.6033564 -16.264109 -1.5050054 63 5
-6.8720269 -19.912643 -1.1039748 29 6
-2.5476532 -7.2994528 -2.0715878 6 0
-3.0258961 -8.6551294 -2.1167896 8 1
-3.8076003 -10.866719 -2.2381897 7 2
-3.9886069 -11.364237 -1.907562 16 3
-4.4006786 -12.517322 -1.6291496 20 4
-7.0122032 -19.867949 -1.1041842 29 6
-2.5894604 -7.2560158 -2.0643408 6 0
-3.084934 -8.6301231 -2.1158895 8 1
-3.8801548 -10.836854 -2.2374265 7 2
-4.1212173 -11.491156 -1.9335302 22 3
-5.8392153 -16.219048 -1.5081429 31 5
-7.1689563 -19.879881 -1.1075336 29 6
-2.6447451 -7.2545576 -2.0689995 5 0
-3.1342473 -8.5832987 -2.109591 8 1
-3.9584141 -10.816875 -2.2389529 7 2
-4.1673489 -11.369368 -1.9178867 18 3
-4.695991 -12.790882 -1.6730225 3 4
-5.9618559 -16.212587 -1.5112805 63 5
-7.3096414 -19.83497 -1.1078477 19 6
-2.7020702 -7.2540202 -2.0741758 5 0
-3.1954558 -8.5648594 -2.1104908 8 1
-4.0298877 -10.784164 -2.237808 6 2
-4.2252517 -11.288938 -1.9091264 23 3
-4.8081799 -12.819121 -1.6810659 2 4
-6.0945144 -16.222792 -1.5161612 63 5
-7.4557362 -19.814665 -1.1095223 19 6
-2.7479503 -7.2264318 -2.0715878 6 0
-3.2564547 -8.5501947 -2.1122904 8 1
-4.0931764 -10.724586 -2.2313204 7 2
-4.3131299 -11.283153 -1.9131937 27 3
-4.8883257 -12.761143 -1.6778972 2 4
-6.2147593 -16.198452 -1.5179044 47 5
-7.6060658 -19.793827 -1.1113018 29 6
-2.7995901 -7.2065835 -2.0715878 6 0
-3.3232076 -8.5412025 -2.1158895 8 1
-4.175077 -10.714042 -2.2351367 7 2
-4.4066916 -11.285122 -1.9188254 17 3
-4.8811321 -12.480824 -1.64548 18 4
-6.3233333 -16.143539 -1.5168586 47 5
-7.7679443 -19.790947 -1.1142327 29 6
-2.845561 -7.1760879 -2.0684819 6 0
-3.3741233 -8.4960604 -2.1104908 9 1
-4.2530885 -10.68754 -2.2358999 7 2
-4.4985337 -11.287112 -1.9244571 16 3
-4.9777112 -12.470411 -1.6486486 18 4
-6.4713812 -16.187799 -1.5252254 64 5
-7.9237442 -19.780733 -1.1167448 29 6
-2.8934162 -7.1506748 -2.0669291 5 0
-3.434819 -8.4759102 -2.1113906 8 1
-4.3183537 -10.640152 -2.2320838 7 2
-4.5931087 -11.300149 -1.9319658 17 3
-5.0886106 -12.494187 -1.6564482 19 4
-6.6068096 -16.197575 -1.5304549 64 5
-8.0521612 -19.711548 -1.1159073 19 6
-2.9353905 -7.1147418 -2.0622702 6 0
-3.4954085 -8.4595385 -2.1131902 8 1
-4.3910284 -10.606116 -2.2313204 7 2
-4.7112293 -11.362696 -1.948235 17 3
-4.853806 -11.689265 -1.554078 3 4
-8.2103167 -19.704634 -1.1187335 19 6
-2.990983 -7.1083207 -2.0664113 6 0
-3.5543821 -8.4349298 -2.1131902 8 1
-4.4554863 -10.557896 -2.2275043 7 2
-4.7961521 -11.34856 -1.9513638 17 3
-5.3610177 -12.660475 -1.6881342 7 4
-8.3622065 -19.690573 -1.121141 29 6
-3.0370138 -7.0824709 -2.0648584 7 0
-3.607101 -8.3997955 -2.1104908 8 1
-4.5290861 -10.526533 -2.2275043 7 2
-4.8815165 -11.329312 -1.9538667 17 3
-6.8894491 -15.966434 -2.1351511 15 4
-8.5831327 -19.853462 -1.8923255 35 5
-8.5208941 -19.681202 -1.1239672 19 6
-3.0786471 -7.0433946 -2.0596819 5 0
-3.662528 -8.3672695 -2.1086912 8 1
-4.6056185 -10.501849 -2.2290308 7 2
-4.9581079 -11.289531 -1.9529281 23 3
-6.8425121 -15.558159 -2.0868907 21 4
-8.531497 -19.334351 -1.1075336 9 6
-3.1301019 -7.0270243 -2.061235 6 0
-3.7145023 -8.3272581 -2.105092 9 1
-4.6724124 -10.455102 -2.2259779 7 2
-5.0497136 -11.283491 -1.957934 18 3
-6.5921302 -14.709332 -1.9791584 38 4
-8.4500399 -18.793421 -1.0799003 9 6
-3.1710999 -6.9874096 -2.0560586 6 0
-3.7789965 -8.3153172 -2.1086912 8 1
-4.7410312 -10.417694 -2.224833 6 2
-5.1272192 -11.250656 -1.9582468 17 3
-6.4110417 -14.041761 -1.8953122 21 4
-8.3632603 -18.266943 -1.0528948 9 6
-3.221828 -6.9726777 -2.0581291 6 0
-3.8355095 -8.2894011 -2.1086912 8 1
-4.8144693 -10.386124 -2.2252147 7 2
-5.2006469 -11.203836 -1.9563696 17 3
-6.4571033 -13.891591 -1.8809316 7 4
-8.2761879 -17.748339 -1.0263082 19 6
-3.263025 -6.9342837 -2.0534704 5 0
-3.8932848 -8.2624235 -2.1086912 8 1
