# .PCD v0.7 - Point Cloud Data file format
VERSION 0.7
FIELDS x y z intensity ring
SIZE 4 4 4 4 2
TYPE F F F F U
COUNT 1 1 1 1 1
WIDTH 1309
HEIGHT 1
VIEWPOINT 0 0 0 1 0 0 0
POINTS 1309
DATA ascii
70.50013 3.028832 3.6981637 26 9
9.3640795 0.39902133 -1.8218443 3 2
70.491051 2.9914677 6.1727185 26 10
11.869409 0.49955264 -1.8815941 2 3
70.470963 2.9412994 8.6602802 17 11
15.938441 0.66244829 -1.9586842 3 4
6.6294804 0.24425375 -1.7775693 2 0
7.7391911 0.28108203 -1.7879109 3 1
9.4372692 0.33615395 -1.8355827 3 2
11.833124 0.41529071 -1.8753366 1 3
15.966485 0.55198389 -1.9616091 3 4
6.6368175 0.19813824 -1.7791222 3 0
7.7526522 0.22738822 -1.7906104 2 1
9.4197607 0.26970381 -1.8317665 3 2
11.843633 0.33289742 -1.876588 1 3
15.942169 0.43973705 -1.9581968 3 4
6.6303134 0.15161985 -1.7770516 3 0
7.7365165 0.17286348 -1.7865613 3 1
9.3978605 0.20342505 -1.8271869 3 2
11.861468 0.25053892 -1.8790911 2 3
15.919048 0.32790515 -1.9550281 2 4
6.6370049 0.10542306 -1.7786045 2 0
7.7394829 0.11887813 -1.7870111 4 1
9.3990517 0.13780618 -1.8271869 3 2
11.815523 0.16704828 -1.8715822 2 3
15.875297 0.21613212 -1.9494221 2 4
6.6337161 0.059051059 -1.7775693 2 0
7.7401242 0.064847149 -1.7870111 4 1
9.3997841 0.072185062 -1.8271869 3 2
11.812451 0.084528036 -1.8709565 2 3
15.86848 0.10524373 -1.9484472 2 4
6.6378298 0.012744971 -1.7786045 2 0
7.7131066 0.010771215 -1.7807125 3 1
9.360795 0.0065375012 -1.8195547 3 2
11.792999 0.0020617039 -1.8678278 2 3
15.860887 -0.0055364938 -1.9474722 2 4
6.585598 -0.033332992 -1.7646283 2 0
7.7305317 -0.043175884 -1.7847617 3 1
9.3606119 -0.05881523 -1.8195547 3 2
11.832232 -0.080540694 -1.8740851 2 3
15.864432 -0.11629444 -1.9479598 2 4
6.6180577 -0.078548387 -1.7734282 2 0
7.7359047 -0.095866978 -1.7861114 3 1
9.3599949 -0.12252905 -1.8195547 3 2
11.780055 -0.16037849 -1.8659505 2 3
15.857318 -0.22419249 -1.9472286 2 4
6.627028 -0.12377427 -1.7760164 3 0
7.737021 -0.14855841 -1.7865613 3 1
9.3667955 -0.18639342 -1.8210812 3 2
11.78264 -0.24063912 -1.8665762 3 3
15.851455 -0.33204064 -1.9467411 2 4
6.6414518 -0.17043273 -1.7801574 3 0
7.7163148 -0.20205882 -1.7820623 3 1
9.3731165 -0.25199196 -1.8226075 3 2
11.808319 -0.32364866 -1.8709565 3 3
15.828908 -0.44214141 -1.9443036 2 4
6.6207914 -0.21616389 -1.774981 3 0
7.6893964 -0.25508356 -1.7762135 4 1
9.3554316 -0.31689027 -1.8195547 3 2
11.75839 -0.40444797 -1.8634475 2 3
15.785661 -0.55400598 -1.9394289 2 4
6.6113544 -0.26322794 -1.7729106 4 0
7.7282639 -0.31175014 -1.7856615 6 1
9.3568478 -0.38398868 -1.820318 3 2
11.767038 -0.48907039 -1.8653249 3 3
15.723776 -0.66451979 -1.9323605 3 4
6.6054416 -0.31034929 -1.7718753 4 0
7.7083173 -0.36621177 -1.7816124 5 1
9.3558216 -0.45102903 -1.8206996 4 2
11.759292 -0.57306802 -1.8646991 3 3
15.742547 -0.77544737 -1.9352853 3 4
81.905029 -4.177794 -1.4315162 25 7
6.6031137 -0.35645601 -1.7718753 3 0
7.7269769 -0.42118329 -1.7865613 7 1
9.3191195 -0.51449358 -1.814212 3 2
11.74317 -0.6544891 -1.8628219 4 3
15.709002 -0.88377035 -1.9318731 3 4
6.6004643 -0.40254539 -1.7718753 4 0
7.7082877 -0.4741599 -1.7829621 6 1
9.303544 -0.5788089 -1.8119223 3 2
11.714656 -0.73497099 -1.8590674 4 3
15.70245 -0.99341732 -1.9318731 3 4
59.515259 -3.8695414 -1.041036 138 7
6.5820746 -0.44756669 -1.7677342 4 0
7.6911802 -0.52702928 -1.7798127 5 1
9.3325739 -0.64605016 -1.8184099 4 2
11.713181 -0.81701112 -1.8596932 3 3
15.703052 -1.1035727 -1.932848 3 4
6.5942006 -0.49466306 -1.7718753 4 0
7.6892567 -0.5808574 -1.7802627 6 1
9.308259 -0.70969498 -1.8145936 4 2
11.722948 -0.89997351 -1.8621961 4 3
15.687049 -1.212561 -1.9318731 3 4
6.5982881 -0.54131866 -1.7739457 3 0
7.700551 -0.63580674 -1.7838619 7 1
9.2953873 -0.77238709 -1.8130672 4 2
11.724425 -0.98040617 -1.8634475 3 3
15.666333 -1.321046 -1.9304106 3 4
6.5713601 -0.58416617 -1.7677342 3 0
7.6824584 -0.68699265 -1.7807125 5 1
9.2917233 -0.83743805 -1.8134488 3 2
11.744836 -1.0647302 -1.8678278 3 3
15.696516 -1.4312571 -1.9352853 3 4
6.5671215 -0.63002837 -1.7677342 3 0
7.6735954 -0.74023491 -1.7798127 5 1
9.3325472 -0.90684241 -1.8226075 3 2
11.713525 -1.1443932 -1.8640733 3 3
15.652556 -1.5375047 -1.9311417 2 4
6.5779362 -0.67744297 -1.7718753 3 0
7.6818094 -0.79519284 -1.7829621 6 1
9.329896 -0.97238046 -1.8233709 3 2
11.720967 -1.2277869 -1.8665762 3 3
15.665131 -1.6492358 -1.9340667 2 4
6.6076117 -0.72715259 -1.7811928 3 0
7.67026 -0.84815961 -1.7816124 5 1
9.3074503 -1.0341295 -1.820318 3 2
11.708412 -1.3071016 -1.8659505 3 3
15.621672 -1.755012 -1.9301667 2 4
6.5909958 -0.77076566 -1.7780869 3 0
7.66818 -0.9008041 -1.7825122 5 1
9.3078022 -1.1000037 -1.8218443 3 2
11.710772 -1.3902063 -1.8678278 3 3
15.621191 -1.8627142 -1.9316292 2 4
6.5739517 -0.81533366 -1.774981 3 0
7.6578369 -0.953834 -1.7816124 4 1
9.2728262 -1.1599224 -1.8165017 3 2
11.697118 -1.4693938 -1.867202 3 3
15.586143 -1.9689875 -1.9289482 2 4
6.5795922 -0.86271513 -1.7780869 3 0
7.6683798 -1.0095613 -1.7856615 3 1
9.2993221 -1.2308844 -1.8233709 3 2
11.694136 -1.5540992 -1.8684534 2 3
15.597596 -2.0811636 -1.9321167 2 4
6.5848908 -0.9102152 -1.7811928 3 0
7.6669354 -1.0638752 -1.7870111 3 1
9.2749472 -1.2936057 -1.820318 3 2
11.694739 -1.6373445 -1.8703307 2 3
15.635763 -2.1974633 -1.9386977 3 4
6.5592585 -0.95338506 -1.7760164 3 0
7.6593213 -1.1173741 -1.7870111 2 1
9.3006535 -1.3634505 -1.8271869 3 2
11.667389 -1.7166481 -1.8678278 2 3
15.584693 -2.301347 -1.9343103 3 4
6.5600815 -1.0003185 -1.7780869 3 0
7.6551867 -1.1714082 -1.7879109 3 1
9.2909088 -1.4283476 -1.8271869 3 2
11.670738 -1.8004689 -1.8703307 2 3
15.568246 -2.4100919 -1.9343103 3 4
6.5662923 -1.0482235 -1.7817104 2 0
7.6699133 -1.2285209 -1.7933098 2 1
9.2807102 -1.493175 -1.8271869 3 2
11.665685 -1.8831608 -1.8715822 2 3
15.562799 -2.5206234 -1.9357728 3 4
6.5473809 -1.0921319 -1.7786045 2 0
7.668838 -1.2833233 -1.7951094 2 1
9.2587156 -1.5543617 -1.8248973 3 2
11.672075 -1.9658029 -1.8747108 1 3
15.556567 -2.631196 -1.9372352 3 4
6.5436029 -1.1373346 -1.7796398 2 0
7.6445661 -1.3328155 -1.7915101 2 1
9.2244329 -1.6148987 -1.820318 3 2
11.634721 -2.0431414 -1.8709565 3 3
15.546116 -2.7384019 -1.9382101 3 4
6.5545125 -1.1864303 -1.7848163 2 0
7.6504145 -1.3889368 -1.7951094 2 1
9.2402678 -1.6825734 -1.8256606 3 2
11.620544 -2.122288 -1.8709565 3 3
15.526619 -2.8468664 -1.9382101 3 4
6.5348935 -1.2288755 -1.7817104 2 0
7.6369529 -1.4402564 -1.7942096 2 1
9.2823076 -1.7572662 -1.8363459 3 2
11.640377 -2.2099946 -1.876588 2 3
15.551734 -2.961026 -1.9438162 4 4
6.4977145 -1.2689134 -1.7739457 2 0
7.6228876 -1.4927881 -1.7933098 2 1
9.2351379 -1.8152099 -1.8294767 3 2
11.585903 -2.2835653 -1.8703307 4 3
15.561842 -3.0756829 -1.947716 5 4
6.5000577 -1.3165456 -1.7770516 2 0
7.6199193 -1.5475203 -1.7951094 2 1
9.2106981 -1.877286 -1.8271869 3 2
11.571613 -2.3647895 -1.8706435 5 3
15.580828 -3.1926172 -1.9528345 3 4
6.4907079 -1.361892 -1.7770516 2 0
7.5936737 -1.5974698 -1.7915101 2 1
9.1977062 -1.9399374 -1.8271869 3 2
11.551384 -2.4426823 -1.8700178 4 3
15.596998 -3.3095543 -1.9577093 3 4
6.5379262 -1.418328 -1.7925807 2 0
7.6169 -1.6565754 -1.7996083 2 1
9.1916122 -2.0057759 -1.8287135 3 2
11.549487 -2.526643 -1.8725207 4 3
15.581865 -3.4173431 -1.9586842 3 4
6.5165548 -1.4614 -1.789475 2 0
7.6013474 -1.7088559 -1.7987086 2 1
9.1582336 -2.0655768 -1.8248973 3 2
11.537348 -2.6085186 -1.8734595 5 3
15.565372 -3.5277958 -1.9596591 3 4
6.4986653 -1.5051147 -1.7874043 1 0
7.5740461 -1.7583557 -1.7951094 2 1
9.1646233 -2.1343608 -1.8290951 4 2
11.54194 -2.6943889 -1.8772138 7 3
15.606082 -3.6517537 -1.9679463 3 4
6.4823627 -1.5490998 -1.7858515 2 0
7.5653763 -1.812097 -1.7960092 3 1
9.1704979 -2.2033346 -1.833293 3 2
11.538212 -2.7786002 -1.8797168 6 3
15.597575 -3.7648067 -1.97014 2 4
6.4713902 -1.5943172 -1.7858515 2 0
7.5317297 -1.8597301 -1.7910603 3 1
9.1491737 -2.2658863 -1.8321481 4 2
11.535787 -2.8633666 -1.8825326 5 3
15.620998 -3.8860657 -1.9764771 2 4
6.4469943 -1.6361302 -1.782228 2 0
7.5317836 -1.9156282 -1.7942096 4 1
9.155961 -2.3355269 -1.8367275 4 2
11.523171 -2.9457886 -1.8837841 4 3
15.601178 -3.9969952 -1.977452 2 4
6.4671903 -1.6893991 -1.7910279 2 0
7.5370784 -1.9730979 -1.7987086 5 1
9.0938597 -2.3874261 -1.8275685 4 2
11.519518 -3.0306861 -1.8865999 4 3
15.59977 -4.1128993 -1.9808645 2 4
6.4403133 -1.7304966 -1.7868867 2 0
7.5362916 -2.0292149 -1.8018579 6 1
9.1035061 -2.4580188 -1.8329114 4 2
11.494267 -3.1100013 -1.8859742 4 3
15.605161 -4.2310562 -1.9852518 2 4
6.4243512 -1.7743874 -1.7858515 2 0
7.5012827 -2.0760605 -1.796909 4 1
9.0766659 -2.5188878 -1.8310033 6 2
11.502725 -3.1986375 -1.89098 3 3
15.59819 -4.3462901 -1.9881767 2 4
46.626804 -13.053533 -2.5375614 0 6
6.432251 -1.8249946 -1.7915455 3 0
7.4903555 -2.1294441 -1.7978089 5 1
9.092844 -2.5918806 -1.8378724 6 2
11.49151 -3.2821181 -1.8928572 2 3
15.586552 -4.4605412 -1.9906142 2 4
6.4230623 -1.8709358 -1.7925807 3 0
7.4921422 -2.1865981 -1.8018579 6 1
9.1216335 -2.6690805 -1.8474127 4 2
11.51002 -3.3744898 -1.8997405 2 3
15.625504 -4.5899467 -1.9996324 2 4
46.620068 -13.756406 -2.5474007 0 6
6.4061432 -1.9146248 -1.7915455 3 0
7.4804282 -2.2399676 -1.8027576 7 1
9.0839748 -2.7270513 -1.8435967 4 2
11.505098 -3.4604518 -1.9028691 2 3
15.68051 -4.7252679 -2.0108442 3 4
6.3815379 -1.9559044 -1.7884396 3 0
7.4646087 -2.2921357 -1.8027576 6 1
9.0647154 -2.7904024 -1.8435967 4 2
11.473108 -3.5383584 -1.9016175 2 3
15.69645 -4.8498583 -2.0171814 3 4
6.3750997 -2.0027239 -1.7905102 4 0
7.4632955 -2.3488724 -1.806357 7 1
9.0506296 -2.8553896 -1.8447415 3 2
11.474496 -3.6267037 -1.9059978 2 3
15.726556 -4.9796953 -2.0254686 3 4
6.3683186 -2.0495489 -1.7925807 4 0
7.4318776 -2.3961344 -1.8027576 7 1
9.0454206 -2.9233346 -1.8477943 3 2
11.448898 -3.706722 -1.9059978 3 3
15.755609 -5.1101885 -2.0337558 3 4
6.3575249 -2.0951672 -1.7936161 4 0
7.414968 -2.4479601 -1.8027576 8 1
9.0290413 -2.9860697 -1.8485577 3 2
11.442153 -3.7907777 -1.9091264 2 3
15.796789 -5.245707 -2.0437491 2 4
6.3321319 -2.1346893 -1.7905102 3 0
7.4092121 -2.502116 -1.8054571 7 1
9.0042543 -3.0477717 -1.8477943 3 2
11.411669 -3.8692975 -1.9085008 3 3
15.834024 -5.3780098 -2.0532548 2 4
6.3316855 -2.183883 -1.7946514 4 0
7.4136662 -2.5614171 -1.810856 7 1
9.0309925 -3.1272616 -1.8577164 3 2
11.406774 -3.9566395 -1.9122552 3 3
15.871098 -5.5144806 -2.0630045 2 4
38.612164 -13.468852 -2.1431575 0 6
6.3017097 -2.2228918 -1.7905102 4 0
7.4250026 -2.6234992 -1.8180546 7 1
9.0015383 -3.1876118 -1.8561901 3 2
11.386321 -4.0388179 -1.9135066 3 3
15.944445 -5.6650209 -2.0776286 1 4
38.031849 -13.564975 -2.1161523 0 6
6.2896729 -2.2681425 -1.7915455 4 0
7.3661833 -2.660706 -1.8081565 7 1
8.9537859 -3.2394576 -1.8508474 3 2
11.358565 -4.1162286 -1.9135066 3 3
16.016459 -5.816854 -2.0922532 1 4
6.2813396 -2.3135726 -1.7936161 4 0
7.3552155 -2.7134821 -1.8099562 7 1
63.913086 -23.604132 3.5706735 20 9
9.000926 -3.3277576 -1.8653487 3 2
11.351782 -4.2036567 -1.917261 2 3
16.036051 -5.9478297 -2.1000526 2 4
39.304916 -14.632987 -2.1980057 0 6
6.2867322 -2.3655322 -1.7998277 5 0
7.3543282 -2.771637 -1.8144552 7 1
9.0399208 -3.4140983 -1.8783239 3 2
11.35172 -4.2939858 -1.9222668 2 3
16.114799 -6.1053514 -2.1158957 2 4
39.186867 -14.901349 -2.1971684 0 6
6.230392 -2.394119 -1.7884396 4 0
7.331162 -2.821512 -1.8135554 6 1
8.9425964 -3.4488678 -1.8630592 3 2
11.328835 -4.3759775 -1.9235184 2 3
16.173607 -6.2570968 -2.1293013 12 4
38.605251 -14.989494 -2.1703722 0 6
6.2315102 -2.4446118 -1.7936161 5 0
7.3294234 -2.8797505 -1.8180546 6 1
8.8969908 -3.5010307 -1.8584797 3 2
11.34657 -4.4718208 -1.931653 3 3
16.160919 -6.3822522 -2.1334448 5 4
38.416912 -15.218086 -2.1655574 0 6
6.2398357 -2.4970195 -1.8008629 4 0
7.3096519 -2.9295733 -1.8180546 6 1
8.8905506 -3.5703738 -1.8622959 3 2
11.327904 -4.5560846 -1.933843 5 3
16.305611 -6.5713487 -2.1585498 3 4
38.776363 -15.674541 -2.1919348 0 6
6.221808 -2.5416064 -1.8008629 5 0
7.2812862 -2.9788527 -1.8162549 6 1
8.9053755 -3.6487298 -1.8706915 3 2
11.320595 -4.647531 -1.9382232 4 3
16.371334 -6.7310691 -2.173418 5 4
29.656992 -12.235843 -1.6813452 19 6
6.1967802 -2.5820086 -1.7987925 4 0
7.2585149 -3.0288627 -1.815805 4 1
8.9297543 -3.733566 -1.8813769 3 2
11.320671 -4.7401829 -1.9438549 5 3
16.499685 -6.9188919 -2.1968169 5 4
6.1679349 -2.6206741 -1.7956866 4 0
7.2622967 -3.0901442 -1.8221035 3 1
8.8860722 -3.7865655 -1.8775605 3 2
11.306313 -4.8248835 -1.9469837 4 3
16.642632 -7.1158557 -2.2224095 9 4
6.1676817 -2.6702726 -1.8008629 5 0
7.2232151 -3.131753 -1.8176044 4 1
8.8450155 -3.8422518 -1.8745077 3 2
11.314014 -4.9218221 -1.9541795 4 3
16.566513 -7.2170811 -2.2187536 11 4
6.1524248 -2.7148254 -1.8018982 4 0
7.2118702 -3.1868298 -1.8203038 4 1
8.8323374 -3.9102652 -1.8775605 3 2
11.326331 -5.0215039 -1.9623141 1 3
16.497581 -7.3245053 -2.216316 11 4
6.1333222 -2.7577107 -1.8018982 4 0
7.1841159 -3.2347 -1.8189542 3 1
8.7618742 -3.9524562 -1.8684019 3 2
11.323403 -5.1150913 -1.9679458 2 3
16.453278 -7.4427729 -2.2172909 11 4
6.1314845 -2.808507 -1.8070747 4 0
7.1666722 -3.2872126 -1.8203038 2 1
8.7561769 -4.0218382 -1.8729813 3 2
11.295502 -5.1953502 -1.9691973 2 3
16.453203 -7.5815487 -2.2243595 9 4
6.1052217 -2.8469119 -1.8050041 3 0
7.1688519 -3.3474612 -1.8266027 2 1
8.6923189 -4.0662308 -1.8653487 3 2
11.323355 -5.3042469 -1.9804606 2 3
16.471306 -7.7262425 -2.233865 11 4
6.0851979 -2.8894646 -1.8050041 3 0
7.1206679 -3.3857117 -1.8203038 2 1
8.6708097 -4.1301923 -1.8668753 3 2
11.328839 -5.4035792 -1.9879694 2 3
16.418756 -7.8419003 -2.2341089 9 4
6.0753136 -2.9369211 -1.80811 3 0
7.1161523 -3.4446805 -1.8252529 3 1
8.6982927 -4.2180371 -1.8790871 3 2
11.297947 -5.4859877 -1.9892209 2 3
16.388605 -7.9684858 -2.2375214 9 4
24.742203 -12.067579 -1.4426931 11 6
6.0719957 -2.9877923 -1.8132863 3 0
7.0796947 -3.4882472 -1.8221035 3 1
8.6756763 -4.2821355 -1.8806137 3 2
11.33021 -5.5997376 -2.0017357 2 3
16.329016 -8.0809441 -2.2370338 9 4
6.0440798 -3.0266495 -1.8112158 3 0
7.0795574 -3.5498161 -1.8284022 2 1
8.6473246 -4.3434796 -1.8809953 4 2
11.3579 -5.7124281 -2.0136247 2 3
16.304117 -8.2108154 -2.241421 9 4
6.0159168 -3.065263 -1.8091452 3 0
7.06849 -3.6062386 -1.8320013 3 1
8.6402884 -4.4138498 -1.8859563 4 2
11.346891 -5.8039989 -2.0186305 4 3
16.239332 -8.3208179 -2.2404461 9 4
6.0154967 -3.1168053 -1.8153569 3 0
7.0403204 -3.6524737 -1.8311015 2 1
8.6197147 -4.4794936 -1.8882459 4 2
11.358666 -5.9104285 -2.0280166 4 3
16.209011 -8.4486666 -2.2443459 9 4
45.512058 -23.783016 -2.6912198 0 6
6.011837 -3.169682 -1.8210509 2 0
7.0071096 -3.69912 -1.8293018 1 1
8.616003 -4.5542402 -1.8943518 4 2
11.392897 -6.032228 -2.0417829 10 3
16.142618 -8.5579004 -2.243371 9 4
22.415531 -11.91855 -1.3304847 10 6
6.006588 -3.2207041 -1.8262272 2 0
6.974247 -3.7442615 -1.8275024 2 1
8.5970259 -4.6232171 -1.8974047 4 2
11.315721 -6.0928874 -2.0355256 22 3
16.110435 -8.6854601 -2.2472708 9 4
5.9449458 -3.2412894 -1.8143215 2 0
6.9393849 -3.7881901 -1.8252529 3 1
8.5550222 -4.6759777 -1.895115 3 2
11.36756 -6.2209783 -2.0524204 4 3
16.091185 -8.8206205 -2.2531207 9 4
5.936264 -3.2891707 -1.8184627 2 0
6.9355922 -3.8476269 -1.8311015 4 1
8.5461941 -4.7489386 -1.9004576 3 2
11.389448 -6.3366828 -2.0643096 4 3
16.068926 -8.9511976 -2.2584829 9 4
43.505108 -24.304216 -2.6116693 0 6
5.9165235 -3.3324289 -1.8194979 2 0
6.8864946 -3.8835084 -1.8252529 3 1
8.4991579 -4.8007622 -1.8974047 3 2
11.411991 -6.4539647 -2.0765114 4 3
16.057865 -9.0925035 -2.265795 9 4
43.466362 -24.682297 -2.6196241 0 6
5.862936 -3.3563764 -1.8101805 2 0
6.8811946 -3.9440877 -1.8311015 5 1
8.5165138 -4.8893042 -1.9088533 3 2
11.42146 -6.5649786 -2.0865231 4 3
16.408644 -9.4430113 -2.3245361 11 4
43.351807 -25.019091 -2.623183 0 6
5.8827772 -3.4224837 -1.8236392 2 0
6.8619123 -3.9969354 -1.8333511 6 1
8.482173 -4.9486413 -1.9088533 3 2
11.537393 -6.7392068 -2.1162457 6 3
16.42971 -9.6084423 -2.3369668 11 4
43.145077 -25.30294 -2.621299 0 6
5.852088 -3.4595368 -1.8215685 2 0
6.8019781 -4.0258837 -1.824803 4 1
8.4778175 -5.0257573 -1.9157225 3 2
11.65144 -6.9153686 -2.1459682 8 3
16.316156 -9.695529 -2.3303859 9 4
43.084049 -25.673056 -2.6284168 0 6
5.8112326 -3.4903605 -1.8163921 2 0
6.8154578 -4.0983787 -1.8360505 3 1
8.4324341 -5.0787435 -1.9134327 3 2
11.594419 -6.9914412 -2.1444039 9 3
16.180094 -9.7681618 -2.3206363 12 4
5.8081627 -3.543926 -1.8231214 2 0
6.8033094 -4.1560183 -1.8405495 3 1
8.4570599 -5.1743746 -1.927171 3 2
11.504901 -7.0474505 -2.1368952 10 3
16.126738 -9.8902216 -2.32283 11 4
45.137245 -27.757763 -2.777051 0 6
5.7520814 -3.5650516 -1.8132863 2 0
6.7658496 -4.1982751 -1.8382999 3 1
8.4140596 -5.2291441 -1.9256444 3 2
11.445358 -7.1213365 -2.1350179 9 3
16.020229 -9.979475 -2.3174677 11 4
45.091427 -28.16531 -2.786262 0 6
5.733592 -3.6092379 -1.8153569 2 0
6.7396736 -4.2474852 -1.8391999 4 1
8.4072332 -5.3066201 -1.9325136 3 2
11.348606 -7.1715183 -2.1262577 10 3
15.925004 -10.075152 -2.3138115 9 4
45.065723 -28.588545 -2.7969384 0 6
5.7049999 -3.6470969 -1.8143215 2 0
6.727911 -4.3059883 -1.8441486 6 1
8.4030371 -5.3863735 -1.940146 3 2
11.308238 -7.2569728 -2.1281347 9 3
15.957828 -10.25261 -2.3289232 9 4
44.989292 -28.982508 -2.8046842 0 6
5.6956034 -3.6973546 -1.8194979 3 0
6.7107582 -4.3613486 -1.847748 8 1
8.3783922 -5.4534736 -1.9431988 3 2
11.2573 -7.3357415 -2.1281347 9 3
16.05378 -10.473314 -2.3535409 11 4
44.99646 -29.433641 -2.8178728 0 6
5.6744914 -3.7402165 -1.8210509 2 0
6.6931586 -4.416678 -1.8513472 8 1
8.3941669 -5.5475545 -1.9557924 4 2
11.195929 -7.4076133 -2.1262577 9 3
15.945518 -10.562115 -2.3484223 12 4
44.936287 -29.844294 -2.8270838 0 6
5.6594801 -3.7872617 -1.8246742 3 0
6.6621614 -4.4632969 -1.8513472 7 1
8.3813181 -5.6235223 -1.9618982 4 2
11.127542 -7.4745789 -2.1231289 9 3
15.952108 -10.727456 -2.3603656 11 4
44.952057 -30.30913 -2.8413193 0 6
5.6456866 -3.8353641 -1.8288155 3 0
6.6405087 -4.516274 -1.8540466 7 1
8.3580799 -5.6929488 -1.9657143 4 2
11.101202 -7.5698891 -2.1281347 9 3
15.852237 -10.821774 -2.3567097 9 4
44.884407 -30.721489 -2.8505306 0 6
5.5885563 -3.8538473 -1.8189803 2 0
6.6248541 -4.5735941 -1.8585455 7 1
8.3245926 -5.7556272 -1.9672408 4 2
11.035089 -7.6382093 -2.1256318 9 3
15.763247 -10.923132 -2.3547597 9 4
44.793495 -31.120703 -2.8584857 0 6
5.5789251 -3.9049537 -1.8246742 3 0
6.5688248 -4.6029587 -1.8517971 4 1
8.330224 -5.8437262 -1.9779261 4 2
10.969911 -7.7040629 -2.1231289 9 3
15.585938 -10.962111 -2.339648 9 4
44.812439 -31.588276 -2.873349 0 6
5.5207133 -3.9204671 -1.8143215 4 0
6.5691071 -4.6701469 -1.8607951 4 1
8.2924242 -5.904017 -1.9786894 24 2
10.919076 -7.7827516 -2.1237545 9 3
15.536815 -11.086394 -2.3435478 9 4
44.685032 -31.967752 -2.8794198 0 6
5.5057473 -3.9679492 -1.8184627 4 0
6.548986 -4.7250152 -1.8643943 2 1
8.2727346 -5.9752684 -1.9836504 12 2
10.856245 -7.8499503 -2.1218774 9 3
15.487978 -11.215547 -2.347935 12 4
44.579552 -32.353287 -2.8867469 0 6
5.4942064 -4.0167346 -1.8236392 3 0
6.52139 -4.7729359 -1.8657441 3 1
8.2609043 -6.0549278 -1.9909012 4 2
10.794806 -7.9208751 -2.120626 9 3
15.177702 -11.14913 -2.3123491 9 4
44.664589 -32.89349 -2.9070532 0 6
5.4908547 -4.07341 -1.8319213 3 0
6.4926028 -4.8218322 -1.8670937 3 1
8.2656908 -6.1476011 -2.0023496 4 2
10.748752 -8.0031214 -2.122503 9 3
15.150427 -11.29278 -2.3201487 9 4
44.600254 -33.328846 -2.9179392 0 6
5.4360452 -4.0918922 -1.8231214 2 0
6.4836845 -4.8858061 -1.8742923 1 1
8.2507782 -6.2264433 -2.0092189 4 2
10.683162 -8.0708218 -2.120626 9 3
15.498707 -11.721581 -2.3859582 9 4
44.576569 -33.798683 -2.9317558 0 6
5.4211631 -4.1402965 -1.8277801 3 0
6.4803791 -4.9546237 -1.8832903 2 1
8.2336092 -6.3041821 -2.0157063 4 2
10.626557 -8.1452065 -2.120626 9 3
15.051124 -11.549134 -2.3294108 16 4
15.084138 -11.591206 -1.664326 36 5
44.497829 -34.230839 -2.9422231 0 6
5.4012895 -4.185142 -1.830886 4 0
6.4548712 -5.0069113 -1.8859898 2 1
8.2498636 -6.4084802 -2.0305893 4 2
10.581909 -8.2288961 -2.1231289 11 3
14.697576 -11.441751 -2.2870002 8 4
44.415218 -34.663536 -2.9526904 0 6
5.3886471 -4.2358799 -1.83658 6 0
6.4105701 -5.0446215 -1.8832903 3 1
8.2203436 -6.4780703 -2.0344057 4 2
10.499389 -8.2829962 -2.1181231 11 3
14.470902 -11.42843 -2.2640889 9 4
44.407024 -35.15873 -2.9683909 0 6
5.3529019 -4.2685785 -1.8345095 6 0
6.3949947 -5.1050568 -1.8891391 3 1
8.3420658 -6.6689239 -2.0760019 4 2
10.432055 -8.3486862 -2.1162457 9 3
14.27612 -11.43733 -2.246052 8 4
44.39407 -35.655491 -2.9840918 0 6
5.3154621 -4.2997694 -1.8319213 7 0
6.3682861 -5.1569366 -1.8918384 3 1
8.3681583 -6.7836585 -2.0939381 7 2
10.30136 -8.3597527 -2.101228 11 3
14.061901 -11.427796 -2.2248468 5 4
5.3054886 -4.351778 -1.8386506 6 0
6.3255067 -5.1939812 -1.889589 4 1
8.3145313 -6.836926 -2.0924115 9 2
10.190892 -8.3887815 -2.0905905 9 3
13.842849 -11.407106 -2.2024229 5 4
41.169716 -34.010162 -2.7986133 0 6
5.2586427 -4.3751197 -1.8329566 5 0
6.3145471 -5.2592154 -1.8972371 6 1
8.2696133 -6.8973207 -2.0931747 9 2
10.110851 -8.4419975 -2.0862103 9 3
13.631887 -11.393985 -2.1814616 6 4
40.753696 -34.147953 -2.7864714 0 6
5.2501168 -4.4304137 -1.8407211 6 0
6.2910757 -5.3144889 -1.9012864 5 1
8.2092686 -6.9447408 -2.0901217 9 2
10.036595 -8.4996128 -2.0830817 9 3
13.427846 -11.383614 -2.1614747 5 4
40.812595 -34.685139 -2.806987 0 6
5.2219944 -4.4694705 -1.8417563 6 0
6.2848964 -5.3849053 -1.9107343 7 1
8.1456861 -6.989099 -2.0863059 7 2
9.9260635 -8.525712 -2.0724442 10 3
10.074254 -8.6621666 -1.6313431 19 4
10.091627 -8.6893654 -1.165098 19 5
10.04819 -8.66113 -0.6952309 17 6
10.127063 -8.7383623 -0.23347829 19 7
5.1848292 -4.500752 -1.8396858 6 0
9.9697104 -8.660429 0.23051138 137 8
6.2442088 -5.4260945 -1.9098345 6 1
8.0966949 -7.0457954 -2.0863059 10 2
9.8960915 -8.6207514 -2.0787015 10 3
9.9701481 -8.6944513 -1.6242748 21 4
9.9679308 -8.7139797 -0.69387019 26 6
9.9664927 -8.7219324 -0.23117457 28 7
5.1590819 -4.5419455 -1.8417563 6 0
9.9330406 -8.7479143 0.23103496 140 8
6.232491 -5.4927464 -1.9179326 7 1
9.9583111 -8.7794313 0.69575429 176 9
8.0397148 -7.0929513 -2.0840161 9 2
9.8282986 -8.6800661 -2.0768242 9 3
13.390216 -11.842497 -2.1948669 4 4
5.1424589 -4.5898199 -1.8469328 6 0
9.9597206 -8.8956385 0.23309435 167 8
6.1949587 -5.5350418 -1.9179326 7 1
9.9533548 -8.8993263 0.69973183 136 9
8.004632 -7.1619964 -2.0878322 10 2
9.7630463 -8.7445135 -2.0758855 8 3
12.705769 -11.396233 -2.0956655 18 4
12.734624 -11.43415 -1.4973356 31 5
5.1166444 -4.6329842 -1.849521 5 0
9.9418383 -9.0052271 0.23414148 162 8
6.1551924 -5.5792303 -1.9179326 6 1
9.936758 -9.0132627 0.70308131 141 9
7.9573455 -7.2203426 -2.0885954 9 2
9.6782942 -8.7942266 -2.0711925 12 3
13.324889 -12.120466 -2.2116849 11 4
5.0955586 -4.6790447 -1.853662 3 0
9.9389868 -9.1329651 0.23560749 158 8
6.124701 -5.6299787 -1.920632 6 1
9.9323893 -9.1365004 0.70726818 138 9
7.9170308 -7.2877359 -2.0916483 9 2
9.6631489 -8.9044142 -2.0812044 9 3
13.241408 -12.214541 -2.2119288 8 4
5.0655966 -4.7171378 -1.8546973 3 0
9.9409714 -9.2603779 0.23714329 146 8
6.1052032 -5.6912022 -1.9269307 6 1
9.9371614 -9.2665529 0.7120831 137 9
7.8643699 -7.3387775 -2.0908849 9 2
9.6456203 -9.0104361 -2.0905905 9 3
12.958655 -12.122254 -2.1787803 10 4
5.0137038 -4.7329426 -1.8474505 2 0
9.9589376 -9.4078264 0.23913288 143 8
6.0889859 -5.7540421 -1.9341292 7 1
9.9360781 -9.396081 0.71668863 138 9
7.8100929 -7.3908029 -2.0901217 9 2
9.7330589 -9.2201986 -2.1234417 8 3
11.883399 -11.269044 -2.0108442 2 4
4.9972854 -4.7838602 -1.853662 2 0
9.9336662 -9.5127382 0.24007531 148 8
9.9324455 -9.5215464 0.72108489 139 9
7.7822723 -7.4655375 -2.0962276 9 2
9.7769337 -9.3888531 -2.1469069 9 3
12.846091 -12.353435 -2.1882861 8 4
4.9978805 -4.8500533 -1.8660854 1 0
9.9487839 -9.6612654 0.24206488 145 8
6.0146627 -5.8428788 -1.9359287 42 1
9.9215841 -9.6449499 0.7251671 145 9
7.7440367 -7.5333762 -2.100044 10 2
9.8073835 -9.5505934 -2.1681819 10 3
12.642303 -12.324191 -2.1678119 3 4
4.9515071 -4.8726315 -1.8614267 2 0
9.9309626 -9.7795916 0.24328655 147 8
5.9834442 -5.8943009 -1.9390782 11 1
9.9180145 -9.7770758 0.72987735 135 9
7.6968455 -7.5927711 -2.1015704 10 2
9.847291 -9.7243166 -2.1919601 9 3
12.420431 -12.278175 -2.1444132 7 4
4.9214716 -4.9111743 -1.8629795 1 0
9.9105549 -9.8967266 0.24447331 146 8
5.9697227 -5.9634738 -1.9480762 5 1
9.9144926 -9.9110317 0.73469228 139 9
7.6575313 -7.6602044 -2.1053865 9 2
9.7400799 -9.7536869 -2.1831996 10 3
9.993145 -10.017592 -1.7373695 13 4
10.017233 -10.055771 -1.2417951 22 5
9.9885359 -10.037469 -0.7421239 17 6
10.030704 -10.090404 -0.24834774 22 7
4.9060755 -4.9646502 -1.8702265 2 0
9.8988304 -10.024012 0.24590442 162 8
5.9402657 -6.0174861 -1.9521253 7 1
9.9067745 -10.042566 0.73929775 139 9
7.6121354 -7.7218657 -2.1076763 10 2
9.7133312 -9.8636742 -2.1925857 9 3
9.9313192 -10.095603 -1.7388319 12 4
9.9439955 -10.122616 -1.2414464 22 5
9.9252138 -10.114084 -0.74264729 17 6
9.9936113 -10.194457 -0.24918546 22 7
4.8686004 -4.9960127 -1.8691912 2 0
9.8913898 -10.157341 0.24747512 156 8
5.9198599 -6.0811515 -1.9593236 7 1
9.9060564 -10.183064 0.74453139 170 9
7.5580425 -7.7748194 -2.1076763 9 2
9.6263418 -9.9128218 -2.1885185 8 3
11.985034 -12.354645 -2.1134584 5 4
4.8510046 -5.0479879 -1.8759204 2 0
9.8940601 -10.299422 0.24929017 162 8
5.8826599 -6.127955 -1.9611233 7 1
9.8890629 -10.305017 0.74850893 180 9
7.5212522 -7.8430891 -2.1122558 10 2
9.5190182 -9.9367485 -2.1794453 9 3
11.791458 -12.326128 -2.0944467 5 4
4.8245063 -5.0893025 -1.8790263 2 0
9.8893023 -10.43938 0.25100052 150 8
5.8595724 -6.1876645 -1.9674219 7 1
9.8937569 -10.455041 0.75437051 135 9
7.4420342 -7.86973 -2.1053865 10 2
9.5253792 -10.083375 -2.1969659 11 3
11.750881 -12.452304 -2.1022463 5 4
4.795455 -5.1299167 -1.8816146 3 0
9.883069 -10.579768 0.25271085 146 8
5.8188906 -6.2312689 -1.9683217 7 1
9.8832083 -10.591028 0.75918543 135 9
7.3976226 -7.9329791 -2.1084394 9 2
9.5234213 -10.223345 -2.2129223 8 3
11.478397 -12.334945 -2.0688543 8 4
11.752346 -12.660316 -0.90530741 9 6
4.7464314 -5.149065 -1.8764381 3 0
5.8069282 -6.3061457 -1.9791193 6 1
7.3420606 -7.9844298 -2.1084394 10 2
9.4264259 -10.261941 -2.2069776 9 3
10.319021 -11.249402 -1.8743507 12 4
4.7120624 -5.1857572 -1.8774734 4 0
5.819284 -6.4110279 -1.9989151 7 1
7.3230653 -8.0762157 -2.1191249 10 2
9.3474493 -10.323275 -2.2057261 9 3
10.249555 -11.331473 -1.8760569 16 4
4.6937923 -5.2386703 -1.8847204 4 0
5.9355435 -6.6315522 -2.054703 7 1
7.2611613 -8.1240196 -2.11798 12 2
9.2883091 -10.403014 -2.2088549 9 3
12.2962 -13.786413 -2.2682326 4 4
4.6698971 -5.2857885 -1.8898968 3 0
5.9123125 -6.6991282 -2.0628011 9 1
7.21738 -8.186511 -2.1214147 19 2
9.3282566 -10.592005 -2.2354488 8 3
12.047585 -13.699005 -2.2399588 4 4
4.6287322 -5.3116274 -1.8878261 3 0
5.8627381 -6.7348065 -2.0614514 10 1
7.1999803 -8.282629 -2.1332448 12 2
9.3292036 -10.743377 -2.2535954 8 3
12.026903 -13.864666 -2.253608 9 4
4.5915375 -5.3438125 -1.8878261 3 0
5.8028855 -6.7607851 -2.0569522 10 1
7.1164289 -8.3028803 -2.1256123 10 2
9.3631763 -10.935789 -2.280189 9 3
11.816273 -13.815536 -2.2321589 9 4
4.5740991 -5.3993211 -1.8961084 4 0
5.7291088 -6.7698917 -2.0475044 9 1
7.0760317 -8.373353 -2.130955 12 2
9.1604548 -10.851453 -2.2492149 8 3
11.585166 -13.738349 -2.2065666 5 4
4.5338173 -5.4281569 -1.8950732 4 0
5.6792107 -6.8067317 -2.0466046 9 1
7.0213866 -8.4243402 -2.1317184 12 2
9.1205053 -10.954542 -2.2576625 7 3
11.556235 -13.899796 -2.2194848 9 4
4.5065899 -5.4708209 -1.8992143 4 0
5.6178885 -6.8271732 -2.0412059 9 1
6.9511857 -8.4595003 -2.1282835 9 2
9.0062075 -10.972142 -2.2482765 10 3
11.179415 -13.634282 -2.1648872 8 4
4.468287 -5.5021491 -1.8992143 4 0
5.5749998 -6.8722806 -2.0430055 8 1
6.9302673 -8.5551128 -2.1401138 10 2
9.0747728 -11.214414 -2.2848821 8 3
8.9999437 -11.133858 -1.7578436 7 4
9.0852919 -11.255505 -1.2655014 23 5
4.4442544 -5.5513062 -1.9054259 4 0
5.5427098 -6.9308181 -2.0488544 10 1
6.8507714 -8.578742 -2.1340079 12 2
7.2876749 -9.1356497 -1.8509328 7 3
8.8737497 -11.135871 -1.7483377 9 4
8.8824368 -11.162753 -1.2480702 22 5
4.4077845 -5.5852304 -1.9064611 4 0
5.5002203 -6.9769959 -2.0511036 9 1
6.8320031 -8.6788092 -2.1469829 12 2
7.1760974 -9.1257467 -1.8387309 4 3
8.7369318 -11.122618 -1.7366383 9 4
8.8042908 -11.224492 -1.2480702 22 5
9.7819777 -12.484389 -0.83119977 8 6
4.3829193 -5.6341643 -1.9126729 4 0
5.4513779 -7.015224 -2.0511036 8 1
6.7832823 -8.7418032 -2.150799 12 2
7.0904303 -9.1475172 -1.8330992 8 3
8.6019487 -11.109571 -1.7251827 7 4
9.7409725 -12.612443 -0.8351773 8 6
4.3552341 -5.679956 -1.9178492 4 0
5.40938 -7.0623937 -2.053803 9 1
6.7125463 -8.7764721 -2.1477461 10 2
7.1187382 -9.3176613 -1.8571903 9 3
8.4760075 -11.106231 -1.715433 10 4
9.6793003 -12.715101 -0.83748007 8 6
4.3073215 -5.6994333 -1.9142257 6 0
5.3775568 -7.1233163 -2.0605516 10 1
6.6688395 -8.8466349 -2.1534703 13 2
7.077281 -9.3986931 -1.8634475 7 3
8.3409882 -11.088986 -1.7037336 13 4
8.327981 -11.087799 -1.213208 21 5
9.6046801 -12.801538 -0.83873612 8 6
4.2685814 -5.7309141 -1.9147433 22 0
5.3370018 -7.1731925 -2.0641508 10 1
6.5963783 -8.8787928 -2.1500359 12 2
7.0362158 -9.481184 -1.8700178 4 3
8.2172661 -11.084753 -1.6942277 9 4
8.2503719 -11.145668 -1.213208 21 5
9.5340738 -12.893972 -0.84041083 8 6
4.2318974 -5.7652469 -1.9162962 21 0
5.2810316 -7.2024179 -2.0619013 9 1
6.5377121 -8.9293795 -2.1511807 13 2
7.017664 -9.5954466 -1.8828454 7 3
8.090498 -11.074528 -1.6839907 9 4
9.4626446 -12.986044 -0.8420856 8 6
4.200604 -5.8071723 -1.9204375 15 0
5.2477403 -7.262804 -2.0686498 10 1
6.492866 -8.9959602 -2.1565235 15 2
7.0723314 -9.8096371 -1.9153838 7 3
7.9631152 -11.061464 -1.67351 7 4
9.3810253 -13.059886 -0.84271365 8 6
4.1800447 -5.8623705 -1.9292372 4 0
5.2162724 -7.3237529 -2.0758483 10 1
6.4219398 -9.0298691 -2.153852 12 2
7.0608764 -9.9392929 -1.9310273 6 3
7.8508768 -11.063606 -1.6657103 10 4
7.860096 -11.088895 -1.189153 20 5
9.3011599 -13.141362 -0.84376043 8 6
4.1367946 -5.888248 -1.9282019 4 0
5.1717324 -7.3695617 -2.0785477 10 1
6.3648353 -9.0798035 -2.1553786 12 2
6.9953246 -9.9903593 -1.931653 6 3
7.7245374 -11.048189 -1.6552296 9 4
7.8258395 -11.205568 -1.1957767 20 5
9.2572041 -13.26989 -0.8479473 17 6
4.0922208 -5.9099169 -1.9261314 4 0
5.1281013 -7.4142098 -2.0812473 10 1
6.3213735 -9.1530952 -2.1622477 10 2
6.9927111 -10.136512 -1.9504251 3 3
7.6108589 -11.044936 -1.6469425 9 4
9.2299509 -13.429661 -0.85401821 8 6
4.061749 -5.9543004 -1.9313078 4 0
5.0773125 -7.4514399 -2.0816972 9 1
6.2650495 -9.2083664 -2.1649189 10 2
7.5269036 -11.0755 -2.1209388 8 3
7.4923139 -11.037031 -1.6379241 9 4
4.0330114 -6.0017533 -1.9375196 4 0
5.0273414 -7.4899402 -2.0825968 9 1
6.2159133 -9.2747107 -2.1702616 10 2
7.4153333 -11.076892 -2.1112397 9 3
7.362114 -11.00986 -1.6262246 9 4
3.9931452 -6.0329847 -1.9385546 4 0
4.9792285 -7.5313578 -2.0843966 9 1
6.1472297 -9.3086147 -2.1683536 10 2
7.2832036 -11.041364 -2.0949705 9 3
7.2555914 -11.016227 -1.6196437 10 4
3.9688723 -6.0859151 -1.9468369 4 0
4.9416761 -7.5863028 -2.0902452 10 1
6.1163464 -9.4039688 -2.1805654 10 2
7.1693544 -11.03562 -2.0843329 9 3
7.1458597 -11.012073 -1.6118441 11 4
10.029958 -15.480244 -1.6137757 34 5
3.930464 -6.119977 -1.9489075 5 0
4.8854365 -7.6156955 -2.0888956 9 1
6.0314856 -9.4166822 -2.173696 10 2
7.0655222 -11.043803 -2.0765114 8 3
7.024982 -10.99311 -1.6018509 9 4
3.8855779 -6.1440015 -1.9478723 4 0
4.8279881 -7.6430264 -2.087096 9 1
5.9739771 -9.4718447 -2.1767492 12 2
6.9513984 -11.034362 -2.0655608 10 3
6.916348 -10.99148 -1.5945386 4 4
3.8477528 -6.1768665 -1.9499428 4 0
4.7799697 -7.6823301 -2.0888956 9 1
5.8907194 -9.4822702 -2.1698802 10 2
6.8490496 -11.037783 -2.0574262 9 3
12.292925 -19.834188 -2.8651483 14 4
3.8238044 -6.2325535 -1.9592602 4 0
4.7275667 -7.7146888 -2.0888956 9 1
5.8137445 -9.5020504 -2.1653006 12 2
6.739768 -11.028522 -2.0471017 8 3
12.205857 -20.004251 -2.8773353 14 4
3.7731175 -6.2498331 -1.9561545 4 0
4.6853237 -7.7700157 -2.0947442 10 1
5.7435751 -9.5400448 -2.1645374 10 2
6.6342096 -11.032454 -2.0389671 14 3
12.039919 -20.053642 -2.8719733 14 4
3.7440829 -6.3032479 -1.9644365 5 0
4.6286082 -7.8016677 -2.0942943 9 1
5.6771626 -9.5842791 -2.1653006 12 2
6.5198903 -11.020142 -2.0280166 9 3
11.905686 -20.147461 -2.8734355 14 4
4.5710835 -7.828743 -2.0929446 10 1
5.6315732 -9.6566191 -2.1729329 10 2
6.4298134 -11.038661 -2.0233238 4 3
11.758754 -20.219791 -2.8719733 12 4
2.1960192 -3.8159111 -1.1796973 2 0
4.5225449 -7.8681226 -2.0951941 9 1
5.5757475 -9.7161331 -2.1775124 10 2
7.4763556 -13.043892 -2.3812459 5 3
11.614933 -20.289024 -2.8705108 14 4
2.144577 -3.7874417 -1.1662387 2 0
2.144057 -3.7911513 -1.0055312 15 1
5.5558305 -9.8359118 -2.1958301 10 2
7.1961827 -12.755547 -2.3196106 9 3
11.482748 -20.386913 -2.8729482 12 4
2.12533 -3.8137636 -1.169862 2 0
5.5194497 -9.932806 -2.2088051 12 2
6.1023602 -10.995367 -1.9917238 6 3
11.337937 -20.454182 -2.8714857 12 4
2.0875101 -3.8081801 -1.1636505 2 0
2.0831597 -3.8049686 -1.0014821 18 1
5.3887672 -9.8591194 -2.1839998 10 2
6.6709652 -12.220188 -2.2051005 4 3
11.213872 -20.567696 -2.8763604 14 4
2.0654573 -3.8311632 -1.1662387 3 0
2.0491548 -3.8056924 -0.9978829 5 1
5.3495531 -9.9518356 -2.1962116 10 2
6.5565252 -12.212508 -2.1954014 8 3
11.038115 -20.585999 -2.8680732 12 4
1.9988464 -3.7703886 -1.1434625 4 0
1.9979154 -3.7734053 -0.9857356 7 1
5.7176657 -10.830769 -1.9397876 9 3
10.984861 -20.834642 -2.8919599 12 4
1.9564034 -3.7534158 -1.1341451 7 0
1.9517272 -3.7492332 -0.97583771 9 1
6.1733465 -11.894343 -2.122503 7 3
10.870203 -20.970743 -2.9002469 15 4
1.9248661 -3.7566664 -1.1310393 8 0
1.9192914 -3.7506237 -0.97268838 3 1
1.974492 -3.863483 -0.8433758 2 2
6.1084061 -11.96776 -2.1281347 4 3
10.682079 -20.96476 -2.889035 14 4
2.0574496 -4.0836773 -1.2252494 4 0
1.878827 -3.7340071 -0.96504009 3 1
1.9368976 -3.8561206 -0.83879644 2 2
6.0743084 -12.10899 -2.1456554 4 3
5.4638443 -10.906292 -1.4977744 12 4
5.4290543 -10.855763 -1.0619056 15 5
2.0494616 -4.139492 -1.2376727 8 0
1.8414845 -3.724324 -0.95919132 5 1
1.8855993 -3.820255 -0.82811105 2 2
5.410574 -10.976388 -1.9382232 14 3
5.3858185 -10.940607 -1.4972868 12 4
2.0078375 -4.1276412 -1.2299082 10 0
1.8179936 -3.7423468 -0.96054095 7 1
1.8486037 -3.8121274 -0.82353163 2 2
6.1181736 -12.633532 -2.2232468 3 3
10.293646 -21.283945 -2.9029281 18 4
1.9848026 -4.1537595 -1.2335316 8 0
1.7800732 -3.730325 -0.95424235 7 1
1.8151908 -3.8107605 -0.82047874 2 2
6.4388285 -13.535746 -2.3740497 9 3
10.176322 -21.421633 -2.9119463 15 4
1.9458101 -4.1444397 -1.2268023 9 0
1.7430593 -3.717653 -0.94794375 8 1
1.7800562 -3.8034685 -0.81628096 3 2
6.0571542 -12.960068 -2.2657971 9 3
10.069736 -21.574947 -2.9234021 18 4
1.9038882 -4.1298528 -1.21852 11 0
1.712173 -3.7191105 -0.94524431 8 1
1.75182 -3.8122346 -0.81551766 3 2
5.9582891 -12.984084 -2.2626684 3 3
9.9114256 -21.628481 -2.9212084 20 4
1.8734169 -4.1395235 -1.2174848 10 0
1.6685107 -3.691905 -0.93534642 9 1
1.7243562 -3.822582 -0.81513608 3 2
5.8382907 -12.960526 -2.2514052 9 3
9.7699614 -21.718872 -2.9241333 20 4
1.7668352 -3.977715 -1.1662387 1 0
1.6466465 -3.7123706 -0.93759602 10 1
1.6871655 -3.8091004 -0.80979347 3 2
5.846622 -13.218559 -2.2892623 8 3
9.6934595 -21.957251 -2.9470446 15 4
1.656324 -3.7984014 -1.1103338 1 0
1.6135595 -3.7056258 -0.933097 10 1
1.6527065 -3.8027804 -0.80597723 4 2
5.6936421 -13.119522 -2.2651713 3 3
9.5500917 -22.037296 -2.9489946 15 4
1.6404029 -3.834738 -1.1175808 1 0
1.5876505 -3.7168002 -0.933097 13 1
1.6214991 -3.8033898 -0.80368757 4 2
5.614295 -13.188032 -2.2701774 9 3
9.4286299 -22.180161 -2.9592316 15 4
1.6016339 -3.8175941 -1.1092985 1 0
1.5458517 -3.690048 -0.92364907 14 1
1.5843043 -3.7892585 -0.79834485 4 2
5.5068679 -13.190448 -2.2639198 11 3
5.6874137 -13.642992 -1.8148785 9 4
5.6834517 -13.660335 -1.2944371 48 5
1.5778826 -3.8358288 -1.111369 1 0
1.5111676 -3.6791186 -0.9182502 15 1
1.5511099 -3.7838778 -0.79491037 5 2
5.476007 -13.37848 -2.2895751 9 3
5.5567317 -13.596 -1.8034227 19 4
5.5563436 -13.622196 -1.2871159 24 5
1.5582894 -3.8646679 -1.1165454 1 0
1.4876293 -3.6950023 -0.91959995 16 1
1.5188005 -3.7800407 -0.79185736 5 2
5.4104238 -13.486051 -2.3014641 3 3
5.4542966 -13.616035 -1.8009853 31 4
5.4551907 -13.645855 -1.2857215 24 5
1.5781252 -3.9940336 -1.1507095 1 0
1.4560755 -3.6907954 -0.91600066 17 1
1.4851817 -3.7722843 -0.78804117 6 2
5.2539911 -13.365388 -2.2745574 3 3
5.3358984 -13.594649 -1.7931857 30 4
5.3510718 -13.661345 -1.2836298 47 5
1.7426717 -4.5021944 -1.2935777 2 0
1.4274645 -3.6935997 -0.91420108 17 1
1.4531589 -3.7679067 -0.78498828 6 2
1.7802855 -4.6233244 -0.78467536 1 3
5.2323112 -13.609335 -1.7902608 18 4
5.2313023 -13.635123 -1.2777032 23 5
1.6769603 -4.4239297 -1.2676958 2 0
1.4002639 -3.6998303 -0.91330135 20 1
1.4254311 -3.7742863 -0.78422499 7 2
1.7089357 -4.5321336 -0.76715469 1 3
5.1252851 -13.61395 -1.7861173 41 4
5.133184 -13.66385 -1.2770059 35 5
1.6231825 -4.37395 -1.2500961 2 0
1.3723689 -3.7040339 -0.9119516 24 1
1.3922395 -3.7657316 -0.7804088 6 2
1.6403164 -4.443882 -0.75025976 1 3
5.019134 -13.619596 -1.7822174 40 4
5.014287 -13.635776 -1.2710793 34 5
1.3459672 -3.7060637 -1.0564994 13 0
1.3411623 -3.698868 -0.90835232 25 1
1.365248 -3.7735131 -0.78002721 7 2
1.6307269 -4.5146785 -0.76027155 1 3
4.9050746 -13.602016 -1.7753928 37 4
4.9108744 -13.647953 -1.2689875 46 5
1.3161814 -3.7044473 -1.0533936 15 0
1.3127012 -3.7007942 -0.90655273 30 1
1.3251148 -3.744086 -0.77201319 7 2
1.5781096 -4.4663515 -0.75025976 1 3
4.7967882 -13.598488 -1.7705179 37 4
4.8165398 -13.677305 -1.268639 46 5
1.2915555 -3.7171955 -1.0544289 33 0
1.2887492 -3.7153919 -0.90790248 29 1
1.3040965 -3.7660058 -0.77468461 7 2
1.5321826 -4.4321828 -0.74275094 1 3
4.7593427 -13.798662 -1.7922107 15 4
1.2600079 -3.7076094 -1.0492525 38 0
1.2584207 -3.7093143 -0.90430319 33 1
1.2727377 -3.7601409 -0.7716316 7 2
1.4885557 -4.4053426 -0.73649353 1 3
4.6957645 -13.921025 -1.8039103 14 4
16.226351 -48.299274 -2.6702855 0 6
1.2340931 -3.7163155 -1.0492525 40 0
1.2263627 -3.6995115 -0.89980417 37 1
1.2489218 -3.7763903 -0.77315807 8 2
1.4528108 -4.4006209 -0.73399061 1 3
7.6001072 -23.061586 -2.9814119 16 4
1.2081182 -3.7248406 -1.0492525 36 0
1.1981045 -3.7005672 -0.89800459 27 1
1.2152866 -3.7625988 -0.76857871 7 2
1.400232 -4.3429732 -0.72272736 1 3
7.4458327 -23.149399 -2.9857993 19 4
1.1802677 -3.7297065 -1.0482172 34 0
1.1692452 -3.7016132 -0.89620501 30 1
1.1913506 -3.778481 -0.77010518 8 2
1.384528 -4.401876 -0.73086196 1 3
7.3107953 -23.286043 -2.9967675 16 4
1.1490709 -3.7212427 -1.0435584 29 0
1.1399312 -3.6985116 -0.89350557 33 1
1.1631284 -3.7831559 -0.76934189 8 2
1.3479692 -4.3925495 -0.72773325 1 3
7.1899118 -23.473173 -3.0143166 16 4
1.1202787 -3.7199252 -1.0409703 22 0
1.1140833 -3.7063799 -0.89350557 25 1
1.1334012 -3.7778225 -0.76667058 9 2
7.0304103 -23.538013 -3.0162666 16 4
1.0927541 -3.7200503 -1.0388998 18 0
1.0811534 -3.6876969 -0.88720697 30 1
1.1069999 -3.7856429 -0.76667058 9 2
6.9033356 -23.699675 -3.0308907 14 4
1.0656941 -3.7238736 -1.0378644 19 0
1.052171 -3.683912 -0.88450754 30 1
1.0736716 -3.7666578 -0.76132792 10 2
1.2788457 -4.4953771 -0.74024802 1 3
3.0575745 -10.776514 -1.3754175 13 4
12.833936 -45.414665 -2.4732928 0 6
1.0372086 -3.7198761 -1.0347586 21 0
1.0260266 -3.6872337 -0.88360775 33 1
1.0462997 -3.770278 -0.76056474 11 2
2.9841504 -10.797077 -1.3754175 12 4
1.006155 -3.7083821 -1.0295821 18 0
0.99822265 -3.6867828 -0.8818081 33 1
1.014835 -3.7585368 -0.7567485 11 2
1.0299137 -3.8223331 -0.62698942 9 3
6.4663582 -24.048801 -3.0577023 17 4
0.97925591 -3.71158 -1.0285469 19 0
0.97047549 -3.6861236 -0.88000852 33 1
0.9935559 -3.7845192 -0.76056474 12 2
1.0007005 -3.8198752 -0.62542504 4 3
6.296299 -24.085676 -3.0567272 15 4
11.473785 -44.11166 -2.3887179 0 6
0.95236123 -3.7145832 -1.0275117 19 0
0.94278598 -3.6852574 -0.87820894 30 1
0.9600035 -3.7607584 -0.75445884 12 2
0.96638781 -3.7940559 -0.62010628 10 3
6.1372805 -24.165602 -3.0613582 12 4
11.095909 -43.882801 -2.37218 0 6
0.92518705 -3.7134814 -1.0254411 21 0
0.91485864 -3.6802423 -0.8755095 32 1
0.93466967 -3.7711799 -0.75522202 12 2
5.9764547 -24.222235 -3.0633082 12 4
10.83022 -44.126003 -2.3811815 0 6
0.8974238 -3.7123389 -1.0233705 21 0
0.88914424 -3.6865392 -0.8755095 33 1
0.90372974 -3.7585247 -0.75140589 13 2
5.822454 -24.327078 -3.0713515 2 4
10.505254 -44.130592 -2.3774135 0 6
0.86707681 -3.6997049 -1.0181942 23 0
0.86294198 -3.6907592 -0.8750596 34 1
0.87390363 -3.7494459 -0.74835294 14 2
0.89759648 -3.8694255 -0.48772117 10 4
10.257969 -44.467529 -2.3916488 0 6
0.84122688 -3.7056682 -1.0181942 23 0
0.83543301 -3.6890912 -0.87326002 39 1
0.84770626 -3.7554557 -0.74835294 13 2
0.87578213 -3.8988392 -0.490646 4 4
0.81533641 -3.7114506 -1.0181942 24 0
0.80632126 -3.6796052 -0.86966079 41 1
0.81811631 -3.7459378 -0.74529999 14 2
0.83505273 -3.8427844 -0.48284638 9 4
9.5998325 -44.43853 -2.3826468 0 6
0.78860348 -3.7132728 -1.0171589 25 0
0.77980542 -3.6813319 -0.868761 41 1
0.79422331 -3.7591033 -0.74682647 13 2
0.80494094 -3.8329787 -0.48089647 8 4
8.5627699 -40.987659 -2.1944468 0 6
0.76020211 -3.7034154 -1.0130178 25 0
0.75551099 -3.6903727 -0.86966079 52 1
0.7640363 -3.7453198 -0.74301028 15 2
8.2566757 -40.948547 -2.1892133 0 6
0.73282838 -3.7010517 -1.0109472 26 0
0.72935182 -3.6936452 -0.86921084 63 1
0.73787087 -3.7505624 -0.74301028 13 2
7.8562713 -40.417023 -2.1578119 0 6
0.70552433 -3.6984873 -1.0088767 27 0
0.70063478 -3.683332 -0.86561167 63 1
0.71166945 -3.7556224 -0.74301028 13 2
0.73978615 -3.9378068 -0.3505404 8 5
7.4828062 -39.98402 -2.1318531 0 6
0.67968684 -3.7033229 -1.0088767 32 0
0.67560476 -3.6919672 -0.86651146 69 1
0.68397492 -3.7487912 -0.74072057 14 2
0.70696515 -3.9134657 -0.34792572 6 5
7.2479963 -40.242386 -2.1429484 0 6
0.6558069 -3.7154729 -1.0109472 37 0
0.64910817 -3.6888032 -0.86471182 66 1
0.65575343 -3.7418723 -0.73843086 14 2
0.67928624 -3.916343 -0.34775141 9 5
6.8171544 -39.426056 -2.0968926 0 6
0.62662703 -3.7009137 -1.0057708 38 0
0.62269098 -3.6894019 -0.86381203 69 1
0.62831312 -3.7386146 -0.73690438 14 2
0.64473927 -3.8777506 -0.34391654 24 5
6.4398589 -38.857929 -2.064235 0 6
0.59891969 -3.6937563 -1.002665 41 0
0.59567541 -3.6859641 -0.86201245 69 1
0.59970254 -3.7274032 -0.73385143 13 2
6.1853127 -39.008461 -2.0698874 0 6
0.57311827 -3.6978474 -1.002665 40 0
0.56933349 -3.6861808 -0.86111259 69 1
0.57372016 -3.7275183 -0.7330882 13 2
5.9441981 -39.211582 -2.0784702 0 6
0.54680258 -3.6940186 -1.0005945 42 0
0.54167014 -3.6726198 -0.85706353 103 1
0.54768312 -3.7314327 -0.7330882 14 2
5.7302718 -39.66724 -2.1004515 1 6
0.52089363 -3.701663 -1.0016297 41 0
0.51429391 -3.6686826 -0.85526395 73 1
0.52107686 -3.7312765 -0.73232496 14 2
5.3985105 -39.358974 -2.0820291 0 6
0.49503884 -3.7052093 -1.0016297 42 0
0.48815548 -3.6683199 -0.8543641 75 1
0.49281743 -3.7232323 -0.73003525 16 2
0.46625006 -3.685576 -0.99541807 42 0
0.46350816 -3.6793725 -0.85616374 101 1
0.46648571 -3.718708 -0.72850877 14 2
0.65275383 -5.2257442 -0.83410865 1 3
0.44115272 -3.6886642 -0.99541807 42 0
0.43660948 -3.6669614 -0.85256451 101 1
0.44189739 -3.733572 -0.73079848 15 2
0.61625534 -5.2301741 -0.83410865 1 3
0.41452622 -3.6839755 -0.99334759 44 0
0.40969774 -3.6583004 -0.84986508 101 1
0.41429916 -3.7169819 -0.7269823 15 2
0.58064097 -5.2342472 -0.83410865 1 3
0.38920274 -3.6906219 -0.99438286 46 0
0.38516521 -3.6707618 -0.85211456 102 1
0.38728386 -3.715946 -0.72621906 15 2
0.36229274 -3.6817136 -0.99127698 46 0
0.3580105 -3.6578455 -0.84851533 102 1
0.3612203 -3.7106798 -0.72469258 15 2
0.33687192 -3.6802468 -0.99024171 44 0
0.3338109 -3.6679609 -0.85031497 103 1
0.33495295 -3.7092006 -0.72392935 16 2
0.35361323 -3.9388633 -0.62636369 3 3
0.31052008 -3.6748087 -0.9881711 46 0
0.30786943 -3.6663182 -0.84941518 103 1
0.30905014 -3.7114487 -0.72392935 16 2
0.32089418 -3.8782392 -0.6163519 2 3
0.34450492 -4.1902876 -0.51623857 1 4
0.34388351 -4.2462521 -0.22326522 2 6
0.28485796 -3.676887 -0.9881711 44 0
0.28283331 -3.7096007 -0.72316611 16 2
0.29798716 -3.9355378 -0.62511224 1 3
0.31286138 -4.1609187 -0.51233876 1 4
0.31423071 -4.248549 -0.22326522 2 6
0.25945306 -3.6826403 -0.98920643 53 0
0.25719339 -3.6780353 -0.85121477 3 1
0.25757667 -3.7114398 -0.72316611 16 2
0.27282107 -3.961123 -0.62886661 3 3
0.28299499 -4.1511188 -0.51087636 3 4
0.28048962 -4.1788497 -0.21949703 2 6
0.23376679 -3.6746814 -0.98661828 56 0
0.23313342 -3.6952596 -0.85481399 4 1
0.23092619 -3.701391 -0.7208764 17 2
0.24735604 -3.9984205 -0.6344983 3 3
0.25376078 -4.1370974 -0.50892639 1 4
0.25562325 -4.2524776 -0.22326522 2 6
0.2078895 -3.6723659 -0.98558295 54 0
0.20711216 -3.6929059 -0.8539142 4 1
0.20551424 -3.7107539 -0.72240293 17 2
0.21965218 -4.0039945 -0.63512403 3 3
0.22592914 -4.2541585 -0.22326522 2 6
0.18262936 -3.6814461 -0.98765355 61 0
0.18428782 -3.7546 -0.86786121 0 1
0.17941394 -3.7081761 -0.72163963 17 2
0.19207188 -4.0133233 -0.63637549 2 3
0.19622451 -4.2556324 -0.22326522 2 6
0.15659459 -3.6749108 -0.98558295 54 0
0.15381014 -3.6545503 -0.84446627 8 1
0.15335971 -3.7054155 -0.7208764 17 2
0.16598506 -4.0619354 -0.64388436 2 3
0.16260712 -4.1571116 -0.21803163 1 6
0.1313481 -3.6874981 -0.98868877 61 0
0.12775727 -3.7142441 -0.72240293 18 2
0.12953182 -3.8241117 -0.60602719 3 3
0.12835534 -3.8489397 -0.47285309 8 4
0.1256748 -3.8492379 -0.3369441 8 5
0.13447887 -4.1860929 -0.21949703 2 6
0.10538016 -3.6806011 -0.98661828 58 0
0.10139352 -3.6993454 -0.71934998 17 2
0.098901659 -3.8540049 -0.3372927 22 5
0.079598986 -3.6773841 -0.98558295 58 0
0.076747306 -3.6335902 -0.83906746 108 1
0.075485453 -3.6960373 -0.71858674 16 2
0.074868195 -3.7623479 -0.59601539 55 3
0.073679887 -3.8027234 -0.46700338 35 4
0.071918815 -3.8506174 -0.3369441 26 5
0.074278735 -4.0917096 -0.21447276 1 6
0.053980704 -3.6817136 -0.98661828 40 0
0.051764306 -3.6613169 -0.84536606 51 1
0.050419152 -3.7514405 -0.72927201 9 2
0.048346005 -3.743027 -0.59288669 26 3
0.047081336 -3.799175 -0.46651587 35 4
0.044755571 -3.8271186 -0.33485237 24 5
0.028246948 -3.6781371 -0.98558295 68 0
0.026063222 -3.642102 -0.84086704 110 1
0.023898298 -3.7006574 -0.71934998 16 2
0.022401128 -3.774879 -0.59789258 15 3
0.002565325 -3.674381 -0.98454767 70 0
0.0006355794 -3.6402466 -0.84041709 109 1
-0.0012921279 -3.7026975 -0.71973157 7 2
-0.0032730938 -3.7512391 -0.59413815 13 3
-0.022469105 -3.6781769 -0.98558295 64 0
-0.024168707 -3.6440642 -0.84131694 109 1
-0.027256928 -3.7183039 -0.72278452 7 2
-0.047994915 -3.6663406 -0.98247713 67 0
-0.049608048 -3.6438065 -0.84131694 109 1
-0.052565597 -3.7180324 -0.72278452 7 2
-0.066612318 -4.0598812 -0.21279801 1 6
-0.073026709 -3.6697917 -0.9835124 70 0
-0.074409559 -3.6433845 -0.84131694 110 1
-0.0783967 -3.7116861 -0.72163963 7 2
-0.094954014 -4.0593171 -0.21279801 1 6
-0.098644465 -3.6691923 -0.9835124 70 0
-0.10005649 -3.6505682 -0.84311652 117 1
-0.10480368 -3.7287109 -0.72507423 7 2
-0.82004672 -28.995605 2.537801 12 10
-0.12438822 -3.672276 -0.98454767 73 0
-0.13007455 -3.7063057 -0.7208764 7 2
-1.0187321 -28.88364 2.5285623 3 10
-0.15002251 -3.6713181 -0.98454767 61 0
-0.1521448 -3.6760745 -0.84941518 130 1
-0.15553306 -3.6954997 -0.71896833 7 2
-1.3711859 -31.916651 3.922487 6 11
-0.17564948 -3.670181 -0.98454767 67 0
-0.17658064 -3.6496186 -0.84356648 115 1
-1.373196 -28.177845 1.4784909 7 9
-0.18123247 -3.692363 -0.71858674 7 2
-1.4285767 -29.001921 2.5404155 3 10
-0.20147909 -3.6727233 -0.98558295 64 0
-0.20259385 -3.658026 -0.84581596 113 1
-1.5665433 -28.107748 1.4753507 23 9
-0.20777513 -3.7047291 -0.72125804 7 2
-1.6265371 -28.911673 2.533443 9 10
-1.8229996 -32.005379 3.9361362 3 11
-0.22711462 -3.6712272 -0.98558295 64 0
-0.22654927 -3.6312377 -0.83996725 113 1
-2.1104035 -33.637611 1.7663386 11 9
-0.2331395 -3.6953506 -0.71973157 7 2
-1.8350027 -29.004997 2.5426817 12 10
-0.25273865 -3.6695523 -0.98558295 67 0
-0.25216439 -3.6334558 -0.84086704 112 1
-2.1025419 -30.219374 1.5875591 8 9
-0.25910884 -3.7054291 -0.72202128 7 2
-2.1177359 -29.909941 3.681673 11 11
-0.27771026 -3.667747 -0.98558295 70 0
-0.27777925 -3.6433139 -0.84356648 113 1
