# .PCD v0.7 - Point Cloud Data file format
VERSION 0.7
FIELDS x y z intensity ring
SIZE 4 4 4 4 2
TYPE F F F F U
COUNT 1 1 1 1 1
WIDTH 1314
HEIGHT 1
VIEWPOINT 0 0 0 1 0 0 0
POINTS 1314
DATA ascii
-0.23004046 3.7503796 -0.065586142 2 7
-0.23061445 3.7813354 1.0150883 1 15
-0.22071296 3.7819264 -1.0150883 3 0
-0.22058101 3.7910099 0.066284239 2 8
-0.19690402 3.4046063 -0.78732872 37 1
-0.21741003 3.7705541 0.1979346 2 9
-0.2143226 3.7397532 -0.72812718 3 2
-0.212328 3.7276957 0.32665971 2 10
-0.58727258 10.342216 -1.640685 2 3
-0.2117309 3.7518101 0.46139738 3 11
-0.20152704 3.5933259 -0.44189829 2 4
-0.20984261 3.7532806 0.59538966 1 12
-0.18932717 3.4077077 -0.29859558 27 5
-0.20930389 3.7911608 0.73804927 2 13
-0.20578082 3.7392027 -0.19625986 1 6
-0.20674388 3.7807536 0.87415981 4 14
-0.20466137 3.7789595 1.0140531 1 15
-0.1939726 3.7640481 -1.009912 4 0
-0.19390318 3.7884636 0.066214427 2 8
-0.17352806 3.4019752 -0.78642887 42 1
-0.1910795 3.7719803 0.1979346 3 9
-0.1876189 3.7293935 -0.72583747 3 2
-0.18814474 3.7529335 0.32875144 1 10
-0.51466805 10.338171 -1.6394334 2 3
-0.18710133 3.7849197 0.46529719 1 11
-0.17501408 3.5529778 -0.43677977 3 4
-0.18266968 3.7349241 0.59226096 1 12
-0.16514574 3.4009864 -0.29789832 30 5
-0.18482348 3.8199508 0.74339187 2 13
-0.17967126 3.7405481 -0.19625986 1 6
-0.18145801 3.8054631 0.87955862 4 14
-0.17900231 3.7957339 1.0181942 1 15
-0.25811005 5.7956066 -1.5544673 3 0
-0.16851103 3.8136973 0.066633284 2 8
-0.14977358 3.4031036 -0.78642887 45 1
-0.16526599 3.7851944 0.19856264 3 9
-0.16157825 3.7306125 -0.72583747 4 2
-0.16297191 3.7780421 0.33084321 2 10
-0.44180593 10.325725 -1.6369305 2 3
-0.1598296 3.7663007 0.46285981 1 11
-0.15020536 3.5541129 -0.43677977 3 4
-0.155927 3.7203193 0.58975804 3 12
-0.14090192 3.3901126 -0.29685244 30 5
-0.1570123 3.7936864 0.73804927 2 13
-0.15240638 3.7137733 -0.19479445 1 6
-0.15377909 3.7793775 0.87326002 4 14
-0.15172523 3.7775881 1.0130178 1 15
-0.14154391 3.7702503 -1.0109472 3 0
-0.14084178 3.7868047 0.066144623 2 8
-0.12644432 3.415751 -0.7891283 48 1
-0.13854356 3.7782722 0.19814396 2 9
-0.13538721 3.7277257 -0.72507423 3 2
-0.13644831 3.7751057 0.33049458 2 10
-0.36857739 10.29697 -1.6319245 2 3
-0.13353197 3.7673244 0.46285981 1 11
-0.12580915 3.5669782 -0.4382422 3 4
-0.13063987 3.7410588 0.59288669 1 12
-0.11695731 3.3830488 -0.29615521 27 5
-0.13052353 3.7946899 0.73804927 2 13
-0.12770073 3.7506764 -0.19667853 1 6
-0.12738852 3.780359 0.87326002 4 14
-0.12521909 3.7746937 1.0119824 1 15
-0.11557313 3.7827325 -1.0140531 3 0
-0.11343556 3.7557154 0.065586142 2 8
-0.10236084 3.4087589 -0.78732872 45 1
-0.11157037 3.7591836 0.19709724 2 9
-0.10947283 3.7325048 -0.72583747 4 2
-0.109393 3.7520676 0.32840282 2 10
-0.29576704 10.2677 -1.6269187 2 3
-0.10689083 3.7562592 0.46139738 1 11
-0.099723674 3.5260992 -0.43312368 5 4
-0.1039694 3.7221336 0.58975804 3 12
-0.093446195 3.3877659 -0.29650384 26 5
-0.10403024 3.7955089 0.73804927 2 13
-0.10151296 3.7514765 -0.19667853 1 6
-0.10172197 3.8084288 0.87955862 4 14
-0.098358013 3.7561641 1.0068061 1 15
-0.089548849 3.7718434 -1.0109472 3 0
-0.088055588 3.7643969 0.065725766 1 8
-0.079066887 3.4054801 -0.78642887 51 1
-0.086162418 3.7678428 0.19751592 2 9
-0.084065661 3.7331636 -0.72583747 3 2
-0.083850905 3.7527254 0.32840282 2 10
-0.082357474 3.7444088 -0.59319955 1 3
-0.080978386 3.7410231 0.45944747 1 11
-0.075039804 3.4949419 -0.42922387 5 4
-0.079296805 3.754354 0.59476393 3 12
-0.070715219 3.4042592 -0.29789832 27 5
-0.078675911 3.8196831 0.74262863 2 13
-0.075570732 3.7321124 -0.19563182 2 6
-0.076108396 3.8246198 0.88315785 4 14
-0.074100882 3.7566972 -0.065586142 2 7
-0.073538564 3.7953763 1.0171589 1 15
-0.063471377 3.7878296 -1.0150883 3 0
-0.061969828 3.7769165 0.065935194 1 8
-0.055478383 3.4176402 -0.7891283 45 1
-0.060236458 3.7923167 0.19877198 2 9
-0.058003001 3.7336595 -0.72583747 3 2
-0.057649899 3.7532191 0.32840282 2 10
-0.056216352 3.7448926 -0.59319955 1 3
-0.055148374 3.7613456 0.46188486 3 11
-0.050293613 3.4715621 -0.42629901 5 4
-0.053030483 3.7508655 0.59413815 3 12
-0.046782464 3.3927169 -0.29685244 27 5
-0.051688686 3.7965822 0.73804927 2 13
-0.049248915 3.7125781 -0.1945851 1 6
-0.048650611 3.7666008 0.86966079 4 14
-0.046727046 3.7706852 1.0104296 1 15
-0.0372146 3.807498 -1.0202647 3 0
-0.036129992 3.833246 0.066912524 1 8
-0.031581353 3.4140468 -0.78822851 42 1
-0.033868108 3.8046277 0.19940001 2 9
-0.031515967 3.6848936 -0.71629703 3 2
-0.031312555 3.7375915 0.32700834 2 10
-0.030290946 3.7728481 -0.59757972 1 3
-0.028857401 3.757669 0.46139738 1 11
-0.025877541 3.4480085 -0.42337415 5 4
-0.026871482 3.755095 0.59476393 1 12
-0.023149941 3.4009302 -0.29754972 27 5
-0.025182283 3.7968507 0.73804927 2 13
-0.023529822 3.744787 -0.19625986 1 6
-0.02270052 3.8253098 0.88315785 4 14
-0.020539243 3.7960331 1.0171589 1 15
-0.010547838 3.7767556 -1.0119824 3 0
-0.0093484633 3.8254061 0.066772908 1 8
-0.0077460431 3.4141841 -0.78822851 42 1
-0.0072139301 3.7568374 0.19688788 2 9
-0.0058404561 3.718399 -0.72278452 3 2
-0.0052425284 3.7536583 0.32840282 2 10
-0.0039176652 3.7413616 -0.59257382 1 3
-0.0026509371 3.7974808 0.46627215 1 11
-0.0017979987 3.4342093 -0.42166796 11 4
-0.00065325183 3.7433391 0.59288669 3 12
0.00059127749 3.3970242 -0.29720107 26 5
0.001319863 3.7812278 0.73499632 2 13
0.0026282358 3.7648325 -0.19730657 1 6
0.0039649163 3.7864001 0.87415981 4 14
0.0045903311 3.7574251 -0.065586142 2 7
0.0059261527 3.7729015 1.0109472 1 15
0.015802959 3.7728732 -1.0109472 3 0
0.01730369 3.81338 0.06656348 1 8
0.016069651 3.4102576 -0.78732872 40 1
0.019177455 3.7887518 0.19856264 2 9
0.020076517 3.7104964 -0.72125804 3 2
0.021065015 3.7715347 0.32997164 2 10
0.022272393 3.75315 -0.59445107 1 3
0.0237839 3.7854965 0.46480972 1 11
0.022241443 3.4440637 -0.42288667 9 4
0.025585974 3.7590549 0.59538966 1 12
0.024365611 3.4049065 -0.29789832 26 5
0.028176468 3.8439488 0.74720806 2 13
0.028727606 3.740756 -0.19605052 2 6
0.029929517 3.7278199 0.86066276 4 14
0.030821992 3.7573016 -0.065586142 2 7
0.032348435 3.7824271 1.0135354 1 15
0.042055883 3.7649441 -1.0088767 3 0
0.044065706 3.8251638 0.066772908 1 8
0.039831772 3.4061649 -0.78642887 40 1
0.045723673 3.7965143 0.19898133 3 9
0.045978405 3.7102659 -0.72125804 3 2
0.047319666 3.7653189 0.3294487 2 10
0.048471987 3.752903 -0.59445107 1 3
0.049947765 3.7653887 0.46237233 1 11
0.046310026 3.4458091 -0.42313039 11 4
0.051557936 3.739033 0.59226096 1 12
0.048276573 3.4146142 -0.29876989 24 5
0.053777181 3.7572842 0.73041683 2 13
0.054373819 3.7085116 -0.19437577 2 6
0.05705215 3.7569947 -0.065586142 2 7
0.058572128 3.7705197 1.0104296 1 15
0.10543927 5.8081212 -1.5565379 3 0
0.070619516 3.8167653 0.066633284 1 8
0.063684724 3.4097006 -0.78732872 39 1
0.071845479 3.7761333 0.1979346 2 9
0.071575575 3.6941514 -0.71820509 3 2
0.073292047 3.748961 0.32805422 2 10
0.074985415 3.7682731 -0.59695399 2 3
0.075592719 3.7331936 0.45847249 1 11
0.069959864 3.4255552 -0.42069301 13 4
0.078234397 3.7662311 0.59664112 1 12
0.071307793 3.404247 -0.29789832 27 5
0.080842674 3.7960734 0.73804927 2 13
0.08056356 3.7220192 -0.19510846 2 6
0.082685433 3.7893975 0.8750596 4 14
0.08327774 3.756505 -0.065586142 2 7
0.085156634 3.7816069 1.0135354 1 15
0.095104508 3.7833023 -1.0140531 3 0
0.096395425 3.8082001 0.066493668 2 8
0.087585725 3.4130695 -0.78822851 36 1
0.098269381 3.8035092 0.19940001 2 9
0.097027615 3.7053545 -0.72049481 3 2
0.099885739 3.7642913 0.3294487 2 10
0.10095 3.7795234 -0.59883118 2 3
0.10196678 3.7683108 0.46285981 1 11
0.093874671 3.4249833 -0.42069301 14 4
0.10353997 3.7537634 0.59476393 3 12
0.095073804 3.4036663 -0.29789832 27 5
0.10678546 3.7757916 0.73423308 2 13
0.10692113 3.7573206 -0.19699256 2 6
0.1101466 3.823791 0.88315785 4 14
0.10950106 3.755832 -0.065586142 2 7
0.11083686 3.7790089 1.0130178 1 15
0.18593948 5.8196316 -1.5601612 2 0
0.12323754 3.8154287 0.066633284 2 8
0.11094227 3.4162893 -0.7891283 39 1
0.12403423 3.7787764 0.19814396 3 9
0.12172184 3.6692674 -0.71362567 3 2
0.12590463 3.7754719 0.33049458 2 10
0.12680137 3.7629325 -0.59632826 2 3
0.12921774 3.7952826 0.46627215 1 11
0.11691245 3.4163294 -0.41971806 15 4
0.12933415 3.7411041 0.59288669 3 12
0.11952727 3.4228313 -0.29964143 27 5
0.13317263 3.7945979 0.73804927 2 13
0.13137908 3.7065825 -0.19437577 2 6
0.13586308 3.7956641 0.87685925 4 14
0.13506371 3.7549996 -0.065586142 2 7
0.13742696 3.7839344 1.0145707 2 15
0.14740737 3.7854924 -1.0150883 3 0
0.14924321 3.7984903 0.066354051 2 8
0.13478814 3.4154315 -0.7891283 39 1
0.1500942 3.7698355 0.19772527 3 9
0.14828065 3.6918681 -0.71820509 3 2
0.15177748 3.7625561 0.3294487 1 10
0.15355036 3.7737978 -0.59820545 2 3
0.15391994 3.7506523 0.46090987 1 11
0.14092357 3.4193966 -0.42020553 18 4
0.15495664 3.7282679 0.5910095 3 12
0.14258589 3.4020071 -0.29789832 30 5
0.15966067 3.7935758 0.73804927 2 13
0.15843824 3.7335112 -0.19584116 2 6
0.16169208 3.7790473 0.87326002 4 14
0.16127527 3.7539654 -0.065586142 2 7
0.1633389 3.7713027 1.0114648 1 15
0.17401059 3.7882304 -1.0161237 3 0
0.1753882 3.7893658 0.066214427 2 8
0.15844981 3.4105141 -0.78822851 36 1
0.17734283 3.7886467 0.19877198 2 9
0.17460427 3.7025099 -0.72049481 3 2
0.17785299 3.7574246 0.32910007 1 10
0.17970271 3.7686877 -0.59757972 2 3
0.18048164 3.7574179 0.46188486 1 11
0.16459922 3.4143641 -0.41971806 19 4
0.18270563 3.7626102 0.59664112 1 12
0.16632123 3.4128976 -0.29894418 30 5
0.18729588 3.8158994 0.74262863 2 13
0.18371031 3.7163558 -0.19500379 2 6
0.19011505 3.8323567 0.88585728 4 14
0.18966538 3.7700703 1.0114648 1 15
0.3096149 5.8491855 -1.5694788 2 0
0.20202599 3.804059 0.066493668 2 8
0.18246388 3.4132168 -0.7891283 45 1
0.20184369 3.7634192 0.19751592 2 9
0.20096833 3.7227993 -0.72469258 3 2
0.20494337 3.7720072 0.33049458 1 10
0.20406286 3.7437079 -0.59382528 3 3
0.20561671 3.7481737 0.46090987 3 11
0.18919958 3.427006 -0.42142424 20 4
0.20700011 3.7376113 0.59288669 1 12
0.19103068 3.427568 -0.30033869 44 5
0.21525052 3.8380208 0.74720806 2 13
0.2101244 3.7349603 -0.19605052 2 6
0.21223943 3.7492199 0.86696136 4 14
0.21935749 3.8511708 -0.067331389 2 7
0.21664363 3.7918365 1.0176765 1 15
0.22691502 3.7970417 -1.0192294 3 0
0.22953831 3.8185246 0.066772908 2 8
0.2056911 3.4118958 -0.7891283 39 1
0.22907948 3.7778671 0.19835329 2 9
0.22563709 3.6997504 -0.72049481 3 2
0.22842632 3.7347286 0.32735696 2 10
0.23237519 3.7776818 -0.59945697 2 3
0.23325153 3.7704229 0.46383476 3 11
0.21178301 3.4137509 -0.41996178 21 4
0.23505835 3.7676198 0.59789258 1 12
0.21423098 3.4241998 -0.30016437 52 5
0.2398909 3.8129544 0.74262863 2 13
0.23682475 3.7433689 -0.19657388 2 6
0.23920321 3.7498062 -0.065586142 2 7
0.2423666 3.7786644 1.0145707 1 15
0.25226128 3.7780166 -1.0145707 2 0
0.25311878 3.7809601 0.066144623 2 8
0.23029232 3.4220426 -0.79182774 42 1
0.25478753 3.7762203 0.19835329 2 9
0.25148129 3.7079225 -0.72240293 3 2
0.2555764 3.748945 0.32875144 2 10
0.25781611 3.7720706 -0.59883118 2 3
0.25918096 3.7727087 0.46432224 1 11
0.23643079 3.4240718 -0.42142424 20 4
0.25905949 3.7422845 0.59413815 3 12
0.23647173 3.3987694 -0.29807264 53 5
0.2654089 3.7955189 0.73957568 2 13
0.26397386 3.7655785 -0.19782993 2 6
0.27021262 3.8353574 0.88765687 4 14
0.26603174 3.7480221 1.0068061 1 15
0.27740258 3.7685061 -1.0125002 2 0
0.27862373 3.7671351 0.065935194 2 8
0.25357851 3.4203961 -0.79182774 36 1
0.28440827 3.8181677 0.20065607 2 9
0.276627 3.6962879 -0.72049481 2 2
0.28168672 3.7550654 0.3294487 2 10
0.2853297 3.7859375 -0.60133415 2 3
0.2849136 3.7628899 0.46334729 1 11
0.25943184 3.4184241 -0.42093676 23 4
0.28457853 3.732506 0.59288669 3 12
0.26080412 3.4049821 -0.29876989 50 5
0.29063517 3.7857945 0.73804927 2 13
0.28687924 3.7198341 -0.19552715 2 6
0.29095918 3.7556612 0.86966079 4 14
0.29339322 3.7614813 1.0109472 1 15
0.28833339 3.5758429 -0.961254 5 0
0.30717632 3.7930026 0.066423863 2 8
0.27634773 3.4049459 -0.78867841 20 1
0.31170624 3.8240521 0.20107476 1 9
0.28576618 3.4907684 -0.68080652 3 2
0.30626434 3.7331507 0.32770559 2 10
0.28061065 3.4058619 -0.54126334 10 3
0.3121587 3.7726789 0.46480972 1 11
0.28083006 3.3868554 -0.41728067 14 4
0.31062943 3.7304285 0.59288669 3 12
0.28373727 3.3931513 -0.29789832 15 5
0.3170597 3.783673 0.73804927 2 13
0.28018415 3.3296466 -0.17511612 22 6
0.32570386 3.8545129 0.89305568 4 14
0.31702799 3.7440298 -0.065586142 2 7
0.32095373 3.7747409 1.0150883 1 15
0.33189574 3.7708459 0.066074811 2 8
0.29155204 3.3058732 -0.76618326 50 1
0.33346319 3.7660773 0.19814396 2 9
0.29500535 3.3185561 -0.64760572 40 2
0.33373326 3.7467978 0.32910007 2 10
0.33706939 3.7545903 0.46285981 1 11
0.29522008 3.2820022 -0.40460625 31 4
0.33879709 3.7517774 0.59664112 1 12
0.30040359 3.3137019 -0.29110017 50 5
0.34630847 3.8126504 0.74415511 2 13
0.30160743 3.3077195 -0.1740694 38 6
0.3511844 3.8366203 0.88945645 4 14
0.34782985 3.7781796 1.0166413 1 15
0.32001832 3.3791437 -0.90949017 40 0
0.36199769 3.8082511 0.066772908 1 8
0.31739545 3.3328567 -0.77293181 51 1
0.36202773 3.7875159 0.19940001 3 9
0.32191423 3.3555017 -0.65523815 45 2
0.36255133 3.7721417 0.33154044 2 10
0.32225543 3.3406582 -0.53156441 55 3
0.36365578 3.7560976 0.46334729 1 11
0.32100177 3.3094985 -0.40826234 50 4
0.36115336 3.7099991 0.59038377 1 12
0.32294908 3.3055751 -0.29057723 64 5
0.37253305 3.8062322 0.74339187 2 13
0.32742572 3.3333609 -0.17553481 47 6
0.38484478 3.9038908 0.90565288 4 14
0.37439036 3.7775815 1.0171589 1 15
0.34086356 3.3499203 -0.9022432 53 0
0.38735494 3.7936952 0.06656348 1 8
0.34065545 3.3305597 -0.77293181 54 1
0.38805112 3.7809227 0.19919068 2 9
0.342518 3.3258312 -0.64989549 42 2
0.3847861 3.729882 0.32805422 2 10
0.34435099 3.3265374 -0.52968717 58 3
0.39027959 3.7574162 0.46383476 3 11
0.34491876 3.3150749 -0.4092373 49 4
0.39032704 3.7388227 0.59538966 1 12
0.34627089 3.3112266 -0.29127449 55 5
0.40237451 3.8347793 0.74949777 2 13
0.35047832 3.3290079 -0.17543015 52 6
0.40118825 3.8042815 0.88315785 4 14
0.40075195 3.7748756 1.0171589 1 15
0.36570331 3.360903 -0.90586674 64 0
0.41230407 3.7830188 0.066423863 1 8
0.36516815 3.3397236 -0.77563125 57 1
0.41725886 3.8099599 0.20086543 3 9
0.36579001 3.3292775 -0.65104032 57 2
0.41212773 3.738987 0.32910007 2 10
0.36590067 3.3142993 -0.52812284 48 3
0.41453537 3.7428343 0.46237233 3 11
0.37397262 3.3658557 -0.41581824 24 4
0.41358262 3.7164466 0.59226096 3 12
0.37269494 3.3384297 -0.29388916 45 5
0.42738667 3.8162684 0.74644482 2 13
0.42381516 3.7665305 0.8750596 4 14
0.42318222 3.7432661 1.0093943 1 15
0.44054693 3.7959394 0.066703096 1 8
0.39689395 3.4145887 -0.79362732 42 1
0.43921962 3.7672775 0.19877198 3 9
0.43663988 3.7281795 0.32840282 2 10
0.44158435 3.747735 0.46334729 1 11
0.40501523 3.4322319 -0.42434907 18 4
0.44230434 3.7370088 0.59601539 1 12
0.40525877 3.4189143 -0.30121022 48 5
0.45103741 3.7937756 0.74262863 2 13
0.44624421 3.7423162 -0.19751592 2 6
0.45360276 3.7983882 0.88315785 4 14
0.45230019 3.7651553 1.0161237 1 15
0.46074259 3.7524538 -1.0130178 3 0
0.46686298 3.7968223 0.066772908 1 8
0.42024398 3.4078667 -0.79272753 45 1
0.46558869 3.7701471 0.199086 4 9
0.46329692 3.7408686 -0.73270655 2 2
0.46658599 3.7566757 0.33119181 2 10
1.2571193 10.107163 -1.6131524 3 3
0.46708238 3.7446427 0.46334729 1 11
0.42675096 3.4115927 -0.42215544 19 4
0.46969363 3.7495921 0.59851831 1 12
0.42961574 3.4199555 -0.30155888 48 5
0.47653046 3.7827427 0.74110222 2 13
0.47320691 3.7510812 -0.19814396 1 6
0.49233842 3.8917954 0.90565288 4 14
0.47791404 3.7672284 -0.066284239 2 7
0.47840533 3.7658224 1.0171589 1 15
0.48875895 3.7683887 -1.0181942 3 0
0.49490583 3.8053682 0.066982336 3 8
0.44393423 3.408792 -0.79362732 48 1
0.48905131 3.7450199 0.1979346 3 9
0.48889199 3.7336497 -0.73194337 2 2
0.49370208 3.7652655 0.33223769 2 10
0.49954247 3.7995331 -0.60696578 2 3
0.49788365 3.776716 0.46773461 1 11
0.45100063 3.4164813 -0.42313039 16 4
0.49793467 3.7618878 0.60102129 1 12
0.45288309 3.4169521 -0.30155888 46 5
0.50692314 3.8144419 0.7479713 2 13
0.50149333 3.7635245 -0.19898133 1 6
0.50593102 3.7917731 0.88315785 4 14
0.50513852 3.77578 -0.066493668 2 7
0.50545275 3.7681348 1.0187118 1 15
0.79470909 5.8090615 -1.5710317 3 0
0.52052534 3.7999303 0.06694743 3 8
0.46825317 3.4094708 -0.79452711 51 1
0.52106184 3.7890916 0.20044672 3 9
0.51215148 3.7146761 -0.72889042 2 2
0.5172466 3.741991 0.33049458 2 10
0.52214551 3.7725637 -0.60321134 2 3
0.51975965 3.7457118 0.46432224 1 11
0.47593528 3.4211142 -0.42410538 18 4
0.51644206 3.7075429 0.59288669 3 12
0.47507349 3.4018674 -0.300513 41 5
0.53462952 3.8185873 0.74949777 2 13
0.5265429 3.756068 -0.19877198 2 6
0.54595083 3.8846374 0.90565288 4 14
0.53352052 3.7818229 1.0233705 1 15
0.8357951 5.8071966 -1.572067 3 0
0.54656142 3.7881913 0.066807814 3 8
0.49371445 3.417691 -0.79722655 36 1
0.54988015 3.7971258 0.20107476 3 9
0.54379338 3.7458889 -0.7357595 2 2
0.54622388 3.7580054 0.33223769 2 10
0.55026722 3.7765498 -0.6044628 2 3
0.54941911 3.761539 0.46675962 3 11
0.50153267 3.429493 -0.42556778 15 4
0.55327415 3.7741139 0.60415 1 12
0.49997038 3.4063528 -0.30121022 27 5
0.55898714 3.7992232 0.74644482 2 13
0.5522415 3.7443006 -0.19835329 1 6
0.56166852 3.803618 0.88765687 4 14
0.56073415 3.788141 -0.06684272 2 7
0.55830061 3.7626209 1.0192294 1 15
0.87487382 5.7916689 -1.5694788 2 0
0.57562345 3.8061326 0.067191765 3 8
0.51697826 3.4103079 -0.79632676 39 1
0.57391548 3.7814472 0.20044672 3 9
0.56455576 3.7110455 -0.7296536 2 2
0.5694412 3.7344046 0.33049458 1 10
1.5561622 10.193366 -1.633176 3 3
0.5744099 3.7537878 0.46627215 1 11
0.5254612 3.4259083 -0.42556778 15 4
0.57115561 3.7194958 0.59601539 1 12
0.52616209 3.4185331 -0.30260473 24 5
0.58729315 3.8068702 0.74873453 2 13
0.5746668 3.720716 -0.19730657 1 6
0.5941717 3.8381205 0.8966549 4 14
0.58594203 3.7762294 -0.066703096 2 7
0.58389729 3.7587337 1.0192294 1 15
0.5949412 3.7648253 -1.0213 3 0
0.60155565 3.7980709 0.067121953 2 8
0.54078829 3.4105592 -0.79722655 37 1
0.6034357 3.7970734 0.20149344 3 9
0.59353811 3.726402 -0.73346978 2 2
0.59484911 3.7304416 0.33049458 2 10
0.60477728 3.7842093 -0.60696578 2 3
0.60374182 3.7692871 0.46870953 1 11
0.54876852 3.4222519 -0.42556778 16 4
0.60525829 3.7661269 0.60415 1 12
0.55064875 3.4187105 -0.30295336 24 5
0.61256707 3.7989078 0.7479713 2 13
0.59935379 3.7087266 -0.19688788 1 6
0.62718362 3.8723521 0.90565288 4 14
0.60778999 3.7484667 -0.066284239 2 7
0.61353254 3.7755413 1.0249234 1 15
0.95118153 5.7580895 -1.5637847 3 0
0.62870973 3.7977245 0.067191765 2 8
0.56522417 3.4105453 -0.79812634 37 1
0.62796617 3.7809465 0.20086543 3 9
0.62082642 3.7299142 -0.73499632 2 2
0.62284279 3.7379897 0.33154044 2 10
0.63117951 3.7798951 -0.60696578 2 3
0.62676537 3.7454016 0.46627215 1 11
0.57198936 3.4144223 -0.4250803 16 4
0.62499505 3.7228472 0.59789258 3 12
0.57582474 3.4226425 -0.30365062 24 5
0.63711715 3.782923 0.74568158 2 13
0.63653231 3.7714119 -0.20044672 1 6
0.65420246 3.8678792 0.90565288 4 14
0.64729768 3.8229978 -0.067680433 2 7
0.64213794 3.7844985 1.0285469 1 15
0.99201375 5.7551165 -1.5648201 3 0
0.65656722 3.8011253 0.067331389 3 8
0.58968455 3.410357 -0.79902619 39 1
0.6533221 3.7705669 0.20055141 4 9
0.64550936 3.7177515 -0.73346978 2 2
0.64994544 3.7394392 0.33206338 2 10
0.65687668 3.7715042 -0.60634005 1 3
0.65358049 3.7448459 0.46675962 3 11
0.59718072 3.4181674 -0.42605525 16 4
0.64960754 3.7106102 0.59664112 1 12
0.59935933 3.4165769 -0.30347627 26 5
0.66758615 3.8015866 0.75026101 2 13
0.66076761 3.7550743 -0.1998187 2 6
0.6663 3.7787757 0.88585728 4 14
0.68787307 3.897156 -0.069076627 2 7
0.6645056 3.7570953 1.0223353 1 15
0.67570454 3.7629485 -1.0244058 3 0
0.67742217 3.7649593 0.066772908 2 8
0.61554986 3.4176645 -0.80172557 40 1
0.68211263 3.7796724 0.20128411 3 9
0.67074972 3.7092907 -0.73270655 2 2
0.67568094 3.7328501 0.33188906 2 10
1.8267772 10.072081 -1.621287 2 3
0.68467587 3.7675354 0.47017199 1 11
0.6217401 3.4178214 -0.42654276 16 4
0.68753833 3.772059 0.60727865 1 12
0.62427241 3.4181886 -0.30399922 24 5
0.69198984 3.7852464 0.7479713 2 13
0.68768841 3.7542987 -0.20002805 1 6
0.70814312 3.8583679 0.90565288 4 14
0.70205766 3.8214543 -0.06782005 2 7
0.69351667 3.7675638 1.0264764 1 15
1.0758159 5.7596951 -1.5699965 4 0
0.70810604 3.7837248 0.067191765 3 8
0.63939464 3.4132838 -0.80172557 33 1
0.70774812 3.7708921 0.20107476 3 9
0.7031582 3.7392478 -0.73957568 2 2
0.70983469 3.7711179 0.33572391 2 10
1.899241 10.07073 -1.6231642 2 3
0.71096158 3.7626636 0.47017199 1 11
0.6470598 3.4211996 -0.42751768 18 4
0.70723552 3.7322321 0.60164702 3 12
0.65160739 3.4353929 -0.30591667 28 5
0.72059816 3.7918954 0.75026101 2 13
0.7146287 3.75333 -0.20023739 1 6
0.7285527 3.82283 0.89845449 4 14
0.7248823 3.7891948 1.0337234 1 15
1.1159972 5.7520452 -1.5699965 3 0
0.73308039 3.7748914 0.067121953 2 8
0.66320837 3.4087369 -0.80172557 39 1
0.73263407 3.7620666 0.20086543 3 9
0.72859603 3.7343745 -0.73957568 2 2
0.72849876 3.7269633 0.33223769 2 10
0.73657918 3.7648032 -0.60759157 2 3
0.73426574 3.7460489 0.46870953 1 11
0.66939849 3.4088075 -0.42654276 16 4
0.74252921 3.7777271 0.60978162 3 12
0.67480516 3.4268506 -0.30556804 28 5
0.75009471 3.802181 0.75331396 2 13
0.7401585 3.7483795 -0.20023739 1 6
0.76127416 3.8482375 0.90565288 4 14
0.74990124 3.7838185 -0.067331389 2 7
0.75291497 3.7955422 1.0368291 1 15
1.1562698 5.7499962 -1.5715494 2 0
0.76415521 3.7932053 0.06754081 3 8
0.68947697 3.419426 -0.80532479 34 1
0.76441669 3.7842681 0.20233083 2 9
0.75231093 3.7176514 -0.73728597 2 2
0.75582808 3.7316816 0.33310926 2 10
2.0693386 10.198462 -1.6481937 3 3
0.7596094 3.7369411 0.46822205 3 11
0.69575214 3.419734 -0.42849267 16 4
0.7570495 3.7143838 0.60039556 1 12
0.70070726 3.4318161 -0.30643961 25 5
0.76888067 3.7623646 0.74644482 2 13
0.77512366 3.7861669 -0.20254017 1 6
0.78811955 3.8428292 0.90565288 4 14
0.79574603 3.8765686 -0.069076627 2 7
0.77355599 3.7618098 1.0290645 2 15
1.19599 5.7398925 -1.5710317 3 0
0.789801 3.7838631 0.067471005 3 8
0.71652037 3.4297898 -0.80892402 28 1
0.79163545 3.7827489 0.20254017 2 9
0.78388625 3.7392101 -0.74262863 2 2
0.78390735 3.7360637 0.3339808 2 10
0.79638457 3.7889483 -0.61322314 1 3
0.79140556 3.7587416 0.47163439 1 11
0.7249307 3.4400449 -0.43166125 11 4
0.79357046 3.7592602 0.6085301 3 12
0.7246471 3.426841 -0.30643961 25 5
0.79431516 3.7530639 0.74568158 2 13
0.80319232 3.7884791 -0.20295887 1 6
0.81492835 3.8372335 0.90565288 4 14
0.80615795 3.7926791 -0.067680433 2 7
0.80181122 3.7657654 1.0316528 1 15
0.81614643 3.7844265 -1.0373468 2 0
0.81704253 3.7821662 0.06754081 3 8
0.7408576 3.426609 -0.80937392 36 1
0.81887025 3.7810342 0.20274951 3 9
0.80830687 3.7259717 -0.74110222 2 2
0.81504381 3.753864 0.33607253 2 10
0.81610024 3.7524126 -0.6082173 1 3
0.81931746 3.7608833 0.47260937 1 11
0.74808335 3.431021 -0.43117377 11 4
0.8214817 3.7613482 0.60978162 1 12
0.74795616 3.4218292 -0.30643961 27 5
0.83309436 3.8049617 0.75713015 2 13
0.82790989 3.7749758 -0.20254017 1 6
0.84102875 3.8315976 0.90565288 4 14
0.83433384 3.7947707 -0.06782005 2 7
0.82808167 3.760076 1.0316528 1 15
1.285265 5.7641168 -1.5824198 3 0
0.84058857 3.7667589 0.067366287 3 8
0.76306295 3.4137456 -0.80757427 39 1
0.84894651 3.7948642 0.20379624 3 9
0.84309405 3.7625299 -0.74949777 2 2
0.84210348 3.7519705 0.33642116 1 10
0.84595251 3.7660441 -0.61134595 1 3
0.84576952 3.7590928 0.47309685 1 11
0.77725357 3.4489539 -0.43409866 10 4
0.85315001 3.7826469 0.61416179 1 12
0.7753374 3.4320717 -0.30783406 27 5
0.85357165 3.7722452 0.75178748 2 13
0.85976017 3.7965245 -0.20400558 1 6
0.86775786 3.8256326 0.90565288 4 14
0.87675506 3.8590539 -0.069076627 2 7
0.85751146 3.771306 1.0363115 1 15
1.3249009 5.7571177 -1.5829374 2 0
0.87180567 3.7822335 0.067750245 3 8
0.7871564 3.4122708 -0.80847406 41 1
0.86642647 3.7499249 0.20170279 2 9
0.86491454 3.7374253 -0.74568158 2 2
0.86942112 3.753916 0.33711842 2 10
2.3193834 9.9985676 -1.6256671 3 3
0.87019354 3.7453625 0.47212186 3 11
0.79711682 3.4281147 -0.43214872 10 4
0.87326252 3.7496648 0.60978162 3 12
0.79777801 3.4228334 -0.30748546 27 5
0.89172363 3.8198798 0.76247281 2 13
0.87624198 3.7476435 -0.20170279 1 6
0.89377624 3.8196378 0.90565288 4 14
0.9030025 3.8529963 -0.069076627 2 7
0.88558507 3.7727504 1.0383821 2 15
1.3619362 5.734571 -1.5793139 3 0
0.89845526 3.7801027 0.06782005 2 8
0.81727737 3.433233 -0.81477273 36 1
0.89933711 3.7750266 0.20337754 3 9
0.88668752 3.7161746 -0.74262863 2 2
0.88912398 3.7206252 0.33467805 2 10
2.3938155 10.009445 -1.6300472 3 3
0.90121788 3.7625182 0.47504675 1 11
0.82241768 3.4282575 -0.43287995 8 4
0.90891236 3.7858908 0.61666471 1 12
0.82444757 3.4288042 -0.30853131 25 5
0.91193646 3.7868392 0.75713015 2 13
0.9073447 3.7648928 -0.20295887 1 6
0.92042238 3.8133047 0.90565288 4 14
0.92987949 3.8465984 -0.069076627 2 7
0.91624188 3.7872901 1.0440761 1 15
0.91972464 3.7586069 -1.0368291 3 0
0.9276793 3.7853913 0.068029478 3 8
0.84062773 3.4275904 -0.81477273 39 1
0.92471707 3.7647769 0.2031682 2 9
0.9135493 3.713706 -0.74339187 2 2
0.92871499 3.772526 0.33990738 2 10
0.93060374 3.774514 -0.61572611 1 3
0.92746145 3.7561352 0.47504675 3 11
0.84859294 3.4341424 -0.43434238 8 4
0.92772627 3.7487729 0.61165881 1 12
0.84357202 3.403626 -0.30678821 27 5
0.95186859 3.8377101 0.76857871 2 13
0.94516224 3.804987 -0.20547098 2 6
0.94702184 3.8067861 0.90565288 4 14
0.94637728 3.8013706 -0.06837853 2 7
0.93658417 3.756433 1.0373468 1 15
0.94641465 3.7539685 -1.0373468 2 0
0.95114654 3.7671897 0.06782005 1 8
0.86740059 3.4329741 -0.8174721 41 1
0.95587707 3.7775919 0.20421492 3 9
0.9510262 3.7529125 -0.75255072 2 2
0.95307058 3.7582257 0.33921015 2 10
0.9569304 3.7679255 -0.61572611 1 3
0.94583267 3.7187872 0.47114691 3 11
0.87646264 3.4435248 -0.43629229 7 4
0.95680255 3.75369 0.61353606 1 12
0.87027162 3.4092362 -0.30783406 27 5
0.96794742 3.7891233 0.7601831 2 13
0.96972477 3.7905555 -0.2050523 2 6
0.97357512 3.8000817 0.90565288 4 14
0.96903181 3.7741277 1.0440761 1 15
0.97793776 3.767838 -1.0430408 3 0
0.97138673 3.7372329 0.067401193 2 8
0.89232731 3.4306071 -0.81837195 39 1
0.9877643 3.7920871 0.20536631 4 9
0.9791854 3.7537806 -0.7540772 2 2
0.97727185 3.7437692 0.3385129 2 10
0.98521054 3.7687981 -0.61697763 1 3
0.98685348 3.7697048 0.47845906 1 11
0.90853059 3.4680467 -0.4401921 3 4
0.97897476 3.7316329 0.61103308 3 12
0.89405137 3.4030776 -0.30783406 27 5
1.0143443 3.8582227 0.77544779 2 13
0.99107915 3.764379 -0.20400558 2 6
1.0179644 3.8610294 0.92184937 4 14
0.99831551 3.7784774 1.0471818 1 15
1.0037184 3.759053 -1.0425231 2 0
1.0088179 3.7728608 0.068169102 3 8
0.91726148 3.4280593 -0.81927174 39 1
1.0095615 3.7677355 0.20442426 3 9
1.0033327 3.7392683 -0.75255072 2 2
1.0111346 3.7657189 0.34112757 2 10
1.0166271 3.7809041 -0.62010628 2 3
1.0193422 3.7857246 0.48138395 1 11
0.93581867 3.4731197 -0.44165453 3 4
1.0060337 3.7285211 0.61165881 3 12
0.92246318 3.4140639 -0.30940288 28 5
1.0412569 3.8510468 0.77544779 2 13
1.0215094 3.7727914 -0.20484295 2 6
1.0307481 3.7937872 1.0533936 1 15
1.5408171 5.6130276 -1.5596437 3 0
1.037253 3.7734385 0.068308719 3 8
0.94324046 3.4290874 -0.82107133 39 1
1.0453876 3.7952557 0.20630836 3 9
1.0398519 3.7700248 -0.7601831 2 2
1.0411103 3.772012 0.34234774 2 10
1.0419437 3.7699072 -0.61948055 2 3
1.0372732 3.747906 0.47748414 1 11
0.95898151 3.4626763 -0.44116706 3 4
1.0510415 3.7899346 0.62292212 1 12
0.9500072 3.420979 -0.31062305 27 5
1.0544482 3.794503 0.7655257 2 13
1.0467527 3.7617195 -0.20463361 2 6
1.066545 3.827667 0.91735035 4 14
1.0768555 3.8620701 -0.069984153 2 7
1.0530543 3.7716129 1.0492525 1 15
1.5909778 5.6411791 -1.5705141 2 0
1.0646564 3.7699544 0.06837853 2 8
0.96927685 3.42992 -0.82287097 39 1
1.0729438 3.7917089 0.2065177 3 9
1.0597254 3.740006 -0.75560367 2 2
1.0657862 3.7589016 0.34182483 2 10
1.070397 3.7701414 -0.62073201 1 3
1.0796982 3.7978559 0.48479629 1 11
0.99454033 3.4959924 -0.44628558 2 4
1.0655689 3.7407093 0.61603898 3 12
0.97003978 3.400852 -0.30940288 30 5
1.0884569 3.8134792 0.77086836 2 13
1.0817703 3.7850461 -0.20630836 2 6
1.0792991 3.7714167 0.90565288 4 14
1.1037917 3.8544581 -0.069984153 2 7
1.0894749 3.799453 1.0590875 1 15
1.6373048 5.6540585 -1.5772433 3 0
1.0909497 3.76243 0.06837853 3 8
0.99645507 3.4342992 -0.82557034 36 1
1.1094187 3.8186493 0.2084018 3 9
1.0978744 3.7739892 -0.76399928 2 2
1.0942298 3.7590213 0.34252208 2 10
1.1022192 3.7815416 -0.62386072 1 3
1.1006225 3.7711701 0.4823589 1 11
1.0322784 3.5346959 -0.45213532 2 4
1.0938756 3.7407627 0.61729044 1 12
0.99652505 3.4056435 -0.31044877 31 5
1.1211256 3.8265121 0.7750662 2 13
1.1047952 3.765903 -0.20568034 2 6
1.1049453 3.7639825 0.90565288 4 14
1.1099739 3.7713687 1.0533936 1 15
1.6690335 5.6165648 -1.5699965 3 0
1.1153946 3.7510834 0.068308719 2 8
1.0192946 3.4235237 -0.82467055 39 1
1.1319642 3.7995245 0.20777377 3 9
1.1308316 3.7908864 -0.7689603 3 2
1.1261499 3.7703807 0.34426519 2 10
1.1245381 3.7625957 -0.62198347 2 3
1.1285448 3.7711976 0.48333386 1 11
3.7901344 12.649211 -1.6213499 2 4
1.1181782 3.7294462 0.61666471 3 12
1.0260053 3.4176857 -0.31219187 33 5
1.1478106 3.8185923 0.7750662 2 13
1.1373066 3.7812469 -0.20693639 2 6
1.1671587 3.8755991 0.93444669 4 14
1.1400833 3.7785215 1.0575346 1 15
1.140965 3.7459559 -1.0492525 3 0
1.1567212 3.7929358 0.069216244 1 8
1.0459869 3.4276896 -0.82736999 34 1
1.1491246 3.7609677 0.20609902 2 9
1.1566951 3.7810221 -0.76857871 2 2
1.1529526 3.7664387 0.34461379 2 10
1.1554111 3.7697623 -0.62448645 1 3
1.1618338 3.786 0.48625872 1 11
3.8522565 12.545317 -1.6113566 2 4
1.1453484 3.7253249 0.61729044 1 12
1.0515884 3.4182398 -0.3128891 31 5
1.1737782 3.8106904 0.7750662 2 13
1.1589663 3.757947 -0.20609902 2 6
1.1778535 3.8073819 1.0678874 1 15
1.1665128 3.7360549 -1.0487348 2 0
1.1765488 3.7658873 0.068867192 3 8
1.0716366 3.4258835 -0.82871968 33 1
1.1854388 3.7873678 0.20798311 2 9
1.1859274 3.7843015 -0.77086836 2 2
1.181605 3.7659016 0.34531105 2 10
1.1751256 3.742964 -0.62135774 1 3
1.1923376 3.7931542 0.48820862 1 11
3.9242508 12.468885 -1.6050195 2 4
1.1884782 3.773968 0.6266765 1 12
1.0820169 3.4317172 -0.31480655 34 5
1.2157178 3.8510807 0.78498828 2 13
1.1977557 3.7918694 -0.2084018 2 6
1.1946284 3.7773843 0.91465092 4 14
1.2248055 3.8681004 -0.070821866 2 7
1.2008231 3.7900684 1.0652993 1 15
1.7894396 5.5935707 -1.5736198 2 0
1.205295 3.7630856 0.06897191 4 8
1.0990961 3.4294529 -0.83141905 32 1
1.217392 3.7940021 0.20882049 3 9
1.211776 3.7719803 -0.77010518 2 2
1.1999425 3.7329018 0.343045 2 10
1.2055105 3.7457416 -0.62323499 1 3
1.2157977 3.7731886 0.48674619 1 11
4.014853 12.452521 -1.6064818 2 4
1.2251629 3.7954447 0.63168246 1 12
1.1034825 3.4144073 -0.31393498 33 5
1.2437819 3.8462353 0.78575146 2 13
1.2285502 3.7946024 -0.20902982 2 6
1.243143 3.8328254 -0.070333198 2 7
1.2237368 3.7685165 1.0616758 1 15
1.8374654 5.60848 -1.5813844 3 0
1.2427572 3.7887805 0.069600195 3 8
1.1242253 3.4254 -0.8323189 32 1
1.2463415 3.7930009 0.20923917 4 9
1.2380798 3.7634284 -0.77010518 2 2
1.2303327 3.7376819 0.34426519 2 10
1.226685 3.7222252 -0.62073201 1 3
1.2433537 3.768379 0.48723367 1 11
4.1608105 12.603267 -1.629637 2 4
1.2355138 3.7380333 0.62354785 1 12
1.1329244 3.4236445 -0.31550378 25 5
1.2841815 3.8784604 0.79414707 2 13
1.2512391 3.7745585 -0.2084018 2 6
1.2548919 3.7745469 1.0658169 1 15
1.2647705 3.7712483 -1.0658169 3 0
1.274906 3.7970731 0.069914341 3 8
1.1481133 3.4174674 -0.8323189 33 1
1.2766117 3.7955658 0.20986721 2 9
1.2737211 3.7826021 -0.77582937 3 2
1.2621222 3.7459943 0.34583399 3 10
1.2564296 3.7248015 -0.62260926 1 3
1.265821 3.7483225 0.48577127 1 11
4.2512383 12.581435 -1.630612 2 4
1.2691745 3.7517719 0.62730229 1 12
1.1606737 3.429064 -0.31672394 28 5
1.3024037 3.8433695 0.78880447 2 13
1.28141 3.7770796 -0.20902982 2 6
1.2922667 3.8068972 0.92814809 4 14
1.2868147 3.7821536 1.0704756 1 15
1.289814 3.7586722 -1.0647817 3 0
1.3007207 3.7883079 0.069914341 2 8
1.177645 3.4259548 -0.83636802 36 1
1.3011166 3.7830112 0.20965785 2 9
1.2949649 3.7608504 -0.77315807 2 2
1.2869446 3.7333248 0.34548536 2 10
1.2843307 3.7236323 -0.62386072 1 3
1.3081514 3.7884049 0.49210843 1 11
4.3486981 12.579591 -1.634268 2 4
1.2972654 3.7505131 0.62855375 1 12
1.1884965 3.4321735 -0.31776983 28 5
1.3382065 3.8601527 0.79414707 2 13
1.3031629 3.756948 -0.2084018 2 6
1.3638496 3.9230571 -0.072497301 2 7
1.3074501 3.7587109 1.0663346 1 15
1.3204825 3.76439 -1.0689226 3 0
1.3324386 3.7942281 0.070193581 2 8
1.2022278 3.4215372 -0.83726782 36 1
1.338101 3.8039804 0.2113326 3 9
1.3257538 3.7646809 -0.77582937 3 2
1.3262314 3.7639401 0.34914589 2 10
1.3221234 3.7481072 -0.62949234 2 3
1.3345658 3.7791808 0.49210843 1 11
4.4514189 12.598363 -1.6406052 2 4
1.3352729 3.7748871 0.63418543 1 12
1.2184143 3.440696 -0.31933865 27 5
1.3474015 3.8028412 0.78422499 2 13
1.3387073 3.774112 -0.20986721 1 6
1.3905215 3.9136827 -0.072497301 2 7
1.3330114 3.7476711 1.0658169 1 15
1.3467307 3.7550795 -1.0689226 3 0
1.3629494 3.7961261 0.07040301 2 8
1.2326736 3.4314003 -0.84176683 36 1
1.3686807 3.8058228 0.21196064 3 9
1.3579874 3.7719591 -0.77926397 2 2
1.3470746 3.739594 0.34775141 2 10
1.3482562 3.7387862 -0.62949234 2 3
1.3757482 3.8108487 0.49747071 1 11
4.5244212 12.525907 -1.6352429 2 4
1.3454744 3.7208886 0.6266765 1 12
1.2383361 3.4208653 -0.31829277 27 5
1.3806051 3.8118005 0.78804117 2 13
1.374554 3.7909608 -0.2113326 1 6
1.4036233 3.8669255 0.94974333 4 14
1.4178102 3.9038796 -0.072497301 2 7
1.360461 3.7419057 1.0668522 1 15
1.3669313 3.7292604 -1.0642639 2 0
1.3866607 3.7790093 0.070263386 3 8
1.256601 3.4227104 -0.84176683 41 1
1.3938371 3.7924259 0.2117513 1 9
1.3842875 3.7623866 -0.77926397 2 2
1.3724589 3.728229 0.3475771 2 10
3.6270704 9.8421917 -1.6613343 2 3
1.4036933 3.8048756 0.49795815 1 11
4.613133 12.497739 -1.6357305 2 4
1.3946975 3.7744045 0.63731414 1 12
1.2684075 3.4289548 -0.31986156 30 5
1.4262633 3.8536227 0.7987265 2 13
1.4079238 3.8000014 -0.21237932 1 6
1.4305873 3.8570316 0.94974333 4 14
1.4450279 3.893887 -0.072497301 2 7
1.3932807 3.7504253 1.0720285 1 15
1.4078362 3.7594287 -1.075652 2 0
1.4144135 3.7729816 0.070333198 3 8
1.2818326 3.4175043 -0.84266669 36 1
1.4287041 3.8050404 0.21300736 2 9
1.4236465 3.7875469 -0.7865147 3 2
1.4173894 3.7689085 0.35228351 2 10
3.7124016 9.8609972 -1.668843 2 3
1.4232198 3.7764084 0.49552077 1 11
4.7289929 12.541382 -1.6457237 2 4
1.4196168 3.7608798 0.63668835 1 12
1.294428 3.4256074 -0.3203845 27 5
1.4350787 3.7958257 0.78880447 2 13
1.4471438 3.8237026 -0.21426344 1 6
1.4438254 3.8089097 -0.071101107 2 7
1.4228566 3.7496381 1.0746168 1 15
2.113806 5.5268269 -1.5855255 3 0
1.4535891 3.7966299 0.070961483 3 8
1.3084483 3.4157515 -0.84446627 50 1
1.4523731 3.787514 0.21258868 3 9
1.4542733 3.7885132 -0.78880447 3 2
1.4365234 3.7403219 0.3505404 2 10
3.7910736 9.8606548 -1.6732231 2 3
1.4552537 3.7812018 0.49747071 1 11
4.8057275 12.480276 -1.6420677 2 4
1.4600477 3.7877409 0.64294571 1 12
1.3234509 3.4315886 -0.32177898 27 5
1.4629576 3.7893772 0.78956765 2 13
1.4522054 3.757617 -0.21112327 1 6
1.4646084 3.7838173 -0.070821866 2 7
1.4594669 3.7666337 1.0823812 1 15
1.4552705 3.7268093 -1.0720285 3 0
1.4793984 3.7866476 0.070961483 2 8
1.34149 3.4301269 -0.85031497 42 1
1.4781203 3.7775402 0.21258868 2 9
1.4821755 3.7840106 -0.7899493 2 2
1.4618733 3.7283468 0.35036606 2 10
1.4500358 3.6962578 -0.62886661 2 3
1.4809577 3.7712085 0.49747071 1 11
4.8992748 12.463048 -1.6442614 2 4
1.5031487 3.8218343 0.65045458 2 12
1.3502952 3.4296815 -0.32247624 27 5
1.5167314 3.8484795 0.80406916 2 13
1.4997265 3.8033864 -0.21426344 1 6
1.5130321 3.8292944 -0.071869008 2 7
1.5021189 3.7997286 1.0948045 1 15
1.4977627 3.7598898 -1.0844518 3 0
1.5028354 3.7687976 0.070821866 2 8
1.3734727 3.442636 -0.85571378 34 1
1.5103824 3.7819674 0.21342604 2 9
1.4925238 3.7334657 -0.78155369 2 2
1.5012759 3.7534583 0.35367799 2 10
3.9413545 9.8441238 -1.6794806 2 3
1.5264503 3.8086855 0.5038079 1 11
4.9958158 12.458891 -1.6481611 2 4
1.5062469 3.7525845 0.64044279 1 12
1.3743515 3.4222593 -0.32265055 28 5
1.5297112 3.8052778 0.79719996 2 13
1.5292251 3.800235 -0.21468212 1 6
1.5435472 3.8300352 -0.072078437 2 7
1.5257187 3.7819836 1.092734 1 15
1.5297946 3.7636592 -1.088593 3 0
1.5299609 3.7621858 0.070891678 2 8
1.3974732 3.4329636 -0.85571378 31 1
1.5466378 3.7974956 0.21489146 3 9
1.5297608 3.7523074 -0.78765959 2 2
1.5297 3.7484205 0.35420093 2 10
1.5128083 3.7051749 -0.63387251 2 3
1.5523381 3.798208 0.5038079 1 11
5.1067262 12.482503 -1.6559607 3 4
1.5586919 3.8080595 0.6517061 2 12
1.4065191 3.4328613 -0.32456797 27 5
1.5756088 3.8417325 0.80712205 2 13
1.5641555 3.8119111 -0.21593818 1 6
1.5793749 3.8413587 -0.072497301 2 7
1.5617135 3.7965236 1.099981 1 15
1.5598135 3.7638681 -1.0916989 3 0
1.5653828 3.7735775 0.071310528 2 8
1.4237964 3.4305716 -0.85751343 33 1
1.5700464 3.7792275 0.21447276 2 9
1.5657176 3.7651029 -0.7926206 3 2
1.5643654 3.7599952 0.35629267 2 10
4.0979686 9.8399076 -1.688241 2 3
1.5788187 3.7872772 0.5038079 1 11
5.1984453 12.463945 -1.6581545 2 4
1.5958955 3.8226049 0.65608621 2 12
1.4335235 3.4303114 -0.32526523 25 5
1.5994505 3.825485 0.80597723 2 13
1.5891874 3.7972136 -0.21572883 1 6
1.5978943 3.8086874 1.1067102 1 15
1.5875579 3.7564445 -1.092734 3 0
1.5885713 3.7551913 0.071170911 3 8
1.453788 3.4349046 -0.86111259 36 1
1.6010649 3.7792094 0.2151008 2 9
1.6003958 3.773962 -0.79681838 2 2
1.599913 3.7709923 0.3583844 2 10
1.5721135 3.7018747 -0.63700122 2 3
1.6207522 3.8127005 0.50868267 1 11
5.3102007 12.485804 -1.6659541 2 4
1.608616 3.7786543 0.65045458 2 12
1.4668077 3.4422159 -0.32735696 27 5
1.630738 3.8250611 0.80826694 2 13
1.6203598 3.7970488 -0.21635687 1 6
1.6100109 3.7636919 1.0968752 1 15
1.6236802 3.7683346 -1.0994633 2 0
1.6305873 3.7807333 0.071869008 3 8
1.4839076 3.4389865 -0.86471182 29 1
1.6369129 3.7899423 0.21635687 2 9
1.6173571 3.7410722 -0.79223901 2 2
1.6277825 3.7633884 0.35873303 1 10
1.6104782 3.7198122 -0.64200711 2 3
1.6441714 3.7940075 0.50770777 1 11
5.4051352 12.46664 -1.6683915 2 4
1.6491106 3.7999508 0.65608621 2 12
1.4870318 3.4248409 -0.32665971 25 5
1.6589656 3.8171854 0.80903018 2 13
1.6404548 3.770992 -0.21551949 1 6
1.6516906 3.7877762 1.1072279 1 15
1.6515023 3.7604451 -1.1004987 2 0
1.6586975 3.775039 0.071973726 3 8
1.514941 3.4445977 -0.868761 34 1
1.6755426 3.8079622 0.21803163 3 9
1.6475303 3.7407568 -0.79452866 2 2
1.659644 3.7646937 0.35995319 2 10
4.3141956 9.7815971 -1.6932468 2 3
1.6795803 3.8045187 0.51063257 1 11
5.488019 12.419525 -1.6671727 2 4
1.6749396 3.7886369 0.65608621 2 12
1.5141289 3.4216647 -0.32735696 27 5
1.6839838 3.8019202 0.80826694 2 13
1.6903622 3.8145177 -0.21865964 1 6
1.6891965 3.8029294 1.1149925 1 15
1.6833712 3.7632244 -1.1046398 2 0
1.6792915 3.7505913 0.071729392 3 8
1.5431325 3.4448767 -0.87146038 36 1
1.687378 3.7633677 0.21614751 4 9
1.6961135 3.7793164 -0.80521399 2 2
1.6860453 3.7551279 0.36012751 2 10
1.6567527 3.6864438 -0.64012986 2 3
1.7109845 3.8035636 0.51209503 1 11
5.6204953 12.488685 -1.6815534 2 4
1.6964803 3.7660444 0.65420902 2 12
1.5496639 3.4385259 -0.32997164 26 5
1.7437316 3.8655322 0.82429492 2 13
1.7120183 3.7917032 -0.21803163 1 6
1.7188926 3.7980828 1.117063 1 15
1.7160115 3.765444 -1.1087809 2 0
1.7396227 3.8154941 0.07319539 3 8
1.5671448 3.4340196 -0.87146038 36 1
1.7461361 3.8244686 0.2203344 1 9
1.716903 3.7569697 -0.80292428 2 2
1.7221651 3.7650075 0.36221924 2 10
4.4470077 9.7175903 -1.6926211 3 3
1.7500618 3.8207057 0.51599485 1 11
5.6430225 12.308388 -1.6625416 2 4
1.7385454 3.7903206 0.66046637 2 12
1.5719705 3.424001 -0.32962301 32 5
1.7706738 3.8532655 0.82429492 2 13
1.7444638 3.7944784 -0.21886899 2 6
1.7455124 3.7880504 1.1175808 1 15
1.7294043 3.7273903 -1.1010163 3 0
1.7594812 3.7887459 0.07291615 3 8
1.5970502 3.437412 -0.8750596 34 1
1.7593185 3.7832088 0.21865964 2 9
1.7530314 3.7662506 -0.80750376 2 2
1.7612101 3.7820966 0.36500823 1 10
4.5264244 9.7113743 -1.6970013 2 3
1.7884401 3.833581 0.51940715 1 11
5.6754532 12.159967 -1.6476736 2 4
1.7532612 3.7530344 0.65608621 2 12
1.6059616 3.434602 -0.33171475 32 5
1.7735703 3.7913301 0.81360966 2 13
1.8064808 3.8581779 -0.22326522 2 6
1.8284134 3.9014735 0.99473363 4 14
1.7719153 3.7757721 1.1175808 1 15
1.7735424 3.7536528 -1.1124043 3 0
1.7875985 3.7799854 0.072985962 3 8
1.6243445 3.4332242 -0.87685925 34 1
1.7993642 3.799716 0.2203344 3 9
1.7775985 3.7503734 -0.80674046 2 2
1.7858638 3.7661083 0.36465961 2 10
4.5822496 9.6545553 -1.6926211 2 3
1.8236797 3.8389313 0.52184457 1 11
5.7218571 12.039371 -1.6367054 2 4
1.7980858 3.7799478 0.66296935 2 12
1.6401783 3.4448934 -0.33380648 32 5
1.8236334 3.8284855 0.82429492 2 13
1.8127433 3.8022041 -0.2207531 2 6
1.8123933 3.7929416 1.1263806 1 15
1.8064045 3.7551067 -1.1165454 3 0
1.8330275 3.8070524 0.073753871 3 8
1.6533474 3.4323344 -0.87955862 36 1
1.8275802 3.7906604 0.22054374 1 9
1.8131232 3.7573211 -0.81093824 3 2
1.8225054 3.7750807 0.36675134 1 10
1.787625 3.699527 -0.65076745 2 3
1.850436 3.8261061 0.52184457 1 11
5.8377643 12.065246 -1.6457237 2 4
1.8485388 3.8170831 0.67172968 2 12
1.6633191 3.4315658 -0.33363217 29 5
1.8605964 3.8368587 0.82887435 2 13
1.8601737 3.8325791 -0.22326522 2 6
1.8261509 3.7541382 1.1186159 1 15
1.8223791 3.7215853 -1.1103338 2 0
1.859561 3.7941628 0.073753871 3 8
1.6841311 3.4347067 -0.88315785 34 1
1.8610388 3.7921526 0.22138111 1 9
1.7951685 3.6547012 -0.79147577 2 2
1.8435436 3.7515361 0.36570549 2 10
4.7410183 9.6392651 -1.7013814 2 3
1.8771021 3.8130944 0.52184457 1 11
5.9411483 12.063374 -1.651086 2 4
1.8471937 3.7473865 0.66171783 2 12
1.6898783 3.4252312 -0.33415511 24 5
1.8734343 3.795608 0.82276845 2 13
1.8745002 3.79443 -0.22179982 2 6
1.8574584 3.7516859 1.1217217 1 15
1.8758903 3.7641008 -1.1268982 3 0
1.8895743 3.7882459 0.073893487 3 8
1.7167702 3.4403026 -0.88765687 55 1
1.8999636 3.8040826 0.22284654 3 9
1.7741138 3.5490081 -0.77125001 5 2
1.873256 3.7457013 0.36640272 1 10
4.8170395 9.6235962 -1.7045102 2 3
1.926793 3.8460431 0.52818179 1 11
6.0599108 12.090815 -1.6605918 2 4
1.891023 3.7697134 0.66797519 2 12
1.7343129 3.4543023 -0.33816427 29 5
1.9069347 3.7964723 0.82582134 2 13
1.9135039 3.8062334 -0.22326522 2 6
1.8992509 3.7696812 1.1310393 1 15
1.9091127 3.7646966 -1.1310393 3 0
1.9340777 3.8106241 0.074591585 2 8
1.7451576 3.4369214 -0.88990635 48 1
1.9319038 3.8014081 0.22347455 1 9
1.7997358 3.5382864 -0.7716316 4 2
1.9102035 3.7538409 0.36849448 2 10
4.9181695 9.6566238 -1.7163991 2 3
1.9355662 3.7971265 0.52330703 1 11
6.1883569 12.13487 -1.6725351 1 4
1.9280729 3.7775328 0.67172968 2 12
1.764731 3.4545305 -0.33938447 26 5
1.9762796 3.8669791 0.84413904 2 13
1.9327534 3.7785563 -0.22242783 2 6
1.9396203 3.7838378 1.1393216 1 15
1.9362361 3.7529924 -1.1315569 2 0
1.9661368 3.8076909 0.074801013 3 8
1.7744774 3.4350417 -0.89260578 48 1
1.9437175 3.759443 0.22179982 1 9
1.7982279 3.4750705 -0.76056474 9 2
1.9418578 3.7510309 0.36954033 1 10
4.9836483 9.6185455 -1.7157733 2 3
1.9803065 3.8187649 0.52818179 1 11
6.2509837 12.049081 -1.6666852 2 4
1.9726039 3.7990427 0.67798704 2 12
1.7891212 3.4442072 -0.33955875 29 5
2.0213401 3.8879256 0.85177141 2 13
1.9885854 3.8216684 -0.22577733 2 6
1.9784961 3.7941849 1.1465684 1 15
1.9713651 3.7564905 -1.1367333 2 0
1.9957259 3.8013024 0.074940629 3 8
1.8129169 3.4501717 -0.89980417 59 1
1.9822711 3.7708766 0.22326522 3 9
1.8145275 3.4488504 -0.75751179 14 2
1.9847068 3.7691147 0.37267792 2 10
5.0563698 9.598381 -1.7182763 2 3
2.0062523 3.8051977 0.52818179 1 11
6.3905411 12.110483 -1.6813096 2 4
1.9947268 3.7785411 0.67673558 2 12
1.8187089 3.4422016 -0.34060463 27 5
2.0484319 3.8737202 0.85177141 2 13
1.9921396 3.7656727 -0.22326522 2 6
1.9979404 3.7686827 1.1429449 1 15
1.9968874 3.7429857 -1.1367333 2 0
2.022217 3.7872763 0.074940629 2 8
1.8473761 3.458379 -0.90520304 33 1
2.0160835 3.7710357 0.22410259 1 9
1.8459705 3.4499469 -0.76056474 15 2
2.0121973 3.7590315 0.37302658 1 10
5.1288528 9.5732946 -1.7201536 2 3
2.0327687 3.7910986 0.52818179 1 11
6.4653144 12.052711 -1.6793597 2 4
2.0360074 3.7923698 0.68174148 2 12
1.8458664 3.4367642 -0.34130189 27 5
2.0747521 3.8596871 0.85177141 2 13
2.0373037 3.7868514 -0.22535865 2 6
2.0645337 3.8326547 -0.075987779 2 7
2.035203 3.775048 1.1491566 1 15
2.0266545 3.7357457 -1.1388038 2 0
2.0517647 3.7804534 0.075080253 2 8
1.8751957 3.4522474 -0.90700263 35 1
2.0645926 3.7993429 0.22661473 1 9
1.8769147 3.4510992 -0.76361769 19 2
2.0555363 3.7763908 0.37616417 2 10
5.2146807 9.5763283 -1.7270367 2 3
2.058527 3.7771742 0.52818179 1 11
6.5607076 12.028195 -1.6822846 2 4
2.056097 3.768019 0.67986429 2 12
1.8793641 3.4412799 -0.343045 27 5
2.1016474 3.8451087 0.85177141 2 13
2.0438685 3.7378485 -0.22326522 2 6
2.0831316 3.8017683 1.16158 1 15
2.0762892 3.7658494 -1.1522624 2 0
2.1012924 3.8080587 0.075917974 2 8
1.9184303 3.4752297 -0.91645062 15 1
2.1007235 3.8023198 0.22766145 1 9
1.9066623 3.4482203 -0.76590741 18 2
2.0908365 3.7797477 0.37790731 2 10
5.2852364 9.5466022 -1.7282882 2 3
2.1194818 3.8252206 0.53695637 1 11
6.6674509 12.0284 -1.6886218 2 4
2.1532657 3.8813987 0.70301658 2 12
1.9085459 3.4388604 -0.34409088 29 5
2.1277714 3.830714 0.85177141 2 13
2.1029084 3.782841 -0.22682405 2 6
2.1152627 3.7972584 1.1646857 1 15
2.0921376 3.7327261 -1.1465684 3 0
2.1428142 3.8215735 0.076476447 3 8
1.9893738 3.5450251 -0.93849587 9 1
2.108959 3.7565827 0.22577733 1 9
1.9358577 3.4454322 -0.768197 19 2
2.1113153 3.7546372 0.37686142 1 10
5.3597765 9.527626 -1.7314169 2 3
6.7785482 12.029984 -1.6954465 2 4
1.9462128 3.4497464 -0.34653121 27 5
2.1814885 3.8636351 0.86245668 2 13
2.1561127 3.8171318 -0.22975488 3 6
2.1448655 3.7894986 1.1667564 1 15
2.1232347 3.7284701 -1.1496743 3 0
2.1694398 3.8065219 0.076476447 2 8
2.1003301 3.6837623 -0.97898698 3 1
2.1351316 3.7417688 0.22577733 1 9
1.9715476 3.4522917 -0.77277648 25 2
2.1407752 3.7471001 0.37755868 2 10
5.4496932 9.5311308 -1.7389257 2 3
6.8819742 12.021465 -1.7008086 2 4
2.1574764 3.765641 0.6873731 2 12
1.9742117 3.4429896 -0.34722847 27 5
2.1803863 3.8010125 0.85177141 2 13
2.1946397 3.8227725 -0.23101093 3 6
2.1741607 3.7794547 1.1683092 1 15
2.1666288 3.7436538 -1.1589917 3 0
2.1939571 3.787823 0.076406635 3 8
2.139673 3.6926162 -0.98528558 3 1
2.1952684 3.7855158 0.2293362 1 9
2.0054574 3.4554226 -0.77659267 23 2
2.1788876 3.7527397 0.37965041 1 10
5.5438938 9.5406733 -1.7476861 2 3
6.9856968 12.007443 -1.7056835 2 4
2.2035899 3.7846303 0.69363046 2 12
2.0042191 3.4394519 -0.34827435 27 5
2.246417 3.8535435 0.8670361 2 13
2.2273128 3.8177085 -0.23163895 3 6
2.205368 3.7725232 1.1708974 1 15
2.2044637 3.7484195 -1.1652035 3 0
2.2325194 3.7930942 0.0768255 2 8
2.1901193 3.7195702 -0.99653322 3 1
2.2540901 3.8251603 0.23268569 1 9
2.0315249 3.444721 -0.77735591 23 2
2.2131326 3.7511644 0.38104489 2 10
5.6344647 9.5425625 -1.7551949 2 3
2.2894373 3.874315 0.55255568 1 11
7.0834918 11.982309 -1.7090958 3 4
2.2460515 3.7963557 0.69863641 2 12
2.0417912 3.4497337 -0.35071471 31 5
2.2612584 3.8174965 0.86245668 2 13
2.2478023 3.7917564 -0.23101093 3 6
2.2415152 3.7736447 1.1760738 1 15
2.2385063 3.7462044 -1.1693444 3 0
2.2685471 3.7949741 0.077174544 3 8
2.2190349 3.7092066 -0.9978829 3 1
2.2554588 3.7685981 0.23017356 1 9
2.0730839 3.4611292 -0.78422499 21 2
2.253608 3.7595468 0.38348526 1 10
5.7053843 9.5141535 -1.7570721 2 3
7.1567502 11.915547 -1.7066585 2 4
2.3267798 3.8724139 0.71553135 2 12
2.0822535 3.4627149 -0.3535037 29 5
2.3101254 3.8386238 0.87085229 2 13
2.2694373 3.7695251 -0.23059224 3 6
2.28212 3.7831118 1.1838384 1 15
2.2579408 3.7209713 -1.1662387 3 0
2.3198969 3.8200645 0.078012258 2 8
2.2614322 3.7223291 -1.0055312 3 1
2.3003907 3.7834783 0.23205765 1 9
2.1033199 3.456635 -0.7865147 22 2
2.3019378 3.7815611 0.38732013 1 10
5.8148313 9.5449448 -1.7702127 1 3
7.2573309 11.898757 -1.7112895 2 4
2.3558161 3.8594475 0.71615702 2 12
2.107852 3.4518623 -0.35385233 29 5
2.3628185 3.8663659 0.88077438 2 13
