# .PCD v0.7 - Point Cloud Data file format
VERSION 0.7
FIELDS x y z intensity ring
SIZE 4 4 4 4 2
TYPE F F F F U
COUNT 1 1 1 1 1
WIDTH 1305
HEIGHT 1
VIEWPOINT 0 0 0 1 0 0 0
POINTS 1305
DATA ascii
-9.5360012 11.047565 -0.76483774 26 6
-4.0268102 4.6981583 -1.6579949 13 0
-4.5183353 5.2772198 -1.6039009 26 1
-5.2448673 6.1344461 -1.5688316 10 2
-5.399744 6.3222904 -1.3168654 27 3
-5.3907642 6.3184719 -1.0198027 16 4
-9.5181932 11.183831 -0.76965261 8 6
-3.9914191 4.7232056 -1.6569597 14 0
-4.4851546 5.3131027 -1.6052507 22 1
-5.1903362 6.154994 -1.5650156 9 2
-7.2449198 8.5975218 0.98363966 6 10
-5.3158627 6.3105512 -1.3068537 23 3
-5.3081894 6.3103771 -1.0124906 21 4
-9.3185749 11.101502 -0.75960416 8 6
-3.986789 4.7850924 -1.6688653 10 0
-4.4629121 5.3622594 -1.6106496 19 1
-5.1423941 6.1874471 -1.5638705 12 2
-5.2428093 6.3149924 -1.2999705 20 3
-5.2272558 6.3029699 -1.0054221 31 4
-9.1656761 11.063659 -1.2569602 22 5
-9.1459589 11.05556 -0.75196314 17 6
-3.9226305 4.7754884 -1.6559243 9 0
-4.4377294 5.4083509 -1.6151485 21 1
-5.0889578 6.208642 -1.560436 16 2
-5.1771774 6.3230214 -1.2943389 19 3
-5.1617646 6.3131838 -1.0012786 41 4
-9.0529251 11.08417 -1.2520794 22 5
-9.0515556 11.094345 -0.75039297 17 6
-3.8948979 4.8080826 -1.6579949 13 0
-4.4106202 5.4505515 -1.6187478 20 1
-5.0257468 6.2195864 -1.5543302 10 2
-45.98695 56.931229 6.4028096 32 10
-5.0969272 6.3144355 -1.2852658 16 3
-5.0775542 6.2971768 -0.99323523 30 4
-8.7398024 10.866235 -0.73081934 17 6
-8.9839888 11.181815 -0.25037223 23 7
-3.84677 4.8170424 -1.6517832 14 0
-4.3736753 5.4827337 -1.6191977 23 1
-4.9858727 6.2591276 -1.555475 10 2
-5.0342703 6.3266788 -1.2805728 11 3
-5.0099983 6.3029461 -0.98860419 36 4
-6.8510184 8.6314468 -0.96411681 20 5
-8.7419033 11.025581 -0.7374137 8 6
-3.8249989 4.8589582 -1.6569597 13 0
-4.3027716 5.4717722 -1.6070504 22 1
-4.9287167 6.2767978 -1.5512772 9 2
-45.285988 57.693138 6.4167542 32 10
-4.9680343 6.3336935 -1.2749411 3 3
-4.93539 6.3011284 -0.98275441 40 4
-6.8298802 8.7292795 -0.96969479 13 5
-8.5614052 10.954157 -0.72862124 26 6
-3.7782905 4.8709402 -1.6517832 16 0
-4.2778287 5.5209074 -1.6124492 21 1
-4.8703594 6.2924209 -1.5466977 7 2
-6.0701842 7.8538947 -1.5721666 9 3
-7.1157084 9.2099743 1.4290401 2 11
-4.8512464 6.2835774 -0.97471106 29 4
-6.7687721 8.7767477 -0.96969479 13 5
-8.516921 11.059448 -0.73155206 8 6
-3.7242458 4.8711095 -1.6429834 14 0
-4.2190738 5.5243092 -1.6048008 23 1
-4.8394904 6.3458467 -1.5512772 10 2
-44.313702 58.127911 6.3947906 32 10
-6.015202 7.8960843 -1.5721666 4 3
-4.7808142 6.2825389 -0.96934885 29 4
-6.647049 8.744482 -0.96097922 13 5
-10.271349 13.531992 -0.89033937 17 6
-3.6994493 4.9093332 -1.6471245 16 0
-4.1815758 5.5551858 -1.6052507 15 1
-4.8363023 6.4319901 -1.5642521 10 2
-44.222744 58.856396 6.4408092 33 10
-5.909121 7.8673463 -1.5584004 12 3
-4.7118282 6.2824106 -0.9642303 36 4
-8.1889992 10.930536 -1.1949053 20 5
-8.283453 11.068685 -0.72453904 17 6
-3.6613383 4.9281983 -1.645054 16 0
-4.1274076 5.5616121 -1.5989521 18 1
-4.7188096 6.3678012 -1.540592 7 2
-43.814007 59.146416 6.4397631 33 10
-5.7635565 7.7861538 -1.5343094 13 3
-9.3790722 12.679711 1.936504 2 11
-4.6418109 6.2776265 -0.9586243 31 4
-6.3467956 8.5960093 -0.93483251 13 5
-8.1253633 11.016943 -0.71742135 17 6
-3.6199965 4.9442868 -1.6419481 16 0
-4.0976825 5.6028752 -1.6025513 16 1
-4.8583369 6.6526804 -1.6012691 6 2
-43.77124 59.959373 6.4948459 34 10
-5.785893 7.9315295 -1.5549588 14 3
-4.5721526 6.2745838 -0.95326209 30 4
-7.9605632 10.940701 -1.1837493 20 5
-7.9073443 10.879527 -0.70486069 17 6
-3.6215632 5.0195699 -1.6585126 15 0
-4.0379586 5.6028886 -1.5944531 20 1
-4.8392968 6.7246814 -1.610428 4 2
-5.6888714 7.9139857 -1.5436954 13 3
-4.4888701 6.2515264 -0.94497496 31 4
-7.8723788 10.979816 -1.1820061 20 5
-7.8439908 10.952328 -0.70601213 26 6
-3.5909071 5.0510311 -1.660583 15 0
-3.969408 5.5896316 -1.5827556 21 1
-4.7309089 6.6718211 -1.5898207 6 2
-5.7579355 8.1292152 -1.5777982 3 3
-4.4267731 6.2567844 -0.94107521 31 4
-6.0596161 8.5773335 -0.91879582 19 5
-7.7696409 11.010085 -0.70622146 8 6
-3.5577757 5.0791397 -1.6616182 18 0
-3.9816821 5.6906538 -1.6034511 17 1
-4.6774697 6.6950307 -1.587531 6 2
-5.559732 7.9667258 -1.5386896 14 3
-4.3659563 6.2631097 -0.93741906 34 4
-6.0215845 8.6478109 -0.92193341 13 5
-9.3959694 13.513993 -0.86260128 17 6
-3.5112548 5.0879555 -1.6564419 18 0
-3.8788111 5.6268597 -1.5778067 30 1
-4.6562839 6.7622876 -1.5959265 3 2
-9.4392014 13.718735 1.4568955 1 10
-5.5053749 8.004385 -1.5386896 8 3
-4.2985287 6.2590714 -0.93230057 30 4
-9.1976423 13.422765 -0.85276216 26 6
-3.450469 5.0733986 -1.6440187 14 0
-3.8853211 5.7192202 -1.5962527 26 1
-4.6706815 6.885613 -1.6172972 3 2
-39.086487 57.643795 6.0932322 23 10
-5.4416075 8.0311756 -1.5364995 12 3
-39.658932 58.575954 8.6856289 18 11
-4.2335715 6.2553058 -0.92742574 30 4
-6.9263129 10.241671 1.9582468 3 12
-7.4550595 11.027643 -1.164575 19 5
-7.4074492 10.973732 -0.69387019 8 6
-3.4192669 5.1037831 -1.6460892 15 0
-3.8723934 5.7866945 -1.6075002 15 1
-4.6040664 6.8878665 -1.610428 3 2
-5.3429394 8.0023155 -1.5239848 10 3
-4.1589637 6.2384639 -0.92060113 29 4
-6.9243617 10.390491 1.9776447 3 12
-4.1025062 6.1607637 -0.64756715 8 5
-7.3436437 11.04053 -0.6949169 8 6
-3.3865759 5.1301637 -1.6471245 14 0
-3.7996597 5.762485 -1.5935532 21 1
-4.0516996 6.154067 -1.4322125 28 2
-4.0474253 6.1545882 -1.1666883 26 3
-38.520485 58.619507 8.6125078 17 11
-4.0368633 6.1478724 -0.90305191 32 4
-39.82325 60.671272 11.494493 22 12
-4.0309882 6.145936 -0.64303505 55 5
-3.3497784 5.1542664 -1.6471245 14 0
-3.7880373 5.8352942 -1.6061505 15 1
-3.9872749 6.1492577 -1.4245801 28 2
-37.437378 57.780865 6.0235071 21 10
-3.9850302 6.1552043 -1.1613696 28 3
-38.433868 59.386963 8.6856289 18 11
-4.0003128 6.1859064 -0.90451437 26 4
-39.231575 60.712437 11.448814 21 12
-3.9944699 6.1839695 -0.64408094 42 5
-7.1088958 11.02239 -0.68738055 17 6
-3.290803 5.1417298 -1.6357363 14 0
-3.70942 5.8024888 -1.589954 22 1
-3.9875343 6.2471371 -1.4406079 22 2
-3.9865637 6.2528319 -1.1745101 7 3
-37.474625 58.82336 8.5637598 16 11
-3.9730239 6.2387986 -0.9081704 41 4
-6.9389277 10.90873 -1.1311072 18 5
-6.927907 10.908211 -0.67722732 17 6
-3.2764566 5.1989002 -1.6466069 13 0
-3.6615534 5.8167 -1.5868047 25 1
-3.8958035 6.1960201 -1.4226719 3 2
-36.927998 58.777073 6.0730119 23 10
-5.1951599 8.2721691 -1.547137 1 3
-37.083908 59.093891 8.5661964 16 11
-3.9093349 6.2344303 -0.90353942 27 4
-6.843565 10.926513 -1.1279696 18 5
-8.4116869 13.445839 -0.83119977 8 6
-3.2195969 5.186614 -1.6357363 15 0
-3.6413867 5.8729568 -1.5953529 20 1
-4.3278089 6.9909344 -1.5982162 3 2
-5.158061 8.3418398 -1.5533944 1 3
-36.620365 59.270287 8.5544968 16 11
-3.8480318 6.2304945 -0.8991521 25 4
-39.426029 63.886044 11.890272 26 12
-6.7878613 11.003366 -1.1311072 18 5
-8.233819 13.36819 -0.82282603 17 6
-3.1913705 5.2221503 -1.6398776 15 0
-3.6104531 5.9148669 -1.599852 15 1
-3.828403 6.2793169 -1.4295411 3 2
-4.4847093 7.3644571 -1.3656731 1 3
-35.997318 59.158672 8.5028248 15 11
-3.7858782 6.226676 -0.89476484 25 4
-37.441071 61.603962 11.417841 21 12
-6.642621 10.93809 -1.1196027 17 5
-6.6075382 10.893171 -0.6677022 17 6
-3.1537583 5.2404418 -1.6388422 15 0
-3.5560522 5.9159222 -1.5935532 20 1
-3.7319343 6.2183576 -1.4096969 7 2
-4.9125557 8.1952963 -1.5133473 4 3
-35.446754 59.18034 8.4701643 15 11
-3.7270908 6.2250509 -0.89086497 28 4
-36.835648 61.572285 11.364027 20 12
-6.7091298 11.219027 -1.1436577 18 5
-7.9258585 13.274658 -0.81026536 8 6
-3.10922 5.2490349 -1.6347013 15 0
-3.5186341 5.9473133 -1.5953529 18 1
-3.6865277 6.2385435 -1.4085521 21 2
-3.810426 6.4559264 -1.1873378 1 3
-35.369827 59.974247 8.5491352 16 11
-3.6664112 6.2218432 -0.88672143 23 4
-6.8175383 11.573888 2.1275089 1 12
-4.4093151 7.4915042 -0.76052105 10 5
-6.4405279 10.955688 -0.66602743 8 6
-3.098768 5.3156753 -1.6486773 13 0
-3.4652615 5.9515243 -1.589954 19 1
-34.663483 59.581718 3.6125419 22 9
-3.6260047 6.237607 -1.4024462 24 2
-34.947247 60.141895 6.0855627 23 10
-4.6964846 8.0888376 -1.4814346 12 3
-35.19878 60.672234 8.6125078 17 11
-3.6089432 6.2232466 -0.88330907 22 4
-6.798923 11.73347 2.1478455 3 12
-6.3002877 10.881687 -1.1000798 17 5
-3.0702331 5.3522611 -1.6533362 15 0
-3.4333153 5.9924798 -1.5944531 19 1
-3.5648232 6.2320943 -1.3955771 26 2
-34.477077 60.297928 6.0768471 23 10
-4.6947751 8.2174788 -1.4989552 1 3
-34.7901 60.944073 8.6164074 17 11
-3.5309746 6.1879454 -0.87477821 25 4
-35.375694 62.045326 11.312091 20 12
-6.206408 10.894247 -1.0969422 16 5
-7.6224027 13.396077 -0.80775326 17 6
-3.0213981 5.3533759 -1.6471245 16 0
-3.4009655 6.0332785 -1.5989521 15 1
-3.5096736 6.236299 -1.3909976 21 2
-34.340523 61.044209 6.1277461 24 10
-4.5947037 8.1742859 -1.485189 9 3
-3.481858 6.2020597 -0.87331581 18 4
-6.1262679 10.925811 -1.0958962 16 5
-7.5365052 13.462904 -0.80859059 26 6
-2.9651899 5.3383532 -1.6362541 12 0
-3.3409121 6.0222073 -1.589954 20 1
-3.4481189 6.2256951 -1.3833653 26 2
-4.5236583 8.1777163 -1.4801831 9 3
-3.4318817 6.2117162 -0.8713659 16 4
-7.420599 13.470157 -0.80597377 17 6
-2.946388 5.3906202 -1.6460892 15 0
-3.3110478 6.0653348 -1.5953529 15 1
-3.3849959 6.2110949 -1.3749697 21 2
-4.4773364 8.225666 -1.4833118 3 3
-33.582668 61.748737 8.6305437 17 11
-3.3752985 6.2087717 -0.86770982 8 4
-5.9161196 10.900672 -1.085089 16 5
-7.2230902 13.325451 -0.79435521 8 6
-2.9150879 5.4229684 -1.6497126 13 0
-3.2483468 6.0505276 -1.5854551 15 1
-3.3322747 6.2172732 -1.3711535 22 2
-4.3899655 8.2009954 -1.4733 2 3
-33.111443 61.908169 8.620307 17 11
-4.5897455 8.5850086 -1.1952946 9 4
-5.8736467 11.004986 -1.0913641 16 5
-7.1937718 13.495403 -0.8014729 8 6
-2.8527825 5.3970733 -1.6357363 15 0
-3.1750951 6.0144644 -1.5701584 18 1
-3.2741463 6.2125945 -1.3650476 28 2
-4.3436499 8.2524176 -1.4770544 3 3
-4.3976178 8.3655748 -1.16044 19 4
-3.3006139 6.2894111 -0.62142044 8 5
-7.0344782 13.421465 -0.79414588 8 6
-7.0823917 13.530107 -0.26656806 26 7
-2.8257244 5.4374285 -1.6419481 15 0
-3.1321306 6.0347538 -1.5697085 30 1
-3.2162404 6.2074118 -1.3589417 26 2
-4.18788 8.0930672 -1.4432646 19 3
-6.7802649 13.114041 1.8126848 0 11
-4.3236098 8.3660936 -1.1562965 20 4
-3.19451 6.191896 -0.60956728 11 5
-5.6178079 10.902963 -0.64279026 17 6
-2.7894528 5.4604645 -1.6429834 18 0
-3.0908098 6.0582099 -1.5701584 21 1
-3.1585734 6.2017217 -1.3528358 24 2
-30.438147 59.789783 5.8697643 17 10
-4.1160569 8.0921726 -1.4379457 20 3
-32.795189 64.53112 8.8879318 20 11
-4.2345343 8.3358974 -1.1480093 23 4
-3.1369648 6.1832914 -0.60660398 18 5
-5.5632062 10.984682 -0.64530241 8 6
-6.862103 13.567003 -0.26538128 25 7
-2.7703333 5.517787 -1.6543714 14 0
-3.0694036 6.1214485 -1.580956 23 1
-3.1004632 6.1914797 -1.3459667 22 2
-29.051836 58.065773 5.6804624 12 10
-4.03614 8.0705338 -1.4291855 17 3
-32.770435 65.5839 9.0020018 22 11
-4.2320962 8.47715 -1.1633649 14 4
-3.0892758 6.196125 -0.60573238 37 5
-6.6384916 13.332239 -0.7805385 17 6
-5.4392371 10.942873 -0.21330331 15 7
-2.7455366 5.5625014 -1.662136 12 0
-3.0190492 6.1247201 -1.576457 21 1
-3.9947481 8.1112509 0.4738498 2 9
-3.0502284 6.1988816 -1.3429137 24 2
-4.019774 8.1800671 -1.4435774 19 3
-4.1734219 8.5039787 -1.1631211 20 4
-3.0257833 6.1763892 -0.60172325 41 5
-5.3392539 10.913227 -0.63671929 17 6
-2.7066386 5.581532 -1.662136 9 0
-2.9813132 6.1561708 -1.5791564 15 1
-2.9932063 6.1917443 -1.336808 26 2
-3.9522629 8.1865835 -1.439823 17 3
-4.0113611 8.3201208 -1.1341163 19 4
-2.9739501 6.17941 -0.59998012 52 5
-5.235249 10.892632 -0.6333698 35 6
-2.6684341 5.6020374 -1.6626536 11 0
-2.9349141 6.1697955 -1.5773568 16 1
-2.938117 6.1876612 -1.3314652 24 2
-3.9119411 8.2496738 -1.4460803 16 3
-29.049097 61.315292 8.3307447 13 11
-3.9982061 8.4430094 -1.1470344 21 4
-2.9198942 6.174294 -0.59753978 58 5
-5.1590762 10.928915 -0.6333698 26 6
-2.6161652 5.5925307 -1.6543714 10 0
-2.8835237 6.1724772 -1.5728577 19 1
-2.8859739 6.1861658 -1.3268858 28 2
-3.8173273 8.1937418 -1.4316884 19 3
-28.780172 61.831947 8.3741312 13 11
-3.8981497 8.3825169 -1.1350911 19 4
-2.86497 6.16923 -0.59509945 58 5
-6.2004647 13.369975 -0.77237409 8 6
-2.5635178 5.5786123 -1.645054 11 0
-2.8365657 6.181335 -1.5701584 21 1
-2.8312669 6.1811757 -1.3215431 28 2
-3.8716114 8.4563255 0.81368601 2 10
-3.7583835 8.2166004 -1.4310627 17 3
-27.441874 60.04892 8.1065063 10 11
-3.8294544 8.3835773 -1.1316788 18 4
-2.8086059 6.1600752 -0.59231043 54 5
-3.885654 8.5341835 -0.49143466 12 6
-2.5268922 5.6016555 -1.6466069 9 0
-2.7741334 6.1583443 -1.5593606 15 1
-2.788048 6.2007895 -1.3215431 28 2
-3.7430079 8.3363457 -1.4473319 8 3
-26.901711 59.970989 8.0704317 9 11
-3.8252513 8.5314674 -1.1480093 20 4
-2.7557657 6.1577096 -0.59021866 58 5
-4.9375105 11.04829 -0.63420719 8 6
-8.2887878 18.573286 -0.35501686 39 7
-2.4955442 5.6368251 -1.6517832 13 0
-2.7263451 6.1668677 -1.5566614 15 1
-2.7304242 6.1877718 -1.314674 24 2
-3.6663935 8.3206978 -1.4401358 12 3
-26.856718 61.007607 8.1845026 11 11
-4.7441678 10.781948 -1.4463456 10 4
-2.7041698 6.1544356 -0.5881269 52 5
-3.7629137 8.5802851 -0.49101597 12 6
-2.4522827 5.6452508 -1.649195 19 0
-2.6816745 6.1821752 -1.5557615 17 1
-2.6695142 6.1629777 -1.3055153 30 2
-3.5351763 8.1732206 -1.4104134 13 3
-25.946327 60.044628 8.0314341 9 11
-3.6404564 8.4327765 -1.127779 16 4
-2.6579859 6.1658444 -0.5874297 52 5
-4.741282 11.014417 -0.62845021 17 6
-2.4175878 5.6706977 -1.6517832 13 0
-2.6540344 6.2343526 -1.5643097 14 1
-2.6218169 6.1706228 -1.3032255 31 2
-3.5173776 8.2904434 -1.4263695 9 3
-25.438192 60.015953 8.0036478 9 11
-3.5868437 8.4665003 -1.1289978 25 4
-2.597805 6.1438789 -0.5835948 56 5
-3.5378234 8.3792753 -0.47667596 24 6
-2.3570743 5.6375318 -1.6372893 13 0
-2.6307166 6.3012843 -1.576457 16 1
-2.5665922 6.1597805 -1.2971196 28 2
-24.40588 58.60252 5.5539126 8 10
-3.4260268 8.2345505 -1.4126034 20 3
-3.7036061 8.9104872 1.1848139 2 11
-3.4918544 8.4051743 -1.1175419 19 4
-2.5502708 6.1508226 -0.58254898 56 5
-3.6022422 8.7008734 -0.4935281 11 6
-2.3220584 5.6645737 -1.6403952 13 0
-2.6213598 6.4042597 -1.5976024 12 1
-2.5190718 6.1666431 -1.2948298 30 2
-3.3826301 8.2930202 -1.418548 18 3
-24.795509 60.850597 8.0679951 9 11
-3.4136221 8.381547 -1.1112047 21 4
-2.4967644 6.1426358 -0.58010858 52 5
-5.4957585 13.541198 -0.76588446 17 6
-2.3033402 5.7326322 -1.6554067 11 0
-2.5707779 6.4079366 -1.5940032 12 1
-2.4701214 6.1694989 -1.291777 28 2
-3.2806549 8.206378 -1.3997757 21 3
-3.3741586 8.4531088 -1.1175419 18 4
-2.4508708 6.1525135 -0.57941139 52 5
-5.3169398 13.367669 -0.75395191 8 6
-2.2356646 5.6784673 -1.6352189 13 0
-2.4938998 6.3441133 -1.5737575 21 1
-2.4198201 6.1683168 -1.2879608 30 2
-23.938356 61.052147 5.737288 14 10
-3.3082967 8.4461193 -1.4366943 21 3
-24.088179 61.560577 8.1167431 10 11
-3.2948182 8.424695 -1.1107173 20 4
-2.397717 6.1434898 -0.57697099 54 5
-5.2452416 13.46029 -0.757092 17 6
-2.215431 5.7444053 -1.6497126 9 0
-2.4481483 6.3577318 -1.5728577 15 1
-2.3682506 6.1630673 -1.2833813 28 2
-22.370075 58.245602 5.4587383 6 10
-3.2818043 8.5538473 -1.4510862 6 3
-22.58363 58.924591 7.74821 5 11
-3.2018416 8.358511 -1.0990179 14 4
-2.3433862 6.1303024 -0.57418203 54 5
-5.0955939 13.351035 -0.74892759 8 6
-5.0933867 13.366254 -0.24967413 22 7
-2.160831 5.7094293 -1.6357363 10 0
-2.4494827 6.4823651 -1.599852 16 1
-2.3239384 6.1631303 -1.2803285 26 2
-3.2398255 8.6057262 -1.456405 7 3
-22.282852 59.251122 7.772584 6 11
-4.4602523 11.872592 -1.5572467 19 4
-2.2992272 6.1299806 -0.57278752 50 5
-4.0221181 10.746212 -0.60134023 9 6
-5.0069642 13.398868 -0.24967413 22 7
-2.1272995 5.7446733 -1.6414305 9 0
-2.3462687 6.34619 -1.5620601 17 1
-2.2743402 6.1648669 -1.2772754 20 2
-3.0095241 8.1708403 -1.3791263 13 3
-22.207869 60.359184 7.8968906 7 11
-3.0932364 8.4162292 -1.1009678 14 4
-3.5343461 9.6216221 1.623477 3 12
-2.2511852 6.1350536 -0.5717417 54 5
-3.9698384 10.842237 -0.60510838 9 6
-2.0881107 5.7651982 -1.6429834 10 0
-2.3564608 6.5167565 -1.599852 17 1
-2.225503 6.1680565 -1.2746042 16 2
-2.9382584 8.1568565 -1.3731819 24 3
-21.745594 60.400684 7.882266 7 11
-2.9974573 8.3348818 -1.0875622 9 4
-2.198874 6.1243677 -0.56930131 54 5
-4.7912822 13.374167 -0.74453139 8 6
-2.0520473 5.7883816 -1.6455716 9 0
-2.3309031 6.5859208 -1.6128991 13 1
-22.001146 62.232857 3.4593022 14 9
-2.1723535 6.1515913 -1.2681167 10 2
-21.386505 60.595207 5.6218944 10 10
-2.8859522 8.1859827 -1.3747462 25 3
-2.9149511 8.2820635 -1.0780563 13 4
-2.1558149 6.1354337 -0.56895268 54 5
-4.6803126 13.349928 -0.74139124 8 6
-2.0214624 5.8277674 -1.6528184 9 0
-2.2770927 6.5758533 -1.6066004 12 1
-20.89934 60.421913 3.3506529 9 9
-2.1400502 6.1940689 -1.2738409 6 2
-2.9190505 8.4631405 -1.4179221 14 3
-3.7213485 10.81371 -1.4041786 19 4
-2.0973926 6.1051116 -0.56476921 52 5
-4.6068282 13.432486 -0.74421734 17 6
-1.9666882 5.8036613 -1.6419481 10 0
-2.23435 6.6049018 -1.6097497 7 1
-2.1093152 6.2460608 -1.2814733 4 2
-6.3286095 18.761749 1.7323076 1 10
-2.818053 8.3640041 -1.3978986 19 3
-20.144409 59.823372 7.7506471 5 11
-3.6590533 10.878938 -1.4092971 23 4
-2.0585246 6.1309376 -0.56581503 52 5
-5.2826562 15.769896 -0.87160313 17 6
-1.9309834 5.8319201 -1.6460892 11 0
-2.1826837 6.6036859 -1.6057006 8 1
-20.074125 60.912479 5.6110868 10 10
-2.7163539 8.2521315 -1.3759978 13 3
-2.7681298 8.4242725 -1.0887808 5 4
-2.0090144 6.1284723 -0.5642463 55 5
-5.1923094 15.867133 -0.87495255 17 6
-1.8866556 5.8342304 -1.6429834 12 0
-2.107192 6.5278926 -1.5836555 10 1
-21.258625 66.054329 6.0709205 23 10
-2.7022064 8.4062967 -1.3985243 16 3
-19.521217 60.801498 7.8408308 6 11
-3.5577533 11.08774 -1.4297712 18 4
-1.9631435 6.1328607 -0.5633747 52 5
-4.2729068 13.372671 -0.73573893 8 6
-1.8400633 5.8288369 -1.6378069 11 0
-2.0797262 6.6000614 -1.5976024 7 1
-2.623343 8.3608751 -1.3878868 14 3
-19.340944 61.679245 7.9368629 8 11
-3.4719481 11.085788 -1.4263589 21 4
-1.9142193 6.1232619 -0.56128299 52 5
-3.3719823 10.81288 -0.59359449 9 6
-1.791241 5.8116889 -1.6295248 12 0
-2.040483 6.6326904 -1.6021013 7 1
-2.4017785 7.8265362 -1.5913471 3 2
-18.629536 60.744785 5.5587931 9 10
-2.5594327 8.3558722 -1.3841324 10 3
-18.852097 61.585487 7.908102 7 11
-3.3418584 10.930717 -1.4034475 9 4
-1.8608674 6.0980353 -0.55779672 52 5
-3.3041189 10.854688 -0.59464121 9 6
-1.7516404 5.8237467 -1.6295248 11 0
-1.9936074 6.6408272 -1.6007516 5 1
-2.3045213 7.6960058 -1.5615808 12 2
-17.899181 59.81274 5.462225 6 10
-1.8287911 6.1189489 -1.0115054 15 3
-18.60338 62.324299 7.9860992 8 11
-2.4079835 8.0774155 -1.0349146 16 4
-1.8165452 6.1051497 -0.55727381 58 5
-4.6874514 15.784085 -0.86291534 17 6
-1.7055764 5.8213005 -1.6253836 11 0
-1.9268925 6.5894585 -1.5850052 9 1
-2.2446871 7.6911769 -1.5573832 18 2
-17.465137 59.920166 5.4604816 6 10
-1.7821978 6.122396 -1.009941 22 3
-18.329733 63.009228 8.057271 9 11
-2.3836553 8.2045927 -1.0490514 28 4
-1.7694402 6.1023741 -0.55587929 58 5
-4.5594015 15.76542 -0.86008912 17 6
-1.6633039 5.8274927 -1.6238307 14 0
-1.8819101 6.6064982 -1.585905 6 1
-2.2115903 7.7844715 -1.5730294 6 2
-16.889673 59.48864 5.4102798 9 10
-1.7340235 6.115684 -1.0068123 29 3
-2.373883 8.389122 -1.0705004 11 4
-1.7213795 6.0954046 -0.55413622 53 5
-4.4275684 15.719968 -0.85590225 17 6
-1.6215453 5.8352404 -1.6227955 14 0
-1.6636872 6.0112848 -1.2124004 34 2
-16.44001 59.482189 5.3991237 4 10
-1.6650081 6.0283337 -0.99054313 52 3
-1.6531531 6.0017347 -0.7643646 31 4
-1.6566041 6.0265856 -0.5468151 56 5
-3.6325283 13.241956 -0.71961951 8 6
-1.5686698 5.797658 -1.609337 14 0
-1.6165785 6.0037951 -1.2085842 34 2
-15.949845 59.277187 5.3705368 3 10
-1.6192964 6.0264554 -0.98835307 35 3
-1.6127793 6.0147648 -0.76460832 33 4
-1.6093435 6.0187569 -0.54507202 53 5
-2.8592849 10.715872 -0.58124322 29 6
-1.5394642 5.8514376 -1.6212426 11 0
-1.6022847 6.1032 -1.4567831 33 1
-1.5870516 6.0624166 -1.2181247 14 2
-1.5926588 6.0968623 -0.998052 47 3
-2.189631 8.4001169 -1.0658693 18 4
-1.5853291 6.0992646 -0.5513472 53 5
-4.0815868 15.736998 -0.85202944 17 6
-3.4715788 13.413942 -0.24185546 21 7
-1.5071884 5.8957324 -1.63056 11 0
-1.7277389 6.7732449 -1.6137989 7 1
-1.9502224 7.6677923 -1.5379206 4 2
-15.440628 60.753113 5.4841881 7 10
-1.5466573 6.0944295 -0.99586189 42 3
-15.498318 61.159027 7.746747 5 11
-2.114857 8.3516941 -1.0578259 7 4
-1.5432907 6.1079822 -0.55117291 50 5
-3.989675 15.836767 -0.85590225 8 6
-3.381747 13.453365 -0.24213469 21 7
-1.4613378 5.887361 -1.6253836 11 0
-1.606392 6.4862704 -1.5427144 8 1
-1.928126 7.8028693 -1.5623442 3 2
-14.97507 60.693073 5.4691973 6 10
-1.5027736 6.0952263 -0.99429762 29 3
-15.392978 62.527573 7.9066401 7 11
-2.0669203 8.4086657 -1.0631882 9 4
-1.4963373 6.1011925 -0.54960412 53 5
-2.6185553 10.70116 -0.57737035 19 6
-2.651711 10.869517 -0.19529243 13 7
-1.3569604 5.6304836 -1.551879 10 0
-1.6237115 6.7528434 -1.6034511 4 1
-14.803937 61.662811 3.3234382 8 9
-1.8781809 7.8352308 -1.5661603 4 2
-14.635854 61.103615 5.497087 7 10
-1.4578869 6.095963 -0.99273324 38 3
-14.679416 61.475025 7.7603965 5 11
-2.0091796 8.4206066 -1.0629444 10 4
-1.450943 6.0998592 -0.54855824 53 5
-2.559468 10.785252 -0.58092916 19 6
-3.1544762 13.323581 -0.23899324 20 7
-1.3707958 5.867445 -1.6145133 14 0
-1.5774096 6.7678113 -1.6043509 2 1
-1.8341023 7.8940477 -1.5753192 3 2
-14.22243 61.262527 5.5023165 7 10
-1.4126202 6.0944457 -0.99085599 31 3
-14.016284 60.566463 7.6331649 4 11
-1.9503436 8.4344282 -1.0629444 10 4
-1.4065325 6.1020746 -0.54786098 53 5
-2.4675498 10.730839 -0.57705635 29 6
-3.0282967 13.201048 -0.23641029 20 7
-1.3379008 5.9126725 -1.6243484 10 0
-1.5352719 6.8014693 -1.6097497 2 1
-1.6220787 7.2094641 -1.4364102 3 2
-13.363507 59.443665 5.3304453 5 10
-1.3665749 6.0887403 -0.98835307 35 3
-13.468971 60.108849 7.5634561 3 11
-1.8853408 8.4207201 -1.0595322 10 4
-1.3591244 6.0903554 -0.54594356 50 5
-2.3960462 10.7634 -0.57789367 9 6
-1.2792386 5.8426075 -1.6026076 11 0
-1.479851 6.7758484 -1.6012017 3 1
-1.7078333 7.8459897 -1.5608176 3 2
-12.99225 59.737976 5.3485737 3 10
-1.3215194 6.0865498 -0.98647583 38 3
-13.022932 60.081127 7.5483441 3 11
-2.28492 10.550342 -1.3254511 5 4
-1.31363 6.0860624 -0.54472339 54 5
-2.2725027 10.555325 -0.5658564 20 6
-1.2400184 5.8589559 -1.6046782 10 0
-1.4325138 6.7860141 -1.6012017 7 1
-1.5253016 7.2506218 -1.4402263 3 2
-12.552726 59.721943 5.3391604 3 10
-1.2781838 6.0917616 -0.98585016 38 3
-12.625173 60.275494 7.5615058 3 11
-2.2278802 10.645699 -1.3354443 7 4
-1.2686688 6.0833826 -0.54367751 54 5
-2.7539375 13.240064 -0.70873362 8 6
-2.264545 10.915882 -0.19459434 13 7
-1.2075946 5.9091105 -1.6160662 12 0
-1.3851036 6.7958493 -1.6012017 7 1
-1.4949675 7.3611398 -1.4600705 3 2
-12.145782 59.858891 5.3436928 6 10
-1.2332742 6.0889192 -0.98397291 40 3
-2.1594057 10.690179 -1.3391005 4 4
-1.2257746 6.090138 -0.54350317 57 5
-2.6449287 13.176723 -0.70433736 26 6
-2.1349003 10.664758 -0.18984728 25 7
-1.1617358 5.8887634 -1.6083016 13 0
-1.3384373 6.8032079 -1.6007516 3 1
-1.5445186 7.879766 -1.5608176 3 2
-11.840699 60.464184 5.3904085 4 10
-1.1902808 6.0894189 -0.98272139 43 3
-12.129707 62.170082 7.7774587 6 11
-1.4420755 7.3981586 -0.9254759 3 4
-1.1801168 6.0768261 -0.54158574 54 5
-2.5718842 13.280698 -0.70894295 17 6
-2.1001742 10.875384 -0.19333775 13 7
-1.1238422 5.9138112 -1.6129603 11 0
-1.2887325 6.8008986 -1.5980524 2 1
-1.4894735 7.8903565 -1.5608176 3 2
-11.212967 59.456795 5.2934914 1 10
-1.1455503 6.0859323 -0.98084426 45 3
-11.619879 61.851345 7.7272482 5 11
-2.0238907 10.783321 -1.3471439 14 4
-1.137661 6.0849171 -0.54158574 54 5
-2.0266945 10.871527 -0.57956845 9 6
-2.0373545 10.960558 -0.19459434 13 7
-1.0762752 5.8873067 -1.6036428 18 0
-1.2426196 6.8173985 -1.599852 2 1
-1.4413661 7.9391956 -1.56845 3 2
-10.799768 59.545383 5.2945366 1 10
-1.1033863 6.0957251 -0.98115706 46 3
-11.098863 61.438686 7.6658263 4 11
-1.0923355 6.0770226 -0.54019129 54 5
-1.0438354 5.9441481 -1.6171014 11 0
-1.1963392 6.8335853 -1.6016515 2 1
-1.3791609 7.9103837 -1.5608176 3 2
-10.350297 59.426971 5.2774544 1 10
-1.0557292 6.0740857 -0.97646403 45 3
-10.687988 61.620289 7.678988 4 11
-1.8446655 10.646228 -1.3266698 18 4
-1.0492057 6.0805736 -0.53984267 51 5
-1.8157982 10.556271 -0.56135553 20 6
-0.99653679 5.9170003 -1.607784 11 0
-1.1486026 6.8417711 -1.6016515 2 1
-1.2727627 7.6138692 -1.500522 3 2
-3.2447791 19.431698 1.7235919 1 10
-1.0139477 6.0852056 -0.97708976 43 3
-1.7618395 10.607931 -1.3203326 23 4
-1.0041292 6.0720253 -0.53844815 51 5
-1.7855842 10.832759 -0.57538158 9 6
-0.95674169 5.9333491 -1.6103721 9 0
-1.0940073 6.8072934 -1.5917536 3 1
-1.2440761 7.7757192 -1.5306698 15 2
-9.7623167 61.084541 5.4120231 10 10
-0.96832973 6.072629 -0.97396111 45 3
-1.7026943 10.714076 -1.332032 18 4
-0.95953757 6.0651116 -0.53722799 48 5
-2.8701701 18.203831 -0.9658078 9 6
-2.0912144 13.308653 -0.23515373 20 7
-0.9123565 5.9207902 -1.6051958 9 0
-1.051784 6.8494363 -1.599852 2 1
-1.1995497 7.8482585 -1.5432632 10 2
-9.3746881 61.407253 5.4346833 5 10
-0.92174709 6.0519013 -0.96958095 45 3
-1.6278543 10.725702 -1.332032 20 4
-0.91733468 6.0655928 -0.53670508 54 5
-1.6071073 10.676908 -0.5658564 20 6
-0.86931407 5.9155474 -1.6020899 9 0
-0.99603522 6.8026228 -1.5872546 2 1
-9.1184645 62.352303 3.3025038 7 9
-1.1495051 7.8795543 -1.5478426 3 2
-9.1339788 62.764587 5.5490317 8 10
-0.88167107 6.0658541 -0.97083241 41 3
-0.87468511 6.0698767 -0.53653073 48 5
-1.5511457 10.804241 -0.57203203 30 6
-0.83224231 5.9442859 -1.6083016 9 0
-0.8506456 6.0989838 -1.4216906 2 1
-1.1005384 7.9108539 0.41858301 2 9
-1.1036383 7.953505 -1.5608176 3 2
-8.9204483 64.368607 5.6853433 12 10
-0.83767617 6.0601211 -0.96895516 43 3
-1.6531897 12.021731 -1.4899747 3 4
-0.82985455 6.0580697 -0.53496194 54 5
-1.47298 10.795019 -0.57098538 30 6
-0.78714311 5.9309382 -1.6031252 9 0
-0.80263907 6.0720716 -1.4140424 7 1
-1.0334826 7.8500667 -1.5390654 7 2
-0.79505897 6.071836 -0.96989381 30 3
-1.4008199 10.741694 -1.3300822 13 4
-0.78984761 6.0814981 -0.53653073 48 5
-1.708351 13.225823 -0.69889444 17 6
-0.74018008 5.8922033 -1.5912195 12 0
-0.75926095 6.0697923 -1.4122428 9 1
-7.7057943 61.777832 3.2627285 5 9
-0.97292054 7.8221936 -1.5321964 10 2
-1.0019357 8.066967 0.71119088 1 10
-0.7504679 6.0595951 -0.96707797 41 3
-1.0420254 8.4500542 -1.0453953 15 4
-0.74421495 6.0611558 -0.53426468 51 5
-1.6145173 13.225533 -0.69826639 17 6
-0.70130068 5.9164114 -1.596396 10 0
-0.71823758 6.0865569 -1.4149421 15 1
-7.2421026 61.463882 3.2434688 4 9
-0.92675453 7.8890791 -1.5440264 3 2
-7.3144412 62.452942 5.5012703 7 10
-0.70782739 6.0527902 -0.96520072 35 3
-1.2248108 10.53739 -1.3025397 20 4
-0.70051092 6.0543284 -0.53321886 48 5
-1.5197933 13.277266 -0.23326886 19 7
-0.66186994 5.9287276 -1.5984664 11 0
-0.67571497 6.0816207 -1.4126925 25 1
-0.88113886 7.9812188 -1.5608176 3 2
-7.1943336 65.269875 5.7449574 14 10
-0.66426218 6.0458031 -0.96332359 41 3
-1.1642816 10.648095 -1.315214 27 4
-0.6597122 6.0629182 -0.53356743 51 5
-2.2163992 20.502247 -1.0807376 9 6
-0.62046349 5.9332037 -1.5984664 10 0
-0.63223249 6.0764985 -1.4104432 25 1
-6.6494174 64.017273 3.3730528 10 9
-0.81607419 7.8835325 -1.540592 9 2
-0.62228185 6.0423245 -0.96207207 39 3
-1.1002116 10.756679 -1.3276447 10 4
-0.61696851 6.0634117 -0.53321886 51 5
-0.84660757 8.3637247 -0.44056413 26 6
-0.57969022 5.9334445 -1.5974313 11 0
-0.58935142 6.0651441 -1.4068439 26 1
-0.76045513 7.8831744 -1.5394472 6 2
-0.57970893 6.0425892 -0.96144634 41 3
-0.79073322 8.2878418 -1.0222402 20 4
-0.57312012 6.051703 -0.53182435 51 5
-1.0170345 10.79933 -0.56847322 10 6
-0.53947085 5.9508147 -1.6010547 9 0
-0.54751629 6.074934 -1.4081936 34 1
-0.71519399 7.9977965 -1.5608176 3 2
-0.53715974 6.0425529 -0.96082056 37 3
-0.73704761 8.3406181 -1.0280899 10 4
-0.7672568 8.7172194 1.3860096 2 12
-0.53085732 6.0555563 -0.53182435 51 5
-1.5799942 18.132315 -0.9538753 9 6
-0.49855995 5.9621358 -1.6031252 9 0
-0.50525618 6.0805492 -1.4086435 45 1
-0.49463651 6.0422192 -0.96019489 37 3
-0.85485315 10.510102 -1.29474 18 4
-0.48898408 6.0510855 -0.5311271 51 5
-1.0884777 13.587766 -0.71438587 8 6
-0.45323581 5.9173155 -1.5901842 11 0
-0.4610199 6.0606117 -1.4032447 45 1
-0.57601637 7.6251502 -1.4864022 9 2
-0.45379525 6.0493851 -0.96082056 33 3
-0.60801309 8.1818266 -1.0073721 18 4
-0.44643441 6.0503778 -0.53077847 48 5
-0.96735495 13.204444 -0.69387019 17 6
-0.41348785 5.9279728 -1.5922549 19 0
-0.41894549 6.0519447 -1.4005452 48 1
-0.51297098 7.4860039 -1.458544 11 2
-0.41074744 6.0405807 -0.95894337 37 3
-0.55418181 8.2135038 -1.0107845 18 4
-0.40418682 6.0533466 -0.53077847 51 5
-0.63074511 9.4713554 1.8451231 2 13
-0.85350221 12.884041 -0.67670399 26 6
-0.37136412 5.9191465 -1.589149 15 0
-0.37692964 6.0586119 -1.4014452 48 1
-0.48203528 7.8362422 -1.5260904 4 2
-0.36880675 6.0472445 -0.9595691 37 3
-0.49874017 8.2488766 -1.0146842 16 4
-0.36191666 6.0560212 -0.53077847 51 5
-0.78880787 13.316351 -0.69910377 17 6
-0.32970914 5.9158087 -1.5875961 12 0
-0.33483818 6.0649872 -1.4023448 48 1
-0.4141694 7.5982952 -1.4791514 11 2
-0.32615408 6.0417819 -0.95831764 37 3
-0.43966034 8.2244043 -1.0112718 19 4
-0.31826425 6.0325356 -0.52851242 54 5
-0.69269753 13.261697 -0.69596362 8 6
-0.68493211 13.246285 -0.23152363 19 7
-0.28896517 5.929543 -1.5907019 13 0
-0.2921131 6.059391 -1.4005452 45 1
-0.67855823 14.178292 0.74390334 6 9
-0.3717342 7.8245602 -1.5226558 4 2
-0.65083981 13.750024 1.204318 4 10
-0.28378114 6.0399656 -0.95769191 37 3
-0.61762375 13.24404 1.6279309 0 11
-0.38167971 8.2153759 -1.0098095 18 4
-0.57576424 12.486917 1.9798348 1 12
-0.27641466 6.0405812 -0.52903533 51 5
-0.51799279 11.363297 2.2110946 4 13
-0.37428194 8.2741728 -0.43407446 13 6
-0.70319939 15.72789 -0.27480558 27 7
-0.24901503 5.9661593 -1.6000193 12 0
-0.24948536 6.0534945 -1.3987457 58 1
-2.5157945 61.566063 3.2292335 4 9
-0.32186779 7.944663 -1.545553 3 2
-0.24176519 6.0457468 -0.95831764 37 3
-0.32642984 8.2713957 -1.0163903 29 4
-0.23423675 6.0423636 -0.52903533 51 5
-0.20688772 5.9542375 -1.596396 11 0
-0.20728169 6.0570364 -1.3991956 52 1
-2.0168209 59.542095 3.1222587 0 9
-0.19929431 6.0393906 -0.95706618 39 3
-0.27467275 8.4579887 -1.0390581 6 4
-0.19185755 6.0378776 -0.52851242 54 5
-0.33632851 10.761971 -0.56428635 10 6
-0.33134291 10.783268 -0.18831147 38 7
-0.16597608 5.9419904 -1.5927725 9 0
-0.1658372 6.0505152 -1.397396 47 1
-1.6055689 59.334824 3.110745 0 9
-0.21135433 7.9130197 -1.5386838 3 2
-0.15828131 6.0445566 -0.95769191 37 3
-0.22024788 8.5826988 -1.0541699 23 4
-0.15080422 6.0410357 -0.52868676 48 5
-0.26238298 10.736057 -0.56282091 10 6
-0.25602329 10.705308 -0.18691526 12 7
-0.12457003 5.946867 -1.5938078 9 0
-0.12343343 6.0437322 -1.3955964 47 1
-1.1962367 59.592201 3.1237242 0 9
-0.15324457 7.7690501 -1.510444 3 2
-1.2482998 63.851852 5.5873799 9 10
-0.11592968 6.0376139 -0.95644045 39 3
-0.16010565 8.5721188 -1.0527074 5 4
-0.10837547 6.027997 -0.5274666 46 5
-0.1859608 10.653754 -0.55842471 20 6
-0.082942143 5.9398651 -1.5917372 9 0
-0.081341967 6.0522408 -1.397396 70 1
-0.27374986 20.91151 1.0960197 3 9
-0.10130386 7.9505348 -1.545553 3 2
-0.79602039 63.34103 5.5420589 8 10
-0.073776372 6.0382762 -0.95644045 37 3
-0.15065254 12.882368 -1.5818642 2 4
-0.0672777 6.0226178 -0.52694362 51 5
-0.13977818 13.346951 -0.69952244 8 6
-0.041579943 5.9557538 -1.5958784 9 0
-0.039011873 6.0409689 -1.3946966 66 1
-0.37337753 59.423283 3.1143038 0 9
-0.046904217 7.903923 -1.536394 3 2
-0.032716088 6.0465398 -0.95769191 33 3
-0.050516199 10.719379 -1.3161889 16 4
-0.025230261 6.0229406 -0.52694362 51 5
-0.039841972 10.871008 -0.56972927 10 6
-0.0010356582 5.934648 -1.5901842 10 0
0.0021100452 6.044992 -1.3955964 63 1
0.042251155 60.522926 3.1718733 1 9
0.0082767075 7.9040575 -1.536394 3 2
0.074364774 60.871441 5.3255644 5 10
0.009485106 6.0387192 -0.95644045 37 3
0.017431719 8.3234749 -1.0219964 18 4
0.016840663 6.0309401 -0.52764088 51 5
0.043319564 13.064 -0.68465906 8 6
0.040656172 5.9731474 -1.6005371 10 0
0.044309113 6.0448298 -1.3955964 52 1
0.44431928 57.856892 3.0322409 0 9
0.062889807 7.8331327 -1.5226558 3 2
0.50060052 61.024837 5.3391604 3 10
0.051676873 6.0424566 -0.95706618 37 3
0.094600774 10.423291 -1.2798719 15 4
0.058905199 6.0266905 -0.52729225 48 5
0.1344813 13.059385 -0.68444973 8 6
0.15953724 14.742891 -0.25735319 24 7
0.082145363 5.9572639 -1.596396 10 0
0.086511783 6.0443735 -1.3955964 56 1
0.11647987 7.7598705 -1.508536 8 2
0.92716646 61.055714 5.342298 3 10
0.093734302 6.0340481 -0.95581466 39 3
0.16850919 10.49383 -1.2886466 13 4
0.099626131 6.0082207 -0.5257234 54 5
0.18268688 10.571911 -0.55413318 20 6
0.19133496 10.74666 -0.18761338 12 7
0.12373291 5.9565454 -1.596396 10 0
0.12870736 6.043622 -1.3955964 45 1
1.2220751 56.918751 2.9836731 0 9
0.16810155 7.7039399 -1.4978507 8 2
1.344444 60.64539 5.3070874 2 10
0.13463105 6.0253706 -0.9545632 39 3
0.24424019 10.599565 -1.3018084 19 4
0.14152491 6.0053868 -0.52554911 51 5
0.25454733 10.56643 -0.55392385 20 6
0.36040384 14.539319 -0.25386271 23 7
0.1647516 5.9729457 -1.6010547 9 0
0.16951069 6.0309181 -1.392897 45 1
0.2231776 7.747715 -1.5066279 3 2
1.7228436 59.447868 5.203198 1 10
0.17668991 6.0242844 -0.9545632 35 3
0.31859067 10.609506 -1.3032708 16 4
0.18399458 6.0221758 -0.52711791 57 5
0.40244496 12.949968 -0.67900676 35 6
0.46342984 14.584417 -0.25470042 23 7
0.20641546 5.9407229 -1.5927725 13 0
0.21252522 6.0256553 -1.3919971 66 1
2.0159645 56.59639 2.9679723 0 9
0.27712092 7.742044 -1.5058646 11 2
2.1438806 59.314552 5.192739 1 10
0.21979417 6.0228658 -0.9545632 39 3
0.34337261 9.275938 -1.1397222 4 4
0.22588043 6.0167623 -0.52676928 57 5
0.49723947 13.002639 -0.68193758 26 6
0.56244832 14.508891 -0.25344384 58 7
0.24909291 5.9680896 -1.6005371 12 0
0.25475162 6.0279188 -1.392897 66 1
0.33293596 7.74967 -1.5077728 14 2
2.433219 56.407879 4.9396386 1 10
0.26200798 6.0251312 -0.95518899 39 3
0.4202545 9.5489769 -1.1736019 10 4
0.26770258 6.0110583 -0.52642071 57 5
0.58710033 12.978898 -0.68089086 26 6
0.4871223 10.645238 -0.18600775 25 7
0.28896531 5.929543 -1.5907019 13 0
0.29740348 6.037672 -1.3955964 49 1
2.7517102 55.665543 2.9208698 0 9
0.38802147 7.7942843 -1.5169315 4 2
2.805413 55.959705 4.9019876 1 10
0.30261964 6.0153165 -0.95393753 43 3
0.48225701 9.4546137 -1.1623899 1 4
0.3086358 5.9891453 -0.52467757 60 5
0.55248857 10.613045 -0.55695927 20 6
0.76875675 14.571514 -0.25470042 23 7
0.33232045 5.9814477 -1.6051958 9 0
0.33805731 6.0277247 -1.3937967 49 1
3.1514888 55.844387 2.9313371 0 9
0.4463219 7.8599887 -1.5302882 3 2
3.1644742 55.557392 4.8685198 1 10
0.34460419 6.0130572 -0.95393753 43 3
0.60528463 10.465784 -1.2871841 11 4
0.35032415 6.0028176 -0.52607203 54 5
0.62610215 10.600954 -0.55654061 10 6
0.6340881 10.641501 -0.18607756 12 7
0.37117282 5.9327083 -1.5927725 9 0
0.37963685 6.0174384 -1.3919971 42 1
0.48946401 7.6941471 -1.498614 11 2
3.5693302 55.800381 4.8918772 1 10
0.38577589 6.0145154 -0.9545632 41 3
0.67499512 10.409799 -1.2808468 19 4
0.39170334 5.9922733 -0.52537483 63 5
0.86620241 13.145413 -0.69041598 35 6
0.41235229 5.941607 -1.5958784 9 0
0.4205904 6.0147147 -1.3919971 49 1
0.54911864 7.7747526 -1.5150236 3 2
3.970994 56.084827 4.9190702 0 10
0.42747819 6.0077348 -0.95393753 41 3
0.67444664 9.4090176 -1.1582464 10 4
0.4341031 5.9973412 -0.52607203 46 5
1.489069 20.423687 -1.0732012 9 6
0.78396749 10.675623 -0.18684547 18 7
0.45352522 5.934731 -1.594843 9 0
0.45748478 5.9455705 -1.3767005 47 1
0.45884487 5.9092774 -1.1521047 36 2
4.3548689 55.958405 4.9105287 1 10
0.46232778 5.9140129 -0.93954557 37 3
0.46335217 5.8874445 -0.72512263 25 4
0.46823418 5.8968434 -0.5175308 49 5
0.84421414 10.561774 -0.55528456 31 6
0.85623306 10.641985 -0.1863568 12 7
0.49221548 5.8986931 -1.5860431 11 0
0.49800313 5.9305801 -1.374001 63 1
0.50207597 5.9294052 -1.1566842 38 2
4.78268 56.365379 4.9490519 1 10
0.50326866 5.9067044 -0.93891978 37 3
0.50681686 5.911756 -0.728535 42 4
0.50836194 5.8935199 -0.5175308 49 5
1.7865435 20.544167 -1.0807376 9 6
1.2721057 14.540236 -0.25477022 23 7
0.5344286 5.9066567 -1.589149 10 0
0.54045397 5.9386034 -1.3767005 56 1
0.54528511 5.9571319 -1.1627901 14 2
0.55142802 5.9896932 -0.95268601 43 3
0.76077515 8.2009363 -1.0112718 20 4
0.55893016 5.9910002 -0.52642071 54 5
2.1550667 22.969463 -1.2090654 10 6
1.0160275 10.748442 -0.18845108 12 7
0.57705486 5.9278779 -1.5958784 9 0
0.58883697 6.0162454 -1.3955964 59 1
0.76848853 7.7955985 -1.5226558 3 2
5.6748786 57.463902 5.0518956 0 10
0.59440225 5.9974914 -0.9545632 41 3
0.8169772 8.1995173 -1.0117593 15 4
0.60009676 5.9910212 -0.52676928 57 5
1.5568773 15.434389 -0.81298679 17 6
0.61822462 5.9217839 -1.5953608 11 0
0.63001043 6.0042348 -1.3937967 63 1
0.80917621 7.6730413 -1.4997588 3 2
6.060009 57.272301 5.0386477 0 10
0.63604218 6.0011644 -0.95581466 39 3
0.87293327 8.1817722 -1.0102969 18 4
0.64126724 5.9807429 -0.52624637 51 5
1.1398147 10.578169 -0.55758733 20 6
1.5819981 14.586226 -0.2560966 24 7
0.65915972 5.9231982 -1.5969136 9 0
0.67216474 6.0114274 -1.3964962 52 1
0.8758958 7.7842617 -1.5226558 3 2
6.4434342 57.174294 5.0337672 0 10
0.67881036 6.0044293 -0.95706618 37 3
0.93407029 8.2109814 -1.0146842 19 4
0.68391007 5.9840388 -0.52694362 48 5
1.2181931 10.609637 -0.55968076 10 6
0.69993359 5.904901 -1.5932901 12 0
0.71608591 6.0142035 -1.3982958 56 1
0.92415726 7.7272735 -1.5127338 3 2
6.9373484 57.834915 5.0961704 0 10
0.72175968 5.9994183 -0.95706618 37 3
0.99637181 8.2456455 -1.0198027 21 4
0.72518975 5.9751625 -0.526595 51 5
2.4867587 20.370613 -1.0755041 9 6
1.2958642 10.569234 -0.18586813 25 7
0.74018019 5.8922033 -1.5912195 10 0
0.75854331 6.0129251 -1.3991956 59 1
7.2701497 57.468468 3.0357997 0 9
0.99276733 7.8256359 -1.5333412 3 2
0.76262456 5.9863954 -0.95581466 35 3
1.0548463 8.2343664 -1.0193152 20 4
0.76691169 5.961916 -0.52589774 51 5
2.6417046 20.451796 -1.0807376 9 6
1.3730079 10.571589 -0.18607756 18 7
0.78614235 5.9154811 -1.5989841 9 0
0.80103594 6.0034795 -1.3982958 56 1
1.0400814 7.76403 -1.5226558 3 2
7.9287763 59.030388 5.2108674 0 10
0.80544257 5.9807849 -0.95581466 39 3
1.1035262 8.1618843 -1.0112718 19 4
0.811728 5.9801083 -0.52798945 51 5
1.4459727 10.597126 -0.56051815 20 6
1.4587194 10.648918 -0.18761338 12 7
0.82535541 5.9101377 -1.5989841 9 0
0.84191442 6.0057554 -1.4000953 59 1
1.083041 7.6867847 -1.5089177 11 2
0.84619766 5.9831352 -0.95706618 39 3
1.159029 8.1642141 -1.0124906 21 4
0.85137188 5.9745932 -0.52798945 51 5
1.5139588 10.571486 -0.55968076 30 6
0.86744028 5.909965 -1.6005371 10 0
0.8843928 6.0035863 -1.4009951 52 1
0.96018797 6.4945264 -1.2761306 4 2
8.8665543 59.827526 5.2913995 1 10
0.88806659 5.9850516 -0.95831764 39 3
1.2198032 8.181447 -1.0156592 15 4
0.8945359 5.9783564 -0.52886105 46 5
1.5870683 10.568837 -0.56009948 10 6
1.5963857 10.580618 -0.18677565 25 7
0.90705818 5.9001055 -1.5995017 10 0
0.92582893 6.0012798 -1.4018949 49 1
0.99888676 6.444984 -1.2677351 14 2
0.92982566 5.9787068 -0.95831764 35 3
1.2711792 8.1454964 -1.0122468 15 4
0.93532795 5.9660597 -0.52833807 48 5
1.6552272 10.521985 -0.55821538 31 6
0.95068151 5.9088874 -1.6036428 10 0
0.96894538 6.0023656 -1.4036945 56 1
1.2587869 7.7634068 -1.5287617 3 2
0.97090793 5.9681702 -0.95769191 39 3
1.338567 8.2010756 -1.0202903 28 4
0.97953176 5.9751139 -0.52973258 48 5
1.7292875 10.514115 -0.55842471 20 6
2.5749216 15.604574 -0.27606216 27 7
0.99767339 5.936399 -1.6129603 10 0
1.012122 6.0031409 -1.4054942 49 1
1.3077112 7.7234588 -1.5226558 3 2
1.0132115 5.9651408 -0.95831764 37 3
1.3914539 8.166091 -1.0171217 20 4
1.0235744 5.9818773 -0.53095281 57 5
1.7985929 10.478166 -0.55716866 31 6
1.0344244 5.9026494 -1.6057135 10 0
1.0540073 5.9959288 -1.4054942 56 1
1.3677381 7.7489424 -1.529525 3 2
2.3968048 13.565268 1.2051896 1 10
1.0568976 5.9695935 -0.96019489 33 3
1.4578016 8.20895 -1.0237026 13 4
1.0656606 5.9765468 -0.5311271 51 5
1.884359 10.536132 -0.56093681 10 6
2.3420105 13.05558 -0.23152363 28 7
1.0756074 5.8952842 -1.6057135 10 0
1.0972443 5.9960923 -1.4072938 63 1
1.4289011 7.777823 -1.5371574 3 2
1.0999793 5.96984 -0.96144634 33 3
1.9620225 10.61715 -1.3256948 16 4
1.1070431 5.9730725 -0.53147572 51 5
1.955682 10.510937 -0.56030881 30 6
1.9716475 10.565979 -0.18761338 12 7
1.1192552 5.9009175 -1.609337 9 0
1.1419885 6.0036016 -1.410893 59 1
1.2662307 6.6378279 -1.3135291 7 2
1.1398441 5.958334 -0.96082056 37 3
1.5805109 8.2306833 -1.0290648 9 4
1.147209 5.9573722 -0.53077847 51 5
2.0245268 10.483656 -0.55957609 41 6
2.0400314 10.524473 -0.1871247 40 7
1.1560422 5.8761024 -1.6046782 10 0
1.1835846 5.9995127 -1.4117929 52 1
1.2885169 6.5074968 -1.2894872 12 2
1.1814133 5.9502311 -0.96082056 35 3
1.6376579 8.2255764 -1.0297961 15 4
1.1900736 5.9611492 -0.53182435 48 5
2.0913839 10.437934 -0.55790138 20 6
1.205143 5.907639 -1.6155485 9 0
1.2230942 5.9796491 -1.4090934 47 1
1.3473761 6.5697346 -1.3036071 3 2
1.2234795 5.9497914 -0.96207207 37 3
2.1913252 10.618829 -1.3313009 9 4
1.2328722 5.958549 -0.53234726 57 5
2.1863258 10.538837 -0.56407702 30 6
1.2449282 5.8974085 -1.6150309 10 0
1.2661892 5.9826241 -1.4117929 45 1
1.3654751 6.4295793 -1.277657 8 2
1.2666326 5.9488335 -0.96332359 35 3
2.2318096 10.446028 -1.3115579 6 4
1.2756927 5.9556413 -0.53287023 48 5
2.3925469 11.150757 2.216819 1 13
2.2606862 10.527223 -0.56428635 20 6
1.2817343 5.8638144 -1.6083016 9 0
1.3123045 5.9886384 -1.415392 40 1
1.3694679 6.2338896 -1.2406402 12 2
1.3108698 5.9473338 -0.96457505 43 3
2.3119583 10.463145 -1.3157015 9 4
1.3180987 5.9504809 -0.53321886 51 5
2.3532917 10.588763 -0.56847322 20 6
2.3460579 10.530179 -0.18831147 12 7
1.3183805 5.8358803 -1.6031252 9 0
1.3592433 6.0021391 -1.4207909 38 1
1.448838 6.3770871 -1.2711695 10 2
1.35499 5.9495935 -0.96645224 41 3
1.6307604 7.1431923 -0.89963961 1 4
1.3604977 5.9450178 -0.53356743 51 5
1.8894154 8.2101135 -0.14705399 7 7
1.3507553 5.7907877 -1.5932901 10 0
1.402003 5.9962978 -1.4216906 30 1
1.5092351 6.4397135 -1.2856711 14 2
1.3963598 5.9440789 -0.96707797 39 3
1.9036931 8.0783968 -1.0190716 19 4
1.4028875 5.9392529 -0.53391606 54 5
3.07885 13.004158 -0.70035982 8 6
1.7087225 7.1947498 -0.129078 39 7
1.3951061 5.8021221 -1.5989841 9 0
1.807632 7.5062375 0.13476749 4 8
1.4455228 5.9979835 -1.4243901 32 1
1.5786054 6.530159 -1.3058969 3 2
1.4387536 5.938025 -0.9677037 41 3
1.9712893 8.1173344 -1.0256525 27 4
1.4480864 5.9448004 -0.53531057 51 5
2.2779043 9.3443432 1.8695467 1 13
2.5494761 10.442534 -0.5633443 20 6
2.525264 10.319909 -0.18544927 18 7
1.445338 5.8316183 -1.6098546 11 0
1.4944084 6.0161142 -1.4311386 40 1
1.6203561 6.5037403 -1.3028439 3 2
1.9607872 7.8642864 0.70909911 1 10
1.482088 5.9355021 -0.96895516 45 3
2.0183098 8.0709896 1.0215088 4 11
2.0235739 8.0860434 -1.0234588 20 4
1.4924639 5.9461417 -0.53635645 51 5
4.4821048 17.817688 -0.96287704 9 6
2.6568887 10.538589 -0.18970767 25 7
1.4888848 5.8326159 -1.6129603 10 0
1.5566604 6.0848274 -1.4500345 48 1
1.6579146 6.4618425 -1.296738 8 2
1.5254542 5.9326634 -0.97020662 41 3
2.0908694 8.1140099 -1.0288211 5 4
1.5299115 5.9242702 -0.53531057 51 5
4.6013794 17.766628 -0.96183026 9 6
2.7444634 10.573979 -0.19068499 26 7
1.529568 5.8220792 -1.6129603 11 0
1.6085296 6.1096177 -1.4585826 30 1
1.7188925 6.5149488 -1.309713 15 2
1.5743879 5.9546075 -0.97552538 46 3
2.9070449 10.963968 -1.392723 4 4
1.5763527 5.9327006 -0.53705364 51 5
2.8002291 10.516645 -0.57035732 30 6
2.7955136 10.469554 -0.18914919 19 7
1.5706701 5.8171291 -1.6145133 9 0
1.6887579 6.2414918 -1.4927752 28 1
1.7396544 6.4118428 -1.2913953 16 2
1.6148815 5.9396601 -0.97489971 46 3
2.9132452 10.693027 -1.3607932 14 4
1.6187826 5.925395 -0.53740233 51 5
2.8762178 10.506473 -0.57088071 20 6
2.9143293 10.623844 -0.19229062 19 7
1.6195058 5.8358068 -1.6227955 9 0
1.7375144 6.2483239 -1.4972742 28 1
1.7885934 6.4146705 -1.2944483 14 2
1.6594981 5.9396563 -0.97677696 50 3
3.0151188 10.769918 -1.3732239 5 4
1.664415 5.9292955 -0.53879678 51 5
2.9608481 10.526512 -0.57307881 30 6
2.9754021 10.557047 -0.19145289 32 7
1.6644472 5.8392196 -1.6269366 9 0
1.7468389 6.1161184 -1.4684805 21 1
1.8041465 6.3001084 -1.2738409 14 2
1.7041931 5.9393187 -0.97865415 50 3
2.3426359 8.1482592 -1.0410081 11 4
1.708048 5.9293156 -0.53984267 51 5
2.9971335 10.377025 -0.56606579 20 6
1.7019168 5.8163333 -1.6238307 9 0
1.8234867 6.2197165 -1.4963745 26 1
1.8669077 6.3554935 -1.2875792 14 2
1.7484857 5.940846 -0.98084426 45 3
2.4387865 8.2649822 -1.0580697 10 4
1.749398 5.9172473 -0.53984267 54 5
3.0954936 10.450218 -0.57119471 20 6
3.1452889 10.59115 -0.19284908 19 7
1.7397999 5.7990637 -1.6222779 11 0
1.8074372 6.0130701 -1.4495846 30 1
1.9531499 6.4814076 -1.3158189 13 2
1.7899179 5.9284945 -0.98084426 45 3
2.5357955 8.3830957 -1.0753752 16 4
1.7919463 5.9128294 -0.54053992 51 5
3.1741805 10.447463 -0.57224143 20 6
1.7785411 5.7812357 -1.6207249 9 0
1.9297328 6.2610259 -1.512571 20 1
2.0435617 6.6180315 -1.3463483 3 2
1.8325655 5.9237218 -0.98209572 43 3
2.5242827 8.1395645 -1.0463703 16 4
1.8390907 5.9192028 -0.542283 51 5
4.0180902 12.90854 -0.70852429 17 6
3.3207963 10.642224 -0.19459434 13 7
1.8227688 5.7775736 -1.6233131 10 0
1.9521691 6.1764474 -1.4954746 15 1
2.4252682 7.6546931 -1.5608176 3 2
1.8807174 5.9251928 -0.98459864 40 3
2.6023147 8.1837206 -1.0544137 21 4
1.8874481 5.9248748 -0.54402614 51 5
3.335531 10.445306 -0.57464886 19 6
3.3858981 10.583906 -0.19396605 26 7
1.861874 5.7610297 -1.6222779 11 0
1.9940407 6.1589603 -1.4945749 17 1
2.0291004 6.2560687 -1.2784203 8 2
1.92345 5.9197679 -0.98585016 38 3
2.5585699 7.8558011 -1.0144405 21 4
1.9337124 5.9267058 -0.54542065 56 5
4.252296 13.009915 -0.71731669 8 6
3.408648 10.404187 -0.19110386 13 7
1.9052882 5.7610626 -1.6259012 9 0
2.0702345 6.2488379 -1.5197693 15 1
2.1185091 6.3796291 -1.3066601 7 2
1.9697162 5.9211912 -0.98835307 36 3
2.5962906 7.7911224 -1.008347 19 4
1.9737791 5.9092822 -0.54507202 56 5
3.5052145 10.475979 -0.57894039 19 6
3.542944 10.570345 -0.19459434 13 7
1.9386485 5.7274923 -1.6202073 10 0
2.1062999 6.2120862 -1.5143706 32 1
2.1636271 6.3665423 -1.3070416 5 2
2.0148256 5.9185157 -0.99023032 35 3
2.7409596 8.0377254 -1.0427142 21 4
2.0188489 5.906671 -0.54611784 53 5
3.5782602 10.451254 -0.57894039 9 6
1.9760582 5.7065167 -1.6181368 11 0
2.2039003 6.3537254 -1.5526122 14 1
2.2164023 6.3753891 -1.3120028 5 2
2.0573947 5.9080358 -0.99085599 36 3
2.8126981 8.0633774 -1.0485638 20 4
2.0642653 5.9078393 -0.54751235 53 5
3.6801822 10.50896 -0.58354598 29 6
3.6901796 10.519849 -0.19459434 13 7
2.0119798 5.6816559 -1.6150309 11 0
2.2397351 6.3143086 -1.5467634 21 1
2.2610614 6.3638544 -1.312766 5 2
2.1002114 5.9013395 -0.99210751 40 3
2.8269093 7.9257522 -1.0332084 19 4
2.1141763 5.9176741 -0.5497784 50 5
3.7395213 10.449815 -0.58166188 9 6
3.7567816 10.475007 -0.19424528 27 7
2.0506043 5.66783 -1.6150309 11 0
2.2175932 6.1193676 -1.502673 21 1
2.1528392 5.9180918 -0.99742627 43 3
2.9535093 8.1058969 -1.0592884 10 4
2.1602192 5.9158726 -0.55099863 53 5
3.8123784 10.423455 -0.58166188 29 6
3.8445048 10.494257 -0.19508299 13 7
2.098165 5.6751189 -1.6212426 11 0
2.3116946 6.2426229 -1.5368656 18 1
2.1982296 5.9140286 -0.99930352 45 3
2.9095967 7.81533 -1.0239463 13 4
2.2056456 5.9118466 -0.55204445 53 5
3.9242067 10.501357 -0.58752352 28 6
3.9204788 10.474653 -0.19522263 27 7
2.143194 5.6747904 -1.6253836 11 0
2.3759038 6.281013 -1.5503626 5 1
2.2450757 5.9133105 -1.0018064 45 3
3.0685146 8.0694351 -1.0600196 19 4
2.2472534 5.9004202 -0.55239308 53 5
4.0244865 10.544612 -0.59150106 19 6
4.0092182 10.488121 -0.19599053 20 7
2.1632926 5.6092229 -1.6108898 11 0
2.4477797 6.3369875 -1.5683587 13 1
2.9666238 7.6682611 -1.5982162 3 2
2.288126 5.9052606 -1.0030578 59 3
3.1298051 8.060771 -1.0617259 10 4
2.2963347 5.905014 -0.5543105 50 5
4.0816712 10.479752 -0.58940756 28 6
4.0823417 10.459876 -0.19599053 13 7
2.2268896 5.6590843 -1.6295248 12 0
2.5694561 6.5196114 -1.617848 2 1
5.3381314 13.510141 1.270905 2 10
2.3394685 5.9148598 -1.0074381 61 3
4.0629587 10.251402 -1.3539685 19 4
