# .PCD v0.7 - Point Cloud Data file format
VERSION 0.7
FIELDS x y z intensity ring
SIZE 4 4 4 4 2
TYPE F F F F U
COUNT 1 1 1 1 1
WIDTH 1324
HEIGHT 1
VIEWPOINT 0 0 0 1 0 0 0
POINTS 1324
DATA ascii
-0.11309262 4.4372311 0.70301658 2 12
-0.11155317 4.4376421 -0.38836598 4 5
-0.1114125 4.4630504 0.8677994 2 13
-0.098684661 4.0092821 -0.21018122 39 6
-0.10385466 4.3744116 1.1724503 1 15
-0.085626833 4.0540528 -1.0865225 37 0
-0.092196286 4.4383664 0.077488683 1 8
-0.089399092 4.4150352 0.23142964 2 9
-0.087377757 4.3909307 -0.85367942 3 2
-0.086993046 4.4102921 0.38592559 2 10
-0.077874117 4.0191374 -0.63668835 27 3
-0.08417125 4.4239702 0.5432936 1 11
-0.19153482 10.159883 -1.2476985 2 4
-0.081088945 4.3826113 0.69425625 2 12
-0.080835402 4.4104095 -0.38592559 3 5
-0.079475403 4.4205346 0.85940373 2 13
-0.070623673 4.0058789 -0.20997187 42 6
-0.073764026 4.402072 1.1796973 1 15
-0.057105567 4.0390978 -1.0823812 35 0
-0.062150605 4.4508882 0.077698112 1 8
-0.059530463 4.3725681 -1.0095804 3 1
-0.059291083 4.4115467 0.23122028 1 9
-0.057256274 4.3737564 -0.85024494 5 2
-0.055693597 4.3709478 0.38243937 2 10
-0.050415572 4.0116739 -0.63543689 26 3
-0.053767305 4.4006209 0.54036868 1 11
-0.12033682 10.139137 -1.2450173 2 4
-0.051165208 4.3751607 0.69300479 2 12
-0.049002994 4.4563184 0.86627293 2 13
-0.043309703 4.0022736 -0.20976254 39 6
-0.043262269 4.3483834 1.1652035 1 15
-0.026198091 3.5738297 -0.95763052 29 0
-0.030880589 4.4232187 0.07720945 2 8
-0.029659776 4.3572822 -1.0059811 5 1
-0.028413849 4.3998704 0.23059224 2 9
-0.026660336 4.364233 -0.84833682 3 2
-0.025821915 4.3513021 0.38069627 2 10
-0.022319315 3.9961247 -0.63293391 27 3
-0.022960717 4.3850088 0.53841883 1 11
-0.051102754 10.09605 -1.2396551 3 4
-0.020712674 4.395165 0.69613349 2 12
-0.019126391 4.383215 -0.38348526 3 5
-0.018438328 4.4015779 0.8555876 2 13
-0.015354082 3.9984832 -0.20955318 39 6
-0.012938171 4.3601704 1.1683092 1 15
-0.0012484465 3.5719936 -0.95711285 34 0
5.2413796e-08 4.3953309 0.076720782 2 8
0.00074317149 4.26969 -0.9857356 3 1
0.0023058194 4.4039559 0.2308016 2 9
0.003803265 4.3584232 -0.84719193 2 2
0.0045732204 4.3673158 0.38209078 2 10
0.0055628917 3.9843314 -0.63105673 27 3
0.0077846255 4.4604959 0.54768091 1 11
0.019431755 10.121967 -1.2428237 2 4
0.0099091223 4.3675475 0.69175333 2 12
0.011495549 4.3912115 -0.38418248 3 5
0.012389606 4.4369378 0.86245668 2 13
0.012473129 3.9705315 -0.20808777 33 6
0.017548397 4.3717451 1.171415 1 15
0.023652066 3.5661199 -0.95555997 31 0
0.030880693 4.4232187 0.07720945 1 8
0.030985536 4.3299899 -0.99968249 2 1
0.033201065 4.4238048 0.23184831 2 9
0.034305718 4.3681068 -0.84910011 3 2
0.035190683 4.3831158 0.38348526 1 10
0.033376735 3.9841952 -0.63105673 26 3
0.038127713 4.3690219 0.53646892 1 11
0.089702405 10.077914 -1.2374614 2 4
0.040144291 4.3397169 0.6873731 2 12
0.043211464 4.4210377 0.85940373 2 13
0.040232796 3.9743419 -0.20829713 33 6
0.047985621 4.3637891 1.1693444 1 15
0.048810687 3.5851843 -0.96073633 15 0
0.060546789 4.3909135 0.07665097 1 8
0.061434198 4.3452563 -1.0032817 2 1
0.063026398 4.4035053 0.2308016 2 9
0.063982256 4.3638453 -0.84833682 3 2
0.065548435 4.3668261 0.38209078 2 10
0.06049747 3.983876 -0.63105673 25 3
0.067802131 4.3646917 0.53598142 1 11
0.15968381 10.053225 -1.2345365 2 4
0.069490574 4.3274927 0.68549597 2 12
0.070732102 4.3109503 -0.37721002 3 5
0.074009284 4.4167023 0.85864049 2 13
0.067149155 3.9659882 -0.20787844 33 6
0.077513918 4.353704 1.1667564 2 15
0.081692338 4.000031 -1.0720285 35 0
0.09153191 4.4063778 0.076930203 1 8
0.091416091 4.3642211 -1.0077807 2 1
0.093682088 4.3989644 0.23059224 1 9
0.093551815 4.3220739 -0.84032285 2 2
0.095273092 4.3662786 0.38209078 2 10
0.088044107 3.9715071 -0.62917954 27 3
0.098810136 4.3879271 0.53890634 1 11
0.22747506 10.02412 -1.2311242 2 4
0.10061266 4.3663993 0.69175333 2 12
0.10136703 4.3661413 -0.38209078 3 5
0.10351613 4.3925438 0.85406113 2 13
0.09459658 3.9554391 -0.20735508 30 6
0.10611305 4.4048238 1.0172287 4 14
0.10790453 4.3530569 1.1667564 1 15
0.11004116 4.014812 -1.0761696 38 0
0.1207491 4.3776679 0.076441541 1 8
0.11742213 4.203742 -0.97088867 3 1
0.12328397 4.3862457 0.22996421 2 9
0.12352966 4.3409619 -0.84413904 2 2
0.12563632 4.3615241 0.38174215 1 10
0.11496275 3.9668663 -0.62855375 26 3
0.1283243 4.3752475 0.53744388 1 11
0.29674441 9.9984779 -1.2281992 2 4
0.12808949 4.2905822 0.67986429 2 12
0.13184597 4.3653274 -0.38209078 3 5
0.13501871 4.4191866 0.85940373 2 13
0.1213937 3.950711 -0.20714574 29 6
0.13692431 4.3329124 1.16158 1 15
0.13723256 4.0101085 -1.0751344 40 0
0.15130804 4.3767185 0.076441541 2 8
0.151039 4.3469653 -1.0041815 2 1
0.15264183 4.34935 0.22808012 2 9
0.15369111 4.3360696 -0.8433758 2 2
0.15461425 4.3406563 0.37999901 1 10
0.14236799 3.9580712 -0.62730229 25 3
0.15901025 4.378212 0.53793132 1 11
0.36479515 9.9962263 -1.2281992 2 4
0.16080399 4.3645973 0.69175333 2 12
0.16172814 4.348372 -0.38069627 3 5
0.16362777 4.3789277 0.85177141 2 13
0.148221 3.9298089 -0.20609902 30 6
0.16769189 4.3453641 1.1652035 1 15
0.16506596 4.0051923 -1.0740991 40 0
0.18069705 4.3475838 0.075952873 2 8
0.17699456 4.2406645 -0.97988683 4 1
0.18384214 4.3681331 0.22912684 2 9
0.18312643 4.3152757 -0.83955961 2 2
0.18592979 4.3633585 0.38209078 2 10
0.16965793 3.9490867 -0.62605083 26 3
0.18854132 4.3531966 0.53500646 1 11
0.43431437 9.9874859 -1.2274681 3 4
0.18867542 4.3041635 0.68236721 2 12
0.19243337 4.3550987 -0.38139355 3 5
0.19593668 4.4169054 0.85940373 2 13
0.17583105 3.9326687 -0.20630836 25 6
0.1970544 4.3228588 1.1595093 1 15
0.19264945 3.9962242 -1.0720285 39 0
0.21279027 4.3821688 0.076581158 1 8
0.21076931 4.3249683 -0.99968249 2 1
0.21413715 4.3627539 0.22891749 2 9
0.21276365 4.3040881 -0.83765155 3 2
0.21540006 4.3420544 0.38034767 2 10
0.19761786 3.9556975 -0.62730229 27 3
0.22112411 4.3953905 0.54036868 1 11
0.5037294 9.9782639 -1.226737 2 4
0.21932331 4.3145781 0.68424439 2 12
0.22105618 4.3337903 -0.37965041 3 5
0.22475378 4.3762159 0.85177141 2 13
0.20328009 3.9313457 -0.20630836 28 6
0.22763462 4.3290949 1.16158 1 15
0.22097152 4.0024972 -1.0740991 35 0
0.24172717 4.364646 0.076301925 1 8
0.24052438 4.315609 -0.9978829 2 1
0.24427247 4.3691721 0.2293362 2 9
0.24370989 4.3319421 -0.8433758 2 2
0.24615848 4.3484015 0.38104489 2 10
0.22409095 3.946372 -0.62605083 26 3
0.24854435 4.3501835 0.53500646 1 11
0.57702881 10.037921 -1.2345365 2 4
0.24936691 4.3248177 0.68612164 2 12
0.25200069 4.3440752 -0.38069627 3 5
0.2546117 4.362781 0.8494817 2 13
0.22980371 3.9258831 -0.20609902 24 6
0.2564092 4.3158741 1.1584741 1 15
0.24725175 3.9854753 -1.069958 42 0
0.27194527 4.35886 0.076232105 2 8
0.26867542 4.2944221 -0.99338388 2 1
0.27477118 4.3673601 0.2293362 2 9
0.2719633 4.2987857 -0.8372699 2 2
0.27373317 4.3148112 0.3782559 2 10
0.25063032 3.9289403 -0.62354785 31 3
0.2796686 4.3602285 0.53646892 1 11
0.64849317 10.05544 -1.2372177 1 4
0.27878684 4.3111444 0.68424439 2 12
0.27973452 4.3024464 -0.37721002 3 5
0.28442314 4.3511019 0.84757364 2 13
0.25668156 3.9162114 -0.20568034 30 6
0.28742963 4.3274722 1.1620976 1 15
0.27603161 3.9874582 -1.0709932 39 0
0.3037537 4.3768044 0.076581158 1 8
0.30021226 4.3040533 -0.9960832 4 1
0.30545548 4.3573122 0.22891749 2 9
0.30224103 4.3006992 -0.83803314 2 2
0.30516371 4.3206916 0.37895316 2 10
0.27929816 3.9349279 -0.62479931 22 3
0.30925864 4.3462892 0.53500646 1 11
0.71641231 10.018988 -1.2333179 3 4
0.31104738 4.328742 0.6873731 2 12
0.31348619 4.3520575 -0.38174215 3 5
0.31054062 4.2902665 0.83612514 2 13
0.28411922 3.906306 -0.20526163 25 6
0.31682894 4.3041115 1.1564035 1 15
0.3038626 3.9854338 -1.0709932 40 0
0.33659279 4.3944569 0.076930203 2 8
0.32876125 4.2824225 -0.99158418 2 1
0.33586985 4.3550735 0.22891749 1 9
0.33482814 4.3219156 -0.84261262 2 2
0.33624583 4.3303742 0.37999901 2 10
0.30645514 3.9289432 -0.62417358 31 3
0.34128031 4.3558388 0.53646892 1 11
0.79364443 10.106754 -1.2447736 2 4
0.34343266 4.3540349 0.69175333 2 12
0.33977923 4.2981215 -0.37721002 3 5
0.34266037 4.315393 0.84146774 2 13
0.31138343 3.9042275 -0.20526163 28 6
0.35106483 4.3920937 1.0172287 4 14
0.34837532 4.339375 -0.075987779 2 7
0.34780118 4.3133483 1.1595093 1 15
0.33135819 3.9793653 -1.069958 39 0
0.36283681 4.3482232 0.076162301 2 8
0.35767588 4.2683716 -0.98888487 3 1
0.36416715 4.3367648 0.22808012 1 9
0.36044666 4.2745409 -0.83383536 3 2
0.36478832 4.3080688 0.3782559 1 10
0.33352557 3.9307029 -0.62479931 22 3
0.36856443 4.3257236 0.53305656 1 11
0.86062521 10.059432 -1.2396551 3 4
0.36732695 4.2846785 0.68111575 2 12
0.36977544 4.2956448 -0.37721002 3 5
0.37345538 4.3207197 0.84299421 2 13
0.33812204 3.9040077 -0.20536631 36 6
0.37698483 4.3089566 1.1589917 1 15
0.35739681 3.9654732 -1.0668522 36 0
0.39246354 4.3376184 0.076022685 2 8
0.38812703 4.2813644 -0.99248403 2 1
0.3958827 4.350029 0.22891749 2 9
0.39260182 4.2973366 -0.83879644 2 2
0.39228579 4.285645 0.3765128 2 10
0.35915142 3.9086077 -0.62167066 36 3
0.4009406 4.346766 0.53598142 1 11
0.93456286 10.11264 -1.2469672 3 4
0.39722863 4.2820096 0.68111575 2 12
0.39790222 4.2811246 -0.37616417 3 5
0.399937 4.2868013 0.83688831 2 13
0.3642534 3.8896203 -0.20473827 41 6
0.40248477 4.289825 0.99473363 4 14
0.40817261 4.3341594 -0.075987779 2 7
0.40614882 4.2966032 1.1564035 1 15
0.38544598 3.9667275 -1.0678874 42 0
0.4227547 4.3428073 0.076162301 1 8
0.41649124 4.2630343 -0.98888487 1 1
0.42665058 4.3591599 0.22954552 2 9
0.41685188 4.2437649 -0.82887435 2 2
0.42337054 4.2946987 0.37755868 2 10
0.3855522 3.9041066 -0.62135774 39 3
0.42973781 4.3360348 0.53500646 1 11
0.98588085 9.9122858 -1.2230808 3 4
0.4302853 4.3185196 0.6873731 2 12
0.42619258 4.2623835 -0.37476969 3 5
0.43338302 4.319067 0.84375745 2 13
0.39151797 3.8949997 -0.20515697 43 6
0.4369446 4.3091149 1.1605446 1 15
0.41223782 3.96209 -1.0673697 30 0
0.45098656 4.3198614 0.075813256 1 8
0.45786288 4.3783288 -1.0163288 6 1
0.45623916 4.3481297 0.22912684 2 9
0.45037234 4.2778482 -0.83612514 3 2
0.45384553 4.303606 0.37860456 2 10
0.41176119 3.8914979 -0.61979342 32 3
0.45790088 4.313189 0.53256911 1 11
0.43955377 4.1334782 -0.51038885 1 4
0.46042174 4.3154106 0.6873731 2 12
0.45890808 4.2870383 -0.37721002 3 5
0.46695805 4.3550582 0.85138983 2 13
0.41699168 3.8762856 -0.2043196 36 6
0.42275614 3.9106164 -0.068657771 3 7
0.46618411 4.2982774 1.1584741 1 15
0.42943516 3.8650336 -1.0420054 35 0
0.48334694 4.3364816 0.076162301 1 8
0.47857937 4.2733841 0.22535865 2 9
0.42937806 3.8219719 -0.74758971 49 2
0.48254263 4.2884531 0.37755868 2 10
0.42961144 3.8060865 -0.60665292 37 3
0.49112821 4.337502 0.53598142 1 11
0.48875156 4.2963896 0.68487018 2 12
0.43506429 3.8125994 -0.33572391 58 5
0.49200046 4.3048787 0.84223092 2 13
0.43767545 3.8177204 -0.20138879 49 6
0.43952417 3.8161876 -0.067052148 58 7
0.49196586 4.2584553 1.148639 1 15
0.45504555 3.8504312 -1.0388998 35 0
0.50843102 4.2893138 0.075394399 2 8
0.4523294 3.8103151 -0.88585728 36 1
0.51407087 4.3175364 0.22787078 1 9
0.45418763 3.8032858 -0.74453676 27 2
0.51199669 4.2810225 0.37721002 2 10
0.45758399 3.8147619 -0.6085301 37 3
0.51855242 4.3103166 0.53305656 1 11
0.45922965 3.811604 -0.47139066 35 4
0.51446849 4.2575722 0.6792385 2 12
0.45813349 3.785814 -0.33363217 53 5
0.52109599 4.2935429 0.84070444 2 13
0.46431568 3.8145719 -0.20138879 47 6
0.46227103 3.7812676 -0.066493668 51 7
0.52615041 4.2913499 1.1584741 1 15
0.48143527 3.8433266 -1.0378644 36 0
0.54309356 4.3294048 0.076162301 2 8
0.47843114 3.8031976 -0.88495749 39 1
0.54344761 4.3139372 0.22787078 2 9
0.47957134 3.796211 -0.74377352 27 2
0.54337382 4.2892041 0.3782559 1 10
0.48304069 3.8076398 -0.60790437 35 3
0.5473789 4.3027492 0.53256911 1 11
0.48482361 3.8004284 -0.47041571 37 4
0.54193521 4.2422152 0.67736137 2 12
0.48353964 3.7746186 -0.33293492 52 5
0.55956262 4.3560066 0.85367942 2 13
0.49077961 3.815285 -0.20159812 49 6
0.49173617 3.8017464 -0.066912524 57 7
0.55385965 4.2761736 1.1553683 1 15
0.50986516 3.857197 -1.0425231 28 0
0.57225227 4.3175793 0.076022685 1 8
0.50815517 3.8288298 -0.89170599 17 1
0.56880707 4.2744021 0.22598669 2 9
0.51229566 3.8394742 -0.75293231 20 2
0.57202727 4.2814569 0.37790731 2 10
0.51485866 3.8433323 -0.61416179 23 3
0.58427507 4.3499756 0.53890634 1 11
0.58209783 4.3166351 0.68987608 2 12
0.58182532 4.2976236 0.84299421 2 13
0.52546072 3.871139 -0.20473827 36 6
0.58736068 4.2989993 1.1626152 1 15
0.5498389 3.9472992 -1.0678874 39 0
0.59961492 4.293674 0.07567364 1 8
0.60196137 4.2940621 0.22724274 2 9
0.60273641 4.2832775 0.37843022 2 10
0.54609275 3.8709404 -0.61916769 31 3
0.61017954 4.3143425 0.53500646 1 11
1.3994436 9.8824501 -1.2255182 3 4
0.60610914 4.2694392 0.68299294 2 12
0.60188574 4.2290673 -0.3737238 3 5
0.60682684 4.258472 0.83612514 2 13
0.55191046 3.8634219 -0.20452894 33 6
0.61296105 4.2641993 1.154333 1 15
0.57682306 3.9395416 -1.0668522 40 0
0.63015866 4.2933397 0.075743444 2 8
0.6233294 4.241673 -0.9897846 2 1
0.63716632 4.3253217 0.22912684 1 9
0.62980765 4.2650561 -0.83803314 2 2
0.6270901 4.2415166 0.37511832 2 10
0.57310188 3.8670342 -0.61916769 30 3
0.63795084 4.2942686 0.53305656 1 11
1.472778 9.9018917 -1.2291743 2 4
0.64172655 4.3041792 0.68925035 2 12
0.63728535 4.2641721 -0.37721002 3 5
0.63654178 4.2541318 0.83612514 2 13
0.57768381 3.8515739 -0.20411025 36 6
0.64057791 4.2607808 0.99473363 4 14
0.64797282 4.3048429 -0.075987779 2 7
0.6404081 4.2445345 1.1501919 1 15
0.60431212 3.9354186 -1.0668522 33 0
0.65707231 4.2690716 0.075394399 2 8
0.65352023 4.2410703 -0.99068445 2 1
0.66612571 4.3128724 0.22870816 1 9
0.65896738 4.2566757 -0.8372699 3 2
0.66400778 4.2842889 0.37930179 2 10
0.60069132 3.8668425 -0.61979342 27 3
0.67463583 4.3328624 0.53841883 1 11
1.5348383 9.8462563 -1.2235683 2 4
0.66810262 4.2761736 0.68549597 2 12
0.67320222 4.2989874 -0.38069627 3 5
0.67839068 4.3271661 0.85138983 2 13
0.60455692 3.8474474 -0.20411025 38 6
0.67800844 4.3002148 -0.075987779 2 7
0.67092967 4.2456851 1.1517448 1 15
0.63054574 3.9234741 -1.0647817 33 0
0.69194794 4.2959685 0.075952873 1 8
0.68311256 4.2364044 -0.99068445 2 1
0.69048363 4.2726269 0.22682405 2 9
0.68772691 4.2461576 -0.83612514 3 2
0.68943709 4.2520146 0.37686142 1 10
0.62830609 3.8664544 -0.62041914 26 3
0.70486647 4.3280473 0.53841883 1 11
1.6217481 9.9469767 -1.2374614 2 4
0.69411504 4.2480116 0.68174148 2 12
0.68958557 4.2156553 -0.3737238 3 5
0.70032364 4.2719531 0.84146774 2 13
0.63237387 3.8490453 -0.20442426 29 6
0.70150036 4.2466149 1.1532978 1 15
0.65792137 3.9189763 -1.0647817 35 0
0.71852237 4.275383 0.07567364 1 8
0.7146135 4.243062 -0.99338388 2 1
0.71888638 4.2638888 0.22661473 2 9
0.71039933 4.2045975 -0.82887435 2 2
0.72376156 4.2746 0.37930179 2 10
0.65593016 3.8698785 -0.62167066 25 3
0.72500253 4.2683511 0.5315941 1 11
1.6934835 9.949111 -1.2391676 3 4
0.72500515 4.2548718 0.68361872 2 12
0.73241168 4.2892971 -0.38069627 3 5
0.72417009 4.2321272 0.83459854 2 13
0.65889609 3.8466206 -0.20452894 32 6
0.72973228 4.2379346 1.1522624 1 15
0.68457991 3.9144077 -1.0647817 41 0
0.74421054 4.2466264 0.075254776 2 8
0.73943591 4.2150669 -0.98798501 2 1
0.74517864 4.2390957 0.22556801 1 9
0.74246013 4.215003 -0.83192724 2 2
0.7479974 4.2421045 0.37686142 2 10
0.6808688 3.8535335 -0.61979342 27 3
0.7582444 4.282733 0.53403151 1 11
1.7732902 10.005766 -1.2476985 2 4
0.76090926 4.2847157 0.68925035 2 12
0.75535768 4.2448478 -0.37721002 3 5
0.76363355 4.2870178 0.84642875 2 13
0.68573457 3.8419268 -0.20452894 32 6
0.7585569 4.2413659 0.99473363 4 14
0.75998306 4.2365398 1.1532978 1 15
0.71189278 3.9095325 -1.0647817 39 0
0.77240372 4.233458 0.075115159 2 8
0.76954687 4.2136354 -0.98888487 2 1
0.78338325 4.280941 0.22808012 2 9
0.77045017 4.2019935 -0.83040082 2 2
0.78047204 4.2524567 0.3782559 2 10
0.70703858 3.8448009 -0.61916769 27 3
0.78524721 4.2617173 0.5320816 1 11
1.8391351 9.9716682 -1.2450173 2 4
0.78290641 4.2365646 0.68236721 2 12
0.78497386 4.239471 -0.37721002 3 5
0.79139739 4.27 0.84413904 2 13
0.71326882 3.8409731 -0.20473827 33 6
0.79706717 4.2797461 -0.075987779 2 7
0.78812569 4.2235341 1.1512272 1 15
0.74060649 3.91206 -1.0668522 38 0
0.81162685 4.2790446 0.076022685 2 8
0.79749078 4.2005019 -0.98708516 2 1
0.80055916 4.2086573 0.22452128 2 9
0.79903364 4.1926546 -0.82963753 2 2
0.81163204 4.2547331 0.37895316 1 10
0.73460656 3.8436513 -0.61979342 27 3
0.81498051 4.2561312 0.5320816 1 11
1.9113261 9.9722328 -1.2467235 2 4
0.81246406 4.2309952 0.68236721 2 12
0.8145498 4.2338877 -0.37721002 3 5
0.82044578 4.2605147 0.8433758 2 13
0.74006462 3.8359005 -0.20473827 32 6
0.8220017 4.2406874 1.1574388 1 15
0.76491737 3.8916302 -1.0627111 41 0
0.84070766 4.2693501 0.075952873 1 8
0.83207029 4.2216001 -0.99338388 2 1
0.84307659 4.2695866 0.22808012 2 9
0.83247542 4.2081594 -0.83383536 3 2
0.83667207 4.2255101 0.37686142 2 10
0.76065367 3.834554 -0.61916769 30 3
0.85241067 4.2892785 0.53695637 1 11
1.9905806 10.007319 -1.252817 3 4
0.8427524 4.2290955 0.68299294 2 12
0.83862936 4.2007442 -0.37476969 3 5
0.85709226 4.2893376 0.85024494 2 13
0.76604402 3.8267231 -0.20452894 33 6
0.84625536 4.2083306 1.1501919 1 15
0.79138917 3.8863335 -1.0627111 39 0
0.86974877 4.2635283 0.075952873 1 8
0.85689014 4.1967449 -0.98888487 2 1
0.86891729 4.248095 0.22724274 2 9
0.86543322 4.2235518 -0.83803314 2 2
0.87021828 4.2431378 0.37895316 2 10
0.7867353 3.8292878 -0.61916769 30 3
0.87678719 4.2600446 0.53403151 1 11
2.0522392 9.96243 -1.2489171 3 4
0.87471527 4.2387376 0.68549597 2 12
0.88091534 4.2612772 -0.38069627 3 5
0.87751967 4.2411079 0.84184933 2 13
0.79085791 3.8155529 -0.20421492 30 6
0.88577747 4.262269 -0.075987779 2 7
0.87330407 4.1949081 1.1481214 1 15
0.81929886 3.8844941 -1.0637463 39 0
0.89287865 4.226048 0.075394399 2 8
0.88294065 4.1754079 -0.98528558 2 1
0.90186459 4.2575564 0.22808012 2 9
0.88919294 4.1905203 -0.83269054 2 2
0.89402509 4.2096744 0.3765128 1 10
0.81344962 3.8237021 -0.61916769 28 3
0.89657462 4.2072239 0.52818179 1 11
2.1254718 9.9653339 -1.2511108 2 4
0.91254056 4.2711635 0.69175333 2 12
0.90230393 4.2160578 -0.37721002 3 5
0.91204131 4.2579145 0.84642875 2 13
0.8170554 3.8079865 -0.20411025 35 6
0.90419847 4.1962624 1.1501919 1 15
0.84886903 3.8900044 -1.0668522 40 0
0.93346286 4.270505 0.076301925 1 8
0.91373479 4.1767569 -0.98708516 2 1
0.92643565 4.2277446 0.22682405 2 9
0.92179394 4.1995511 -0.83574343 2 2
0.93279731 4.2461424 0.38034767 1 10
0.84097505 3.8217878 -0.61979342 30 3
0.93617964 4.2473879 0.53403151 1 11
2.1971288 9.9599428 -1.2523295 2 4
0.93636769 4.2376847 0.6873731 2 12
0.93098289 4.2098179 -0.37721002 3 5
0.94089359 4.2476101 0.84566551 2 13
0.84621602 3.8138885 -0.20473827 32 6
0.94520217 4.2494864 -0.075987779 2 7
0.94103372 4.2237892 1.1595093 1 15
0.87430555 3.8764453 -1.0647817 41 0
0.95722592 4.240644 0.075883061 1 8
0.94373137 4.1740775 -0.98798501 2 1
0.95254678 4.2096524 0.22619602 2 9
0.95035803 4.1931796 -0.83574343 2 2
0.96153814 4.23564 0.37999901 2 10
0.86784321 3.819828 -0.62041914 26 3
0.96154726 4.2254319 0.5320816 1 11
2.2679279 9.9501705 -1.2530607 2 4
0.96255714 4.2196569 0.68549597 2 12
0.96744883 4.2342939 -0.37999901 3 5
0.96439314 4.2141452 0.84032285 2 13
0.86992735 3.7983057 -0.20421492 30 6
0.97484618 4.242784 -0.075987779 2 7
0.96802866 4.2097549 1.1574388 1 15
0.89892012 3.8628781 -1.0627111 38 0
0.98590022 4.2299638 0.075813256 1 8
0.9747777 4.1789441 -0.99068445 2 1
0.9855476 4.2184591 0.22703341 2 9
0.9733445 4.1596804 -0.83040082 2 2
0.98580217 4.2095985 0.3782559 1 10
0.8935855 3.8098304 -0.61979342 30 3
1.0028242 4.2688608 0.53841883 1 11
2.3528631 10.007936 -1.2623228 2 4
0.98836845 4.1974525 0.68299294 2 12
1.0024743 4.2507071 -0.38209078 3 5
1.0002713 4.2380552 0.84642875 2 13
0.89642328 3.79214 -0.20421492 30 6
0.99472034 4.1916165 1.154333 1 15
0.92767 3.864022 -1.0647817 40 0
1.0163397 4.2268662 0.075883061 1 8
1.0098553 4.1966672 -0.99653322 6 1
1.0215232 4.2386599 0.2284988 1 9
1.0069692 4.1718678 -0.83421695 2 2
1.0170358 4.210361 0.37895316 2 10
0.91830516 3.7958188 -0.61854196 28 3
1.0288625 4.2463217 0.53646892 1 11
2.4147265 9.9584665 -1.2581792 3 4
1.0241745 4.2173243 0.6873731 2 12
1.0189412 4.1893978 -0.37721002 3 5
1.0363344 4.2576747 0.85177141 2 13
0.9252407 3.7954917 -0.20473827 33 6
1.0257938 4.1920762 1.1564035 1 15
0.95462155 3.8574519 -1.0647817 40 0
1.044862 4.2157869 0.075813256 2 8
1.0471023 4.2216697 -1.0041815 3 1
1.0510898 4.2314248 0.2284988 2 9
1.0322783 4.1494951 -0.83116406 2 2
1.0459237 4.2012248 0.37877885 2 10
0.9476499 3.8008153 -0.62041914 27 3
1.0536733 4.2197762 0.53403151 1 11
2.5024781 10.014549 -1.2674413 3 4
1.0603058 4.2368999 0.69175333 2 12
1.0549451 4.2092395 -0.37965041 3 5
1.0507497 4.1893988 0.83955961 2 13
0.9497695 3.7811913 -0.2043196 36 6
1.0559795 4.1885591 1.1574388 1 15
0.98295987 3.8563094 -1.0663346 27 0
1.073281 4.2045135 0.075743444 1 8
1.0630443 4.1613894 -0.99158418 1 1
1.0736769 4.1968942 0.22703341 3 9
1.0690179 4.172616 -0.8372699 2 2
1.0767146 4.1996098 0.37930179 1 10
0.97317898 3.7902801 -0.61979342 27 3
1.0811276 4.204627 0.53305656 1 11
2.5693638 9.9853001 -1.2659788 3 4
1.0947863 4.2485232 0.69488198 2 12
1.0872923 4.2133465 -0.38069627 3 5
1.1084416 4.2922139 0.8616935 2 13
0.97814429 3.7822032 -0.20473827 35 6
1.0890781 4.196044 1.16158 1 15
1.0088776 3.8456159 -1.0652993 29 0
1.1087054 4.2201266 0.076162301 1 8
1.0960345 4.1689444 -0.99518347 2 1
1.1070186 4.2047477 0.22787078 2 9
1.0921141 4.142271 -0.83269054 2 2
1.1080403 4.1996961 0.37999901 2 10
1.001633 3.7910337 -0.62104493 25 3
1.1165502 4.2200055 0.53598142 1 11
2.6374829 9.9613638 -1.2652477 2 4
1.1375849 4.2904205 0.70301658 2 12
1.1057253 4.1673336 -0.37721002 3 5
1.1282988 4.2464223 0.85406113 2 13
1.0034981 3.7714221 -0.20452894 33 6
1.1183436 4.1883392 1.16158 1 15
1.0336894 3.8310177 -1.0632287 32 0
1.1426159 4.2317886 0.076511353 1 8
1.12308 4.153666 -0.99338388 2 1
1.1345687 4.1932602 0.22766145 1 9
1.1305548 4.1726394 -0.84032285 2 2
1.1352439 4.1841679 0.37930179 2 10
1.0274165 3.7841277 -0.62104493 26 3
1.1514968 4.2352948 0.53890634 1 11
2.7153056 9.9733543 -1.2691474 2 4
1.1314514 4.1529765 0.68174148 2 12
1.1347919 4.1595125 -0.37721002 3 5
1.1475692 4.2005644 0.84642875 2 13
1.0333596 3.7799168 -0.20536631 33 6
1.1427401 4.1657248 1.1574388 1 15
1.064384 3.8406487 -1.0678874 37 0
1.1625041 4.1890249 0.075883061 2 8
1.1554966 4.1609468 -0.99698305 2 1
1.1659578 4.1929336 0.22808012 2 9
1.1575491 4.1570807 -0.83879644 2 2
1.1658396 4.1840196 0.37999901 2 10
1.0538079 3.7768631 -0.62104493 27 3
1.1746267 4.2042103 0.53598142 1 11
2.7537322 9.849493 -1.2557418 1 4
1.1572217 4.133563 0.67986429 2 12
1.163805 4.1514883 -0.37721002 3 5
1.1835567 4.21912 0.85177141 2 13
1.0597233 3.7726104 -0.20536631 32 6
1.1707445 4.1539278 1.1564035 1 15
1.0954003 3.8479888 -1.0720285 34 0
1.1906266 4.1769605 0.075813256 1 8
1.1823772 4.1452832 -0.99518347 2 1
1.2050725 4.2192597 0.22996421 4 9
1.1881624 4.1545606 -0.83994126 3 2
1.1983081 4.1872721 0.38104489 1 10
1.0790613 3.7656162 -0.62041914 28 3
1.2083288 4.2111716 0.53793132 1 11
2.825166 9.8395672 -1.2569605 2 4
1.218802 4.2392907 0.69863641 2 12
1.2103955 4.2045317 -0.382788 3 5
1.2108111 4.2032084 0.85024494 2 13
1.0799445 3.7440112 -0.20421492 30 6
1.2072343 4.1716328 1.1636505 1 15
1.120072 3.8328302 -1.069958 40 0
1.2343594 4.2184467 0.076720782 1 8
1.2101946 4.1331868 -0.99428362 2 1
1.2300041 4.1954112 0.22912684 4 9
1.2149256 4.138629 -0.83841473 3 2
1.2263885 4.1749811 0.38069627 2 10
1.1086684 3.7693617 -0.62229639 27 3
1.225756 4.1647625 0.53305656 1 11
2.9398041 9.9757433 -1.2769471 2 4
1.2159411 4.1207919 0.68049002 2 12
1.2356017 4.1847301 -0.38174215 3 5
1.24235 4.2021837 0.85177141 2 13
1.1122925 3.757447 -0.20536631 36 6
1.2334032 4.155911 1.16158 1 15
1.1494623 3.8362205 -1.0730639 34 0
1.2504009 4.1678095 0.075952873 1 8
1.242783 4.1397853 -0.9978829 2 1
1.2562312 4.1792912 0.22870816 2 9
1.2447658 4.1359034 -0.83955961 2 2
1.245584 4.1360135 0.37790731 2 10
1.1354405 3.7655103 -0.62292212 24 3
1.2655448 4.1943321 0.53793132 1 11
3.0271578 10.02011 -1.2852342 2 4
1.2675208 4.187664 -0.382788 3 5
1.2754798 4.2086611 0.8548243 2 13
1.1372629 3.7478774 -0.20526163 30 6
1.2672855 4.1659012 1.1667564 1 15
1.1721456 3.8172271 -1.069958 35 0
1.2869705 4.1859603 0.076441541 2 8
1.2709328 4.1312299 -0.9978829 2 1
1.2834758 4.1668258 0.2284988 2 9
1.277516 4.1423445 -0.84261262 2 2
1.2814844 4.1500602 0.37999901 2 10
1.1575447 3.746371 -0.62104493 28 3
1.2947959 4.1853948 0.53793132 1 11
3.1316907 10.110609 -1.2996148 3 4
1.2906392 4.1642351 0.69050181 2 12
1.2778294 4.1178207 -0.37721002 3 5
1.3094888 4.2146535 0.85787731 2 13
1.1634003 3.7398465 -0.20526163 30 6
1.295298 4.1561694 -0.075987779 2 7
1.2959125 4.1530375 1.1657211 1 15
1.2029109 3.8197982 -1.0730639 34 0
1.3241074 4.1995296 0.076860398 1 8
1.302806 4.1294637 -0.99968249 2 1
1.3132601 4.1575346 0.2284988 2 9
1.3094932 4.140584 -0.84413904 2 2
1.3147573 4.1521807 0.38104489 2 10
1.18671 3.7455242 -0.62229639 30 3
1.3247128 4.1760221 0.53793132 1 11
3.1991532 10.072805 -1.2976649 3 4
1.314422 4.1360674 0.6873731 2 12
1.3133041 4.1275578 -0.37895316 3 5
1.3276966 4.1677628 0.85024494 2 13
1.1955944 3.7485514 -0.2062037 33 6
1.3250058 4.1467938 -0.075987779 2 7
1.3261865 4.1454978 1.1662387 1 15
1.2296205 3.8092539 -1.0725461 30 0
1.3602743 4.2089748 0.07720945 1 8
1.3263264 4.1014934 -0.99518347 2 1
1.3442074 4.1518312 0.22870816 2 9
1.3421158 4.1404452 -0.8460471 3 2
1.3535482 4.173224 0.38383389 2 10
1.2134819 3.7369366 -0.62229639 26 3
1.3471947 4.1437826 0.53500646 1 11
3.2712338 10.05589 -1.2983961 2 4
1.3745723 4.2204695 0.70301658 2 12
1.3465126 4.1294193 -0.37999901 3 5
1.3555446 4.1546583 0.8494817 2 13
1.2161535 3.723026 -0.20526163 29 6
1.3532888 4.1306319 1.1646857 1 15
1.2604297 3.813416 -1.0761696 35 0
1.3808284 4.1727986 0.076720782 2 8
1.3549298 4.0921335 -0.99518347 3 1
1.3656166 4.1195965 0.22745208 2 9
1.360476 4.099298 -0.83955961 2 2
1.3726012 4.1334195 0.38104489 1 10
1.2432802 3.7396207 -0.62417358 25 3
1.383616 4.1568775 0.53793132 1 11
3.3332031 10.008323 -1.2952274 3 4
1.3640137 4.090837 0.68299294 2 12
1.3652126 4.0896811 -0.37721002 3 5
1.3944682 4.1748877 0.8555876 2 13
1.2478144 3.7314932 -0.2062037 36 6
1.3833236 4.1247458 1.1657211 1 15
1.2870198 3.8045242 -1.0761696 37 0
1.4028702 4.1422224 0.076336823 1 8
1.3797107 4.0715013 -0.99248403 2 1
1.4071769 4.1477895 0.22954552 4 9
1.3883476 4.0899425 -0.83955961 2 2
1.4052711 4.1350551 0.38209078 2 10
1.2706318 3.7345896 -0.62479931 27 3
1.409318 4.1398473 0.53695637 1 11
3.3690579 9.8852224 -1.2823093 2 4
1.4252067 4.1745696 -0.38592559 3 5
1.4096092 4.1241808 0.84719193 2 13
1.273833 3.724802 -0.20630836 29 6
1.4126195 4.1188898 1.1667564 1 15
1.3128867 3.7956758 -1.0761696 36 0
1.4342357 4.144165 0.076546252 1 8
1.3085051 3.7766061 -0.92274922 15 1
1.4411972 4.1572366 0.23059224 2 9
1.422592 4.0989451 -0.8433758 2 2
1.4320771 4.1216297 0.38174215 1 10
1.2966682 3.7298124 -0.62542504 28 3
1.4557347 4.182653 0.5437811 1 11
3.4469442 9.8982811 -1.2869403 2 4
1.4403843 4.1315784 0.69300479 2 12
1.4537598 4.1629319 0.85711402 2 13
1.2991557 3.7160456 -0.20630836 30 6
1.4718858 4.2030497 -0.077733018 2 7
1.4380684 4.1018858 1.1646857 1 15
1.3380318 3.7868848 -1.0761696 33 0
1.4677439 4.1493893 0.0768255 1 8
1.4473057 4.0893331 -1.0014821 1 1
1.4707932 4.1510963 0.2308016 2 9
1.4543976 4.1002684 -0.84566551 2 2
1.4627659 4.1192966 0.38243937 2 10
1.3193809 3.7134545 -0.62417358 31 3
3.5399358 9.9412985 -1.295715 2 4
1.4896888 4.1812243 0.70301658 2 12
1.4819022 4.1547813 -0.38592559 3 5
1.482787 4.1526809 0.85711402 2 13
1.3338066 3.7313347 -0.20766909 33 6
1.471233 4.104476 1.1683092 1 15
1.3677223 3.7844803 -1.0782403 38 0
1.4933167 4.1274981 0.076616064 2 8
1.4725513 4.0678778 -0.99878263 2 1
1.5018212 4.1442204 0.23101093 4 9
1.4823619 4.0860648 -0.84490222 2 2
1.4908453 4.1049786 0.38209078 2 10
1.349968 3.7150581 -0.62605083 33 3
1.5044914 4.1358027 0.54036868 1 11
3.6157336 9.928771 -1.2974212 2 4
1.5006353 4.1184888 0.69425625 2 12
1.4774599 4.0504823 -0.37721002 3 5
1.5138119 4.1456528 0.85787731 2 13
1.3577304 3.7141914 -0.20725042 32 6
1.5065498 4.1101675 1.1729679 1 15
1.3947685 3.7745965 -1.0782403 39 0
1.5325269 4.1429629 0.077104732 1 8
1.5151508 4.0937877 -1.0077807 2 1
1.5300503 4.129622 0.2308016 2 9
2.4236903 6.5345545 -1.354744 3 2
1.5201817 4.0942049 0.38209078 2 10
1.3765177 3.7053027 -0.62605083 37 3
1.5437355 4.1509795 0.5437811 1 11
3.6735306 9.8672972 -1.2927902 2 4
1.5493751 4.1594768 0.70301658 2 12
1.5286789 4.0995464 -0.382788 3 5
1.5420655 4.1310353 0.85711402 2 13
1.3870703 3.711864 -0.20766909 33 6
1.5386343 4.1065183 1.1750386 1 15
1.4231081 3.7681332 -1.0792755 38 0
1.5607194 4.128149 0.07703492 1 8
1.5430276 4.0791955 -1.006881 3 1
1.566635 4.1372461 0.23184831 2 9
1.5629535 4.1231775 -0.85711402 2 2
1.555095 4.098124 0.38348526 2 10
1.4100084 3.713825 -0.62917954 35 3
3.7412214 9.8333349 -1.2918152 2 4
1.5790999 4.148283 0.70301658 2 12
1.5494617 4.0661607 -0.38069627 3 5
1.5855815 4.1565814 0.86474639 2 13
1.4164462 3.7093067 -0.20808777 35 6
1.5693598 4.0990114 1.1760738 1 15
1.4446336 3.7516541 -1.0772049 39 0
1.594538 4.1366434 0.077383965 1 8
1.5693361 4.0691466 -1.006881 2 1
1.5961969 4.1344957 0.23226699 4 9
1.5853031 4.1020103 -0.8548243 2 2
1.5750636 4.0734067 0.38209078 2 10
1.433962 3.7046423 -0.62917954 38 3
1.6259184 4.1962161 0.55255568 1 11
3.8233092 9.85709 -1.2981523 2 4
1.6058536 4.138 0.70301658 2 12
1.5872313 4.0857849 -0.38348526 3 5
1.6195064 4.1645532 0.86856258 2 13
1.4375504 3.6947501 -0.20777377 30 6
1.5817449 4.0548744 1.1662387 1 15
1.4742712 3.7484117 -1.0792755 39 0
1.6248429 4.1291323 0.077453777 2 8
1.6105555 4.0886359 -1.0145292 6 1
1.6213458 4.1118193 0.23163895 2 9
1.6023722 4.0616236 -0.84871852 2 2
1.6173445 4.095387 0.38522837 2 10
1.460435 3.6942861 -0.62917954 40 3
1.6551739 4.184763 0.55255568 1 11
3.6603847 9.2450724 -1.2208872 2 4
1.6252356 4.1006918 0.69863641 2 12
1.6186563 4.0820117 -0.38418248 3 5
1.6311575 4.1093512 0.85940373 2 13
1.4654276 3.688081 -0.20798311 30 6
1.6064309 4.0326838 1.1631329 1 15
1.5032824 3.7451987 -1.0813459 39 0
1.6677682 4.1507983 0.078082062 1 8
1.6463289 4.0953736 -1.0190283 7 1
1.6589595 4.1226344 0.23289503 1 9
1.6357964 4.0609794 -0.85100812 2 2
1.638449 4.0655169 0.38348526 2 10
1.4921027 3.6986556 -0.63168246 33 3
1.6850771 4.1728115 0.55255568 1 11
3.9620554 9.8064251 -1.2986398 2 4
1.6641911 4.1148849 0.70301658 2 12
1.6545879 4.0890808 -0.38592559 3 5
1.6553822 4.086946 0.85711402 2 13
1.4933927 3.6833127 -0.20829713 33 6
1.685981 4.1520691 -0.078221686 2 7
1.6505487 4.0607429 1.1745209 1 15
1.533785 3.7453396 -1.0844518 36 0
1.6838529 4.1097441 0.077523597 1 8
1.6578723 4.0423117 -1.0086806 2 1
1.6763684 4.0853786 0.23142964 2 9
1.6708602 4.0679111 -0.8548243 2 2
1.6789157 4.0834622 0.38627425 1 10
1.5217513 3.6993754 -0.63355964 35 3
4.0402503 9.8023872 -1.3018084 2 4
1.6846328 4.0851984 0.69988787 2 12
1.6973692 4.1079502 0.86398321 2 13
1.5291106 3.6989038 -0.20976254 37 6
1.6811076 4.0565538 1.1765914 1 15
1.5592432 3.7348127 -1.0844518 38 0
1.7171296 4.1089587 0.077733018 2 8
1.6913627 4.0453162 -1.0122797 2 1
1.7063907 4.07726 0.23163895 2 9
1.6840452 4.0199323 -0.84719193 2 2
1.7035894 4.06459 0.38557699 2 10
1.5490674 3.6923053 -0.63418543 37 3
1.7424506 4.1491814 0.55255568 1 11
4.0899677 9.7343941 -1.2964462 2 4
1.7483369 4.1570997 0.71427983 2 12
1.7509428 4.1592331 -0.3948155 4 5
1.7496773 4.1541996 0.87619489 2 13
1.5548964 3.6881385 -0.20976254 37 6
1.7139008 4.0553942 1.1796973 1 15
1.5867926 3.727391 -1.0854871 34 0
1.7536107 4.1152678 0.078082062 1 8
1.6752368 3.9294376 -0.98618543 4 1
1.7442189 4.0872927 0.23289503 1 9
1.7228675 4.0333533 -0.85253465 2 2
1.7413181 4.074584 0.38766876 1 10
1.5748085 3.6814001 -0.63418543 35 3
4.1640759 9.7202034 -1.2983961 2 4
1.7337205 4.0431252 0.69675916 2 12
1.7677913 4.1166282 0.87085229 2 13
1.5869163 3.6918724 -0.21059991 39 6
1.7459913 4.0522017 1.1822854 1 15
1.6158506 3.7233117 -1.0875577 37 0
1.7759242 4.0882521 0.077802829 1 8
1.763213 4.0570526 -1.0212778 3 1
1.775898 4.0823417 0.23331371 2 9
1.7556863 4.0320272 -0.8548243 2 2
1.7617658 4.0440607 0.38592559 1 10
1.6052084 3.68118 -0.63606256 35 3
1.8002129 4.1244483 0.55255568 1 11
4.2373953 9.7036314 -1.3001022 2 4
1.7998799 4.1178041 0.71177691 2 12
1.7901899 4.0897985 0.8677994 2 13
1.6158577 3.6880212 -0.21101859 40 6
1.768801 4.0275326 1.1786621 1 15
1.6449305 3.7190073 -1.0896282 36 0
1.8044242 4.0757532 0.077802829 1 8
1.7930719 4.0482078 -1.0221776 2 1
1.8092139 4.0807991 0.23394175 1 9
1.7885704 4.0304384 -0.85711402 2 2
1.810976 4.0790081 0.39045769 1 10
1.6308689 3.6698837 -0.63606256 37 3
4.3139143 9.6937618 -1.3027834 2 4
1.8060764 4.0546141 0.70301658 2 12
1.8250965 4.0915442 0.87085229 2 13
1.6342373 3.6602368 -0.21007656 33 6
1.8079233 4.039772 1.1859089 1 15
1.6740292 3.7144783 -1.0916989 44 0
1.8262563 4.0484743 0.077523597 1 8
1.8196888 4.0320377 -1.0212778 3 1
1.8524588 4.100831 0.23582584 1 9
1.8198979 4.0250101 -0.85864049 2 2
1.8361242 4.0590048 0.38976046 1 10
1.6613368 3.6692071 -0.63793981 38 3
1.8576242 4.0989113 0.55255568 1 11
4.3831186 9.6670265 -1.3032708 2 4
1.8637294 4.1066623 0.71427983 2 12
1.873111 4.1215992 0.88001108 2 13
1.6688474 3.6687365 -0.21122794 40 6
1.8336759 4.0217795 1.184356 1 15
1.7031461 3.7097223 -1.0937693 37 0
1.890494 4.1159062 0.0790594 1 8
1.8298851 3.980283 -1.01138 2 1
1.8769892 4.0808702 0.23540714 1 9
1.843971 4.0053949 -0.85711402 2 2
1.8910971 4.1039934 0.39533845 1 10
1.6945455 3.6757517 -0.64106852 35 3
1.8854796 4.0861731 0.55255568 1 11
4.4854636 9.7118807 -1.3135079 2 4
1.8618089 4.0293269 0.70301658 2 12
1.882046 4.0656629 0.87085229 2 13
1.6895844 3.6482303 -0.21070457 37 6
1.8650776 4.0179658 1.1869442 1 15
1.7267202 3.6945438 -1.092734 37 0
1.9030851 4.068192 0.078396209 1 8
1.7495488 3.7382848 -0.95289266 10 1
1.9122133 4.0821352 0.23624454 1 9
1.8818885 4.0137563 -0.8616935 2 2
1.8919142 4.0333028 0.38976046 1 10
1.7218434 3.6674094 -0.64169425 32 3
1.9139606 4.0729098 0.55255568 1 11
4.5387926 9.6541777 -1.3098518 2 4
1.920172 4.0805764 0.71427983 2 12
1.9515167 4.1415572 0.88993317 2 13
1.7277924 3.6634426 -0.21227466 45 6
1.8963833 4.0118337 1.1890148 1 15
1.7607708 3.6998439 -1.0979104 41 0
1.9159592 4.0223117 0.077767923 1 8
1.8929721 3.9722672 -1.0158789 2 1
1.9595799 4.108346 0.23854731 1 9
1.9014057 3.9828029 -0.85787731 2 2
1.9423499 4.0667415 0.39429256 1 10
1.7457006 3.6517346 -0.64106852 30 3
1.959486 4.0952616 0.55743045 1 11
4.6206522 9.6526957 -1.3139954 2 4
1.9520291 4.0741963 0.71553135 2 12
1.9583049 4.0818095 0.88001108 2 13
1.7567823 3.6584935 -0.21269335 45 6
1.9360738 4.0228677 1.1962616 1 15
1.7899286 3.6944141 -1.099981 40 0
1.9562089 4.0340276 0.078256592 1 8
1.9240599 3.9659681 -1.0176786 2 1
1.9672761 4.051446 0.23603518 1 9
1.9531934 4.0188732 -0.86856258 2 2
1.9619817 4.0351644 0.39254946 1 10
1.7763383 3.6501155 -0.64294571 37 3
1.9949808 4.0957599 0.55938035 1 11
4.7001023 9.6451845 -1.3174077 2 4
1.9988136 4.0927367 0.8853538 2 13
1.7805265 3.6425512 -0.21248402 49 6
1.9675128 4.0161915 1.1983322 1 15
1.8139682 3.6783631 -1.0989457 23 0
2.0119326 4.0780063 0.079373546 1 8
1.9525633 3.954186 -1.0181284 3 1
1.9771156 4.0021482 0.23394175 1 9
1.9805037 4.0054851 -0.86856258 2 2
2.0113134 4.0642252 0.39673293 1 10
1.8046488 3.6450212 -0.64419717 34 3
2.0333905 4.1034298 0.56230521 1 11
4.7664413 9.6103582 -1.3171639 3 4
1.9974797 4.0256615 0.71177691 2 12
2.0378234 4.0997791 0.88993317 2 13
1.80439 3.6285584 -0.21237932 31 6
1.9982495 4.0096226 1.2004027 1 15
1.833765 3.655571 -1.0958399 26 0
2.0511224 4.0853047 0.079792403 1 8
1.9855547 3.9529951 -1.0212778 5 1
2.0103903 3.9989541 0.23456979 2 9
2.0260675 4.0266356 -0.87619489 3 2
2.0317647 4.0362039 0.39533845 1 10
1.8371625 3.6464467 -0.64670014 30 3
4.8460522 9.6060486 -1.3210638 3 4
1.8350885 3.6265655 -0.21300736 41 6
2.0489104 4.0403719 1.2138613 1 15
1.8732947 3.6702099 -1.1041222 27 0
2.0795932 4.0708857 0.079792403 1 8
2.0255208 3.9633293 -1.0275764 2 1
2.0691831 4.0452781 0.23812862 1 9
2.0344453 3.973948 -0.8677994 2 2
2.0726085 4.0467472 0.39777881 1 10
1.8661772 3.640564 -0.6479516 30 3
4.9229636 9.5914116 -1.3237449 2 4
2.0941567 4.0712924 0.88993317 2 13
1.869504 3.6314235 -0.21405408 43 6
2.0779555 4.0276856 1.2143791 1 15
1.9113351 3.6810451 -1.111369 25 0
2.1245589 4.0882082 0.080420688 1 8
2.0675235 3.9767566 -1.0347749 3 1
2.1010599 4.0378222 0.23854731 3 9
2.089344 4.0118861 -0.8792479 2 2
2.102649 4.0357141 0.39812744 1 10
1.8897226 3.6239429 -0.64732587 33 3
2.1409237 4.102181 0.56815493 1 11
5.0026717 9.5814419 -1.3271573 2 4
2.1472206 4.1090002 0.73430347 3 12
2.1376097 4.0871367 -0.40353107 4 5
2.1225288 4.0565734 0.88993317 2 13
1.898515 3.6253614 -0.21447276 42 6
2.0853741 3.9737377 1.2024734 1 15
1.9387897 3.6710293 -1.1124043 26 0
2.1250136 4.0202394 0.079373546 1 8
2.0952344 3.9622264 -1.0347749 2 1
2.1254611 4.0159945 0.23812862 3 9
2.1044378 3.9729128 -0.8739053 2 2
2.1345038 4.0279784 0.39882466 1 10
1.9168276 3.6141522 -0.6479516 30 3
5.0843372 9.5743351 -1.3310571 2 4
2.1758525 4.0939107 0.73430347 3 12
1.9219024 3.6084926 -0.21426344 42 6
2.1330767 3.9965763 1.2138613 1 15
1.9716837 3.6710198 -1.1165454 23 0
2.1681774 4.0334873 0.079932027 2 8
2.1376123 3.9749634 -1.0419734 2 1
2.1610205 4.0151267 0.23896599 3 9
2.1544659 3.9996073 -0.88306409 2 2
2.1587937 4.0059619 0.39812744 1 10
1.9495124 3.6145918 -0.65045458 30 3
2.2319348 4.1347766 0.57692951 1 11
2.1675725 4.0138659 -0.56011152 1 4
2.1931095 4.0577669 0.73054904 3 12
2.194469 4.0568914 -0.40353107 4 5
2.186434 4.0403571 0.89298618 2 13
1.9508523 3.6020122 -0.21468212 36 6
2.1777122 4.0175366 1.0550205 5 14
2.1600046 3.9798894 1.2133437 6 15
1.9991162 3.6605563 -1.1175808 26 0
2.1847746 3.9971962 0.079513162 5 8
2.1625059 3.9548135 -1.0406237 7 1
2.176532 3.9771664 0.23760527 5 9
2.1804497 3.981025 -0.88230079 5 2
2.1780894 3.9750688 0.39655861 6 10
1.9822983 3.6147501 -0.65295756 28 3
2.1833825 3.9781361 0.55718666 6 11
2.170701 3.9533944 -0.55377436 9 4
2.1747706 3.9575272 0.71521842 11 12
2.1564863 3.9210153 -0.39150357 12 5
2.1861975 3.9733906 0.88153762 9 13
1.9778769 3.5918052 -0.21489146 40 6
2.1803107 3.9561546 1.042873 7 14
2.1704464 3.936626 -0.078466021 12 7
2.1756017 3.9427252 1.2066144 15 15
2.0227475 3.6431327 -1.1165454 27 0
2.2126272 3.9818461 0.079513162 12 8
2.190063 3.93962 -1.0406237 15 1
2.2032738 3.960129 0.23750059 15 9
2.190043 3.933116 -0.87505013 16 2
2.1970613 3.9441009 0.39498982 13 10
2.0074856 3.6008232 -0.65295756 27 3
2.2014296 3.9454615 0.55474925 9 11
2.1972806 3.9364104 -0.55353063 12 4
2.1927104 3.9250035 0.71208972 11 12
2.1938179 3.9253769 -0.39342102 20 5
2.211967 3.9546044 0.88077438 4 13
2.0185134 3.6057935 -0.21656621 38 6
2.2405179 4.00073 1.0586197 5 14
2.196897 3.9196343 -0.078431122 16 7
2.2389905 3.9914649 1.2262847 2 15
2.0538292 3.6390169 -1.1196512 25 0
2.253442 3.9910719 0.080001831 1 8
2.2309353 3.9479866 -1.0469222 5 1
2.2734239 4.021543 0.24210617 3 9
2.2496333 3.9762139 -0.8880251 4 2
2.2481036 3.9702761 0.39917332 1 10
2.0338964 3.5905125 -0.65358323 26 3
2.2918706 4.0426331 0.57059228 1 11
5.3927917 9.5046053 -1.3417815 2 4
2.2886102 4.03196 0.73430347 3 12
2.2782495 4.0104418 -0.40353107 4 5
2.2822139 4.0141611 0.89756554 2 13
2.0380754 3.5832891 -0.21604285 34 6
2.2508008 3.9492788 1.2180026 1 15
2.0843158 3.6350091 -1.1227571 22 0
2.2931957 3.9960544 0.080420688 1 8
2.2655168 3.9462311 -1.0505214 6 1
2.279556 3.9674733 0.23980337 4 9
2.2773378 3.9604115 -0.8880251 4 2
2.2730894 3.9514277 0.39882466 1 10
2.0667982 3.5899215 -0.65608621 24 3
5.4474444 9.4504824 -1.3393443 2 4
2.3552878 4.0811238 -0.41224664 4 5
2.331085 4.0359364 0.90596116 2 13
2.0670383 3.5758908 -0.21646154 36 6
2.3809469 4.1139674 -0.082968742 3 7
2.2860632 3.9468424 1.2221435 1 15
2.1174233 3.6337223 -1.1268982 21 0
2.3344402 4.00454 0.080909356 2 8
2.2861376 3.9185364 -1.0473721 2 1
2.3367102 4.0036144 0.24294353 4 9
2.3111744 3.9566853 -0.89069647 2 2
2.3026314 3.9389026 0.39917332 1 10
2.095175 3.5825906 -0.65733767 27 3
2.3233261 3.9695315 0.56474262 1 11
5.5463934 9.468749 -1.3473876 3 4
2.3439846 4.0000219 0.73430347 3 12
2.3333244 3.9786506 -0.40353107 4 5
2.0984077 3.5737948 -0.21719423 43 6
2.4096098 4.0972452 -0.082968742 3 7
2.3197329 3.9428453 1.225767 1 15
2.1499798 3.632525 -1.1310393 19 0
2.3603022 3.9847045 0.080839552 1 8
2.3326261 3.936414 -1.0563701 2 1
2.3666415 3.9906397 0.24315289 3 9
2.3287208 3.9235711 -0.88688028 2 2
2.3599036 3.9745338 0.40440264 1 10
2.1282082 3.5814619 -0.6598407 26 3
2.4017134 4.0385246 0.57692951 1 11
5.6147814 9.4375973 -1.3483624 3 4
2.3880203 4.0107183 0.73930937 3 12
2.3724382 3.9798021 0.90061849 2 13
2.1325178 3.5744944 -0.2181363 35 6
2.4005277 4.0189447 -0.081712164 3 7
2.3561237 3.9414783 1.2304258 1 15
2.1713049 3.6108046 -1.1289687 22 0
2.3997402 3.9891081 0.081258401 1 8
2.376133 3.9467456 -1.0635686 3 1
2.3813844 3.953907 0.24189681 3 9
2.3796957 3.947984 -0.89603907 2 2
2.3958285 3.9716084 0.40579712 1 10
2.1566179 3.5736585 -0.66109216 27 3
2.4291492 4.0220823 0.57692951 1 11
5.6877189 9.4100609 -1.3500687 2 4
2.439537 4.0313287 -0.41224664 4 5
2.4347413 4.0202394 0.91359347 2 13
2.158869 3.5633123 -0.21834564 31 6
2.4658728 4.0636325 -0.082968742 3 7
2.3879087 3.9336073 1.233014 1 15
2.2059009 3.6124291 -1.1341451 18 0
2.4358733 3.985908 0.081537649 1 8
2.4090414 3.9404564 -1.066268 2 1
2.4235232 3.9610362 0.24336222 1 9
2.4071996 3.9312744 -0.89603907 2 2
2.4352934 3.9755974 0.40788889 1 10
2.1846113 3.5635676 -0.66203076 21 3
2.4571693 4.0050259 0.57692951 1 11
5.7661734 9.3948164 -1.3534811 2 4
2.4669211 4.0146298 -0.41224664 4 5
2.4805636 4.0336747 0.92046267 2 13
2.1920662 3.5617621 -0.21918301 42 6
2.493474 4.0467544 -0.082968742 3 7
2.4274817 3.9365714 1.2392256 1 15
2.2371759 3.6067905 -1.1372509 21 0
2.4734912 3.9862263 0.081886694 1 8
2.4344361 3.9202309 -1.0653682 2 1
2.4925885 4.0123086 0.24754909 1 9
2.4297571 3.908129 -0.89451259 2 2
2.4671996 3.9652658 0.40858611 1 10
2.2140365 3.5569999 -0.66359508 27 3
2.4843719 3.9882085 0.57692951 1 11
5.8358259 9.3610678 -1.3544559 2 4
2.4951968 4.0009165 0.74681824 3 12
2.4421422 3.9127998 -0.40353107 4 5
2.498261 3.9996088 0.91664648 2 13
2.2226117 3.5569205 -0.21981104 44 6
2.4624205 3.9330578 1.2433668 1 15
2.2657912 3.5980196 -1.1393216 22 0
2.5076573 3.9790115 0.082096115 1 8
2.4652195 3.9101646 -1.0671679 2 1
2.4885643 3.9441364 0.24440894 1 9
2.4632709 3.901031 -0.89680237 2 2
2.511158 3.9753315 0.41137511 1 10
2.2493708 3.5581536 -0.66672373 28 3
2.5503638 4.0311575 0.58570409 1 11
5.8962212 9.3160992 -1.3537248 3 4
2.4807894 3.9166467 0.73430347 3 12
2.5220375 3.9802361 -0.41224664 4 5
2.529635 3.9891419 0.91817296 2 13
2.2538087 3.5514362 -0.22043908 46 6
2.4981108 3.9288125 1.2475078 1 15
2.2991829 3.5951324 -1.1434625 20 0
2.513128 3.9281621 0.081398018 1 8
2.5113733 3.9223986 -1.075266 2 1
2.5239697 3.940562 0.24524632 1 9
2.5077786 3.912272 -0.90328985 4 2
2.5280919 3.9409337 0.409632 1 10
2.2788727 3.5510728 -0.66828811 25 3
2.5927601 4.0370898 0.58911645 1 11
5.9836545 9.3097754 -1.3588433 2 4
2.5497632 3.9625318 -0.41224664 4 5
2.557421 3.9713855 0.91817296 2 13
2.29091 3.5561604 -0.22169513 42 6
2.543653 3.9409337 1.2568253 1 15
2.3299108 3.5891223 -1.1465684 25 0
2.5644577 3.9474132 0.082165927 1 8
2.5465076 3.9182863 -1.0788652 2 1
2.5731978 3.9563313 0.24733976 1 9
2.5382433 3.8996055 -0.90443468 2 2
2.5787766 3.960366 0.41346684 1 10
2.3100791 3.5450068 -0.67016536 21 3
2.5666637 3.9357526 0.57692951 1 11
6.0425467 9.2621803 -1.3578683 2 4
2.5773647 3.9446344 -0.41224664 4 5
2.6123216 3.9966128 0.92809504 2 13
2.3244276 3.553452 -0.22253251 42 6
2.5689859 3.919848 1.2557901 1 15
2.3612897 3.5824471 -1.1496743 20 0
2.6227856 3.9761517 0.083143272 1 8
2.611366 3.9573412 -1.0946118 3 1
2.6007574 3.9382691 0.24733976 3 9
2.5762303 3.8981686 -0.90825087 2 2
2.5975714 3.9289701 0.41207233 1 10
2.3369517 3.5320878 -0.67079103 24 3
2.6247621 3.9640834 0.58375424 1 11
6.1202164 9.2396288 -1.3607932 2 4
2.4078431 3.6282156 0.84642875 2 13
2.3558087 3.5471206 -0.22316055 45 6
2.3554959 3.5399427 1.1393216 1 15
2.3969867 3.5819299 -1.1548507 23 0
2.6549311 3.9643905 0.083282888 1 8
2.6053081 3.8888245 -1.0806649 1 1
2.6415348 3.939923 0.2485958 1 9
3.9269469 5.8527403 -1.3700087 3 2
2.6315999 3.9206657 0.41311821 1 10
2.3703632 3.528806 -0.67329407 23 3
2.6523747 3.9456613 0.58375424 1 11
6.1978612 9.2164478 -1.363718 2 4
2.369489 3.5168824 0.82429492 2 13
2.3782814 3.5272753 -0.2229512 45 6
2.3412199 3.4657834 1.1206865 1 15
2.4327922 3.5810874 -1.160027 21 0
2.66905 3.9259157 0.082864024 1 8
2.6477368 3.8931003 -1.0869635 3 1
2.6644793 3.9147825 0.24817713 3 9
2.6679816 3.9169886 -0.92122585 3 2
2.6813433 3.9351292 0.41660443 1 10
2.397167 3.5154355 -0.67391974 24 3
2.6955211 3.9500039 0.58716655 1 11
6.2788453 9.1975422 -1.3673741 3 4
2.3297005 3.406266 0.80216104 2 13
2.4096155 3.5204759 -0.22357923 45 6
2.3643937 3.451817 0.96593982 4 14
2.3085475 3.3665047 1.0937693 1 15
2.4665058 3.57674 -1.1641681 21 0
2.7304668 3.9565606 0.083911166 1 8
2.6704209 3.8681073 -1.085164 3 1
2.709909 3.9223771 0.24985188 3 9
2.7064295 3.9144146 -0.92504203 3 2
2.7087502 3.9163136 0.41660443 1 10
2.4306469 3.5116076 -0.67642272 22 3
2.743376 3.9604633 0.59155381 1 11
6.3383813 9.1469584 -1.3663993 2 4
2.3265519 3.3512149 0.79300219 2 13
2.4409719 3.5134094 -0.22420727 42 6
2.3483858 3.3776257 0.94974333 4 14
2.2878485 3.2868834 1.0730639 1 15
2.491416 3.5594335 -1.1641681 27 0
2.7511368 3.9275763 0.083701737 1 8
2.6984782 3.8509655 -1.0856137 3 1
2.7739217 3.9556913 0.2532014 1 9
4.0396357 5.7563601 -1.3669558 3 2
2.736027 3.8973064 0.41660443 1 10
2.4641862 3.5074847 -0.67892563 23 3
2.816627 4.0061703 0.60130334 1 11
6.4169264 9.1235962 -1.3695679 2 4
2.7821891 3.9527881 0.76559031 3 12
2.2888258 3.2482285 0.7723949 2 13
2.4746501 3.5093393 -0.22504464 42 6
2.2910087 3.246511 0.91735035 4 14
2.2538891 3.1903629 1.0466642 2 15
2.5251553 3.5545526 -1.1683092 21 0
2.7923956 3.9278307 0.084120601 1 8
2.7467563 3.8622067 -1.094162 3 1
2.7829401 3.9101939 0.25152662 3 9
4.1070585 5.766396 -1.3761146 3 2
2.7677915 3.8846023 0.41730168 1 10
2.4932001 3.4966295 -0.68017709 20 3
6.5462031 9.1706686 -1.3834609 3 4
2.7963803 3.9131546 -0.4207879 4 5
2.2657673 3.1682925 0.75713015 2 13
2.5060623 3.5017238 -0.22567266 42 6
2.2654104 3.1642902 0.89845449 4 14
2.2400856 3.12431 1.0300999 2 15
2.5419989 3.5258687 -1.1646857 17 0
2.8331037 3.9281952 0.084539458 1 8
2.7804956 3.8524175 -1.0968614 2 1
2.821183 3.9073532 0.25257334 3 9
2.7917383 3.8637297 -0.92656857 3 2
2.8065181 3.88133 0.41904479 1 10
2.5296786 3.497184 -0.68361872 19 3
6.608902 9.1231365 -1.3832171 2 4
2.8364248 3.914052 0.76559031 3 12
2.8236313 3.8935368 -0.4207879 4 5
2.2209475 3.0602415 0.73499632 2 13
2.5345333 3.4910493 -0.22609136 42 6
2.237045 3.0790298 0.87865883 4 14
2.2203922 3.0527465 1.0114648 2 15
2.592171 3.5443475 -1.1765914 24 0
2.806654 3.8334019 -1.0968614 3 1
2.9026909 3.961674 0.25738826 1 9
2.8279314 3.8568115 -0.92962146 3 2
2.5598762 3.4874001 -0.68518305 23 3
2.0589516 2.8029234 0.42703021 5 11
2.1064601 2.8665495 -0.43677977 1 4
2.0491643 2.7865405 0.54783356 11 12
2.0578256 2.7952511 0.67470068 9 13
2.0636601 2.8011277 -0.18233849 5 6
2.044549 2.7731595 0.79542696 9 14
2.0996928 2.8469145 -0.061746612 6 7
2.0443301 2.7698252 0.92243111 8 15
2.1183481 2.8544409 -0.95245409 9 0
2.0721624 2.7901685 0.060664564 12 8
2.0918877 2.8157046 -0.80982381 9 1
2.0532219 2.7616429 0.18034972 15 9
2.0871828 2.8052759 -0.67966169 12 2
2.0627432 2.7714179 0.30225611 12 10
2.088568 2.8040712 -0.55377805 7 3
2.0571141 2.7598331 0.42264292 11 11
2.0718367 2.7785697 -0.42556778 10 4
2.0484838 2.7452536 0.5425148 12 12
2.071862 2.77456 -0.30295336 13 5
2.054965 2.7509332 0.66744989 11 13
