# .PCD v0.7 - Point Cloud Data file format
VERSION 0.7
FIELDS x y z intensity ring
SIZE 4 4 4 4 2
TYPE F F F F U
COUNT 1 1 1 1 1
WIDTH 1352
HEIGHT 1
VIEWPOINT 0 0 0 1 0 0 0
POINTS 1352
DATA ascii
4.826139 6.6182857 2.1947856 2 15
3.0500011 4.1596766 -1.3820938 11 0
4.6764073 6.3731484 0.13797872 55 8
3.3071811 4.5054774 -1.2903192 17 1
3.5512664 4.8309288 -1.1654614 17 2
4.9315495 6.70613 0.72827333 1 10
3.8707895 5.2598162 -1.0343448 19 3
4.8416357 6.5742407 1.0024973 1 11
4.3612132 5.9197321 -0.90280819 13 4
4.872942 6.6094999 1.3005962 2 12
4.6948547 6.363297 -0.69184226 28 5
4.8896141 6.6248484 1.6005059 1 13
4.9333491 6.6743412 1.9161332 2 14
4.8825674 6.5984082 2.1994443 1 15
3.0847328 4.1460323 -1.3846819 13 0
4.7542214 6.3852582 0.13895606 51 8
3.354852 4.5041595 -1.2966179 16 1
3.6201212 4.853229 -1.1769099 14 2
4.985393 6.6811209 0.72931921 1 10
3.9286902 5.2611551 -1.0399765 16 3
4.9373231 6.6070662 1.0127343 0 11
4.3929253 5.876421 -0.90085822 15 4
4.9426317 6.6069536 1.3068537 2 12
4.7630486 6.3622622 -0.69532847 28 5
4.9781108 6.647121 1.6142441 1 13
5.0008683 6.6678023 1.9242314 2 14
4.9377899 6.5765214 2.2035854 3 15
3.1555033 4.179903 -1.403317 12 0
4.8179727 6.3774385 0.13951454 51 8
3.3721137 4.4619737 -1.291219 15 1
5.1527705 6.8131828 0.44768184 2 9
3.6645784 4.8419266 -1.1803445 14 2
5.0535655 6.6747441 0.73245686 1 10
3.955781 5.2210035 -1.0374736 14 3
4.9929204 6.585093 1.0146842 1 11
4.462635 5.8835683 -0.906708 12 4
4.9862452 6.5691428 1.3062279 2 12
4.8266287 6.3542423 -0.69811749 29 5
5.0600266 6.6591039 1.6256927 1 13
5.1228223 6.731977 1.953025 2 14
5.0093374 6.5756979 2.2149734 3 15
3.1857822 4.1593051 -1.4038346 11 0
4.8842754 6.3722157 0.14014283 47 8
3.3901384 4.4213119 -1.2862701 23 1
5.2002101 6.7770433 0.44768184 2 9
3.7102463 4.8317981 -1.1841607 12 2
5.1437354 6.6961827 0.7387321 1 10
4.0258408 5.237113 -1.0462338 14 3
5.0775061 6.6004214 1.0224838 1 11
4.5253901 5.880589 -0.91109526 12 4
5.1018939 6.6249442 1.3243743 2 12
4.9037094 6.3630009 -0.70282388 34 5
5.1279721 6.6516004 1.6325619 1 13
5.1792197 6.7083912 1.9566242 2 14
5.0846577 6.5787792 2.2279146 2 15
3.2258711 4.1527805 -1.4090109 11 0
4.9520788 6.3703995 0.14084093 53 8
3.4213512 4.399672 -1.28672 22 1
5.324719 6.84237 0.45438081 2 9
3.667057 4.7088447 -1.1601188 8 2
5.2161298 6.6955948 0.74256694 1 10
4.0881176 5.2438602 -1.0531169 14 3
5.1223125 6.5657091 1.0224838 0 11
4.5702009 5.855907 -0.91207021 12 4
5.1444354 6.5869517 1.3237487 2 12
4.9714422 6.3608732 -0.70631009 34 5
5.2166586 6.6722226 1.6463001 1 13
5.2247658 6.6729794 1.9566242 2 14
5.1603055 6.5835485 2.2413731 2 15
3.2619586 4.1392622 -1.4121168 11 0
5.0211978 6.3670759 0.14153902 60 8
3.462846 4.3894486 -1.2907692 26 1
5.392159 6.830112 0.45605558 2 9
3.7546065 4.7524533 -1.1772915 12 2
5.2578082 6.652761 0.74186963 2 10
4.139329 5.2337866 -1.0568714 16 3
5.1902008 6.5578074 1.0268712 1 11
4.6011109 5.8114095 -0.91012037 13 4
5.268806 6.6499677 1.3437722 2 12
5.0268726 6.3400598 -0.70787895 29 5
5.3241129 6.7125492 1.6653811 1 13
5.3148584 6.6912756 1.9728208 2 14
5.2349977 6.5836515 2.2537963 2 15
3.2919827 4.1178975 -1.4126344 12 0
5.0830145 6.3537264 0.14202769 38 8
3.5201936 4.3986392 -1.3006669 25 1
5.4646811 6.8234801 0.45814902 2 9
3.8147049 4.759829 -1.1856872 14 2
5.3240623 6.6407671 0.74465865 2 10
4.1658773 5.1924343 -1.0543684 14 3
5.2855678 6.5833302 1.0366207 0 11
4.6885843 5.8355908 -0.91913867 9 4
5.332428 6.6345778 1.3481523 2 12
5.0535302 6.2830763 -0.70543861 24 5
5.3917065 6.6987491 1.6714869 1 13
5.0353584 6.2537751 -0.42078111 27 6
5.4250188 6.7329173 1.9962157 2 14
5.0534019 6.2672234 -0.14052677 31 7
5.2868938 6.5544648 2.2563846 3 15
3.3396215 4.1167393 -1.4203991 11 0
5.0919662 6.2746091 0.14105035 48 8
3.6068618 4.4414101 -1.3209126 21 1
5.5133724 6.7841988 0.45814902 2 9
3.9072871 4.8062029 -1.2040049 14 2
5.4267731 6.6704993 0.75232834 1 10
4.1405692 5.0858965 -1.038725 19 3
5.3765302 6.6016784 1.0453953 1 11
4.7354784 5.8104129 -0.92035741 12 4
5.4446898 6.6758523 1.3644215 2 12
5.1136417 6.267714 -0.70770466 34 5
5.4979386 6.7339406 1.6898044 1 13
5.1191545 6.2655301 -0.42402595 27 6
5.4916229 6.7190213 2.0034139 2 14
5.1109586 6.2488184 -0.14091073 38 7
5.3654742 6.5553336 2.2698431 3 15
3.3780985 4.1052589 -1.42454 11 0
5.195209 6.309021 0.14265598 50 8
3.5919347 4.3604703 -1.3042662 26 1
5.5605974 6.7455449 0.45814902 2 9
3.944078 4.7811484 -1.2047681 14 2
5.4757428 6.6355271 0.75267702 1 10
4.3118196 5.2213664 -1.0725149 14 3
5.4337502 6.5752778 1.0473453 1 11
4.8164015 5.8261704 -0.92815697 11 4
5.5138311 6.6650729 1.3700532 2 12
5.2411113 6.3331666 -0.71920919 35 5
5.5773778 6.734705 1.6997266 1 13
5.5458622 6.6895175 2.0061135 2 14
5.4296184 6.5400109 2.2776077 2 15
3.4091539 4.0845404 -1.4255754 11 0
5.3123641 6.3625431 0.14468044 58 8
3.632287 4.347249 -1.3078654 24 1
5.6576157 6.7688398 0.46233588 2 9
3.9803095 4.758709 -1.2059129 14 2
5.58076 6.667417 0.76069534 1 10
4.3472605 5.191896 -1.0725149 14 3
5.5013256 6.5655289 1.0517325 0 11
4.8620601 5.7984886 -0.92913198 12 4
5.6428542 6.7272768 1.3907026 2 12
5.3172212 6.3345733 -0.72356695 30 5
5.6495104 6.7256713 1.7073588 1 13
5.6325598 6.6983681 2.0205104 2 14
5.5125761 6.5487175 2.2936544 1 15
3.4568431 4.0848365 -1.4338576 9 0
5.3876696 6.3619256 0.14551817 60 8
3.7235143 4.3952847 -1.3299106 15 1
5.7176485 6.7444115 0.46338257 2 9
4.0629673 4.7891917 -1.220796 12 2
5.6337495 6.6383905 0.76174122 2 10
4.3987451 5.1794877 -1.0762693 13 3
5.6010203 6.5904932 1.0619696 1 11
4.921989 5.7894568 -0.93303174 13 4
5.7050419 6.7057734 1.394457 2 12
5.4129777 6.3579803 -0.73053938 25 5
5.7282567 6.7259212 1.717281 1 13
5.7019486 6.6855712 2.0286086 2 14
5.5769758 6.5321102 2.301419 1 15
3.4802434 4.05474 -1.431787 10 0
5.455409 6.35146 0.14614646 54 8
3.7617285 4.3780508 -1.33261 16 1
5.8140788 6.7618756 0.46736014 2 9
4.0937428 4.7577338 -1.2200328 14 2
5.7267485 6.6532593 0.7680164 2 10
4.4605818 5.1785865 -1.0825267 13 3
5.7013245 6.6143842 1.0722066 1 11
4.9778428 5.772995 -0.93595666 12 4
5.7801056 6.6986861 1.4013401 2 12
5.4806714 6.3471794 -0.73367703 25 5
5.8392406 6.7600541 1.736362 1 13
5.7943792 6.6986594 2.044805 2 14
5.6477351 6.5222249 2.3117716 1 15
3.4919765 4.0114021 -1.4250576 13 0
5.5285144 6.3463907 0.14691436 55 8
3.8075671 4.3693109 -1.3380089 18 1
5.9189029 6.7873545 0.4719657 2 9
4.122983 4.7246022 -1.2188879 14 2
5.7914009 6.6341295 0.77045673 2 10
4.4628339 5.1086426 -1.0743921 13 3
5.7761087 6.6072969 1.0775688 0 11
5.046771 5.7709789 -0.94131887 11 4
5.8969822 6.73844 1.4182349 2 12
5.5484772 6.335742 -0.73681462 25 5
5.9095783 6.7457047 1.7432311 1 13
5.8692741 6.6902757 2.054703 2 14
5.7275472 6.5218325 2.325748 1 15
3.5262911 3.9941657 -1.4276459 10 0
5.5951905 6.3331194 0.14750774 50 8
3.8431399 4.3484631 -1.3398085 20 1
6.0058336 6.7907519 0.47510585 2 9
4.188395 4.7324576 -1.2284284 20 2
5.8613448 6.6203914 0.77359438 2 10
4.5638881 5.1512895 -1.0900354 13 3
5.8800411 6.6321678 1.0882933 0 11
5.0895739 5.7385731 -0.94180632 12 4
5.9648619 6.7207465 1.4232409 2 12
5.6005092 6.3057933 -0.7378605 25 5
5.9721766 6.7218957 1.7478106 2 13
5.905478 6.637486 2.0511036 2 14
5.8166275 6.5307345 2.3433478 1 15
3.5643969 3.9809654 -1.431787 10 0
5.6873069 6.3475189 0.14876431 51 8
3.8786049 4.3273335 -1.341608 21 1
6.1037722 6.8051567 0.47908339 2 9
4.2069087 4.6870284 -1.2242306 16 2
5.9553399 6.6326785 0.77986956 2 10
4.6023822 5.1222382 -1.0906612 16 3
5.9713216 6.6411467 1.0965804 0 11
5.1427879 5.71766 -0.94424373 15 4
6.0433497 6.7141805 1.4307499 2 12
5.6992974 6.3297091 -0.74518156 30 5
6.0373535 6.70046 1.7531532 1 13
5.989675 6.6405501 2.0646007 2 14
5.8983364 6.530108 2.3578417 0 15
3.6141798 3.9802983 -1.4405869 13 0
5.7545829 6.3353033 0.1493926 52 8
3.8903699 4.2799616 -1.3353095 14 1
6.1499519 6.7634521 0.47908339 2 9
3.8462887 4.2270174 -1.11089 12 2
6.0256491 6.617456 0.78300714 1 10
4.6637444 5.1200018 -1.0969186 13 3
6.0591846 6.6472907 1.10438 0 11
5.2427769 5.7476172 -0.955212 10 4
6.1261964 6.7137427 1.4395101 2 12
5.7836494 6.3339081 -0.75041097 31 5
6.1502008 6.7306137 1.772234 2 13
6.0753479 6.6417098 2.0780978 2 14
5.9948316 6.546802 2.3785472 0 15
3.643806 3.9584475 -1.4416221 8 0
5.836606 6.3361564 0.15036993 53 8
3.908848 4.2419167 -1.3317102 17 1
6.2403464 6.7673383 0.4824329 2 9
3.8424199 4.1639915 -1.1013496 6 2
6.1056867 6.6143537 0.78753924 1 10
4.7181401 5.1076322 -1.1012988 13 3
6.1512547 6.6543918 1.1126672 0 11
5.2885175 5.7190847 -0.95643073 11 4
6.2319469 6.7346077 1.4532764 2 12
5.8320427 6.300241 -0.75110817 26 5
6.2358975 6.7318025 1.7836826 1 13
12.86639 13.87986 -0.99187118 9 6
6.1416168 6.623065 2.0852964 2 14
3.6845348 3.9470344 -1.4467984 13 0
5.9055285 6.3240523 0.15103312 47 8
4.0235209 4.3056493 -1.360504 21 1
6.3108163 6.750967 0.484317 2 9
4.1187944 4.4029799 -1.1719489 10 2
6.1843934 6.6064763 0.79172277 2 10
4.8095069 5.1359572 -1.1144392 13 3
6.2588463 6.678998 1.1238792 0 11
5.3283153 5.682025 -0.95643073 10 4
6.3235946 6.7410154 1.4639139 1 12
5.9249759 6.3116674 -0.75738341 31 5
6.3096261 6.716722 1.791315 2 13
6.2384348 6.6339741 2.1023927 2 14
3.7259204 3.9372995 -1.4524926 11 0
5.9894133 6.3247752 0.15204537 55 8
4.071496 4.2979708 -1.3668026 15 1
6.3852744 6.7357345 0.48641044 2 9
4.4547963 4.6960168 -1.2581946 12 2
6.2731056 6.6104741 0.79730076 1 10
4.8452454 5.1022553 -1.1144392 13 3
6.3326683 6.6639233 1.1287539 0 11
5.3897405 5.6677041 -0.96033055 11 4
6.3922853 6.7196035 1.4689198 1 12
6.0128546 6.3163276 -0.76296139 31 5
6.3915715 6.7094679 1.801237 2 13
6.3249416 6.6325674 2.1158895 2 14
3.7941353 3.9523456 -1.4680218 10 0
6.0694342 6.3203073 0.15295289 56 8
4.0994468 4.2659159 -1.3659029 15 1
6.5191436 6.7791262 0.49290007 2 9
4.4956365 4.6732936 -1.2604843 14 2
6.3589387 6.6056061 0.80218142 1 10
4.9035597 5.0902147 -1.1194451 12 3
6.4424033 6.6852999 1.1399659 1 11
5.4815397 5.684237 -0.96959257 10 4
6.519763 6.7561364 1.4870663 1 12
6.1038532 6.3229337 -0.76888794 26 5
6.4873586 6.7155175 1.8149751 1 13
13.223657 13.679159 -0.9971047 9 6
6.4090204 6.6274772 2.1284869 2 14
3.8539762 3.9589837 -1.480445 9 0
6.1577621 6.3211174 0.15403494 49 8
4.1318488 4.2399831 -1.3668026 21 1
6.577467 6.7448874 0.49373743 2 9
4.5755825 4.688777 -1.2734593 10 2
6.4522195 6.6095252 0.80810803 1 10
4.950017 5.0671639 -1.1219481 15 3
6.5206065 6.6702576 1.1453282 1 11
5.5391297 5.6642828 -0.97276115 9 4
6.5640101 6.7076287 1.4864405 3 12
6.1617804 6.2944059 -0.77063102 32 5
6.5670605 6.7037206 1.8241341 2 13
6.4769669 6.6048307 2.1356852 2 14
6.3577223 6.4741912 2.4313462 0 15
3.8733802 3.9237301 -1.4773391 10 0
6.2301493 6.3089395 0.15476793 49 8
4.1613507 4.2110324 -1.3668026 21 1
6.6372638 6.7141671 0.49478418 2 9
4.5853028 4.6351895 -1.2673534 14 2
6.5066123 6.5728178 0.80915391 1 10
5.0094151 5.0586157 -1.1275797 15 3
6.6301303 6.6905832 1.1565402 0 11
5.6414394 5.6889043 -0.98372942 12 4
6.6595955 6.7132826 1.4977038 1 12
6.2448773 6.2908278 -0.7755118 32 5
6.65521 6.6994948 1.8355827 2 13
6.5531502 6.5898519 2.1455832 2 14
3.9191277 3.9163938 -1.484586 10 0
6.3179069 6.309094 0.15584999 51 8
4.2230158 4.2156534 -1.3776002 16 1
6.7263994 6.7099805 0.49792436 2 9
4.614768 4.6002955 -1.2665902 14 2
6.5963655 6.5733771 0.8147319 2 10
5.0921969 5.0709143 -1.1382173 15 3
6.7160764 6.6833391 1.1633649 1 11
5.7166224 5.6867719 -0.99006665 13 4
6.7735448 6.7334733 1.5127214 1 12
6.3593206 6.3172812 -0.78422731 33 5
6.7410526 6.69416 1.8466495 2 13
6.6294351 6.5741329 2.1554811 2 14
3.9573817 3.8997855 -1.4887272 9 0
6.4031191 6.3055234 0.15686224 52 8
4.2578993 4.1915369 -1.3793999 15 1
6.8186383 6.7076807 0.50127381 2 9
4.6999731 4.6202655 -1.2810917 14 2
6.6818829 6.5662704 0.81961256 2 10
5.1641197 5.0712266 -1.1463519 12 3
6.8022423 6.6752195 1.1701895 1 11
5.7760229 5.6661854 -0.99347895 10 4
6.8739958 6.7385654 1.5246104 3 12
6.4203444 6.289465 -0.78631908 33 5
6.8254991 6.68402 1.8569533 2 13
6.6946754 6.5467658 2.1617796 2 14
3.9900529 3.8774483 -1.4907978 11 0
6.4986281 6.3108196 0.1581188 53 8
4.3038368 4.1779976 -1.3847986 15 1
6.8767695 6.6710401 0.50211126 2 9
4.7363434 4.5914402 -1.2822365 8 2
6.7618995 6.5527387 0.82379609 2 10
5.207912 5.0432954 -1.1482291 12 3
6.9085927 6.6855478 1.1804266 1 11
5.8382678 5.6478062 -0.99737877 13 4
6.9464335 6.7151289 1.5302421 1 12
6.500258 6.2816153 -0.79085118 33 5
6.9016528 6.6648455 1.8649671 2 13
6.7895761 6.5497479 2.1779761 2 14
4.025394 3.8575177 -1.4939036 11 0
6.5717559 6.2954917 0.1588518 46 8
4.3610535 4.1748009 -1.3937967 19 1
6.9999366 6.698648 0.5077635 2 9
4.7972832 4.5875888 -1.2902504 10 2
6.8766222 6.571444 0.83216298 2 10
5.2564034 5.0213742 -1.1513578 13 3
7.0085025 6.6904545 1.1896886 1 11
5.9091573 5.6370521 -1.0027411 13 4
7.0348682 6.7085876 1.5396281 3 12
6.6146321 6.3034296 -0.79939252 39 5
7.0091457 6.6747212 1.8813769 2 13
6.8887868 6.5532312 2.1950724 2 14
4.081037 3.8578994 -1.504774 13 0
6.6606126 6.2920246 0.15993385 55 8
4.4205379 4.1744566 -1.4036945 17 1
7.1133533 6.7126675 0.51257843 2 9
4.8177671 4.54321 -1.2871976 12 2
6.9414907 6.5436182 0.83460337 2 10
5.3128991 5.0048733 -1.1560508 17 3
7.092617 6.676743 1.1960258 0 11
5.9502797 5.5994225 -1.0032285 11 4
7.1045537 6.6809673 1.5446341 3 12
6.6704469 6.2705436 -0.80096126 33 5
7.0887556 6.659121 1.8905357 2 13
6.9644995 6.5355229 2.2049701 2 14
4.1191759 3.8398523 -1.5089152 13 0
6.7530241 6.2928963 0.16112062 56 8
4.4666877 4.1594305 -1.4090934 19 1
7.1764207 6.6804271 0.51383448 2 9
4.8830795 4.5424037 -1.2963563 12 2
7.065805 6.5682492 0.84401613 1 10
5.3685493 4.9887638 -1.160744 12 3
7.1989985 6.6850405 1.2062629 1 11
6.0125046 5.5793524 -1.0071282 11 4
7.2280712 6.7049937 1.561529 3 12
6.752048 6.2590418 -0.80549335 28 5
7.1754026 6.6468234 1.9012209 2 13
7.0528626 6.5264521 2.2184672 2 14
4.1580157 3.8234935 -1.5135738 11 0
6.8277135 6.2740111 0.16185361 48 8
4.5149884 4.1473861 -1.415392 17 1
7.2993937 6.7003946 0.51927745 2 9
4.9233532 4.5161653 -1.2986461 11 2
7.1573381 6.5630941 0.84959412 1 10
5.4265485 4.9725151 -1.1657498 13 3
7.2981949 6.6828842 1.2150375 1 11
6.0679173 5.554379 -1.0100532 11 4
7.333005 6.7077041 1.5740438 3 12
6.869112 6.2789593 -0.81420892 34 5
7.2639594 6.637558 1.9126694 2 13
7.1385598 6.5138335 2.2310646 2 14
4.2017808 3.8099439 -1.5197855 11 0
6.933589 6.2825837 0.16331963 49 8
4.5496097 4.1209979 -1.4171916 17 1
7.3696885 6.6707134 0.52095217 2 9
4.9984393 4.5211959 -1.3100946 11 2
7.2443662 6.5503798 0.8544749 1 10
5.4875116 4.9583502 -1.1713815 12 3
7.3711929 6.6557169 1.2194247 1 11
6.1153879 5.5198617 -1.0115156 13 4
7.4177914 6.6907458 1.5821784 3 12
6.9660578 6.2788739 -0.82048416 34 5
7.3655415 6.6366258 1.927171 2 13
7.2186289 6.495122 2.2418623 2 14
4.2282772 3.7805171 -1.5197855 10 0
7.0041184 6.2580094 0.1639479 41 8
4.5957098 4.104713 -1.4225905 14 1
7.4399166 6.6403823 0.52262688 2 9
5.0152302 4.4731221 -1.3062785 11 2
7.3315558 6.5367732 0.85935563 1 10
5.5426421 4.9383168 -1.1757616 11 3
7.4975429 6.6753716 1.2325866 1 11
6.1923256 5.5113506 -1.0178528 14 4
7.5027013 6.6729259 1.590313 3 12
7.0514207 6.2671485 -0.82536483 28 5
7.4454541 6.6150317 1.9359483 2 13
7.3191886 6.4937177 2.2589586 2 14
4.26616 3.761127 -1.5239266 11 0
7.1196599 6.2724109 0.16562334 34 8
4.6447282 4.09056 -1.428889 16 1
7.5280757 6.6252275 0.52555776 2 9
5.0772953 4.4652271 -1.3142924 13 2
7.4159179 6.5196338 0.86388773 1 10
5.6140838 4.9320951 -1.1835834 17 3
7.6006513 6.6726327 1.2418487 1 11
6.3261404 5.5517869 -1.0334522 11 4
7.5995998 6.6646681 1.6009505 3 12
7.1429482 6.2597914 -0.83094281 29 5
7.5328026 6.5991144 1.9466335 2 13
7.4552836 6.5220103 2.2868524 2 14
4.3127255 3.7489955 -1.5311736 10 0
7.2055459 6.2592721 0.16660067 43 8
4.6525731 4.0401459 -1.4225905 16 1
7.6586204 6.6458139 0.53141934 2 9
5.151361 4.466969 -1.3253593 11 2
7.4913626 6.4938021 0.86737394 1 10
5.658833 4.9018321 -1.1857734 15 3
7.6770639 6.6453948 1.2467235 1 11
6.3347249 5.4815044 -1.0285773 13 4
7.7146749 6.6708884 1.6153424 3 12
7.2110195 6.2331719 -0.83390617 17 5
7.6366301 6.5964189 1.9615166 2 13
7.5201578 6.4889393 2.2931509 2 14
4.3475938 3.7263389 -1.5342795 10 0
7.3239117 6.2751346 0.16834593 36 8
4.6984286 4.0227757 -1.4279894 15 1
7.7431307 6.627295 0.53414083 2 9
5.1786613 4.4292521 -1.3245962 13 2
7.6001244 6.4957161 0.874695 1 10
5.7341175 4.8991313 -1.1945337 15 3
7.7704277 6.6342349 1.2545232 1 11
6.3969979 5.4577641 -1.0324771 13 4
7.7749329 6.6310401 1.6184711 3 12
7.3392735 6.255054 -0.84366757 17 5
7.7243457 6.5785866 1.9722018 2 13
7.6068354 6.4716382 2.3057485 2 14
4.387609 3.7091331 -1.5394558 10 0
7.4087863 6.2586932 0.16928835 36 8
4.7435684 4.0057888 -1.4333881 15 1
7.8655305 6.6374812 0.53937441 2 9
5.2364707 4.4157739 -1.3314652 11 2
7.7477541 6.5311518 0.88654822 1 10
5.7893314 4.8767977 -1.1989139 15 3
7.8924899 6.6437402 1.26671 1 11
6.4491892 5.4268761 -1.0349146 11 4
7.9087276 6.6503372 1.6366177 3 12
7.3522558 6.1780286 -0.84018135 11 5
7.8320827 6.5788908 1.9882298 2 13
4.4237866 3.6870675 -1.5430793 12 0
7.5106859 6.2554517 0.17061472 37 8
4.7833996 3.9825501 -1.4369874 21 1
7.9485254 6.6130652 0.54188651 2 9
5.3064222 4.4117417 -1.3413873 11 2
7.8330011 6.5100136 0.89108032 2 10
5.8627453 4.8690782 -1.2070485 13 3
7.9875612 6.6290469 1.2745097 1 11
6.5144191 5.4045348 -1.0393019 12 4
8.0157919 6.6453915 1.6491324 3 12
7.4013448 6.1316342 -0.84087861 11 5
7.9473763 6.5816545 2.0057843 2 13
7.4765058 6.1873031 -0.50860089 34 6
7.5073633 6.2062201 -0.17002134 31 7
4.4897194 3.689208 -1.5570555 11 0
7.5186286 6.1736774 0.16981192 45 8
4.8472376 3.9787319 -1.447785 17 1
8.0470009 6.6004825 0.54544538 2 9
5.3613887 4.3944993 -1.3474932 13 2
7.952229 6.5157857 0.89944726 1 10
5.930222 4.8555584 -1.2139316 13 3
8.1135368 6.6384878 1.2871841 1 11
6.6011605 5.3991404 -1.0471015 13 4
8.0986977 6.6192703 1.6566411 3 12
7.4624863 6.0949416 -0.84297037 11 5
8.0235462 6.5508432 2.0134165 2 13
7.5597525 6.1677876 -0.51132232 23 6
7.5846095 6.1814504 -0.17078924 31 7
4.5018535 3.646832 -1.5523967 12 0
7.7231903 6.2518883 0.17344202 38 8
4.887013 3.9546039 -1.4513842 21 1
8.1705351 6.6069341 0.55067897 2 9
5.4117889 4.3730035 -1.3524542 13 2
8.062624 6.5126882 0.90676832 1 10
5.9993291 4.842576 -1.2211275 14 3
8.196764 6.6115985 1.2930338 1 11
6.6665087 5.3753524 -1.0514888 13 4
8.1539373 6.5700097 1.6585183 3 12
7.6227994 6.1376543 -0.85621798 12 5
8.1210814 6.5365267 2.0263917 2 13
4.5241847 3.6129036 -1.5513614 13 0
7.8307352 6.2489533 0.17487311 39 8
4.9571581 3.9544168 -1.4639815 17 1
8.2664413 6.5895667 0.55402851 2 9
5.474432 4.3608055 -1.3604681 13 2
8.1640043 6.5009212 0.91304356 1 10
6.0685396 4.828867 -1.2283236 13 3
8.3110876 6.6085739 1.3037584 1 11
6.7349501 5.3533878 -1.0563636 13 4
8.3078833 6.5989285 1.6804192 1 12
7.7434912 6.1462212 -0.86493361 12 5
8.2403421 6.5382409 2.0447092 2 13
4.5993876 3.6206658 -1.5684435 12 0
7.9433222 6.2485356 0.17640893 40 8
4.9999647 3.9317563 -1.4684805 19 1
8.3499308 6.5613165 0.55654061 2 9
5.5078306 4.3249059 -1.3612314 11 2
8.2624731 6.4855986 0.91897017 1 10
6.1518407 4.8253961 -1.2383354 11 3
8.4163942 6.596921 1.3130203 1 11
6.8002868 5.3282766 -1.0607508 13 4
8.4206324 6.5931287 1.6938726 3 12
7.8018994 6.1042919 -0.86667669 12 5
8.346097 6.5277238 2.0595925 3 13
4.5955553 3.5659637 -1.5586084 13 0
8.0436411 6.237041 0.1776655 30 8
5.0734963 3.9325721 -1.4819776 20 1
8.4902744 6.5762448 0.56282091 2 9
5.5767035 4.31639 -1.3707719 13 2
8.3863392 6.4887185 0.92768568 1 10
6.2166333 4.8064957 -1.2445928 13 3
8.525075 6.5865536 1.3227699 1 11
6.8907385 5.3219242 -1.0690379 11 4
8.5196228 6.5752206 1.7045102 3 12
7.8527369 6.0583429 -0.86772257 12 5
8.462986 6.5244417 2.0771468 3 13
4.5666318 3.4927168 -1.540491 18 0
8.1716928 6.2477312 0.17955035 31 8
5.1101184 3.9041553 -1.484677 21 1
8.5348415 6.5183015 0.56282091 2 9
5.6418509 4.3057251 -1.3795491 12 2
8.5106468 6.4904222 0.93640125 1 10
6.2884798 4.7940092 -1.2524145 13 3
8.6423492 6.5837078 1.3339819 1 11
6.9435172 5.2857146 -1.0714754 13 4
8.622344 6.5613365 1.7160863 3 12
7.9582763 6.0516162 -0.874695 12 5
8.5536594 6.4996462 2.0882137 4 13
4.6334867 3.4941223 -1.5549849 18 0
8.2853804 6.2434816 0.18108617 31 8
5.1459126 3.8763189 -1.4873765 19 1
8.6407766 6.5042019 0.56679851 2 9
5.6905999 4.2803946 -1.3841285 10 2
8.5864782 6.4562888 0.93988752 1 10
6.3612766 4.7796555 -1.2602363 11 3
8.7547741 6.5732718 1.344219 1 11
7.0206141 5.2693114 -1.0778127 14 4
8.7185116 6.538909 1.7260981 3 12
8.0694246 6.0498929 -0.88236475 12 5
8.6479826 6.478941 2.1004255 4 13
4.6329603 3.4432492 -1.5467027 15 0
8.4095478 6.2477641 0.18286632 32 8
5.1853676 3.8495896 -1.4909756 18 1
8.7137146 6.4666634 0.56868255 2 9
5.7542973 4.2672877 -1.3925241 10 2
8.7465973 6.4815965 0.95243794 1 10
6.4190602 4.7550583 -1.2652421 10 3
8.8503714 6.5513215 1.3520186 1 11
7.0444598 5.2107286 -1.0758626 13 4
8.8295279 6.5287395 1.7392386 3 12
8.1787634 6.0431418 -0.88968575 12 5
8.7846088 6.4860449 2.1225593 2 13
4.6469388 3.4047856 -1.5435969 15 0
8.5045929 6.2267046 0.18398328 33 8
5.2429004 3.8372259 -1.4999737 19 1
8.9198637 6.5235715 0.57914978 2 9
5.799799 4.238596 -1.3963403 10 2
8.8355598 6.4548178 0.9573186 1 10
6.4393373 4.7008109 -1.2627392 11 3
8.9632463 6.5385137 1.3622556 1 11
7.1977701 5.2467799 -1.0936555 16 4
8.9355555 6.5111489 1.7511276 3 12
8.272296 6.0234213 -0.89526373 12 5
8.8915882 6.4696064 2.1374426 3 13
4.7213111 3.4076247 -1.5601612 15 0
8.6484022 6.2397165 0.18614736 33 8
5.2860322 3.8110068 -1.5044726 17 1
9.0700264 6.5342979 0.58584875 2 9
5.8515506 4.2140675 -1.401683 8 2
8.9785509 6.4612579 0.96777731 2 10
6.5113006 4.6822906 -1.2702481 9 3
9.028018 6.4896836 1.3651805 1 11
7.2745309 5.2253547 -1.099749 14 4
9.0685778 6.5092425 1.7680227 3 12
8.4566011 6.0677361 -0.91060323 12 5
9.0226927 6.469152 2.1580498 3 13
4.8709307 3.4641514 -1.6015723 11 0
8.7612915 6.2263227 0.18761338 23 8
5.3347511 3.7898111 -1.5107714 17 1
9.1870861 6.5216827 0.59045434 2 9
5.9007711 4.1857171 -1.4062624 10 2
9.111208 6.4606471 0.9771902 1 10
6.5792875 4.6618471 -1.2771312 10 3
9.2005939 6.514389 1.3841921 1 11
7.3302741 5.1882067 -1.1026739 14 4
9.1654072 6.4822731 1.7780343 3 12
8.472723 5.9901509 -0.9078142 12 5
9.1413965 6.4581137 2.1756043 3 13
4.8617721 3.4067807 -1.5907019 13 0
8.9017382 6.2353821 0.18970767 11 8
5.3770437 3.7636499 -1.5152704 15 1
9.2901745 6.5002217 0.59422249 2 9
5.9564786 4.1645789 -1.4127499 12 2
9.1822186 6.4151425 0.97997916 1 10
6.6772695 4.6633253 -1.2899587 13 3
9.3033266 6.4925084 1.3929666 1 11
7.3956256 5.1573443 -1.1070613 16 4
9.3097906 6.4897738 1.7974323 3 12
8.5012569 5.9217443 -0.90641969 12 5
9.2474937 6.4367533 2.1901057 3 13
4.8578262 3.3549457 -1.5819021 14 0
9.0898848 6.2730346 0.19277929 12 8
5.4089537 3.7313883 -1.5170699 14 1
9.3846607 6.4692121 0.59736264 2 9
6.0290618 4.1529632 -1.4230535 10 2
9.301158 6.4044695 0.98799747 2 10
6.7340708 4.6333942 -1.2946517 11 3
9.3615122 6.436398 1.3949165 1 11
7.4501905 5.1203766 -1.1099861 18 4
9.4428015 6.4850087 1.8143271 1 12
8.6278152 5.9208722 -0.91548389 13 5
9.376894 6.4325237 2.2103314 4 13
4.8715463 3.3144298 -1.5787963 16 0
5.3994131 3.6694379 -1.5071721 18 1
9.5452557 6.4820805 0.60468972 2 9
6.0449114 4.1019521 -1.4200007 12 2
9.4841461 6.4333291 1.0026397 1 10
6.7973223 4.607327 -1.3005962 14 3
9.5377054 6.4599419 1.4144157 1 11
7.5350685 5.1016273 -1.1172982 12 4
9.4878454 6.4189277 1.8143271 1 12
8.7250633 5.8984294 -0.9214105 13 5
9.5012789 6.4207678 2.2290308 3 13
4.907403 3.2889457 -1.5829374 15 0
5.5107236 3.6891122 -1.5310168 23 1
9.6068773 6.4263887 0.60573643 2 9
6.0929875 4.0727429 -1.4245801 12 2
9.5851526 6.4045954 1.0085663 1 10
6.8473935 4.5718265 -1.3040378 12 3
9.6255035 6.4218483 1.420753 1 11
7.613441 5.0775352 -1.1236354 15 4
9.6573591 6.4357834 1.8381052 1 12
8.8456268 5.8903837 -0.92977744 13 5
9.6324921 6.4119315 2.2492564 4 13
4.9657154 3.2780175 -1.5943254 14 0
5.5802727 3.6795115 -1.5431641 14 1
9.8216228 6.4712486 0.616413 2 9
6.1639042 4.0581784 -1.434502 12 2
9.7661047 6.4273386 1.0228598 1 10
6.9171019 4.5488777 -1.3112338 17 3
9.7231913 6.3893728 1.4285525 1 11
7.6852031 5.0482407 -1.1289978 15 4
9.7350788 6.3898897 1.8443626 1 12
8.9665031 5.8809366 -0.93814445 13 5
9.7525425 6.3940496 2.2668109 4 13
4.9911509 3.2462497 -1.5953608 15 0
5.6346025 3.6605551 -1.5512625 16 1
9.9793558 6.478199 0.62353063 2 9
6.2325635 4.0428352 -1.4440426 14 2
9.8932104 6.4149165 1.0315753 1 10
6.9512234 4.5038347 -1.3118596 18 3
9.8697672 6.3899331 1.4436644 2 11
7.7427206 5.0109076 -1.13241 16 4
9.9176798 6.4135866 1.8706435 3 12
9.0029783 5.8176041 -0.93779576 13 5
9.8848934 6.3850403 2.2874184 3 13
5.0803895 3.2540464 -1.6165838 12 0
5.6501713 3.6148274 -1.548563 20 1
10.057998 6.429883 0.62562406 2 9
6.2920699 4.019309 -1.4512933 9 2
10.031795 6.4057355 1.0413368 2 10
7.0324526 4.4870753 -1.3212456 17 3
10.024611 6.3913074 1.4597511 1 11
7.8344316 4.9930053 -1.1406971 14 4
9.9955378 6.3654137 1.8769009 1 12
9.1442289 5.8187871 -0.94825441 13 5
10.020334 6.3738337 2.3084073 3 13
5.1716113 3.2617836 -1.6383246 12 0
5.6719723 3.5732162 -1.5476632 21 1
10.197293 6.4190965 0.6314857 2 9
6.3266239 3.9794655 -1.4528197 11 2
10.160604 6.3885698 1.0500524 1 10
7.0569167 4.4336667 -1.3199942 14 3
10.142964 6.3676019 1.4704757 1 11
7.9800706 5.0078335 -1.1567839 16 4
10.163581 6.3731294 1.9000533 3 12
9.3051701 5.8326025 -0.96080488 13 5
10.174405 6.3724976 2.3335941 2 13
9.8348265 6.1550317 -0.6080392 9 6
9.9619617 6.2273426 -0.20506579 14 7
5.1762037 3.2143886 -1.6326306 16 0
9.9152155 6.1548858 0.20370449 40 8
5.723278 3.5499637 -1.5548617 15 1
10.335807 6.4084749 0.63734734 4 9
6.4069719 3.9693933 -1.4650315 11 2
10.313374 6.3846025 1.0612082 2 10
7.1339674 4.4146309 -1.3287545 10 3
10.317763 6.3798499 1.4894872 2 11
8.0384798 4.966608 -1.1601963 18 4
10.287395 6.3536291 1.9150709 4 12
9.3524475 5.7716784 -0.96150213 13 5
10.303871 6.3538651 2.3530567 4 13
9.8560925 6.0753698 -0.60678315 27 6
9.913228 6.1010489 -0.20318091 36 7
5.232573 3.200248 -1.643501 12 0
9.9596519 6.0865531 0.2037394 27 8
5.7473078 3.5109267 -1.5548617 16 1
10.428032 6.3652935 0.64027816 2 9
6.4496102 3.9337709 -1.4684662 11 2
10.426343 6.3567724 1.0683551 5 10
7.1072545 4.3297801 -1.318117 14 3
10.42479 6.3458533 1.4985056 3 11
8.1441917 4.9536905 -1.1704333 16 4
10.399015 6.3227043 1.9275857 3 12
9.5355473 5.7931433 -0.97614431 13 5
10.460417 6.3500395 2.3786252 7 13
5.2586493 3.1647146 -1.6445363 13 0
5.7889862 3.4797499 -1.5593606 21 1
10.630827 6.3851285 0.64990795 2 9
6.4718661 3.8856165 -1.4673213 9 2
10.647537 6.3875818 1.0863092 2 10
7.288847 4.3692007 -1.3459623 11 3
10.644231 6.3780084 1.5236107 2 11
8.2024193 4.9109931 -1.1738456 12 4
10.627073 6.3576565 1.9613756 3 12
9.5860157 5.7325711 -0.9771902 13 5
10.662911 6.3715186 2.4144971 1 13
10.743545 6.4146042 -0.65576959 8 6
5.3138571 3.147619 -1.6548891 12 0
5.8500352 3.4610832 -1.5692586 20 1
10.895219 6.4408488 0.663306 2 9
6.5755725 3.8841376 -1.4844941 11 2
10.829126 6.3941283 1.1002541 2 10
7.341289 4.3312573 -1.3500296 14 3
10.816139 6.3762813 1.5416473 2 11
8.2843904 4.8818283 -1.1806704 18 4
10.769927 6.3414426 1.9795219 3 12
9.7219582 5.7221031 -0.98695159 14 5
5.3156743 3.0987694 -1.6486773 13 0
5.9178414 3.4456522 -1.580956 22 1
11.004402 6.4047146 0.66728354 2 9
6.6408925 3.861989 -1.4932712 11 2
11.000978 6.3924456 1.1131531 1 10
7.4133053 4.3059907 -1.3578513 11 3
11.000076 6.3842196 1.5616339 2 11
8.3629189 4.8497653 -1.1870075 12 4
10.905129 6.3214836 1.9964169 3 12
9.7961493 5.6740627 -0.99043781 14 5
5.33497 3.0615511 -1.6481597 15 0
5.9817367 3.4285457 -1.5917536 18 1
11.163233 6.39325 0.67419189 2 9
6.6966605 3.8321097 -1.4997588 11 2
11.130705 6.3668842 1.1218687 2 10
7.4997816 4.286478 -1.368176 13 3
11.175386 6.3820853 1.580158 2 11
8.457798 4.8281569 -1.1957821 15 4
11.079401 6.3195796 2.020195 3 12
9.8770676 5.6292124 -0.99462134 14 5
5.3427539 3.0166352 -1.6440187 16 0
6.019105 3.3943627 -1.5953529 17 1
11.440762 6.4465365 0.68821788 2 9
6.7523332 3.8016386 -1.5062463 19 2
11.341572 6.3828244 1.1386026 1 10
7.5760136 4.2601576 -1.3766234 11 3
11.344272 6.3739271 1.5977073 1 11
8.5051451 4.7767692 -1.197732 16 4
11.312741 6.3484211 2.0546105 3 12
9.9682608 5.5893526 -0.99985063 14 5
5.4278593 3.0149083 -1.6636889 15 0
6.0324306 3.3465865 -1.5926535 19 1
11.520425 6.3858733 0.69031131 2 9
6.8285122 3.7819939 -1.5173131 13 2
11.532276 6.3845515 1.1532447 1 10
7.6677957 4.2415886 -1.3878868 11 3
11.499689 6.3560262 1.6133065 1 11
8.6008358 4.7518387 -1.2065066 16 4
11.496868 6.346611 2.079953 3 12
10.089807 5.5675802 -1.0082177 14 5
5.4589486 2.9824963 -1.6667948 14 0
6.0436745 3.2978535 -1.5895041 25 1
11.703894 6.3838239 0.69868505 2 9
6.8575473 3.7373018 -1.5180764 13 2
11.699049 6.3705883 1.1654465 1 10
7.7485418 4.2176256 -1.3972728 9 3
11.720558 6.3743472 1.6381679 2 11
8.7035685 4.7295904 -1.2162561 15 4
11.624854 6.3144135 2.0952835 3 12
10.251007 5.5635314 -1.0204194 14 5
5.5250645 2.9699681 -1.680771 12 0
6.084867 3.2667816 -1.5944531 20 1
11.924179 6.3963714 0.70915228 2 9
6.9405723 3.7199447 -1.5306698 10 2
11.942354 6.3980637 1.1853181 1 10
7.7603803 4.154109 -1.3941442 10 3
11.890806 6.3597751 1.655717 2 11
8.847599 4.7301359 -1.2318555 15 4
11.846375 6.3280368 2.1271961 3 12
10.366939 5.533103 -1.0280892 14 5
5.5337086 2.925004 -1.6771475 15 0
6.1919684 3.2688 -1.6164982 25 1
12.074538 6.3688769 0.71543258 2 9
6.9681101 3.6723149 -1.5310514 10 2
12.134798 6.3925433 1.1999602 2 10
7.8765931 4.145833 -1.4097875 11 3
12.100068 6.363461 1.6786286 1 11
9.0121889 4.7375283 -1.2501358 20 4
12.014432 6.3103962 2.1494098 3 12
10.451182 5.4846702 -1.0326213 14 5
5.5334225 2.8756127 -1.6709359 18 0
6.2319345 3.2344697 -1.6209973 24 1
12.313741 6.3855643 0.72694647 2 9
7.0389004 3.6470616 -1.5409735 12 2
12.324205 6.3828063 1.2142538 1 10
7.924643 4.1007299 -1.4132291 13 3
12.285268 6.3517671 1.6981276 1 11
9.124402 4.7155089 -1.2611041 15 4
12.195099 6.2970581 2.1738136 3 12
10.556502 5.4462867 -1.0392451 14 5
5.5877719 2.8544862 -1.6812886 14 0
6.2977614 3.2130241 -1.6322449 15 1
7.1236691 3.6281292 -1.5539485 10 2
12.535366 6.381578 1.2306391 1 10
7.9935732 4.0659075 -1.4204252 10 3
12.477963 6.3413911 1.7186016 2 11
9.2208138 4.6840587 -1.2698786 18 4
12.367352 6.2770314 2.1966531 3 12
10.6689 5.4103022 -1.0465661 15 5
5.6248288 2.8240747 -1.6864649 14 0
6.3862352 3.2021713 -1.6493411 14 1
12.698121 6.3615246 0.74432206 2 9
7.1681376 3.587971 -1.5581464 10 2
12.704337 6.3563194 1.2428409 1 10
8.0500364 4.0241308 -1.425431 9 3
12.667556 6.3268566 1.7385882 1 11
9.2266483 4.6062713 -1.2662226 21 4
12.561126 6.2654848 2.2232468 4 12
10.792003 5.3783503 -1.0549332 15 5
5.6842527 2.8043993 -1.6983706 12 0
12.367055 6.0960784 0.24066868 19 8
6.4189219 3.1626799 -1.6520406 14 1
12.856905 6.329175 0.75102103 2 9
7.2317696 3.5569034 -1.5665419 9 2
12.937934 6.3606429 1.261318 1 10
8.1204863 3.9887345 -1.4329399 10 3
12.850415 6.3064885 1.7575998 1 11
9.3886824 4.6055655 -1.2840155 16 4
12.732271 6.2402382 2.2457736 6 12
10.832869 5.3046236 -1.0552818 15 5
12.288522 6.0094509 -0.71689802 35 6
12.349785 6.0314002 -0.23990077 42 7
5.6706629 2.7486372 -1.6885355 15 0
12.495703 6.0514216 0.24234411 19 8
6.4513698 3.1228848 -1.65474 15 1
13.170484 6.3696942 0.76672184 2 9
7.2758679 3.5157287 -1.5707397 10 2
13.121962 6.3377519 1.2749141 1 10
8.2015047 3.9577048 -1.4423259 12 3
13.08367 6.3080049 1.7834362 1 11
11.059956 5.3204193 -1.0737587 16 5
13.061092 6.274653 -0.75939476 8 6
5.6757603 2.7023377 -1.6843945 15 0
6.4307775 3.057683 -1.6439424 19 1
13.369777 6.3513007 0.77572364 2 9
7.2913671 3.460639 -1.5688316 19 2
13.331493 6.3245616 1.2909508 1 10
8.2753448 3.9223485 -1.4504606 12 3
13.28886 6.2929673 1.8053726 1 11
8.1835413 3.8735893 -1.1116923 2 4
11.186899 5.2856393 -1.0824744 16 5
5.7049875 2.6675575 -1.6875002 16 0
6.4307775 3.0028224 -1.6385435 20 1
13.57669 6.3338027 0.78514409 2 9
7.3295841 3.416286 -1.5718845 16 2
13.570373 6.3222065 1.3097765 1 10
8.3490896 3.886153 -1.4585952 9 3
13.512465 6.283752 1.8297465 1 11
8.2751904 3.8464813 -1.1204668 4 4
11.24883 5.219151 -1.0849147 16 5
5.7234716 2.6276641 -1.6875002 15 0
6.462213 2.9627268 -1.641243 21 1
13.754949 6.3004141 0.79288983 2 9
7.4550128 3.4115992 -1.5936368 10 2
13.726513 6.2786965 1.3205838 1 10
8.4191389 3.8474722 -1.466104 12 3
13.718525 6.2634659 1.851683 1 11
8.2801714 3.7787261 -1.1175419 9 4
11.361143 5.1751804 -1.0922357 16 5
5.7029295 2.5701799 -1.6761122 15 0
6.5040636 2.9271369 -1.6466417 19 1
13.980756 6.2861433 0.80335701 2 9
7.4911847 3.3651013 -1.5963081 13 2
13.995395 6.2839031 1.3421984 1 10
8.5683517 3.8435836 -1.4873791 9 3
13.939445 6.2470999 1.8755693 1 11
9.9331961 4.4495788 -1.3364193 18 4
11.495216 5.139648 -1.1016486 17 5
13.942458 6.2250814 -0.80021685 8 6
5.7631345 2.5490606 -1.6885355 14 0
6.5992088 2.9147301 -1.6655376 18 1
14.25454 6.2899737 0.81654567 2 9
7.5360522 3.3222246 -1.6008875 15 2
14.192074 6.2535348 1.3568406 1 10
8.681757 3.8218739 -1.5023967 12 3
14.164427 6.2295566 1.8999432 1 11
9.8931456 4.3489685 -1.3269135 18 4
11.563657 5.0736856 -1.1047862 17 5
13.835566 6.0618749 -0.79163373 8 6
5.7732649 2.5066929 -1.6864649 16 0
6.5795622 2.8526859 -1.6556398 21 1
14.49862 6.2801304 0.82805955 2 9
7.6629953 3.3160741 -1.6230214 13 2
14.446433 6.2485452 1.3770608 1 10
8.7583437 3.7846308 -1.5111572 12 3
14.425206 6.2274051 1.9291918 1 11
10.079267 4.3491631 -1.347875 18 4
11.68942 5.0342612 -1.1135018 17 5
14.015951 6.0275269 -0.7995888 17 6
5.7728491 2.4587593 -1.6812886 16 0
6.6351824 2.8219395 -1.6646378 21 1
14.707549 6.2490511 0.83748007 2 9
7.7239099 3.2786045 -1.6310353 12 2
14.665781 6.2222414 1.3937947 1 10
8.8318396 3.7434371 -1.5192918 11 3
14.625535 6.1931138 1.9501534 2 11
10.18982 4.3127346 -1.3585995 18 4
11.907816 5.0300589 -1.1309329 18 5
14.250916 6.0110326 -0.81057936 17 6
5.7898741 2.4183974 -1.6812886 16 0
6.685297 2.7883005 -1.6722862 25 1
14.872499 6.1969132 0.84438843 6 9
7.7683611 3.2336555 -1.6356149 10 2
14.878103 6.1901083 1.4098313 9 10
8.934371 3.7135313 -1.5324322 10 3
14.857244 6.1692743 1.9752585 7 11
10.289352 4.2704072 -1.3678616 16 4
11.982273 4.9656696 -1.1347678 27 5
14.502934 5.9984179 -0.82251197 17 6
5.8387961 2.3910956 -1.6906061 14 0
6.6973848 2.73861 -1.6704865 30 1
15.239722 6.2285304 0.86281061 2 9
7.8392644 3.2007434 -1.6459185 10 2
15.205058 6.2019706 1.4366753 2 10
9.0362663 3.6839514 -1.5455726 11 3
15.183857 6.1840529 2.0130382 2 11
10.392462 4.2283998 -1.3776112 16 4
12.186465 4.9508939 -1.1508044 18 5
14.721102 5.9716415 -0.83256048 17 6
5.8782415 2.3606558 -1.6973354 13 0
6.7140627 2.6922338 -1.6700366 19 1
15.523859 6.2185349 0.87641799 2 9
7.8814712 3.1539574 -1.6501163 12 2
15.517006 6.2063637 1.4621247 1 10
9.1718264 3.6647534 -1.5643448 10 3
15.458955 6.1706309 2.0437491 2 11
10.399601 4.1469197 -1.3746864 18 4
12.524307 4.9865642 -1.1793915 20 5
14.808834 5.8871622 -0.8351773 17 6
14.871901 5.9002228 -0.27927342 28 7
5.8949833 2.3185318 -1.6973354 12 0
6.7567363 2.6533802 -1.6758853 25 1
15.872889 6.2269125 0.89358425 2 9
7.9325404 3.1103272 -1.6562221 12 2
15.839291 6.2041655 1.4882714 1 10
9.2419662 3.616303 -1.5718536 9 3
15.741994 6.1565495 2.0754352 3 11
10.572522 4.1305566 -1.393698 18 4
12.569954 4.9033451 -1.1804373 20 5
15.276797 5.9469671 -0.85914713 17 6
5.8605509 2.257874 -1.6828415 9 0
6.7987404 2.6152399 -1.6817341 21 1
16.206814 6.2277069 0.90991306 2 9
7.9985828 3.0703695 -1.6653811 12 2
16.153807 6.1976333 1.5137209 1 10
9.2669849 3.5516982 -1.5718536 12 3
16.015524 6.1317568 2.1056585 5 11
10.78279 4.1261773 -1.4175844 15 4
12.860719 4.9136062 -1.2044923 20 5
15.586681 5.9426217 -0.87421989 17 6
5.9123206 2.2305429 -1.6931943 9 0
6.8204799 2.5690858 -1.6826339 21 1
16.514252 6.2171702 0.92477638 2 9
8.0615616 3.0317481 -1.6741582 15 2
16.4951 6.196816 1.5416108 1 10
9.346427 3.5093689 -1.5812398 12 3
16.302235 6.1146235 2.1378324 1 11
10.904277 4.0856228 -1.4297712 13 4
12.905906 4.8278904 -1.2055383 20 5
15.881226 5.9314332 -0.88845533 17 6
5.9926023 2.2143528 -1.7118292 9 0
6.8890014 2.5414865 -1.6952311 19 1
16.815872 6.1970344 0.9392212 2 9
8.1064796 2.9842148 -1.6791192 10 2
16.832333 6.1930933 1.569152 1 10
9.4300308 3.4658394 -1.5912516 11 3
11.051105 4.0550699 -1.4453706 19 4
13.046976 4.7796817 -1.2156483 21 5
16.196123 5.9205317 -0.90373743 18 6
6.1205525 2.2131922 -1.7439228 5 0
6.9029107 2.492007 -1.6943314 20 1
8.1173716 2.9256341 -1.677211 16 2
17.137598 6.1699233 1.5935556 1 10
9.546339 3.4350111 -1.606895 11 3
11.116511 3.9912357 -1.4502453 15 4
13.113785 4.7005806 -1.2187859 21 5
16.531282 5.915803 -0.92017084 18 6
6.1427584 2.1740606 -1.7459934 5 0
6.96381 2.460547 -1.705129 20 1
14.097222 4.9754786 0.78346932 27 9
8.200551 2.8910913 -1.6901863 10 2
17.45356 6.1497908 1.619005 1 10
9.6669788 3.4023888 -1.6231642 9 3
11.285756 3.9654939 -1.4687696 16 4
13.41327 4.702517 -1.2435381 22 5
16.868145 5.9038358 -0.93660432 18 6
6.1559625 2.1304884 -1.7454758 6 0
6.9789772 2.4112308 -1.7046791 24 1
14.044765 4.8469748 0.7786544 17 9
8.2743597 2.8523245 -1.7012531 10 2
17.789925 6.1290421 1.6461976 1 10
9.7689466 3.3618147 -1.6363046 9 3
11.369487 3.9059567 -1.4760816 16 4
13.58901 4.657865 -1.2567859 22 5
14.013942 4.7953191 -0.77624696 26 6
14.088427 4.8125682 -0.25986633 24 7
6.183495 2.0917959 -1.7490991 3 0
14.096733 4.7632589 0.25972673 22 8
6.9882541 2.3599586 -1.7028794 23 1
14.095294 4.7545514 0.77959651 19 9
8.3238411 2.8045149 -1.7073588 12 2
18.081526 6.0886245 1.6692067 1 10
9.8183928 3.3023446 -1.640685 10 3
11.543264 3.8757665 -1.4950932 13 4
13.73375 4.6032438 -1.2672445 23 5
17.460352 5.8387713 -0.9648658 18 6
6.2199593 2.0558515 -1.7553109 3 0
7.0711813 2.3330956 -1.7190759 23 1
14.12733 4.6584978 0.77959651 19 9
8.3520594 2.7508659 -1.709267 13 2
18.486971 6.0817866 1.7026746 1 10
9.8256292 3.230505 -1.6381818 12 3
11.675668 3.8297374 -1.5087426 15 4
14.079865 4.6101751 -1.2961801 24 5
17.942022 5.8643632 -0.9892543 18 6
6.2485151 2.0182159 -1.759452 3 0
7.1369767 2.3010554 -1.7312233 19 1
14.142397 4.5542464 0.7786544 23 9
8.359848 2.6888838 -1.7069772 16 2
18.857985 6.0619011 1.7330047 1 10
9.9777193 3.2034972 -1.6597699 14 3
11.881052 3.80773 -1.5318978 10 4
14.309074 4.5748687 -1.3143086 25 5
18.305988 5.8421912 -1.0070486 18 6
6.2771916 1.9791909 -1.763593 3 0
7.1937613 2.264044 -1.7411212 15 1
19.383057 6.0928645 1.0648274 3 9
8.3934011 2.6351602 -1.7100304 18 2
19.207808 6.0267282 1.7612431 1 10
10.088436 3.161525 -1.6744747 11 3
12.015336 3.758472 -1.5457909 11 4
14.663995 4.5757532 -1.3439416 26 5
18.716269 5.829473 -1.027355 19 6
6.2982421 1.9375919 -1.7656636 3 0
7.2391987 2.2229197 -1.7483196 11 1
19.551142 5.9960556 1.0717359 12 9
8.4641533 2.5925984 -1.7207156 15 2
19.552326 5.9852204 1.7889588 9 10
10.1726 3.1100767 -1.6847994 14 3
12.136214 3.7034667 -1.5579778 13 4
14.863316 4.5243173 -1.3592809 26 5
19.117693 5.808393 -1.047138 19 6
6.3412209 1.90246 -1.7739457 3 0
7.192934 2.153882 -1.7334728 15 1
20.41917 6.1066256 1.1169541 3 9
8.5159082 2.5435581 -1.7275848 18 2
20.160656 6.0178156 1.8407292 1 10
10.28493 3.0660708 -1.6998171 13 3
12.264517 3.6492205 -1.5711397 10 4
14.860156 4.4102449 -1.3561434 26 5
19.513966 5.780302 -1.0666069 19 6
6.306139 1.8440462 -1.7604873 3 0
7.2433391 2.113987 -1.742021 16 1
20.940672 6.1036468 1.1431221 3 9
8.529686 2.4829504 -1.7268214 13 2
20.55801 5.9804354 1.8731512 1 10
10.357301 3.009079 -1.7082645 10 3
12.278255 3.5601983 -1.5696774 12 4
14.863788 4.2986445 -1.3537029 26 5
19.822495 5.7214699 -1.081261 19 6
6.3337235 1.8042071 -1.7646283 3 0
7.2897878 2.0724232 -1.7496693 14 1
21.513056 6.1078701 1.1720115 4 9
8.5997 2.4383368 -1.7375069 15 2
21.030567 5.9589882 1.9123713 3 10
10.467392 2.9619775 -1.7229694 13 3
12.551158 3.544528 -1.6013633 13 4
14.954804 4.2120557 -1.3592809 26 5
20.50415 5.7634568 -1.1162214 9 6
6.3387175 1.7578833 -1.7625577 3 0
7.2984433 2.0199244 -1.7483196 17 1
8.7243853 2.4080095 -1.759259 10 2
21.486519 5.9264503 1.9500225 3 10
10.531619 2.9008892 -1.7301654 11 3
12.671304 3.48312 -1.6135503 13 4
15.678679 4.3009667 -1.4223818 28 5
21.283649 5.8225574 -1.1564153 10 6
6.3582959 1.7156007 -1.7646283 3 0
7.372582 1.985136 -1.7627165 17 1
8.719718 2.3429692 -1.7550613 15 2
10.547302 2.8281169 -1.7295396 12 3
12.818047 3.4273901 -1.6291496 11 4
21.469475 5.7165952 -1.1643704 10 6
6.3716936 1.672775 -1.7651459 2 0
7.3633022 1.92898 -1.7573177 17 1
23.374279 6.1146917 1.2662162 5 9
8.7852488 2.2949378 -1.7649832 10 2
10.576347 2.7569053 -1.731104 13 3
13.033194 3.390038 -1.6535234 13 4
16.504028 4.2836056 -1.4917578 31 5
21.97291 5.6866794 -1.1894917 10 6
6.3869615 1.6292034 -1.7661812 2 0
7.4483538 1.8957933 -1.7744139 9 1
8.6903019 2.2070563 -1.7428495 10 2
10.784438 2.7328897 -1.762078 9 3
13.137379 3.3193843 -1.6637604 13 4
16.533533 4.168273 -1.4917578 31 5
22.321018 5.6149297 -1.2062392 10 6
6.388804 1.5822523 -1.763593 3 0
7.4576235 1.8428128 -1.7735142 7 1
8.7382793 2.1527972 -1.749337 10 2
10.868939 2.6716797 -1.7727156 9 3
13.285547 3.258328 -1.6796035 16 4
22.620632 5.5185032 -1.2202653 10 6
6.3790312 1.5326501 -1.757899 2 0
7.4646211 1.7893445 -1.7721643 7 1
8.8409309 2.1127303 -1.7668914 10 2
10.745134 2.5618341 -1.7495633 24 3
13.445087 3.198113 -1.696909 18 4
17.028934 4.0380259 -1.531152 32 5
22.926825 5.4238997 -1.23471 10 6
6.3914571 1.4885168 -1.7584167 3 0
7.4921165 1.7407163 -1.7757636 7 1
8.9185829 2.0655756 -1.7794847 15 2
10.71849 2.4765284 -1.7423673 16 3
13.598623 3.13449 -1.7134831 18 4
17.126614 3.9351048 -1.5374273 32 5
23.766201 5.4475541 -1.2778348 10 6
22.372847 5.1076326 6.1490231 2 15
6.4092321 1.4455601 -1.7604873 3 0
7.485075 1.684088 -1.7712647 7 1
25.584501 5.7469468 1.3742377 19 9
8.9940863 2.0170135 -1.7916965 10 2
10.438647 2.3352311 -1.6941855 19 3
13.904977 3.1030407 -1.7493128 9 4
23.678865 5.2538142 -1.2711359 21 6
6.3757572 1.3913039 -1.7485816 6 0
7.4928412 1.6309623 -1.7703648 7 1
9.0750999 1.9687417 -1.8050531 6 2
10.489447 2.2698188 -1.6998171 19 3
14.05243 3.0331068 -1.7651558 11 4
24.160206 5.1839209 -1.295001 10 6
6.3928752 1.3483565 -1.7506521 11 0
7.5078588 1.5794185 -1.7712647 7 1
9.1155262 1.9109728 -1.810396 6 2
10.555312 2.2070401 -1.7079517 15 3
14.13156 2.9470863 -1.7724679 13 4
25.220589 5.2275338 -1.3498491 11 6
6.4059181 1.3044639 -1.7516873 10 0
7.5110626 1.5254139 -1.769465 6 1
9.1459618 1.8507967 -1.8138304 4 2
10.605316 2.1403353 -1.7135834 18 3
14.30942 2.8800912 -1.7922107 9 4
6.4527822 1.2671554 -1.76204 2 0
7.5215287 1.4729396 -1.769465 7 1
9.1239748 1.7801335 -1.8069613 4 2
10.744098 2.090389 -1.7336069 17 3
14.387641 2.7914653 -1.7995229 16 4
18.697174 3.6140518 -1.6660691 36 5
26.303078 5.0699425 -1.4038599 22 6
6.4690638 1.2235149 -1.7641107 2 0
7.5086489 1.4160599 -1.7640662 7 1
9.1381092 1.7167553 -1.8073429 4 2
10.855509 2.0335155 -1.7492503 17 3
14.471173 2.7029805 -1.8075663 18 4
19.113705 3.5563231 -1.7009314 37 5
26.750217 4.9626951 -1.425841 11 6
6.4698453 1.1769363 -1.76204 2 0
7.5451965 1.3684738 -1.7703648 7 1
9.1112318 1.6459416 -1.7997105 4 2
11.176607 2.0130088 -1.7986836 15 3
14.548306 2.6124122 -1.8148785 16 4
19.334194 3.4578748 -1.7183627 38 5
27.322966 4.8718863 -1.4545211 11 6
6.4531655 1.1274176 -1.7553109 2 0
9.1476488 1.5866505 -1.8046715 4 2
11.209854 1.9382929 -1.8018124 14 3
14.734426 2.5397813 -1.83584 15 4
6.4456358 1.079788 -1.7511697 2 0
7.525125 1.2565765 -1.7613667 26 1
9.1546288 1.5221051 -1.8039083 4 2
11.484251 1.903264 -1.8437368 9 3
14.947654 2.469207 -1.8602139 12 4
6.4644623 1.036598 -1.7542756 2 0
7.5394874 1.2049333 -1.7627165 6 1
9.1456423 1.4550762 -1.8000921 4 2
11.518719 1.8264509 -1.8471783 10 3
15.019427 2.3734756 -1.8670385 13 4
28.918602 4.5337029 -1.5340717 11 6
6.4753609 0.99202734 -1.7553109 2 0
7.5457897 1.1519706 -1.7622666 7 1
9.1087542 1.3856994 -1.7909334 4 2
11.581665 1.7556953 -1.8553129 9 3
15.208364 2.2946241 -1.8884875 13 4
29.709248 4.4506912 -1.5743704 12 6
6.512547 0.95240057 -1.763593 2 0
7.557312 1.1011468 -1.7631663 6 1
9.1415205 1.3254592 -1.7955128 4 2
11.61319 1.6776272 -1.8584416 6 3
15.286506 2.2000999 -1.8962871 13 4
30.435585 4.3424606 -1.6112149 11 6
6.5171242 0.90664506 -1.7630754 2 0
7.560955 1.0478251 -1.7622666 6 1
9.1155443 1.2567806 -1.7886436 21 2
11.601135 1.5932858 -1.8546873 6 3
15.203156 2.0798733 -1.8841002 18 4
31.49828 4.2699246 -1.6658536 9 6
6.4830747 0.85581857 -1.752205 2 0
7.5680852 0.99501771 -1.7622666 6 1
9.1279888 1.1936206 -1.7894068 21 2
11.608057 1.5117453 -1.8540615 7 3
15.366919 1.9930894 -1.9026244 12 4
32.260284 4.1440911 -1.7045822 9 6
6.5138121 0.81364709 -1.7589344 2 0
7.5574436 0.93998981 -1.7582175 5 1
9.1436958 1.1324258 -1.7909334 4 2
11.592591 1.4295537 -1.8499942 5 3
15.579462 1.9101664 -1.927242 9 4
33.628029 4.0872941 -1.7753404 7 6
6.5460587 0.77246261 -1.7661812 2 0
7.5597954 0.88807493 -1.7573177 5 1
9.1513786 1.0685631 -1.7909334 4 2
11.590517 1.347219 -1.8481169 4 3
15.659149 1.8118259 -1.9355291 9 4
34.338341 3.9305775 -1.8113476 6 6
6.5244112 0.7237618 -1.7589344 2 0
7.558063 0.83442062 -1.7555181 5 1
9.1625185 1.0050809 -1.7916965 4 2
11.548582 1.2607009 -1.8399823 4 3
15.728648 1.7086775 -1.9425975 7 4
35.210915 3.781611 -1.8559378 5 6
6.5389128 0.67918998 -1.7615224 3 0
7.5830889 0.7836346 -1.760017 5 1
9.1693115 0.94109005 -1.7916965 4 2
11.551208 1.1794441 -1.8390437 6 3
15.890287 1.6140829 -1.9611217 8 4
36.293686 3.6417849 -1.9116232 4 6
6.5242658 0.63166463 -1.7563461 3 0
7.5650973 0.72843784 -1.7546182 4 1
9.1891851 0.87996018 -1.7943679 3 2
11.570767 1.1019081 -1.840921 24 3
15.745043 1.4883426 -1.9418663 4 4
34.973347 3.2690046 -1.840865 5 6
6.541883 0.58845216 -1.7599696 2 0
7.5504704 0.67519116 -1.7501192 5 1
9.1833706 0.81474948 -1.7920781 3 2
11.554564 1.0190251 -1.8371665 4 3
15.731078 1.3790621 -1.9389415 4 4
38.039776 3.2879076 -2.001013 2 6
6.5227284 0.54085433 -1.753758 2 0
7.5627689 0.62310618 -1.7519189 4 1
9.1926184 0.75254613 -1.7928416 3 2
11.573047 0.94130725 -1.8390437 4 3
15.696792 1.2656946 -1.9335792 4 4
39.654045 3.1556735 -2.0847507 0 6
6.5167141 0.49456984 -1.7511697 3 0
7.5863671 0.5717538 -1.7564179 4 1
9.1781883 0.68528414 -1.7890252 3 2
11.571606 0.85788965 -1.8377923 4 3
15.645852 1.1517076 -1.926267 4 4
6.5180812 0.44892982 -1.7506521 2 0
7.5746198 0.51771396 -1.7528186 4 1
9.182641 0.6227898 -1.7890252 3 2
11.589003 0.77989995 -1.8396695 3 3
15.653512 1.0424509 -1.926267 4 4
58.65387 3.8032684 -1.0259572 25 7
6.4920635 0.40276095 -1.7428875 2 0
7.5721326 0.46578774 -1.7514689 3 1
58.683659 3.5892439 3.0812275 0 9
9.131896 0.55533099 -1.77834 3 2
58.612053 3.5540631 5.1373081 1 10
11.578391 0.6980235 -1.8371665 3 3
58.67527 3.5168149 7.2173471 1 11
15.586927 0.93149495 -1.9172486 19 4
58.606834 3.4818912 9.2987785 0 12
6.5178642 0.35869879 -1.7490991 1 0
7.5868754 0.4135457 -1.7541683 3 1
9.157114 0.49272946 -1.7825377 4 2
11.54353 0.6150775 -1.8309091 3 3
15.65252 0.82579994 -1.9245608 3 4
38.785236 1.9987125 -2.0353456 1 6
6.5009131 0.31225991 -1.7439228 2 0
7.5876312 0.36047679 -1.7537185 3 1
9.1779814 0.42961499 -1.7859724 3 2
11.563329 0.53519857 -1.8334121 3 3
15.64204 0.71577126 -1.922611 3 4
6.5260973 0.26782101 -1.7501343 2 0
7.5938568 0.30765772 -1.7546182 2 1
9.1806936 0.36713237 -1.7859724 3 2
11.543017 0.45554772 -1.8296577 3 3
15.603017 0.60486007 -1.9172486 3 4
6.5277691 0.22339298 -1.7501343 2 0
7.5957756 0.25596076 -1.7546182 2 1
9.1908808 0.30328909 -1.7874987 3 2
11.549866 0.37507945 -1.8302835 3 3
15.581065 0.49510354 -1.91408 2 4
6.5214763 0.17646663 -1.7480639 2 0
7.6091008 0.20191026 -1.7573177 2 1
9.2320261 0.24013822 -1.7951311 3 2
11.520658 0.29162109 -1.8252774 2 3
15.552392 0.38552806 -1.9101802 2 4
6.5070977 0.13062365 -1.7439228 2 0
7.5908413 0.14840288 -1.7528186 2 1
9.1746216 0.17295912 -1.7836826 3 2
11.526363 0.21125703 -1.8259033 2 3
15.530887 0.27651843 -1.9072554 2 4
6.5039878 0.085141793 -1.7428875 2 0
7.5838981 0.095307253 -1.751019 2 1
