# .PCD v0.7 - Point Cloud Data file format
VERSION 0.7
FIELDS x y z intensity ring
SIZE 4 4 4 4 2
TYPE F F F F U
COUNT 1 1 1 1 1
WIDTH 1287
HEIGHT 1
VIEWPOINT 0 0 0 1 0 0 0
POINTS 1287
DATA ascii
3.2420101 -10.499185 -2.135916 7 2
4.4056096 -14.29402 -2.3690438 6 3
7.1205678 -23.160143 -2.9750745 16 4
12.608427 -41.163204 -2.2562032 0 6
2.1909146 -7.2429514 -2.0275886 7 0
2.5808022 -8.548028 -2.0614514 21 1
3.1844859 -10.574198 -2.1466014 10 2
4.4171653 -14.695214 -2.4303663 10 3
6.9684615 -23.227089 -2.9775121 16 4
2.1326461 -7.2321286 -2.0203414 7 0
2.5155609 -8.547143 -2.0569522 17 1
3.0945499 -10.541543 -2.1355343 10 2
4.0823021 -13.933297 -2.299587 3 3
6.8094816 -23.286602 -2.9789743 16 4
2.0885067 -7.2691212 -2.0265532 9 0
2.4569044 -8.568243 -2.0578523 15 1
3.0300579 -10.594979 -2.1420219 10 2
3.5750515 -12.525421 -2.0630579 3 3
6.6347804 -23.291574 -2.9736123 13 4
11.381843 -40.142342 -2.1867011 0 6
2.0335448 -7.2686415 -2.0224121 9 0
2.3949306 -8.5776777 -2.0560527 20 1
2.9858 -10.715591 -2.1622477 10 2
3.514586 -12.638914 -2.0777628 4 3
6.4794393 -23.364105 -2.9770246 16 4
10.995615 -39.810745 -2.1645107 0 6
1.9880841 -7.297226 -2.0265532 7 0
2.3446701 -8.6238689 -2.0632513 15 1
2.8898547 -10.658487 -2.1466014 10 2
3.9261959 -14.510843 -2.3809328 9 3
6.3150826 -23.388502 -2.9745872 15 4
10.758879 -40.040848 -2.1728845 0 6
1.9351132 -7.3034582 -2.0244827 9 0
2.2873967 -8.6513309 -2.0659504 17 1
2.9044664 -11.016315 -2.2145293 13 2
3.3101335 -12.581683 -2.060555 7 3
6.1748333 -23.520344 -2.9857993 16 4
10.482113 -40.126579 -2.1735125 0 6
1.8831147 -7.3130474 -2.0234473 9 0
2.2211239 -8.6444407 -2.0605516 15 1
2.7880213 -10.882275 -2.1836183 12 2
3.2300453 -12.635106 -2.0655608 7 3
6.0747581 -23.814856 -3.0177288 11 4
1.8310767 -7.322268 -2.0224121 9 0
2.1531718 -8.6294832 -2.0533531 15 1
2.6664546 -10.710489 -2.1454566 10 2
3.1673007 -12.750739 -2.0808916 4 3
5.9470081 -24.012762 -3.0374718 14 4
9.7901649 -39.708801 -2.1433671 0 6
1.781194 -7.3345618 -2.0224121 9 0
2.0989726 -8.662879 -2.0578523 18 1
2.6289566 -10.883421 -2.1763675 24 2
2.6371405 -10.942404 -1.7827275 22 3
2.6295023 -10.935846 -1.3810235 19 4
9.4383879 -39.465382 -2.1266196 0 6
1.7299458 -7.346818 -2.0224121 9 0
2.0437911 -8.7000866 -2.0632513 15 1
2.6003623 -11.104134 -2.216819 10 2
2.572819 -11.012485 -1.7911749 3 3
5.616714 -24.098272 -3.038203 9 4
9.2185593 -39.77158 -2.1395988 0 6
1.6811918 -7.3700171 -2.0255179 9 0
1.9864634 -8.7293444 -2.0668504 16 1
2.5236461 -11.125846 -2.2175822 9 2
2.8110743 -12.42316 -2.017379 4 3
5.4675717 -24.222097 -3.0489275 11 4
1.6280333 -7.3740282 -2.0234473 9 0
1.9221197 -8.7277746 -2.0632513 17 1
2.44928 -11.158532 -2.2206352 10 2
2.7792006 -12.693338 -2.0580521 9 3
5.2818174 -24.184042 -3.0394216 16 4
1.5765133 -7.3852143 -2.0234473 9 0
1.8595192 -8.7333565 -2.0614514 21 1
2.3586876 -11.115825 -2.2088051 12 2
2.7162876 -12.834183 -2.0777628 8 3
5.1202331 -24.255291 -3.0438089 14 4
1.5249163 -7.3960404 -2.0234473 9 0
1.8016436 -8.7613955 -2.0650506 15 1
2.2628984 -11.043549 -2.1912506 10 2
2.6353233 -12.895411 -2.0846457 8 3
4.9595017 -24.333235 -3.0491712 14 4
1.4666171 -7.3664613 -2.0125771 12 0
1.741966 -8.7734556 -2.0650506 18 1
2.197963 -11.110696 -2.2015543 10 2
2.9187315 -14.79487 -2.3884416 12 3
4.8152142 -24.475504 -3.0628207 15 4
1.4227972 -7.4163623 -2.0234473 9 0
1.6784762 -8.7739191 -2.0623512 18 1
2.0563903 -10.790203 -2.1351528 22 2
2.7969346 -14.717855 -2.3727982 21 3
4.6571641 -24.576788 -3.0713515 12 4
1.371689 -7.4299145 -2.0244827 9 0
1.6200051 -8.8007555 -2.0659504 20 1
1.9774693 -10.784985 -2.1313365 9 2
2.4404774 -13.349597 -2.1494098 4 3
4.4829803 -24.595032 -3.0696454 17 4
6.1724868 -34.100307 -1.8161626 12 6
1.3218106 -7.4507222 -2.0275886 9 0
1.5632765 -8.8387165 -2.0722492 20 1
1.9998111 -11.341489 -2.2385712 10 2
2.6170001 -14.887316 -2.3940732 9 3
4.3084273 -24.610086 -3.0676954 17 4
1.2704145 -7.4557381 -2.0265532 9 0
1.5037296 -8.8529949 -2.073149 20 1
1.9182919 -11.341624 -2.2358999 13 2
2.2627537 -13.420934 -2.1556673 4 3
4.1467366 -24.67408 -3.0720828 15 4
5.6366706 -33.792099 -1.7954373 6 6
1.2189568 -7.4682388 -2.0275886 9 0
1.4431411 -8.8709698 -2.0749483 16 1
1.8271393 -11.281096 -2.2213984 13 2
2.1488554 -13.311596 -2.1356435 4 3
3.9743776 -24.702429 -3.0720828 17 4
5.3074245 -33.24683 -1.7644546 7 6
1.1661932 -7.4727492 -2.0265532 9 0
1.3805759 -8.8769779 -2.0740488 18 1
1.7642578 -11.396404 -2.2416241 10 2
2.0483422 -13.277465 -2.1278217 8 3
3.803035 -24.737421 -3.0730577 15 4
5.0715795 -33.25938 -1.7631986 15 6
1.1145643 -7.4845304 -2.0275886 9 0
1.3185693 -8.8864002 -2.0740488 17 1
1.699278 -11.493603 -2.2584155 10 2
1.9610863 -13.312597 -2.1312635 9 3
3.6429143 -24.849789 -3.0837822 15 4
4.9653001 -34.119282 -1.8069514 6 6
1.0630506 -7.4881182 -2.0265532 9 0
1.2624183 -8.9260416 -2.0812473 15 1
1.5924597 -11.316608 -2.2213984 10 2
2.2432547 -16.002111 -2.5592682 4 3
3.4821935 -24.934954 -3.0913379 12 4
4.7697062 -34.461746 -1.8232802 6 6
1.0091988 -7.4838696 -2.0234473 9 0
1.200591 -8.9385014 -2.0821469 18 1
1.4772784 -11.056961 -2.1683536 12 2
1.6066926 -12.073739 -1.9291501 10 3
3.3015094 -24.90946 -3.0852447 17 4
4.5160017 -34.395191 -1.8180467 6 6
0.95692682 -7.4907327 -2.0234473 9 0
1.1386508 -8.9505301 -2.0830467 17 1
1.4160663 -11.193607 -2.1931586 18 2
1.6033447 -12.727505 -2.0317712 7 3
3.1265428 -24.924023 -3.0842695 17 4
0.90599871 -7.5087385 -2.0265532 9 0
1.0775323 -8.9698706 -2.085746 16 1
1.367918 -11.454694 -2.2423875 12 2
3.4591041 -29.008902 2.5559294 15 10
1.935624 -16.28097 -2.5968125 3 3
2.9431312 -24.86639 -3.0745199 17 4
3.8931401 -33.240868 -1.7539873 7 6
0.85355574 -7.5148802 -2.0265532 9 0
1.0135721 -8.9655561 -2.0830467 17 1
1.2741072 -11.341052 -2.2183454 9 2
1.4079242 -12.591599 -2.0067415 12 3
2.77912 -24.973141 -3.0852447 17 4
3.7199726 -33.803261 -1.7822487 7 6
0.80004811 -7.5110517 -2.0239649 10 0
0.95300996 -8.9917936 -2.0875459 15 1
1.1995596 -11.374845 -2.2233064 12 2
1.6996276 -16.198057 -2.5796049 4 3
2.604713 -24.991932 -3.0852447 17 4
3.0786517 -29.842447 -1.5722769 12 6
0.74909586 -7.5182457 -2.0244827 9 0
0.8913992 -8.9941921 -2.0866458 18 1
1.1272327 -11.455234 -2.2374265 10 2
3.0004201 -30.545753 2.6852684 6 10
1.1774176 -12.029848 -1.9144453 5 3
2.4391532 -25.056499 -3.0910943 17 4
3.2096059 -33.394073 -1.7581743 15 6
0.69730276 -7.5309868 -2.0265532 9 0
0.83037275 -9.0196018 -2.091145 14 1
2.544008 -27.739359 1.4598593 15 9
1.0418754 -11.40417 -2.2259779 9 2
2.6593668 -29.165138 2.5622044 18 10
1.2086616 -13.30667 -2.1162457 3 3
2.9130428 -32.195713 3.9692845 11 11
2.2680941 -25.116413 -3.0964565 15 4
3.0302613 -34.020439 -1.7899946 7 6
0.64306277 -7.5164227 -2.0213768 9 0
0.76870459 -9.0407133 -2.0947442 16 1
2.6162105 -30.896883 1.6250316 16 9
0.93402511 -11.076636 -2.1607211 10 2
1.0009274 -11.944723 -1.8984889 3 3
2.696296 -32.312199 3.9812284 2 11
2.0930257 -25.135592 -3.0969439 17 4
2.4386344 -29.725204 -1.5630658 12 6
0.59057438 -7.5207291 -2.0213768 9 0
0.70375234 -9.0225449 -2.0893452 17 1
2.360281 -30.32855 1.5942581 8 9
0.87437928 -11.286305 -2.2004094 12 2
2.229382 -28.907413 2.5365808 3 10
1.2554314 -16.315792 -2.5918064 6 3
2.307863 -30.130806 3.7104342 15 11
1.9208155 -25.193138 -3.1023064 17 4
2.2644014 -30.115543 -1.5827441 11 6
0.54005831 -7.5342093 -2.0239649 10 0
0.64121497 -9.0115757 -2.085746 19 1
2.0802207 -29.38003 1.5435969 17 9
0.80411917 -11.413555 -2.2240696 10 2
2.0360553 -28.971605 2.5409384 6 10
0.93439054 -13.362401 -2.1215644 5 3
2.1036541 -30.235296 3.7214026 11 11
1.7506636 -25.225431 -3.1047437 15 4
2.2820468 -33.474258 -1.7583838 7 6
0.48732355 -7.5358677 -2.0234473 9 0
0.57803828 -9.0119429 -2.0848465 19 1
1.747656 -27.396641 1.4387156 7 9
0.67954713 -10.711578 -2.0863059 10 2
1.9974115 -31.572042 2.7677178 5 10
0.83562309 -13.281854 -2.1077983 8 3
1.5886055 -25.4629 -3.1325297 18 4
1.8756932 -30.234278 4.7978458 3 12
2.0141566 -32.931187 -1.7290756 8 6
0.43425661 -7.5313716 -2.0213768 9 0
0.5177778 -9.0624523 -2.095644 15 1
1.5556692 -27.39621 1.4380875 29 9
0.63970494 -11.335464 -2.206897 18 2
1.8165654 -32.289406 2.8294239 7 10
0.7419973 -13.271584 -2.1052952 13 3
1.8557236 -33.401268 4.1074848 2 11
1.4087164 -25.435709 -3.1278987 12 4
1.6510041 -30.000086 4.7587371 11 12
0.38244906 -7.549655 -2.0255179 9 0
1.4179842 -28.186058 0.49261165 58 8
0.45332649 -9.042491 -2.0902452 19 1
0.54989183 -11.12396 -2.1649189 30 2
1.5160136 -30.776981 2.6959014 3 10
0.80816162 -16.524029 -2.6202774 9 3
1.4726869 -30.328236 3.7282271 3 11
1.2187351 -25.189146 -3.0964565 7 4
0.3292276 -7.5405612 -2.0224121 9 0
0.38951504 -9.0298595 -2.0866458 19 1
1.3898709 -32.483662 1.7039543 19 9
0.4758811 -11.213833 -2.1817102 25 2
1.1787076 -27.890472 2.4422781 14 10
0.69633943 -16.614134 -2.6337309 3 3
1.0632131 -25.688923 -3.1569037 15 4
1.2757965 -31.087994 4.927999 3 12
1.27276 -31.688929 -1.6620854 10 6
0.27671903 -7.5465364 -2.0234473 9 0
0.3263256 -9.0284643 -2.085746 19 1
0.38589883 -10.887262 -2.1175983 15 2
1.1166352 -31.659307 2.7715526 2 10
0.42908043 -12.287256 -1.9472965 12 3
1.0224838 -29.576088 3.6336567 3 11
0.45188537 -13.137512 -1.6140378 15 4
1.0424004 -30.616404 4.8519716 10 12
0.97150552 -29.285679 -1.5356418 11 6
0.22414304 -7.5521469 -2.0244827 9 0
0.2637414 -9.0461054 -2.0893452 15 1
0.92560738 -32.132557 1.6846946 7 9
0.3093248 -10.870066 -2.1137822 24 2
0.81740379 -28.902 2.5296082 9 10
0.88418168 -32.054993 3.9373553 3 11
0.36086428 -13.166144 -1.6172063 21 4
0.8667295 -32.030861 5.0750475 9 12
0.83761376 -31.987122 -1.6769488 9 6
0.17141366 -7.5535278 -2.0244827 9 0
0.20092788 -9.0633135 -2.0929446 15 1
0.23199834 -10.805225 -2.1008072 19 2
0.60839838 -28.568375 2.4999754 6 10
0.2269526 -10.83454 -1.7163991 20 3
0.6031422 -29.281843 3.5961208 3 11
0.22192243 -10.866115 -1.3344694 28 4
0.58814555 -29.298815 4.6414113 4 12
0.58302855 -29.822027 5.7979226 4 13
0.1187982 -7.5622663 -2.0265532 9 0
0.13735323 -9.0450096 -2.0884457 15 1
0.42846322 -28.879187 1.5136607 24 9
0.15661488 -10.810509 -2.1015704 25 2
0.43118265 -30.125828 2.6359382 3 10
0.2314021 -16.571796 -2.6249707 9 3
0.41659114 -30.599348 3.7574759 3 11
0.34789634 -25.88525 -3.1785965 7 4
0.38273364 -29.237024 4.6310863 8 12
0.35991642 -28.639656 5.5674253 4 13
0.35807917 -29.30759 -1.5360606 23 6
0.066000722 -7.5629115 -2.0265532 9 0
0.074172914 -9.041851 -2.0875459 15 1
0.24400078 -30.391312 1.5927926 8 9
0.082937144 -10.799544 -2.0992808 18 2
0.20923218 -28.542204 2.4971862 6 10
0.11876746 -16.596691 -2.6287251 12 3
0.20080236 -29.499773 3.622201 15 11
0.16682862 -25.833452 -3.1720157 15 4
0.18739161 -29.823652 4.7236958 12 12
0.014534822 -7.5709128 -2.0286238 9 0
0.012717659 -9.1084032 -2.1028426 14 1
0.031069316 -29.665274 1.554692 17 9
0.0075291204 -10.784153 -2.0962276 21 2
0.015246447 -29.122753 2.5479109 6 10
0.0028998908 -16.608967 -2.6306021 11 3
-0.0054582739 -31.289026 3.8418095 3 11
-0.0090284329 -25.871708 -3.1766467 13 4
-0.020440668 -29.279028 4.6373439 12 12
-0.036526885 -29.89838 5.8116608 4 13
-0.038280454 -7.5631027 -2.0265532 9 0
-0.050717838 -9.0809879 -2.0965438 16 1
-0.067733973 -10.780017 -2.0954645 19 2
-0.19849643 -30.737944 2.6892774 9 10
-0.084359206 -12.393227 -1.9629399 7 3
-0.20398153 -28.505196 3.5000877 7 11
-0.1892539 -25.817417 -3.1700656 18 4
-0.23926905 -31.156698 4.9348822 23 12
-0.090892918 -7.5471973 -2.0224121 9 0
-0.11470155 -9.1271782 -2.1073413 14 1
-0.14272936 -10.759651 -2.0916483 18 2
-0.38186342 -28.412895 2.4860303 3 10
-0.22747444 -16.496778 -2.6130815 13 3
-0.40376267 -28.558655 3.5069125 10 11
-0.37119338 -25.934561 -3.18469 18 4
-0.42350355 -28.884806 4.5753956 11 12
-0.47304776 -31.151293 6.0558963 3 13
-0.45296565 -29.158463 -1.5283147 11 6
-0.14387406 -7.561831 -2.0265532 9 0
-0.17856976 -9.1339493 -2.1091411 14 1
-0.61531848 -30.921434 1.6208447 8 9
-0.21815906 -10.774095 -2.0947013 19 2
-0.63891834 -31.283955 2.7375619 5 10
-0.34608024 -16.660686 -2.6393628 12 3
-0.63180244 -29.91264 3.6736298 7 11
-0.55080467 -25.863861 -3.1764028 18 4
-0.6226216 -28.764624 4.5569363 3 12
-0.65944117 -29.745811 5.783421 4 13
-0.63736445 -28.303974 -1.4837246 23 6
-0.19635978 -7.5490546 -2.0234473 9 0
-0.24186715 -9.1149473 -2.105092 14 1
-0.29283664 -10.752685 -2.0908849 22 2
-0.91325486 -33.320168 2.9162312 4 10
-0.46233049 -16.655888 -2.6390498 14 3
-0.8053121 -28.651436 3.5193434 10 11
-0.73235899 -25.8951 -3.1807899 18 4
-0.8868528 -30.975042 4.9079752 7 12
-0.84923899 -29.128208 5.6643562 6 13
-0.24905734 -7.5475001 -2.0234473 9 0
-0.30647385 -9.142251 -2.1118405 15 1
-0.9950586 -29.376816 1.5404568 8 9
-0.36856887 -10.769999 -2.0947013 27 2
-1.1281803 -32.79924 2.8712587 2 10
-0.57674712 -16.598949 -2.6306021 21 3
-0.98971772 -28.200726 3.4647458 3 11
-0.91585189 -25.966726 -3.1902959 18 4
-0.99345213 -27.890436 4.4202127 7 12
-1.0498059 -29.045052 5.6494732 21 13
-1.0976863 -29.793562 6.8830523 8 14
-0.30189717 -7.5494385 -2.0244827 9 0
-0.37013361 -9.1359949 -2.1109407 14 1
-1.2063208 -29.520819 1.5484118 8 9
-0.44374862 -10.767163 -2.0947013 16 2
-0.69698155 -16.699125 -2.6471844 15 3
-1.3354009 -31.72942 3.8993318 12 11
-1.0987879 -25.999367 -3.1951706 18 4
-1.2836683 -30.124815 4.7756319 23 12
-1.3067875 -30.294292 5.8940902 4 13
-1.2478511 -28.695463 -1.5052869 11 6
-0.35404989 -7.5355682 -2.0213768 9 0
-0.43039167 -9.0592194 -2.0938444 19 1
-0.5162735 -10.748206 -2.0916483 21 2
-1.4894446 -30.784264 2.6964242 12 10
-1.536509 -31.416237 3.86204 6 11
-1.2800726 -25.987099 -3.1946831 18 4
-1.4283211 -28.894112 4.5819659 15 12
-1.4435477 -28.694284 -1.5057056 11 6
-0.40595672 -7.5445585 -2.0244827 9 0
-0.49775407 -9.1611567 -2.118139 16 1
-0.59172899 -10.75218 -2.0931747 24 2
-1.8539176 -33.580399 2.9423778 2 10
-0.93219787 -16.778652 -2.6615763 17 3
-1.7936918 -32.082588 3.9453983 6 11
-0.65960425 -11.761056 -1.4463456 5 4
-1.6687382 -29.569777 4.6908445 12 12
-1.745783 -30.649729 5.967361 3 13
-0.4583832 -7.5376835 -2.0234473 7 0
-0.5608626 -9.1438427 -2.1149898 14 1
-0.66562927 -10.75966 -2.0954645 22 2
-2.0623276 -33.14904 2.9057722 2 10
-0.97934681 -15.69743 -2.4910626 1 3
-1.8810184 -29.981453 3.6884978 7 11
-0.74219584 -11.76409 -1.4473205 4 4
-0.7511059 -11.806941 -1.0350616 14 5
-0.51020074 -7.5420985 -2.0255179 9 0
-0.62375265 -9.1495352 -2.1172395 16 1
-2.095201 -30.576237 1.6061906 8 9
-0.74072838 -10.754751 -2.0954645 36 2
-2.0058713 -29.049603 2.5475624 6 10
-1.1685082 -16.837122 -2.6731524 12 3
-2.1076868 -30.217108 3.719209 7 11
-0.8218376 -11.752825 -1.4465892 10 4
-2.0447991 -28.879812 5.6277208 4 13
-0.56370509 -7.549912 -2.0286238 9 0
-0.68717372 -9.1391268 -2.1158895 14 1
-2.2697968 -30.047039 1.5791854 17 9
-0.81608844 -10.753233 -2.0962276 24 2
-0.89106452 -11.660233 -1.8521842 12 3
-2.2675323 -29.536621 3.6373127 11 11
-0.90386778 -11.7468 -1.4465892 10 4
-2.4750583 -32.020161 5.0866237 6 12
-2.2469742 -28.872663 5.6292472 8 13
-0.61451226 -7.5226874 -2.0224121 9 0
-0.75096011 -9.1341066 -2.1158895 15 1
-0.89049137 -10.739448 -2.0947013 24 2
-2.3776176 -28.613712 2.5120027 28 10
-1.3937835 -16.703022 -2.6546934 15 3
-2.4219635 -28.902887 3.5612664 7 11
-0.99166483 -11.809439 -1.4551201 5 4
-2.4865816 -29.488468 4.6870899 32 12
-2.6863012 -31.528343 -1.6583172 20 6
-0.66906333 -7.5413055 -2.0286238 9 0
-0.81176394 -9.095645 -2.1082413 16 1
-2.6774557 -29.941273 1.575417 17 9
-0.9646253 -10.74487 -2.0969911 25 2
-2.8611429 -31.745575 2.7886353 2 10
-1.0727111 -11.878989 -1.8891028 7 3
-2.6329777 -29.04389 3.5807655 11 11
-1.0649104 -11.701405 -1.4426894 13 4
-2.605088 -28.569874 4.5437961 7 12
-1.0962226 -11.975996 -1.0521441 15 5
-3.0264485 -32.873676 -1.7301222 16 6
-0.71817416 -7.5134997 -2.0224121 9 0
-0.87328446 -9.0860281 -2.1073413 17 1
-2.8607147 -29.655453 1.5613911 8 9
-1.0392354 -10.733965 -2.0962276 25 2
-1.162696 -11.943955 -1.900679 8 3
-1.1445335 -11.693885 -1.4426894 14 4
-3.0742488 -31.297375 4.9808741 9 12
-1.1788862 -11.980154 -1.05319 15 5
-0.77179331 -7.5198331 -2.0255179 9 0
-0.93949533 -9.1068497 -2.1136403 17 1
-3.057173 -29.583641 1.5586696 26 9
-1.1086305 -10.691494 -2.0893586 24 2
-3.2408321 -31.148233 2.7398279 5 10
-1.2456073 -11.951483 -1.9031819 8 3
-3.245218 -31.032457 3.831085 13 11
-1.2215869 -11.642177 -1.4373271 19 4
-1.2666725 -12.011261 -1.0566761 15 5
-0.82296145 -7.5144057 -2.0255179 9 0
-0.99890298 -9.0769987 -2.1082413 17 1
-3.5682709 -32.321003 1.7041636 6 9
-1.188862 -10.734228 -2.0992808 28 2
-3.4514589 -31.113573 2.7387819 5 10
-1.3301051 -11.952312 -1.9047463 9 3
-1.3038929 -11.66121 -1.4407395 16 4
-1.3375747 -11.887291 -1.0465661 15 5
-0.87361211 -7.4931264 -2.0213768 9 0
-1.0645149 -9.089159 -2.1127403 21 1
-3.5990174 -30.636999 1.6166579 8 9
-1.2653801 -10.739314 -2.1019521 21 2
-3.6382313 -30.831495 2.7161214 2 10
-1.4158373 -11.962352 -1.9078751 9 3
-1.3852702 -11.651823 -1.4407395 18 4
-1.4224237 -11.893489 -1.0479606 15 5
-3.8402474 -31.967981 -1.6874161 9 6
-0.92637509 -7.4906797 -2.0224121 9 0
-1.1226568 -9.0389605 -2.1028426 15 1
-1.3361857 -10.697101 -2.0954645 19 2
-3.8929543 -31.121658 2.7440114 5 10
-1.4614518 -11.650333 -1.8596932 11 3
-1.4650929 -11.630052 -1.4392771 19 4
-1.503919 -11.87141 -1.0469148 15 5
-0.97964925 -7.4916921 -2.0244827 9 0
-1.1831964 -9.0115814 -2.0983434 16 1
-1.4123747 -10.69919 -2.0977542 22 2
-4.0657439 -30.757938 2.7143784 5 10
-1.4726716 -11.111118 -1.7752185 3 3
-1.5483435 -11.635282 -1.441227 18 4
-1.5899278 -11.884318 -1.0490065 15 5
-1.0303442 -7.4731874 -2.0213768 9 0
-1.2455459 -8.9992399 -2.0974436 15 1
-1.4864923 -10.68518 -2.0969911 25 2
-1.5474725 -11.081002 -1.7720897 6 3
-1.6284318 -11.616325 -1.4402521 19 4
-1.6657877 -11.837708 -1.0458689 15 5
-1.0824908 -7.4658122 -2.0213768 9 0
-1.3049744 -8.9671841 -2.0920448 19 1
-1.5620273 -10.694241 -2.1008072 30 2
-1.6260145 -11.091712 -1.7755314 8 3
-1.7118037 -11.620384 -1.442202 19 4
-1.7501371 -11.837617 -1.0469148 15 5
-1.1321232 -7.4506316 -2.0193064 9 0
-1.3718561 -8.996623 -2.1010427 14 1
-1.6360532 -10.679193 -2.100044 21 2
-1.7106122 -11.126949 -1.7830403 14 3
-1.7926776 -11.620235 -1.4436644 19 4
-1.8284642 -11.797544 -1.0444744 15 5
-1.1853249 -7.4501772 -2.0213768 9 0
-1.4334022 -8.9791298 -2.0992434 15 1
-1.7174066 -10.710158 -2.1084394 42 2
-1.7891926 -11.120586 -1.7839788 10 3
-1.8756554 -11.619196 -1.4451268 18 4
-1.9126953 -11.796292 -1.0455203 15 5
-1.2366726 -7.4379096 -2.0203414 7 0
-1.4960524 -8.9689035 -2.0992434 18 1
-1.7905129 -10.688228 -2.1065314 22 2
-1.8635114 -11.088344 -1.7808502 9 3
-1.9593673 -11.621477 -1.4470767 16 4
-1.9976636 -11.798368 -1.0469148 15 5
-1.2925307 -7.4519362 -2.0265532 9 0
-1.5633062 -8.9851198 -2.1055419 14 1
-1.8728583 -10.719948 -2.1153085 25 2
-1.9371251 -11.05366 -1.7774086 4 3
-2.0404527 -11.607515 -1.4470767 14 4
-2.0792875 -11.78021 -1.0465661 15 5
-1.3417761 -7.4275222 -2.0224121 7 0
-1.621132 -8.9471416 -2.0992434 15 1
-1.9543267 -10.743311 -2.1225593 19 2
-2.0131822 -11.034039 -1.7764701 9 3
-2.1242945 -11.608609 -1.4490266 12 4
-2.1543908 -11.738348 -1.0441258 15 5
-4.8775244 -26.471455 -1.4106635 22 6
-1.3957366 -7.4293656 -2.0255179 9 0
-1.6799471 -8.9164553 -2.0947442 16 1
-2.024493 -10.714327 -2.1195064 12 2
-2.0838284 -10.996789 -1.7727156 24 3
-2.2082534 -11.609096 -1.4509765 11 4
-2.244498 -11.766079 -1.0479606 15 5
-5.0463352 -26.378792 -1.4075233 11 6
-1.444796 -7.4121084 -2.0234473 7 0
-1.7435904 -8.9201145 -2.0983434 15 1
-2.0981083 -10.694152 -2.1183615 9 2
-2.1822848 -11.092452 -1.790549 8 3
-2.1373799 -10.83425 -1.3559184 6 4
-2.3222156 -11.738802 -1.0469148 15 5
-5.3517275 -26.954132 -1.440181 11 6
-1.5003353 -7.4207764 -2.0286238 9 0
-1.8034986 -8.8962641 -2.095644 15 1
-2.1731992 -10.691166 -2.1206512 22 2
-2.1871212 -10.730871 -1.7345455 24 3
-2.2002342 -10.75683 -1.3481188 23 4
-2.4105144 -11.753531 -1.0497037 15 5
-5.4457664 -26.482775 -1.4169438 11 6
-1.5468543 -7.3914833 -2.0234473 7 0
-1.8600094 -8.8647108 -2.091145 20 1
-2.2607284 -10.73721 -2.132863 13 2
-2.4223297 -11.474924 -1.8575031 11 3
-2.4542224 -11.585978 -1.4541451 10 4
-2.4792659 -11.67405 -1.0441258 15 5
-1.601343 -7.3877773 -2.0255179 9 0
-1.930016 -8.8816433 -2.0983434 14 1
-2.371989 -10.888055 -2.1660638 12 2
-2.5191429 -11.52484 -1.8684534 4 3
-2.5363228 -11.574379 -1.4548763 11 4
-2.531636 -11.524131 -1.0322726 14 5
-5.7095456 -25.90383 -1.3901478 22 6
-1.6511908 -7.3688774 -2.0234473 9 0
-1.9851412 -8.8375311 -2.091145 19 1
-2.493865 -11.066156 -2.204989 10 2
-2.6465497 -11.715071 -1.9022434 6 3
-2.6372311 -11.64545 -1.4660883 3 4
-5.9177437 -25.984077 -1.3966374 11 6
-1.7034653 -7.3609352 -2.0244827 7 0
-2.0520747 -8.8462372 -2.0965438 16 1
-2.607816 -11.215289 -2.2381897 16 2
-2.7468567 -11.785279 -1.9166353 9 3
-2.7410648 -11.723403 -1.4782752 7 4
-2.733206 -11.662245 -1.0479606 15 5
-6.0981326 -25.95875 -1.3974749 11 6
-1.7553235 -7.3566856 -2.0265532 9 0
-2.1113338 -8.8282728 -2.095644 15 1
-2.5376632 -10.578266 -2.1145453 10 2
-2.8189065 -11.723561 -1.9097521 3 3
-2.775686 -11.51728 -1.4546326 5 4
-2.8211114 -11.669992 -1.050401 15 5
-6.3318796 -26.132948 -1.409198 22 6
-1.8094089 -7.3555074 -2.029659 9 0
-2.1691835 -8.7981815 -2.0920448 19 1
-2.6925147 -10.888097 -2.1801836 9 2
-2.9196908 -11.780291 -1.9222668 3 3
-2.8311379 -11.397441 -1.4419582 18 4
-6.6438413 -26.607428 -1.4372503 11 6
-1.8531222 -7.3127341 -2.0213768 7 0
-2.2267148 -8.7677135 -2.0884457 20 1
-2.7161267 -10.663564 -2.1389689 7 2
-2.7526836 -10.783481 -1.7627038 2 3
-3.084312 -12.056273 -1.527998 2 4
-6.7607965 -26.293455 -1.4228054 22 6
-1.9002277 -7.2846637 -2.0172358 7 0
-2.290827 -8.7632675 -2.091145 19 1
-2.8856649 -11.015165 -2.2133844 12 2
-3.0662863 -11.679687 -1.912568 5 3
-3.0460966 -11.569885 -1.4690132 5 4
-7.15097 -27.046227 -1.4661397 11 6
-1.9537708 -7.286489 -2.0213768 9 0
-2.3524477 -8.7549992 -2.0929446 15 1
-2.9558535 -10.970108 -2.2084234 10 2
-2.9458997 -10.910419 -1.7899233 4 3
-3.1123352 -11.502894 -1.4631635 4 4
-7.307126 -26.87615 -1.4596499 23 6
-2.0015125 -7.261497 -2.018271 7 0
-2.4114344 -8.7308493 -2.091145 19 1
-3.0019753 -10.839467 -2.1862895 19 2
-2.9781528 -10.731602 -1.7639554 1 3
-3.1782055 -11.429247 -1.4565825 7 4
-3.3359559 -11.96418 -1.0866578 16 5
-7.7858701 -27.867067 -1.5163821 11 6
-2.0553164 -7.2584996 -2.0213768 7 0
-2.4723284 -8.7138014 -2.091145 15 1
-3.1286085 -10.997638 -2.2225432 10 2
-3.32267 -11.656602 -1.9197639 12 3
-3.2928083 -11.528942 -1.4721818 7 4
-9.8156672 -34.208782 -1.8651489 5 6
-2.1080973 -7.2513933 -2.0234473 9 0
-2.5363719 -8.7075548 -2.0938444 15 1
-3.261698 -11.175857 -2.2629948 12 2
-3.411361 -11.665947 -1.9250828 13 3
-7.3345065 -25.01722 -3.2010205 10 4
-10.044911 -34.129684 -1.864521 5 6
-2.1507835 -7.2146602 -2.0172358 9 0
-2.5966983 -8.6938229 -2.0947442 15 1
-3.3148608 -11.070062 -2.2462037 12 2
-3.5023713 -11.674011 -1.9304014 9 3
-7.458909 -24.814632 -3.1815214 13 4
-10.355667 -34.299641 -1.8777096 5 6
-2.2022288 -7.2031646 -2.018271 9 0
-2.661895 -8.6903887 -2.0983434 15 1
-3.3365695 -10.872693 -2.2107131 15 2
-3.5753658 -11.629132 -1.92696 8 3
-7.5565386 -24.517237 -3.150079 7 4
-3.70102 -11.98568 -1.0974652 16 5
-10.536954 -34.060448 -1.8684986 5 6
-2.2525599 -7.1835341 -2.0172358 9 0
-2.7181723 -8.6525269 -2.0938444 15 1
-3.3324406 -10.582035 -2.1565235 10 2
-3.4376385 -10.89617 -1.8096341 6 3
-7.5104365 -23.762199 -3.0598958 25 4
-10.812933 -34.066055 -1.873104 5 6
-2.3014739 -7.1639552 -2.0162005 7 0
-2.7713478 -8.6110792 -2.0884457 19 1
-3.4899399 -10.824438 -2.2107131 10 2
-3.7655129 -11.658256 -1.9404132 12 3
-7.6113257 -23.509001 -3.0340595 21 4
-7.5154877 -23.130289 -1.27459 21 6
-2.352597 -7.1554651 -2.018271 9 0
-2.8347733 -8.6068239 -2.0920448 18 1
-3.5438812 -10.734561 -2.1973565 10 2
-4.5017991 -13.612184 -2.270803 3 3
-7.6712837 -23.155146 -2.9950612 23 4
-7.6200399 -22.906694 -1.2651695 10 6
-2.3975646 -7.1242189 -2.0141299 7 0
-2.8972816 -8.5942097 -2.0938444 15 1
-3.5998819 -10.65376 -2.1859078 12 2
-4.3915191 -12.974189 -2.1694334 11 3
-7.735858 -22.815273 -2.9580131 20 4
-7.9445462 -23.336958 -1.2919655 21 6
-2.4497576 -7.1146135 -2.0162005 7 0
-2.9406881 -8.525877 -2.0821469 21 1
-3.6793025 -10.643211 -2.1889608 12 2
-3.7541668 -10.841388 -1.817143 7 3
-7.8090787 -22.513147 -2.9258394 22 4
-8.2911882 -23.809052 -1.3212737 10 6
-2.4935913 -7.0809388 -2.0115416 6 0
-3.0027316 -8.5124903 -2.0839467 20 1
-3.7176518 -10.521666 -2.169117 10 2
-4.6668687 -13.186149 -2.2154253 8 3
-7.8970432 -22.26351 -2.9004905 22 4
-8.2300625 -23.125477 -1.286418 21 6
-2.5482726 -7.0819788 -2.0167181 6 0
-3.0645688 -8.5028524 -2.0866458 17 1
-3.8163607 -10.565621 -2.1836183 10 2
-4.7877102 -13.233121 -2.2288785 3 3
-7.9253082 -21.869572 -2.8561301 21 4
-8.3196163 -22.870377 -1.2754273 21 6
-2.6009851 -7.0730824 -2.0193064 9 0
-3.1265485 -8.4885654 -2.0884457 15 1
-3.8805108 -10.512935 -2.1782756 12 2
-4.4922652 -12.150686 -2.0517945 9 3
-8.1522427 -22.014757 -2.8824539 21 4
-7.941154 -21.398838 -1.9969124 32 5
-8.5430975 -22.983974 -1.2850572 21 6
-2.6421485 -7.0330496 -2.0130947 7 0
-3.188478 -8.4738283 -2.0902452 14 1
-3.9960625 -10.597646 -2.2015543 15 2
-4.5909405 -12.155989 -2.0580521 6 3
-8.188447 -21.647238 -2.8417497 17 4
-8.2315912 -21.715481 -2.0317745 32 5
-8.4240332 -22.188089 -1.2438165 21 6
-2.691184 -7.0144329 -2.0130947 9 0
-3.2503545 -8.4586372 -2.0920448 15 1
-4.0353818 -10.479716 -2.1828551 10 2
-4.6046109 -11.939335 -2.0267651 9 3
-8.2914467 -21.465483 -2.8254192 23 4
-8.5498505 -22.054251 -1.2396295 10 6
-2.7358601 -6.9846811 -2.0099888 9 0
-3.2893999 -8.384944 -2.0794475 21 1
-4.1479502 -10.551782 -2.2038438 13 2
-4.7023244 -11.94366 -2.0330224 22 3
-8.3988667 -21.299963 -2.8112822 20 4
-8.6720085 -21.914167 -1.2351286 21 6
-2.7845557 -6.9654107 -2.0099888 7 0
-3.353652 -8.3762484 -2.0830467 20 1
-4.2237072 -10.528032 -2.204989 10 2
-4.7612886 -11.850053 -2.0226979 5 3
-8.5644073 -21.283163 -2.8168881 16 4
-8.9088297 -22.094528 -2.0842423 30 5
-8.7612152 -21.695677 -1.2262316 10 6
-2.8374925 -6.9565344 -2.0130947 9 0
-3.417943 -8.3670635 -2.0866458 18 1
-4.3075132 -10.523727 -2.2103314 12 2
-4.717278 -11.507631 -1.9698231 10 3
-8.7467089 -21.30549 -2.8278563 21 4
-8.9112701 -21.663277 -2.0493801 31 5
-8.9010544 -21.606281 -1.2246615 20 6
-2.8755999 -6.9115849 -2.0058477 7 0
-3.4597826 -8.3034248 -2.0767481 20 1
-4.3506227 -10.420931 -2.1950669 12 2
-4.8584585 -11.620218 -1.9948525 11 3
-8.8645658 -21.170668 -2.8181069 20 4
-8.831049 -21.049364 -1.9970866 32 5
-9.2342587 -21.97817 -1.2493641 21 6
-2.928308 -6.9020119 -2.0089536 9 0
-3.5237627 -8.293417 -2.0803473 20 1
-4.3825121 -10.294565 -2.1748412 10 2
-4.5195785 -10.601132 -1.8252774 12 3
-4.5411491 -10.636288 -1.4200217 19 4
-4.5767465 -10.704143 -1.018502 14 5
-9.2844381 -21.672667 -1.235652 31 6
-2.9718204 -6.8707614 -2.0058477 9 0
-3.5846741 -8.2757673 -2.0821469 15 1
-4.4977961 -10.36896 -2.196975 15 2
-4.7907553 -11.028512 -1.9044335 8 3
-9.0428391 -20.777271 -2.7822773 18 4
-9.2208166 -21.125719 -1.2080187 10 6
-3.0169606 -6.8468385 -2.0048125 9 0
-3.6377757 -8.2440434 -2.0803473 15 1
-4.5740447 -10.346285 -2.1988828 10 2
-4.986784 -11.263932 -1.9510508 10 3
-9.2114077 -20.776937 -2.7905643 16 4
-9.4143457 -21.164848 -1.213985 20 6
-3.0725999 -6.8432326 -2.0099888 9 0
-3.6952403 -8.2184467 -2.0803473 14 1
-4.6363025 -10.29701 -2.1950669 10 2
-5.0373564 -11.172104 -1.9410391 9 3
-9.2973948 -20.581871 -2.7730153 16 4
-9.5427504 -21.095572 -2.0256736 32 5
-9.7131252 -21.442307 -1.2336632 21 6
-3.1158962 -6.8151321 -2.0079181 9 0
-3.7381165 -8.1647539 -2.073149 16 1
-4.6933422 -10.23227 -2.1881976 10 2
-5.0871959 -11.07563 -1.9304014 9 3
-9.4148769 -20.469416 -2.7664342 18 4
-9.9479351 -21.558952 -1.2443398 21 6
-3.1650298 -6.7967153 -2.0089536 9 0
-3.7917316 -8.1313934 -2.0713491 15 1
-4.7546916 -10.177911 -2.1836183 12 2
-9.491869 -20.262974 -2.7474227 20 4
-9.9750338 -21.226873 -1.2291625 20 6
-3.219023 -6.7884188 -2.0130947 9 0
-3.8484054 -8.1047249 -2.0713491 14 1
-4.8382788 -10.171063 -2.1893425 13 2
-6.8978434 -14.481135 -2.5404961 4 3
-6.0676908 -12.721178 -1.7305448 7 4
-10.084189 -21.075642 -1.2244521 20 6
-3.2680163 -6.7692599 -2.0141299 7 0
-3.9006524 -8.0688877 -2.0690999 14 1
-4.8979897 -10.118457 -2.1851447 12 2
-5.5332441 -11.415539 -2.0092444 9 3
-6.0869832 -12.535652 -1.7110457 14 4
-10.245773 -21.044224 -1.2266502 20 6
-3.3106108 -6.7399225 -2.0120592 7 0
-3.9537652 -8.0386524 -2.0681999 14 1
-4.984129 -10.115715 -2.192014 10 2
-5.3925543 -10.930211 -1.9304014 6 3
-5.6727691 -11.483024 -1.5726022 7 4
-10.330364 -20.846909 -1.2193232 10 6
-3.3523991 -6.7062788 -2.0089536 9 0
-4.0097871 -8.0108547 -2.0681999 13 1
-5.0255971 -10.027146 -2.1801836 10 2
-5.4907527 -10.940921 -1.9388491 4 3
-6.2307115 -12.393779 -1.7032461 19 4
-10.629339 -21.088226 -1.2376407 21 6
-3.3997207 -6.6867485 -2.0099888 9 0
-4.0553813 -7.9660091 -2.0637012 15 1
-5.1008282 -10.00231 -2.1824734 10 2
-5.7763109 -11.312238 -2.0117474 9 3
-6.3270283 -12.36942 -1.7059273 23 4
-10.580354 -20.631411 -1.2151363 10 6
-3.4457073 -6.6588178 -2.0089536 9 0
-4.108695 -7.9298639 -2.0619013 12 1
-5.1660132 -9.9577427 -2.1805654 10 2
-5.653069 -10.877983 -1.9416648 7 3
-6.451714 -12.398908 -1.7161642 11 4
-10.547315 -20.243944 -1.9970866 32 5
-10.702768 -20.507364 -1.2123102 20 6
-3.4957082 -6.641439 -2.011024 9 0
-4.1639557 -7.9009871 -2.0619013 14 1
-5.1738954 -9.800725 -2.1542337 10 2
-5.8710341 -11.107201 -1.9898466 12 3
-10.560711 -19.95414 -2.7720401 16 4
-11.055434 -20.827311 -1.2357568 21 6
-3.5438125 -6.6202788 -2.0120592 9 0
-4.2245355 -7.8820314 -2.0646007 14 1
-5.2794747 -9.8379364 -2.1702616 10 2
-5.8099942 -10.812925 -1.9441677 9 3
-10.709168 -19.897406 -2.7744777 16 4
-11.214961 -20.784975 -1.2377455 21 6
-3.5887935 -6.5960035 -2.0120592 9 0
-4.279953 -7.8565149 -2.0655005 14 1
-5.3583722 -9.8197956 -2.1744595 10 2
-6.0283527 -11.033864 -1.991411 5 3
-10.969159 -20.052193 -2.8064075 20 4
-11.498129 -20.958326 -1.2528182 10 6
-3.6459761 -6.5910735 -2.018271 9 0
-4.3337536 -7.8247399 -2.0650506 16 1
-5.4355626 -9.8019819 -2.1786571 18 2
-5.9729118 -10.757697 -1.9488608 14 3
-11.122386 -19.999416 -2.8098199 20 4
-11.726106 -21.033085 -1.2620293 21 6
-3.7002213 -6.5829439 -2.0234473 9 0
-4.3764009 -7.7763782 -2.0601017 14 1
-5.506753 -9.7689266 -2.1798022 12 2
-6.3333173 -11.221504 -2.0408442 5 3
-11.231892 -19.876581 -2.8032389 16 4
-11.739723 -20.716129 -1.2478987 21 6
-3.742254 -6.5502424 -2.0213768 7 0
-4.4170361 -7.7219553 -2.053803 14 1
-5.5718908 -9.7251329 -2.1786571 13 2
-6.3200936 -11.017663 -2.0117474 7 3
-11.397077 -19.844162 -2.8098199 20 4
-11.847177 -20.569632 -1.2440258 10 6
-3.7898324 -6.527298 -2.0224121 9 0
-4.4747553 -7.6976695 -2.0556028 14 1
-5.6554551 -9.7131433 -2.1847632 15 2
-7.7757139 -13.338584 -2.4453838 9 3
-11.609383 -19.89098 -2.8278563 23 4
-11.764502 -20.100307 -1.2205793 10 6
-3.8392358 -6.5073371 -2.0244827 9 0
-4.5244212 -7.6595306 -2.053803 14 1
-5.7294316 -9.6879425 -2.1878161 16 2
-6.5176959 -11.007667 -2.0261395 12 3
-11.76518 -19.838474 -2.832 8 4
-12.289891 -20.67387 -1.2604593 21 6
-3.8913846 -6.4943099 -2.0286238 9 0
-4.5864787 -7.645267 -2.0583022 13 1
-5.8090611 -9.667902 -2.1923954 16 2
-6.6025314 -10.975437 -2.0286424 4 3
-7.3146877 -12.144862 -1.7407818 1 4
-12.307953 -20.37899 -1.2476894 21 6
-3.9366267 -6.4669852 -2.0286238 9 0
-4.6255426 -7.5897651 -2.0520036 12 1
-5.8747339 -9.6281366 -2.1923954 16 2
-6.5390954 -10.704354 -1.9867179 2 3
-7.8354645 -12.806376 -1.8433958 9 4
-12.491277 -20.367952 -1.2521902 21 6
-3.9825864 -6.4433265 -2.029659 9 0
-4.6852999 -7.571362 -2.0556028 13 1
-5.9511161 -9.6019068 -2.1958301 12 2
-7.319819 -11.796461 -2.198843 2 3
-7.8176999 -12.584126 -1.8190219 9 4
-7.7478924 -12.452354 -1.2831068 23 5
-12.747217 -20.463337 -1.2634947 21 6
-4.037744 -6.4317274 -2.0348353 9 0
-4.7401171 -7.5417666 -2.0565026 13 1
-6.0159111 -9.5568056 -2.1950669 10 2
-6.6984453 -10.628723 -1.9898466 3 3
-7.5250845 -11.926535 -1.7315198 19 4
-7.6835003 -12.158793 -1.2583545 22 5
-12.873751 -20.34853 -1.2619247 21 6
-4.0867019 -6.4098978 -2.036906 9 0
-4.7884593 -7.5019212 -2.054703 12 1
-6.0274954 -9.4285583 -2.1752226 12 2
-8.1674461 -12.761265 -2.3997049 7 3
-7.5107031 -11.721613 -1.7093396 23 4
-7.6993861 -12.002237 -1.2475473 22 5
-13.036004 -20.290087 -1.2639135 10 6
-4.1229525 -6.3682375 -2.0327649 7 0
-4.8470759 -7.4781203 -2.0574024 14 1
-6.1054277 -9.4087219 -2.1801836 9 2
-8.2272158 -12.663962 -2.3918834 4 3
-7.4851732 -11.504167 -1.6852095 18 4
-7.5915937 -11.654373 -1.2168685 21 5
-13.629855 -20.900175 -1.3076664 10 6
-4.1672635 -6.3416419 -2.0332825 6 0
-4.8914375 -7.4351869 -2.054703 13 1
-6.1461177 -9.3281631 -2.1714065 12 2
-6.9046865 -10.46753 -1.9860923 12 3
-6.9288378 -10.492188 -1.5438409 21 4
-6.9605589 -10.524237 -1.1039146 17 5
-13.799686 -20.84115 -1.3099691 10 6
-4.1953526 -6.2882881 -2.0255179 5 0
-4.9388957 -7.3943744 -2.0529034 13 1
-6.1717939 -9.2262831 -2.1576684 10 2
-6.9918823 -10.44041 -1.9901596 8 3
-7.525898 -11.225096 -1.659373 13 4
-7.620295 -11.348751 -1.1959511 20 5
-14.118671 -21.002882 -1.3262979 21 6
-4.1524825 -6.1308861 -1.9841069 4 0
-4.9903979 -7.359714 -2.0529034 11 1
-6.2294374 -9.1732264 -2.1553786 12 2
-7.0923648 -10.432182 -1.9979812 9 3
-7.6163673 -11.190334 -1.6620542 5 4
-7.6165876 -11.178071 -1.1834006 40 5
-14.499122 -21.246948 -1.3480697 22 6
-4.1601586 -6.0508075 -1.9675424 4 0
-5.0372372 -7.318274 -2.0511036 11 1
-6.2872772 -9.1241446 -2.153852 12 2
-7.2080784 -10.448705 -2.0104959 9 3
-7.2045951 -10.428074 -1.5562717 2 4
-7.7182403 -11.159036 -1.1870612 30 5
-14.579733 -21.055813 -1.3422081 11 6
-4.1835637 -5.9969988 -1.9592602 5 0
-5.0891666 -7.2870135 -2.0520036 11 1
-6.3620729 -9.096118 -2.1576684 12 2
-7.3057752 -10.433727 -2.017379 9 3
-7.3232675 -10.447063 -1.5665088 7 4
-7.8005357 -11.111403 -1.1877584 40 5
-14.639092 -20.829325 -1.334253 10 6
-4.2297945 -5.9739532 -1.9613309 5 0
-5.1354055 -7.2449479 -2.0502038 13 1
-6.4356484 -9.0658884 -2.1611028 13 2
-7.3944559 -10.405013 -2.0217593 9 3
-7.4282446 -10.440972 -1.5733334 10 4
-7.9495959 -11.15728 -1.1985657 20 5
-14.814307 -20.768892 -1.3369745 11 6
-4.2601237 -5.9285898 -1.9561545 4 0
-5.1926875 -7.2184114 -2.0529034 10 1
-6.482717 -8.9984369 -2.15576 15 2
-7.5131369 -10.417223 -2.0342741 9 3
-7.5160599 -10.409784 -1.576502 9 4
-8.0786619 -11.172549 -1.2062355 42 5
-4.2786446 -5.867485 -1.9458016 4 0
-5.2337632 -7.1693921 -2.0493042 10 1
-6.5488572 -8.957716 -2.1569052 10 2
-7.6276793 -10.421904 -2.0455372 9 3
-7.6366534 -10.42271 -1.5864953 10 4
-8.182395 -11.151217 -1.2100704 21 5
-8.211792 -11.179003 -0.72694647 8 6
-4.3299713 -5.8537583 -1.9509782 4 0
-5.2801223 -7.1304703 -2.0484045 11 1
-6.595645 -8.8940077 -2.1523256 12 2
-7.721993 -10.401464 -2.0517945 9 3
-7.7476826 -10.424659 -1.5947824 10 4
-8.2676258 -11.108047 -1.2114648 42 5
-17.746048 -23.81683 -1.5565761 12 6
-4.3568168 -5.8048458 -1.9447664 4 0
-5.3227491 -7.0840859 -2.0457051 11 1
-6.6646562 -8.8571587 -2.1546154 12 2
-7.8324509 -10.397792 -2.0618064 9 3
-7.8537369 -10.414694 -1.601607 10 4
-8.4026079 -11.126375 -1.2198317 32 5
-18.152788 -24.010998 -1.5775106 11 6
-4.3855319 -5.7589183 -1.93959 5 0
-5.382709 -7.0607018 -2.0497539 9 1
-6.7322855 -8.8182173 -2.1565235 13 2
-7.9480338 -10.39936 -2.0730698 9 3
-7.9708829 -10.417946 -1.6106254 9 4
-8.4849272 -11.07377 -1.220529 21 5
-18.866982 -24.596815 -1.6246129 10 6
-4.4232664 -5.7251043 -1.9385546 4 0
-5.4163699 -7.002913 -2.0439053 9 1
-6.817729 -8.8020449 -2.1641557 15 2
-8.0543337 -10.387328 -2.08183 9 3
-8.061677 -10.385566 -1.6142814 7 4
-4.4655108 -5.6971259 -1.93959 4 0
-5.465127 -6.9649291 -2.0439053 8 1
-6.8680949 -8.7403402 -2.1607211 12 2
-8.1730652 -10.389843 -2.0937192 9 3
-8.1855688 -10.394534 -1.6245185 7 4
-8.2167711 -10.419184 -1.1609144 19 5
-4.4642954 -5.6144004 -1.9219903 4 0
-5.5136199 -6.9266038 -2.0439053 9 1
-6.9301682 -8.6937151 -2.1611028 13 2
-8.2922192 -10.391206 -2.1056082 9 3
-8.2975817 -10.386766 -1.6323181 7 4
-8.3341169 -10.417574 -1.1671896 19 5
-4.5033827 -5.583097 -1.9219903 3 0
-5.5569434 -6.8818789 -2.0421057 8 1
-6.9845209 -8.6374893 -2.1591947 10 2
-8.4018469 -10.379123 -2.1149943 9 3
-8.4198875 -10.390274 -1.6420677 7 4
-8.4224072 -10.382267 -1.1696301 19 5
-18.468405 -22.733469 -1.5350138 11 6
-4.5398026 -5.5485325 -1.9209551 4 0
-5.5925035 -6.8278432 -2.0376067 9 1
-7.0605779 -8.6110029 -2.1645374 10 2
-8.5098972 -10.3675 -2.1243804 9 3
-8.5375967 -10.386448 -1.6508422 7 4
-8.5579796 -10.40014 -1.1783456 19 5
-4.5675969 -5.5056076 -1.9168139 4 0
-5.6376052 -6.7881188 -2.0371568 10 1
-7.1104808 -8.5494232 -2.1614842 10 2
-8.6351566 -10.371595 -2.1375208 9 3
-8.6487675 -10.376889 -1.6586419 6 4
-8.694212 -10.416621 -1.1870612 20 5
-4.594728 -5.4602828 -1.9121553 10 0
-5.6748133 -6.7366714 -2.0335574 10 1
-7.1218886 -8.4425526 -2.1469829 12 2
-8.7519579 -10.363883 -2.1484711 8 3
-8.7684164 -10.372352 -1.6676602 7 4
-8.8310881 -10.431703 -1.1957767 20 5
-19.995392 -23.59445 -1.6208447 10 6
-4.6189404 -5.4119086 -1.9064611 22 0
-5.7242374 -6.6998534 -2.0344574 10 1
-7.1781039 -8.3896408 -2.1462197 12 2
-8.865221 -10.350538 -2.158483 4 3
-8.8767967 -10.353077 -1.674485 7 4
-8.9018898 -10.371349 -1.1957767 20 5
-4.6502867 -5.3722286 -1.903873 24 0
-5.7695956 -6.6582546 -2.0340075 9 1
-7.1990213 -8.2990637 -2.1355343 10 2
-9.3732386 -10.794089 -2.2642329 4 3
-9.0035648 -10.353767 -1.6847219 7 4
-19.930401 -22.870817 -1.5898619 11 6
-4.699491 -5.354969 -1.9090494 16 0
-5.8122106 -6.6158996 -2.0331075 9 1
-7.2438169 -8.2338629 -2.1317184 10 2
-9.3191166 -10.581627 -2.2332587 9 3
-9.1289692 -10.354783 -1.694959 7 4
-9.1776905 -10.39541 -1.213208 21 5
-19.867382 -22.4797 -1.5722769 12 6
-4.7303381 -5.314816 -1.9064611 5 0
-5.8608484 -6.5780735 -2.0340075 9 1
-7.3194199 -8.2036009 -2.1370609 12 2
-9.3453913 -10.463271 -2.2219954 18 3
-9.2327909 -10.326314 -1.7008086 7 4
-20.80234 -23.209024 -1.6334053 10 6
-4.7569709 -5.2701907 -1.90232 5 0
-5.9066296 -6.5369964 -2.0340075 9 1
-7.3435826 -8.1159077 -2.1275203 16 2
-9.3664894 -10.340676 -2.2097936 16 3
-9.3793268 -10.343959 -1.7144581 10 4
-20.606516 -22.670099 -1.6055626 11 6
-4.7910399 -5.2340016 -1.9012847 5 0
-5.9547548 -6.4984741 -2.0349073 9 1
-7.3987355 -8.062995 -2.1271389 10 2
-9.7137356 -10.574717 -2.2742445 6 3
-9.4996843 -10.330832 -1.7232326 7 4
-9.595829 -10.420773 -1.2393546 22 5
-4.8064332 -5.1777735 -1.8930025 4 0
-6.0052824 -6.4624557 -2.0367069 9 1
-7.4601955 -8.0168943 -2.1286652 10 2
-9.8640718 -10.589031 -2.292078 9 3
-9.633852 -10.331042 -1.7344446 7 4
-9.7345142 -10.428038 -1.2480702 22 5
-20.522768 -21.954142 -1.5749985 12 6
-4.839817 -5.1412783 -1.8919673 4 0
-6.0475807 -6.4175353 -2.0358069 9 1
-7.5065084 -7.9573598 -2.1263754 12 2
-9.8979445 -10.48143 -2.2833178 7 3
-9.7643881 -10.325556 -1.7449254 5 4
-20.721186 -21.866129 -1.5787667 11 6
-4.8880363 -5.1221919 -1.8971437 4 0
-6.0884299 -6.373405 -2.0349073 9 1
-7.5510206 -7.893414 -2.1233225 12 2
-10.014595 -10.457731 -2.2933295 10 3
-13.344296 -13.92017 -2.3676779 9 4
-20.925922 -21.775656 -1.5827441 11 6
-4.9075551 -5.0712833 -1.890932 4 0
-6.1476912 -6.3461413 -2.0398562 10 1
-7.5991058 -7.8334618 -2.1214147 13 2
-10.139658 -10.44141 -2.3052187 9 3
-13.461909 -13.848017 -2.3713338 11 4
-21.844086 -22.41576 -1.6403136 10 6
-4.9293079 -5.0231113 -1.8857557 3 0
-6.1945758 -6.3058496 -2.040756 10 1
-7.6467261 -7.7732196 -2.1195064 12 2
-10.2622 -10.421039 -2.3164818 9 3
-13.32274 -13.514789 -2.330142 8 4
-20.615833 -20.861967 -1.5371071 11 6
-4.9533544 -4.9776211 -1.8816146 4 0
-6.2453251 -6.2693529 -2.0430055 9 1
-7.6800504 -7.7015295 -2.1141639 12 2
-10.337084 -10.35514 -2.3174205 13 3
-13.376061 -13.380737 -2.3230736 2 4
-20.825203 -20.788891 -1.5421314 11 6
-4.9816337 -4.9383492 -1.879544 4 0
-6.2906237 -6.2294388 -2.0439053 8 1
-7.7392135 -7.6532464 -2.1156902 10 2
-10.385231 -10.259123 -2.3121016 11 3
-13.608128 -13.428813 -2.3474474 6 4
-21.211794 -20.881189 -1.5599257 12 6
-5.0159869 -4.9034519 -1.879544 3 0
-6.1861711 -6.0410514 -1.9962157 6 1
-7.7911258 -7.6003909 -2.1156902 10 2
-10.474627 -10.207496 -2.3164818 9 3
-14.772802 -14.375961 -2.5309827 11 4
-5.0222816 -4.8414974 -1.8691912 4 0
-6.158011 -5.9301271 -1.9737206 7 1
-7.8566365 -7.5553298 -2.1187432 12 2
-10.530308 -10.115857 -2.3127275 9 3
-14.847025 -14.247737 -2.5265954 11 4
-22.300552 -21.348139 -1.617914 11 6
-5.0671597 -4.816967 -1.8733324 3 0
-6.1794763 -5.8682065 -1.9674219 7 1
-7.9107294 -7.5043807 -2.1195064 12 2
-10.558771 -10.005903 -2.303967 10 3
-13.14527 -12.439559 -2.2221658 5 4
-5.0772834 -4.7612205 -1.8650501 3 0
-6.2107434 -5.8180141 -1.9647225 7 1
-7.9442902 -7.4315333 -2.1145453 10 2
-10.561979 -9.8699017 -2.2895751 10 3
-14.954992 -13.960401 -2.5119712 4 4
-21.847328 -20.344477 -1.5645312 12 6
-5.1103978 -4.7256594 -1.8650501 4 0
-6.22258 -5.7480674 -1.9557245 7 1
-7.9902043 -7.3705678 -2.113019 10 2
-10.581234 -9.7504148 -2.2789376 10 3
-12.195315 -11.22596 -2.0352182 3 4
-22.256578 -20.437311 -1.5835816 11 6
-5.1375561 -4.6846595 -1.8629795 4 0
-6.2510319 -5.6939869 -1.9521253 6 1
-8.0400124 -7.3132863 -2.1126373 10 2
-10.616882 -9.6470842 -2.2720544 9 3
-13.133265 -11.92105 -2.1778054 6 4
-22.016735 -19.93557 -1.5565761 12 6
-5.1442766 -4.6254296 -1.853662 4 0
-6.2732325 -5.6345825 -1.9467264 7 1
-8.0645676 -7.2333813 -2.1057682 10 2
-10.663377 -9.5542707 -2.2676742 9 3
-13.634766 -12.203739 -2.2467835 4 4
-21.759079 -19.427547 -1.5287334 11 6
-5.1822257 -4.5945301 -1.8557327 3 0
-6.2949104 -5.5751452 -1.9413276 6 1
-8.1148672 -7.1769052 -2.1057682 10 2
-10.697248 -9.4508219 -2.2607911 11 3
-11.729702 -10.352047 -1.9209048 2 4
-22.011108 -19.378109 -1.5368978 23 6
-5.2069025 -4.5518813 -1.8531444 2 0
-6.3278079 -5.5259361 -1.9395281 7 1
-8.166255 -7.1213655 -2.1061497 10 2
-10.721263 -9.3395786 -2.2520308 10 3
-11.809176 -10.276419 -1.9221234 19 4
-11.877829 -10.321603 -1.3767121 27 5
-21.970892 -19.0721 -1.5247558 11 6
-5.2136769 -4.493979 -1.8443446 2 0
-6.33079 -5.451108 -1.9287304 7 1
-8.2023735 -7.0526638 -2.1027153 10 2
-10.846142 -9.3159885 -2.2645457 11 3
-13.034646 -11.183887 -2.1088274 3 4
-22.337185 -19.118246 -1.5408753 11 6
-5.2655325 -4.4749856 -1.8515915 1 0
-6.3419499 -5.3840775 -1.920632 7 1
-8.230444 -6.977457 -2.0973725 10 2
-10.876242 -9.210681 -2.2573495 13 3
-16.107101 -13.626019 -2.5904548 3 4
-22.647169 -19.111258 -1.5530174 12 6
-5.2640686 -4.4108195 -1.8402034 1 0
-6.3375416 -5.3046489 -1.9080348 19 1
-8.2834749 -6.9236026 -2.0985174 9 2
-10.862949 -9.0699558 -2.2413933 12 3
-12.831281 -10.702007 -2.0515487 6 4
-22.746256 -18.924589 -1.5507145 12 6
-5.2619677 -4.3468943 -1.8288155 2 0
-6.3699121 -5.2565546 -1.9066852 25 1
-8.3213196 -6.8595667 -2.0962276 10 2
-10.930532 -9.0008287 -2.2426448 12 3
-15.706997 -12.915655 -2.4968593 4 4
-22.985714 -18.860538 -1.5582509 12 6
-5.3004208 -4.3182974 -1.8319213 2 0
-6.4508877 -5.2499762 -1.9201821 14 1
-8.3568172 -6.7914014 -2.0931747 10 2
-10.971633 -8.9068699 -2.2382646 9 3
-13.472546 -10.925435 -2.1297889 3 4
-22.90254 -18.526262 -1.5438062 11 6
-5.3289318 -4.2799797 -1.8314036 2 0
-6.4706612 -5.1913991 -1.9152331 7 1
-8.3917694 -6.723074 -2.0901217 10 2
-11.021209 -8.8201828 -2.2357616 10 3
-13.396538 -10.709638 -2.1059024 8 4
-23.078163 -18.403282 -1.5469463 11 6
-5.3571663 -4.2414751 -1.830886 3 0
-6.4945197 -5.1364269 -1.911634 7 1
-24.706408 -19.525955 1.6503623 7 9
-8.4477434 -6.6716275 -2.0924115 9 2
-11.014277 -8.6891947 -2.2219954 11 3
-16.25872 -12.812747 -2.5417073 4 4
-23.042778 -18.113352 -1.5360606 11 6
-5.374464 -4.1944618 -1.8267449 4 0
-6.4933343 -5.0622077 -1.9008365 6 1
-8.4910164 -6.6100764 -2.0916483 9 2
-11.035685 -8.5817728 -2.2141736 13 3
-13.712506 -10.65185 -2.1319826 10 4
-23.061314 -17.868855 -1.5289427 11 6
-5.4005527 -4.1544838 -1.8257096 5 0
-6.5223346 -5.0120039 -1.8990368 7 1
-8.5307255 -6.545856 -2.0901217 9 2
-11.104735 -8.5117292 -2.2160509 14 3
-13.513861 -10.347085 -2.0898156 21 4
-23.141052 -17.673483 -1.5260119 23 6
-5.4078746 -4.100338 -1.8184627 5 0
-6.5447397 -4.956933 -1.8954376 7 1
-8.5574245 -6.4719315 -2.0855424 9 2
-11.206442 -8.4661493 -2.2244983 12 3
-13.482771 -10.174767 -2.0739727 5 4
-23.538334 -17.718096 -1.5440155 11 6
-5.4487472 -4.0717363 -1.8226038 4 0
-6.5479522 -4.8878088 -1.8864396 7 1
-8.6181412 -6.4237633 -2.0893586 9 2
-11.251017 -8.3770876 -2.2216825 13 3
-13.653827 -10.155024 -2.0893283 8 4
-23.510674 -17.441477 -1.5341763 11 6
-5.4568176 -4.0187063 -1.8158745 6 0
-6.5662179 -4.8304286 -1.8819405 6 1
-8.6458464 -6.3533268 -2.0855424 7 2
-11.306184 -8.2991409 -2.2213697 11 3
-13.823653 -10.132215 -2.10444 8 4
-24.828264 -18.158245 -1.6120523 11 6
-5.4902997 -3.9860084 -1.817945 6 0
-6.5926361 -4.7810454 -1.880141 6 1
-8.6868086 -6.2905121 -2.0847793 9 2
-11.322231 -8.189908 -2.2132351 9 3
-14.003324 -10.118105 -2.1212578 10 4
-24.500744 -17.657494 -1.5827441 11 6
-5.5054231 -3.9385908 -1.8138039 6 0
-6.6131673 -4.7258406 -1.8765416 7 1
-24.883129 -17.768625 1.6024225 8 9
-8.7337074 -6.2319956 -2.0855424 10 2
-11.350177 -8.0900269 -2.2076035 9 3
-14.201369 -10.111053 -2.1405134 8 4
-24.870937 -17.661797 -1.5986543 22 6
-5.5248909 -3.8944945 -1.8112158 7 0
-6.6332517 -4.6705818 -1.8729424 6 1
-8.7834272 -6.175386 -2.087069 9 2
-11.374049 -7.987885 -2.2013459 10 3
-14.406497 -10.106285 -2.1607437 10 4
-18.531519 -12.980737 -1.9794812 33 5
-26.535181 -18.566324 -1.6972551 9 6
-5.5503583 -3.854727 -1.8106982 6 0
-6.6272693 -4.5975008 -1.8621449 6 1
-8.7246494 -6.043488 -2.0630269 4 2
-11.410043 -7.8947992 -2.1975915 10 3
-14.556716 -10.060769 -2.1726868 8 4
-5.5684967 -3.8114018 -1.80811 4 0
-6.6487579 -4.5456848 -1.8594455 6 1
-8.5207453 -5.8168182 -2.0054026 4 2
-11.443933 -7.803596 -2.1938372 9 3
-14.665876 -9.9893875 -2.1787803 10 4
-5.5917649 -3.7702744 -1.8070747 7 0
-6.6738639 -4.4948039 -1.8576458 6 1
-8.53508 -5.7396612 -1.9992968 4 2
-11.4391 -7.6838589 -2.1825738 9 3
-15.007248 -10.069253 -2.218997 9 4
-26.858601 -17.973482 -1.6936965 9 6
-5.6018586 -3.7204554 -1.8018982 4 0
-6.6872187 -4.4362502 -1.8526968 4 1
-8.5176554 -5.6419916 -1.9859402 4 2
-11.44963 -7.5754743 -2.1744394 9 3
-15.23782 -10.070406 -2.2426398 6 4
-27.083479 -17.851484 -1.6999767 9 6
-5.6244617 -3.679143 -1.8008629 5 0
-6.7066059 -4.3819962 -1.8495475 3 1
-8.5338154 -5.5673709 -1.9805974 4 2
-11.47907 -7.4802551 -2.1700592 9 3
-15.720352 -10.232335 -2.303087 2 4
-27.448681 -17.818571 -1.7150494 8 6
-5.640265 -3.6335111 -1.7977571 4 0
-6.7009807 -4.3118715 -1.8396497 3 1
-8.5493507 -5.4928017 -1.9752548 4 2
-11.501085 -7.3807321 -2.1644275 9 3
-16.526743 -10.593697 -2.4103322 6 4
-26.852179 -17.166079 -1.6702498 9 6
-5.681808 -3.6043932 -1.8029336 3 0
-6.7161064 -4.2555962 -1.8356007 2 1
-8.5509882 -5.4098921 -1.9668592 4 2
-11.54899 -7.298152 -2.1638019 9 3
-15.628352 -9.8645706 -2.2692075 1 4
-26.940939 -16.959051 -1.6683658 19 6
-5.7068319 -3.5646403 -1.8029336 2 0
-6.7340775 -4.201386 -1.8324513 3 1
-8.5135622 -5.3033485 -1.9496864 4 2
-11.63656 -7.240303 -2.1706848 9 3
-15.9666 -9.9228745 -2.3082056 9 4
-26.403385 -16.364416 -1.6279624 10 6
-5.7233505 -3.5196524 -1.8003453 2 0
-6.7748685 -4.1614108 -1.8356007 2 1
-8.5059557 -5.2185826 -1.9397644 25 2
-11.678837 -7.1567993 -2.1694334 9 3
-16.726347 -10.233868 -2.4076509 9 4
-26.882391 -16.40909 -1.6505716 20 6
-5.7339563 -3.4726074 -1.7962043 2 0
-6.7830286 -4.1030955 -1.8302019 2 1
-8.555624 -5.1671948 -1.9428172 25 2
-11.698069 -7.0567269 -2.1638019 9 3
-16.486164 -9.9333239 -2.3632903 9 4
-27.119556 -16.295071 -1.6581079 10 6
-5.7464433 -3.4255688 -1.7925807 3 0
-6.7847161 -4.039691 -1.8230033 4 1
-8.5686607 -5.0957928 -1.9378562 4 2
-11.728848 -6.9668493 -2.1606731 9 3
-16.68829 -9.8969669 -2.382302 9 4
-27.112955 -16.040949 -1.6509902 10 6
-5.7762918 -3.3902864 -1.7946514 4 0
-6.7986073 -3.9855311 -1.8194041 5 1
-8.5548906 -5.0070887 -1.9267894 4 2
-11.777199 -6.8847961 -2.1606731 9 3
-16.458702 -9.6099825 -2.3401353 6 4
-27.200117 -15.837205 -1.6495248 20 6
-5.8065104 -3.3537438 -1.7967219 4 0
-6.8347068 -3.942838 -1.8216537 7 1
