# .PCD v0.7 - Point Cloud Data file format
VERSION 0.7
FIELDS x y z intensity ring
SIZE 4 4 4 4 2
TYPE F F F F U
COUNT 1 1 1 1 1
WIDTH 1319
HEIGHT 1
VIEWPOINT 0 0 0 1 0 0 0
POINTS 1319
DATA ascii
-1.4257833 6.1366272 -1.2246122 28 2
-1.9144194 8.2593498 -1.3428336 1 3
-2.4650257 10.668698 -1.3444628 2 4
-2.5154691 10.913065 -0.97980487 14 5
-3.1156564 13.549314 -0.72862124 17 6
-1.2888699 5.6959872 -1.5648201 12 0
-1.3756517 6.0943294 -1.4423862 19 1
-1.3837658 6.1502628 -1.2253754 30 2
-1.8575729 8.27637 -1.3434594 2 3
-2.3910477 10.679418 -1.3437315 1 4
-2.4409561 10.938138 -0.98050213 14 5
-2.9975531 13.465459 -0.722969 26 6
-2.4514146 11.039371 -0.19738671 13 7
-1.2482493 5.7010713 -1.5637847 13 0
-2.4276063 11.106047 0.19843386 12 8
-1.3297453 6.0885539 -1.438787 20 1
-1.3407953 6.1597733 -1.2253754 28 2
-1.7989094 8.2852755 -1.3428336 1 3
-2.3122313 10.676449 -1.3412941 7 4
-2.87657 13.361096 -0.71626997 26 6
-1.1972177 5.6567273 -1.5492908 12 0
-2.3293383 11.024899 0.19668862 12 8
-1.2815747 6.0709944 -1.4324883 15 1
-1.2937176 6.1497722 -1.2215593 28 2
-1.7320992 8.2550993 -1.3359504 1 3
-2.2364197 10.686502 -1.3405629 4 4
-2.2947965 10.994157 -0.98259377 14 5
-2.279696 10.96006 -0.58668613 19 6
-1.1638858 5.695231 -1.5575731 13 0
-2.2342432 10.942533 0.19494337 12 8
-1.2492785 6.1294398 -1.4441857 15 1
-1.2526125 6.1622825 -1.2223225 24 2
-1.6774383 8.2744427 -1.337202 1 3
-2.160192 10.69407 -1.3395879 2 4
-2.1873016 10.857564 -0.9689976 27 5
-2.6472344 13.17626 -0.70433736 8 6
-1.123971 5.6973357 -1.5560201 10 0
-2.1686134 11.012802 0.19592072 12 8
-1.1954901 6.0766149 -1.4297889 17 1
-1.2027608 6.1361995 -1.2154534 29 2
-1.6082625 8.2277927 -1.327816 1 3
-2.0794094 10.677715 -1.3356882 2 4
-2.1266413 10.950805 -0.97597003 13 5
-2.6102364 13.478742 -0.71951485 17 6
-2.6036267 13.49504 -0.23990077 21 7
-1.0579494 5.5723763 -1.5197855 11 0
-1.1548762 6.1003318 -1.4333881 17 1
-1.1591672 6.1405878 -1.2146901 29 2
-1.5471541 8.2274408 -1.3259387 7 3
-2.0059063 10.697825 -1.3364193 3 4
-2.0215726 10.812626 -0.96237373 13 5
-2.4709392 13.267345 -0.70726818 8 6
-2.5035083 13.481431 -0.2393423 31 7
-1.0374163 5.6803493 -1.5472202 8 0
-1.112958 6.1120801 -1.4342879 21 1
-1.1137952 6.1409984 -1.2131636 29 2
-1.4938999 8.2613668 -1.3296931 1 3
-1.9244858 10.67445 -1.3317883 2 4
-1.9678956 10.948053 -0.97318101 20 5
-2.3764892 13.274443 -0.70674485 17 6
-2.4149446 13.530078 -0.23990077 21 7
-0.99806851 5.6893559 -1.547738 10 0
-1.0608604 6.0659518 -1.4216906 19 1
-1.0719688 6.1484375 -1.2131636 29 2
-1.1490906 6.6112366 -1.0628159 6 3
-1.8312962 10.580046 -1.3183827 3 4
-1.8785424 10.886917 -0.96655715 13 5
-2.0602117 11.964687 2.3599257 4 13
-2.3036902 13.392665 -0.71218777 17 6
-0.96124411 5.7074475 -1.5508437 9 0
-1.8529786 11.025675 0.1951528 25 8
-1.0208366 6.0807199 -1.4234902 19 1
-1.0277268 6.1480255 -1.2116373 29 2
-1.0928428 6.5586944 -1.0531169 3 3
-1.7673687 10.641222 -1.3244762 2 4
-1.8242711 11.031468 -0.97823608 35 5
-2.2104604 13.410393 -0.71229243 17 6
-0.92229772 5.7197409 -1.5523967 8 0
-0.9765051 6.0761542 -1.4207909 19 1
-0.98477739 6.1550512 -1.2116373 27 2
-1.0383182 6.5115433 -1.0443566 1 3
-1.0493459 6.6029296 -0.820912 11 4
-2.0498035 12.927344 2.0730698 6 12
-1.7406794 11.002607 -0.97457546 27 5
-1.7385263 11.026467 -0.58501136 9 6
-1.7305211 11.013171 -0.19459434 13 7
-0.8758741 5.6840353 -1.5410087 8 0
-0.93317735 6.0770445 -1.4194412 23 1
-0.93881673 6.1423688 -1.207821 27 2
-1.0130591 6.6514273 -1.0656317 9 3
-2.0663145 13.598613 1.6888655 1 11
-1.6168332 10.653086 -1.3230138 2 4
-1.6492372 10.91796 -0.96603423 34 5
-2.7465899 18.247124 -0.9670639 9 6
-2.0314782 13.544415 -0.23906307 20 7
-0.84038383 5.7186813 -1.5487732 10 0
-0.88762319 6.062201 -1.4144921 21 1
-0.89534885 6.1448874 -1.2070577 29 2
-2.0566804 14.132581 1.2494646 3 10
-0.95354748 6.5684133 -1.0512397 6 3
-1.5375957 10.630713 -1.3188702 2 4
-1.5800711 10.978511 -0.97039205 13 5
-1.5656972 10.919181 -0.57810301 19 6
-1.5720639 11.004586 -0.19403586 13 7
-0.80043668 5.7244091 -1.5487732 10 0
-0.85011595 6.1029925 -1.4225905 18 1
-0.85134959 6.1432095 -1.2055314 31 2
-0.87227976 6.3185663 -1.0102539 14 3
-1.4668577 10.666755 -1.3220388 2 4
-1.4888105 10.882677 -0.96097922 13 5
-1.5061541 11.05254 -0.58459264 19 6
-1.4941231 11.007366 -0.19389623 13 7
-0.7596935 5.7241125 -1.5472202 12 0
-0.81004494 6.128098 -1.4270895 18 1
-0.8079294 6.1451106 -1.2047681 31 2
-0.84250599 6.4341874 -1.0277746 8 3
-1.3905518 10.662957 -1.3203326 3 4
-1.7372326 13.394218 -1.1816576 20 5
-1.4125814 10.936015 -0.57789367 9 6
-0.71995401 5.7311935 -1.547738 11 0
-0.76579177 6.1220016 -1.4243901 18 1
-0.76113158 6.1194291 -1.1986622 31 2
-0.79829776 6.4457936 -1.0287131 16 3
-1.3143759 10.658614 -1.3186264 2 4
-1.6999331 13.864819 -1.2220978 21 5
-1.9247873 15.767152 -0.83245581 8 6
-1.3402894 11.027155 -0.19389623 13 7
-0.67878813 5.7264876 -1.5451498 13 0
-0.72120649 6.1117163 -1.4207909 21 1
-0.71930623 6.1323934 -1.2001886 29 2
-0.96404946 8.2562923 -1.3165526 1 3
-1.2378749 10.649782 -1.3164327 3 4
-1.2428617 10.807842 -0.57014793 20 6
-0.64072192 5.7483664 -1.5498085 10 0
-0.95196694 8.5679646 0.15047465 26 8
-0.67680514 6.1011071 -1.4171916 22 1
-0.67475575 6.121654 -1.1971357 29 2
-0.72437668 6.603581 -1.0521784 13 3
-0.931701 8.5348206 -1.0541699 13 4
-0.9263373 8.5270681 -0.75041097 21 5
-0.92013216 8.5674191 -0.15040484 12 7
-0.59635991 5.7123499 -1.538938 15 0
-0.63660794 6.1289434 -1.4225905 20 1
-0.63387847 6.1339164 -1.1986622 31 2
-0.66870326 6.5042129 -1.0355963 16 3
-1.0890639 10.666028 -1.3164327 3 4
-1.0882626 10.713737 -0.94215357 19 5
-1.5816654 15.652702 -0.82450074 26 6
-0.55652851 5.7066631 -1.5363499 13 0
-0.59600645 6.1447725 -1.4252899 15 1
-0.58915854 6.11865 -1.1948459 31 2
-0.62930465 6.5716472 -1.0456082 14 3
-1.0053648 10.576538 -1.3044896 5 4
-1.0325652 10.923395 -0.95993334 27 5
-1.2525352 13.324893 -0.70140654 17 6
-1.0296444 11.036386 -0.19347738 13 7
-0.5219332 5.7797647 -1.5549849 11 0
-0.99029726 10.987784 0.19256985 24 8
-0.54818666 6.1061792 -1.415392 20 1
-0.54573274 6.1147919 -1.1933196 29 2
-0.57006711 6.4382439 -1.0237073 15 3
-0.9320243 10.589231 -1.3052207 7 4
-1.1629215 13.292259 -1.167364 19 5
-0.95701224 11.027361 -0.58009177 19 6
-1.1261404 13.055526 -0.22873124 18 7
-0.4793258 5.7563148 -1.547738 11 0
-0.91396385 11.02249 0.19305852 24 8
-0.50313371 6.0807257 -1.4086435 23 1
-0.50099629 6.106801 -1.1910298 31 2
-0.66601133 8.1707153 -1.2984062 2 3
-0.86496502 10.680561 -1.3157015 2 4
-0.86780494 10.785813 -0.94668567 20 5
-0.86666512 10.866534 -0.57129937 20 6
-0.87039667 10.985896 -0.19236042 13 7
-0.43809935 5.7460365 -1.5441145 12 0
-0.46096426 6.0879765 -1.4095433 25 1
-0.45883101 6.1022382 -1.1895033 31 2
-1.4821703 19.804754 1.7375368 2 10
-0.49271914 6.5991435 -1.0481111 14 3
-0.78848118 10.660603 -1.3125329 7 4
-0.80503887 10.962493 -0.96167642 20 5
-0.98744202 13.543416 -0.71166438 17 6
-0.78849488 10.919902 -0.19110386 26 7
-0.39683715 5.7180505 -1.5358323 13 0
-0.42018351 6.1006942 -1.4117929 21 1
-0.41701645 6.1170454 -1.1917931 29 2
-0.55969155 8.2737226 -1.313424 1 3
-0.71655804 10.675627 -1.3137517 4 4
-0.72743034 10.951942 -0.96028197 20 5
-0.71137828 10.79574 -0.56700778 30 6
-0.72276115 11.056715 -0.19340758 13 7
-0.35654703 5.7148967 -1.5342795 11 0
-0.38071084 6.1540489 -1.4234902 15 1
-0.37430421 6.1198077 -1.1917931 29 2
-0.50024647 8.2498236 -1.3090436 1 3
-0.62867516 10.458439 -1.2864529 18 4
-0.64811248 10.90902 -0.95609844 13 5
-0.64279687 10.916084 -0.57307881 10 6
-0.64368379 11.029551 -0.19284908 13 7
-0.3178187 5.7384644 -1.5399734 8 0
-0.60534906 10.999679 0.19229062 12 8
-0.33933935 6.1857443 -1.4302388 23 1
-0.33008438 6.0948262 -1.1864504 31 2
-0.44348601 8.2688951 -1.3115468 1 3
-0.4597398 8.6566992 -1.0644069 13 4
-0.57301021 10.897263 -0.95470399 20 5
-0.57237285 11.032001 -0.57894039 9 6
-0.56318533 10.965876 -0.19166233 13 7
-0.27793568 5.7444034 -1.5410087 8 0
-0.53123271 11.019523 0.19256985 12 8
-0.2954973 6.1743369 -1.4270895 20 1
-0.28859049 6.0969319 -1.1864504 29 2
-0.38608268 8.248044 -1.3077923 1 3
-0.39728189 8.6160717 -1.0590447 5 4
-0.49043423 10.884006 -0.57098538 20 6
-0.48377955 10.905613 -0.19054537 19 7
-0.23930681 5.7577424 -1.5441145 8 0
-0.45264736 10.983003 0.19187176 12 8
-0.25290072 6.1625757 -1.4239402 24 1
-0.24617708 6.1027207 -1.1872137 27 2
-0.32927689 8.2702761 -1.310921 1 3
-0.41913107 10.667596 -1.3108268 2 4
-0.41358152 10.717055 -0.93831873 19 5
-0.50651795 13.306089 -0.69784772 26 6
-0.50616223 13.482447 -0.23550276 20 7
-0.1989069 5.7534814 -1.5425617 9 0
-0.21067032 6.187562 -1.4293389 24 1
-0.20369695 6.1082153 -1.1879768 27 2
-0.27114263 8.2605276 -1.3090436 1 3
-0.34227583 10.596851 -1.3018084 11 4
-0.33208168 10.508594 -0.91984171 19 5
-0.33947539 10.923728 -0.57276475 20 6
-0.15852208 5.747005 -1.540491 9 0
-0.16551751 6.1168051 -1.4126925 21 1
-0.16084458 6.1016388 -1.1864504 27 2
-0.21224611 8.2148256 -1.3015349 1 3
-0.26984978 10.660502 -1.3093643 4 4
-0.26086691 10.598294 -0.92751139 19 5
-0.32462931 13.475594 -0.70643085 8 6
-0.11883144 5.7692175 -1.5461851 8 0
-0.27354434 13.509174 0.23585182 18 8
-0.12284631 6.11976 -1.4131424 25 1
-0.11801498 6.0908356 -1.1841607 27 2
-0.15451831 8.1963577 -1.2984062 7 3
-0.19538251 10.660141 -1.3091207 3 4
-0.1888423 10.711413 -0.93727285 19 5
-0.18658565 10.907434 -0.57171804 20 6
-0.078317881 5.7525215 -1.5415263 9 0
-0.080096751 6.1185203 -1.4126925 21 1
-0.075584471 6.0993633 -1.1856872 25 2
-0.097570591 8.2209396 -1.3021606 2 3
-0.1200726 10.583832 -1.2996148 9 4
-0.11443976 10.748333 -0.94041049 13 5
-0.11174705 11.038286 -0.57852173 29 6
-0.10586666 11.027813 -0.19250005 13 7
-0.037925169 5.7181549 -1.5322088 10 0
-0.068991922 10.980111 0.19166233 12 8
-0.037712794 6.1734939 -1.4252899 32 1
-0.032982707 6.0958161 -1.184924 29 2
-0.040024702 8.1898155 -1.2971548 9 3
-0.046558108 10.66977 -1.3100955 7 4
-0.039890874 10.884351 -0.95226365 13 5
-0.019029535 6.0576572 -0.31746995 10 6
0.001997353 5.7221441 -1.5332441 9 0
0.0077966056 11.168296 0.19494337 12 8
0.0053294208 6.1073494 -1.4099932 29 1
0.0095009068 6.048779 -1.175765 31 2
0.012489575 5.9636493 -0.94455141 31 3
0.018789256 5.9811239 -0.52328306 54 5
0.022900887 5.9637718 -0.31255037 21 6
0.058506098 13.407831 -0.23403677 19 7
0.041829396 5.7065368 -1.529103 11 0
0.081565641 10.868039 0.18970767 11 8
0.047091369 5.9960885 -1.3843488 66 1
0.050243024 5.9975314 -1.165843 38 2
0.053150129 5.9713278 -0.94580293 45 3
0.057336636 5.9728675 -0.73340976 39 4
0.060423899 5.9688926 -0.52223718 52 5
0.06353423 5.9674721 -0.3127597 21 6
0.15364516 13.543066 -0.23641029 20 7
0.081575625 5.7698641 -1.5461851 8 0
0.087878741 5.993681 -1.383899 59 1
0.09211532 5.9970345 -1.165843 36 2
0.095247254 5.9964881 -0.94987023 11 3
0.14951098 9.1123323 -1.1190044 5 4
0.18642728 10.898768 -0.9536581 13 5
0.1905964 10.811481 -0.56669378 40 6
0.12099546 5.7285948 -1.5353146 11 0
0.13300683 6.144887 -1.4189912 21 1
0.13599765 6.0865326 -1.1833974 25 2
0.18777876 8.2114697 -1.3009092 3 3
0.24919331 10.653061 -1.3083893 4 4
0.26074031 10.823504 -0.94720864 27 5
0.26779541 10.87977 -0.57035732 10 6
0.16082279 5.7218165 -1.5337617 13 0
0.17651649 6.1652365 -1.4239402 24 1
0.17871368 6.0932851 -1.184924 21 2
0.24415401 8.1783676 -1.2959032 9 3
0.26617309 8.7621269 -1.0763502 18 4
0.33403328 10.80953 -0.94616276 27 5
0.34286085 10.849688 -0.56889194 10 6
0.35102117 10.926699 -0.19082463 19 7
0.20022266 5.7051096 -1.5296206 13 0
0.21726738 6.0995865 -1.4090934 22 1
0.22025913 6.0938892 -1.1853056 17 2
0.30083412 8.2041521 -1.3002834 2 3
0.39657083 10.612837 -1.3040022 7 4
0.41024429 10.826844 -0.94790584 13 5
0.41439924 10.787229 -0.56575173 30 6
0.42698267 10.915989 -0.19068499 26 7
0.23897064 5.701685 -1.529103 11 0
0.46870232 11.090409 0.19375661 12 8
0.2577866 6.0746021 -1.4036945 21 1
0.26254037 6.086319 -1.1841607 19 2
0.35689238 8.1742229 -1.2959032 2 3
0.38529736 8.719943 -1.0717192 6 4
0.47752869 10.680492 -0.93535542 19 5
0.49097174 10.812005 -0.56721711 30 6
0.27990252 5.7230315 -1.5353146 10 0
0.53212363 10.841296 0.18946333 35 8
0.30124739 6.0940642 -1.4086435 24 1
0.30366877 6.0785079 -1.1830158 17 2
0.37198904 7.3686485 -1.1685656 6 3
0.37929219 7.4105749 -0.91109526 5 4
0.56298155 10.88781 -0.95383239 13 5
0.56871754 10.888195 -0.57140404 10 6
0.31833753 5.6939344 -1.5280677 10 0
0.6137321 10.909085 0.1907199 35 8
0.3458679 6.1287799 -1.4171916 18 1
0.34760574 6.0840197 -1.1845423 17 2
0.46166423 8.006731 -1.2702481 6 3
0.50562233 8.6899319 -1.0687943 3 4
0.44210067 7.5302205 -0.65994328 8 5
0.80170327 13.375956 -0.23389715 19 7
0.35953927 5.7147093 -1.5342795 10 0
0.38741556 6.1067677 -1.4126925 20 1
0.38901037 6.0815129 -1.1845423 17 2
0.51513666 7.9876332 -1.267745 9 3
0.56381935 8.6485538 -1.0641632 5 4
0.90936047 13.837182 -1.213208 21 5
0.72029543 10.873214 -0.57109004 20 6
0.50770688 7.5838675 -0.13267319 6 7
0.39869592 5.7159843 -1.5353146 9 0
0.53152835 7.5822344 0.13267319 32 8
0.43115702 6.1350923 -1.419891 15 1
0.43215287 6.0884409 -1.1864504 21 2
1.408163 19.790178 1.7357937 1 10
0.55623573 7.7789264 -1.2352067 13 3
0.60846186 8.4266138 -1.0373518 16 4
0.94812745 13.035641 -1.1434834 18 5
0.7913664 10.802188 -0.56763583 20 6
0.81492645 11.018222 -0.19284908 13 7
0.4401812 5.7206893 -1.5373851 9 0
0.83816183 10.868068 0.19026613 11 8
0.47474664 6.1279645 -1.4189912 17 1
0.6166048 7.9231367 0.41648957 2 9
0.47434232 6.0813603 -1.1856872 19 2
1.096236 13.991511 1.2278501 3 10
0.6402486 8.1351252 -1.2924616 14 3
0.6939292 8.7585716 -1.0787874 10 4
0.87785798 11.006871 -0.96603423 13 5
0.86640233 10.768377 -0.56617045 30 6
0.87568653 10.812947 -0.18935861 19 7
0.47493553 5.6558747 -1.5208209 11 0
0.51751637 6.1245008 -1.4189912 15 1
0.51701403 6.0680294 -1.1837791 17 2
0.69753319 8.136363 -1.2934003 7 3
0.71385866 8.2928247 1.0219964 0 11
0.73305184 8.4983854 -1.0473453 6 4
0.93883103 10.817862 -0.9499976 13 5
1.1551456 13.203377 -0.69460285 17 6
1.1675085 13.264691 -0.23243116 19 7
0.51686066 5.6793561 -1.5280677 10 0
0.99490249 10.911066 0.19124347 12 8
0.55990553 6.1168575 -1.4180914 17 1
0.55740309 6.054595 -1.1818709 23 2
0.7457968 8.0547152 -1.2811985 8 3
0.80360806 8.6136274 -1.0622133 16 4
0.79565984 8.5123262 1.3540969 2 12
1.1359357 12.061872 2.3549647 1 13
0.80053538 8.484622 -0.4466351 13 6
0.55738866 5.6949325 -1.5332441 10 0
0.60114712 6.1090255 -1.4171916 19 1
0.60295302 6.0837684 -1.1883584 17 2
0.79476458 7.9765825 -1.2696222 12 3
1.0580951 10.563414 -1.3035146 4 4
0.85822397 8.5081615 -0.74814492 10 5
0.91167903 9.0223284 1.7626936 1 13
1.3179398 12.997423 -0.68465906 8 6
1.1154732 10.943623 -0.19201139 13 7
0.59632683 5.6832175 -1.5311736 10 0
0.64296401 6.0969281 -1.415392 21 1
0.64416462 6.067697 -1.1860688 17 2
0.86761314 8.1319075 -1.2952776 10 3
1.1273664 10.51432 -1.2983961 14 4
1.4163996 13.059387 -0.68842721 8 6
1.4674385 13.464208 -0.23641029 20 7
0.63727593 5.6904349 -1.5342795 10 0
0.68682033 6.10391 -1.4180914 19 1
0.68717206 6.0689044 -1.1872137 19 2
0.9234702 8.1178007 -1.294026 11 3
1.1993904 10.49436 -1.2969337 6 4
0.98968029 8.6061916 -0.75790632 10 5
0.96704757 8.3707619 -0.44161084 26 6
0.99981791 8.6148558 -0.15138218 8 7
0.67904544 5.7031116 -1.538938 8 0
0.72895408 6.0950961 -1.4171916 19 1
0.72647578 6.0386195 -1.1822525 14 2
0.97253746 8.0483999 -1.2840142 21 3
1.2752565 10.507408 -1.2996148 2 4
1.0444272 8.555563 -0.75407147 10 5
1.0303241 8.4034548 -0.44370431 26 6
1.0477169 8.5084305 -0.14963694 20 7
0.7123158 5.6464825 -1.5249618 9 0
0.77393728 6.1091914 -1.4216906 15 1
0.7703495 6.0470343 -1.184924 23 2
1.0349687 8.0903997 -1.291836 18 3
1.3513631 10.519907 -1.3022959 3 4
1.0962669 8.4988556 -0.74971366 31 5
1.7532895 13.518066 -0.71438587 17 6
0.75324941 5.6528616 -1.5280677 10 0
0.81863594 6.119092 -1.4252899 15 1
0.81201816 6.0455413 -1.1856872 23 2
1.0960863 8.1281948 -1.299032 3 3
1.1597112 8.5549183 -1.0600196 11 4
1.1488563 8.4416389 -0.74535584 20 5
1.7960564 13.145663 -0.69533557 8 6
0.78929335 5.6303854 -1.5234089 12 0
0.85700685 6.0902214 -1.419891 16 1
0.85695052 6.0591645 -1.1895033 23 2
1.1539118 8.1281681 -1.3002834 3 3
1.2215526 8.5723753 -1.0631882 9 4
1.2004184 8.3821344 -0.74082375 15 5
2.2572167 15.702826 -0.8314091 8 6
1.5817156 10.962795 -0.19333775 13 7
0.83111823 5.6419387 -1.5280677 11 0
0.89722657 6.0686674 -1.4162918 18 1
0.89865369 6.0491505 -1.1887401 19 2
1.2082986 8.1042833 -1.2977805 7 3
1.2396557 8.2848587 -1.0285773 9 4
1.262458 8.397193 -0.74291551 10 5
1.9734592 13.079808 -0.69324213 8 6
0.87343216 5.6550908 -1.5332441 9 0
0.93658441 6.0429988 -1.4117929 21 1
0.94267786 6.054368 -1.1910298 21 2
1.2697303 8.1268768 -1.3027864 6 3
1.3094596 8.3524866 -1.0380832 12 4
1.8231866 11.576549 -1.0253001 14 5
2.0915358 13.235371 -0.70224392 8 6
0.91566473 5.6660199 -1.5379028 8 0
0.98561144 6.0786319 -1.4216906 18 1
0.98365724 6.0398889 -1.1895033 25 2
1.3321656 8.1529064 -1.308418 1 3
1.3690194 8.3509769 -1.0390581 19 4
1.8728925 11.374808 -1.0085663 14 5
1.7880632 10.824252 -0.57496285 9 6
2.6067467 15.72903 -0.27829608 28 7
0.94780397 5.6156759 -1.5259972 11 0
1.0208672 6.0293326 -1.4117929 22 1
1.0284325 6.0483589 -1.1925563 23 2
1.3863941 8.1278296 -1.3059151 1 3
1.4256129 8.3314333 -1.0378394 21 4
1.4400645 8.3806944 -0.74396139 10 5
2.2666352 13.149767 -0.6993131 26 6
0.99233979 5.6393647 -1.5342795 10 0
1.0615772 6.0143828 -1.4099932 21 1
1.0726883 6.0526295 -1.1948459 23 2
1.4389545 8.094614 -1.3021606 7 3
1.5126647 8.4834814 -1.0580697 5 4
2.7812674 15.488672 -0.82471007 26 6
2.4007478 13.329466 -0.23641029 20 7
1.0243789 5.5923939 -1.5234089 12 0
1.1112891 6.0489912 -1.419891 22 1
1.1120661 6.0295486 -1.1917931 25 2
1.5105172 8.1659527 -1.3153011 1 3
1.534192 8.2697296 -1.0327208 12 4
2.0423913 10.976962 -0.97684151 13 5
2.4859467 13.309242 -0.70957094 8 6
1.0648415 5.5926967 -1.5254794 12 0
1.1611671 6.0812821 -1.4293389 26 1
1.1538236 6.0256953 -1.1925563 25 2
1.5675602 8.1632414 -1.3165526 1 3
1.5941464 8.2705116 -1.0341833 13 4
2.6023271 13.425344 -0.71668863 26 6
2.1191757 10.892071 -0.19368681 13 7
1.1092446 5.6175394 -1.5342795 10 0
1.203667 6.0789738 -1.4306886 20 1
1.1981558 6.029047 -1.1948459 29 2
1.5998012 8.0281134 -1.2965289 11 3
1.6387321 8.2010717 -1.0268712 11 4
1.6744032 8.3492298 -0.74500728 15 5
2.6381094 13.119015 -0.70130187 17 6
2.1893139 10.85779 -0.19333775 13 7
1.1515378 5.6247988 -1.5384204 10 0
1.237851 6.030334 -1.4212408 25 1
1.2410096 6.0243812 -1.1956092 31 2
1.6781847 8.1250839 -1.3140497 1 3
2.118222 10.228527 -1.2825531 9 4
1.7683257 8.5089998 -0.76034665 10 5
2.7300406 13.102233 -0.70140654 35 6
1.1987889 5.6544199 -1.5487732 9 0
1.2714093 5.9815168 -1.4117929 21 1
1.2879546 6.0386109 -1.2001886 27 2
1.7249577 8.0668068 -1.3065407 4 3
2.1875036 10.203785 -1.2813344 6 4
2.351434 10.931241 -0.97823608 14 5
3.3309059 15.445229 -0.82805955 8 6
3.3692656 15.583503 -0.27829608 28 7
1.2419597 5.6628962 -1.553432 9 0
1.3223432 6.0143666 -1.4216906 16 1
1.3317723 6.0371408 -1.2017151 29 2
1.7978678 8.1297903 -1.3187426 1 3
1.8964884 8.5544977 -1.0758626 2 4
2.4475956 11.004021 -0.98625439 21 5
3.4595244 15.515167 -0.83308387 26 6
1.2774875 5.6411228 -1.5498085 9 0
1.3649796 6.0128269 -1.4234902 18 1
1.3728323 6.0279365 -1.2017151 27 2
4.515337 19.810318 1.7776285 1 10
1.8637121 8.1635866 -1.3262516 1 3
2.3997173 10.486135 -1.32082 3 4
2.5723674 11.204596 -1.0057772 14 5
3.0096169 13.077746 -0.70329064 17 6
1.3045264 5.5793948 -1.5353146 10 0
1.4095889 6.0145359 -1.4261897 16 1
1.4157774 6.0220289 -1.2024784 27 2
1.9188429 8.1426859 -1.325 1 3
2.4701328 10.457534 -1.3193576 3 4
2.6165342 11.042898 -0.9928782 14 5
3.1220725 13.145804 -0.70810556 8 6
1.3411814 5.5607615 -1.5327265 12 0
1.4487965 5.9931836 -1.4234902 18 1
1.4587128 6.0158129 -1.2032416 31 2
1.9490558 8.0196781 -1.3071665 8 3
2.5397863 10.426535 -1.3176514 9 4
2.6670678 10.924184 -0.98381394 14 5
3.7558129 15.337157 -0.82753623 35 6
1.3822978 5.5606375 -1.5353146 11 0
1.4849455 5.9602327 -1.4180914 22 1
1.506286 6.0324111 -1.2085842 27 2
2.0136697 8.0464678 -1.3137368 9 3
2.6260467 10.462461 -1.3244762 4 4
2.7661126 10.996113 -0.99200666 35 5
3.9157839 15.532018 -0.83946884 17 6
1.4205974 5.5529709 -1.5358323 13 0
1.5312916 5.9726381 -1.4234902 18 1
1.546405 6.014143 -1.2070577 31 2
2.0816219 8.078124 -1.3212456 12 3
2.6806471 10.37276 -1.3154578 7 4
3.3088722 12.77606 -1.1546392 19 5
4.0366664 15.55263 -0.8420856 8 6
1.4883485 5.6491451 -1.5653377 11 0
1.5680221 5.9389181 -1.4180914 16 1
1.5933787 6.0221796 -1.210874 29 2
2.1327884 8.0381994 -1.3171782 13 3
2.7662547 10.403673 -1.321795 7 4
4.1411529 15.498264 -0.84072489 17 6
2.883513 10.768936 -0.19459434 13 7
1.5201753 5.6106467 -1.5575731 14 0
1.6186363 5.961678 -1.4261897 19 1
1.6343657 6.003047 -1.2093475 29 2
2.1950929 8.0459833 -1.3209327 8 3
2.8445821 10.405169 -1.3244762 5 4
3.4290991 12.508958 -1.1347678 18 5
3.9566841 14.403943 -0.78284132 8 6
1.5634511 5.6147866 -1.5617142 13 0
1.6644042 5.9652495 -1.4297889 22 1
1.6772959 5.9952717 -1.2101108 29 2
2.2405505 7.9924207 -1.3146753 13 3
2.8473661 10.136611 -1.2927902 9 4
3.1684911 11.249666 -1.0225111 21 5
4.3631001 15.460078 -0.84187627 26 6
1.6036739 5.6074495 -1.5627494 16 0
1.7103034 5.9684715 -1.4333881 20 1
1.7223597 5.9947371 -1.2124004 29 2
2.2968361 7.9784832 -1.3149883 20 3
2.9945312 10.381606 -1.3266698 7 4
3.1672494 10.951659 -0.9974103 14 5
3.1101415 10.733133 -0.58563942 9 6
1.6384289 5.5812879 -1.5586084 13 0
1.7508299 5.9526467 -1.4324883 19 1
1.7686112 5.997632 -1.2154534 25 2
2.3664737 8.0096149 -1.3228099 8 3
3.0793316 10.402323 -1.332032 7 4
3.7345328 12.583383 -1.1483641 18 5
4.5557623 15.321074 -0.8376894 8 6
1.6779082 5.5715642 -1.559126 15 0
1.7867154 5.9216218 -1.4279894 18 1
1.8127133 5.9926553 -1.2169799 27 2
4.1517653 13.716698 1.2538224 2 10
2.4360838 8.03827 -1.3303189 8 3
3.1449573 10.357778 -1.3291072 6 4
3.8862021 12.77497 -1.1682355 19 5
4.724369 15.491399 -0.84878463 8 6
3.2797892 10.734416 -0.19592072 20 7
1.7036575 5.5172591 -1.5472202 12 0
1.8360754 5.9350677 -1.4342879 22 1
1.8569492 5.9914293 -1.2192695 27 2
2.5018718 8.0573454 -1.3362634 3 3
3.1717629 10.189625 -1.3103393 4 4
3.8851347 12.458417 -1.1417402 18 5
3.3859766 10.837804 -0.59505987 9 6
4.1118813 13.129066 -0.2401451 100 7
1.7481606 5.5276389 -1.553432 13 0
1.877606 5.9261484 -1.4351877 21 1
1.8987321 5.9783192 -1.2192695 31 2
2.5712383 8.0810947 -1.3431464 2 3
4.1816454 13.126574 1.6915467 3 11
1.9147264 6.0068688 -0.77411413 6 4
4.0993638 12.829542 -1.1783456 19 5
3.4481602 10.772052 -0.59275711 19 6
3.4653404 10.806234 -0.19808482 13 7
1.8045692 5.5704341 -1.5689611 9 0
1.9123156 5.8925066 -1.4302388 14 1
1.9477075 5.9873228 -1.2238491 32 2
2.6324852 8.0779734 -1.3456494 1 3
1.9541484 5.9858079 -0.77313918 7 4
4.1578484 12.705932 -1.1696301 19 5
3.4511089 10.527562 -0.58061516 9 6
1.8251712 5.5026913 -1.553432 9 0
1.9527948 5.8771625 -1.4297889 25 1
1.9907 5.977304 -1.2246122 30 2
2.6675606 7.9956884 -1.3350118 9 3
1.9952606 5.9701371 -0.77289546 10 4
5.1650968 15.392218 -0.85087812 8 6
3.6158774 10.756799 -0.19808482 13 7
1.8598143 5.4788394 -1.5503261 12 0
2.01636 5.9298072 -1.4459854 16 1
2.0326064 5.9673319 -1.2253754 32 2
2.7474399 8.0521269 -1.3475267 2 3
2.0375364 5.9579391 -0.77313918 12 4
4.5263491 13.212852 -1.2219235 21 5
3.6776142 10.717009 -0.59380382 19 6
1.8938978 5.4569283 -1.547738 17 0
2.057956 5.9196258 -1.4468851 15 1
2.0780923 5.9641204 -1.2276652 32 2
2.8087945 8.0476704 -1.3500296 1 3
2.087599 5.9679294 -0.77630776 18 4
3.7461755 10.691408 -0.99113512 14 5
4.5526848 12.971382 -0.72045684 17 6
1.9406555 5.4650817 -1.5539496 18 0
2.0806713 5.8496661 -1.4333881 21 1
2.1236327 5.9605632 -1.2299548 34 2
2.8543537 7.9938793 -1.344398 1 3
2.1372344 5.9756398 -0.77923268 25 4
3.8314703 10.695007 -0.99392402 14 5
4.6042199 12.823807 -0.71407187 17 6
3.9080362 10.866882 -0.20157529 14 7
1.9813955 5.4586644 -1.5560201 15 0
2.1361053 5.8752909 -1.4432859 21 1
2.1742964 5.96735 -1.2345343 34 2
2.3290217 6.3816032 -1.0759563 18 3
2.1836708 5.9736242 -0.78093886 36 4
3.8484995 10.51084 -0.97928184 14 5
3.903789 10.638835 -0.59390849 19 6
3.9272344 10.685428 -0.19871311 35 7
2.0194585 5.4446979 -1.5560201 14 0
3.9712181 10.701159 0.19923668 39 8
2.1641791 5.8255253 -1.4347378 25 1
2.2244499 5.9781713 -1.2398769 32 2
2.9622309 7.9482112 -1.3434594 8 3
2.2176785 5.9377785 -0.77825767 33 4
3.9783244 10.634872 -0.99340117 28 5
3.9642069 10.580219 -0.59212905 19 6
4.9014778 13.054012 -0.24339128 21 7
2.0619433 5.4452801 -1.5601612 14 0
2.2293484 5.8780775 -1.4513842 21 1
2.2717109 5.9771776 -1.2429299 32 2
2.5067418 6.5851912 -1.1160036 13 3
2.2707767 5.9559321 -0.78264499 39 4
4.0510559 10.603116 -0.99305254 14 5
4.2684345 11.166231 2.3236721 1 13
4.0970902 10.690016 -0.19983006 14 7
2.1019983 5.4361577 -1.5617142 13 0
2.2696271 5.8605533 -1.4509343 24 1
2.3041477 5.9373803 -1.2379688 16 2
2.2957425 5.9065428 -1.0036837 22 3
2.279176 5.8548403 -0.771433 33 4
2.2851396 5.8580585 -0.55012703 43 5
2.296706 5.8786173 -0.33076328 22 6
4.1861944 10.698397 -0.20052816 21 7
2.1505401 5.4483037 -1.5694788 18 0
2.3291161 5.8916831 -1.4626317 42 1
2.3202357 5.857265 -1.2246122 34 2
2.3245356 5.8591585 -0.99836493 42 3
2.3258564 5.8535447 -0.7733829 39 4
2.3281918 5.8475156 -0.55065 56 5
2.3428688 5.8754258 -0.33149597 33 6
2.2101758 5.4869165 -1.5850078 15 0
2.3665457 5.8662434 -1.4603822 37 1
2.3743145 5.8736873 -1.2314813 32 2
2.3750226 5.8665891 -1.0024322 47 3
2.408437 5.9401832 -0.78703225 39 4
2.3884532 5.8791132 -0.5551821 31 5
4.3423738 10.672609 -0.60385227 27 6
2.2638483 5.5088768 -1.5958784 12 0
2.4015062 5.8351636 -1.4567831 19 1
2.4526882 5.9477167 -1.2505622 32 2
2.4604707 5.9489064 -0.79044467 33 4
4.3620038 10.530804 -0.99723595 21 5
5.3401036 12.866732 -0.73008668 8 6
5.4592781 13.134448 -0.24827793 33 7
2.3029988 5.4947195 -1.596396 10 0
2.4512355 5.839818 -1.4621819 19 1
2.5022433 5.9526038 -1.2551417 28 2
2.7139723 6.4468369 -1.107869 18 3
2.5065677 5.9425588 -0.79190701 28 4
4.483479 10.613889 -1.0080433 28 5
4.5435834 10.740484 -0.61117935 9 6
2.3251698 5.4433846 -1.5860431 12 0
3.5825293 8.3788538 0.15906124 15 8
2.5077906 5.8624148 -1.4720796 14 1
27.760206 64.831917 3.6960702 26 9
2.5468326 5.9422073 -1.2566681 26 2
2.7682636 6.4495163 -1.1116234 13 3
2.5516629 5.9363017 -0.79336947 27 4
4.5918641 10.667305 -1.0160617 14 5
3.5727973 8.2840052 -0.47280309 12 6
3.6163847 8.3730106 -0.15920086 18 7
2.3407488 5.3756537 -1.5710317 14 0
2.5377519 5.819756 -1.4657811 18 1
2.595078 5.9427261 -1.2604843 30 2
2.7669857 6.3273597 -1.0937898 21 3
2.599417 5.9328895 -0.79531944 26 4
5.6907082 12.951515 -0.74139124 17 6
4.733428 10.752448 -0.20506579 14 7
2.3905988 5.3896184 -1.5798315 11 0
2.5725579 5.7916627 -1.4630816 19 1
27.100054 60.953579 3.4959376 16 9
2.6444848 5.9424005 -1.2643005 30 2
2.9534152 6.6272526 -1.1491677 16 3
2.6456292 5.9254732 -0.79678184 23 4
3.7132342 8.3049288 -0.79590619 27 5
4.1389627 9.2484388 1.9695306 1 13
4.7509713 10.610994 -0.60929525 9 6
4.8083787 10.719141 -0.20506579 14 7
2.4060235 5.3213258 -1.5648201 22 0
2.6332273 5.815712 -1.4738793 14 1
27.617975 60.940006 3.5064046 17 9
2.6972532 5.9488277 -1.2696431 30 2
3.0072992 6.620337 -1.1516707 15 3
29.801319 65.574913 8.844059 20 11
2.6951513 5.9249277 -0.79921919 24 4
3.7769046 8.2914963 -0.79712647 22 5
4.8848248 10.703916 -0.61662227 8 6
2.4374576 5.2921157 -1.5611964 24 0
2.6721323 5.7936473 -1.4729795 18 1
2.749635 5.9507604 -1.2742226 30 2
3.6722589 7.9365878 -1.3850709 1 3
2.7447925 5.9239812 -0.80165666 31 4
3.8548195 8.3083038 -0.80130988 11 5
4.9577489 10.66593 -0.616413 26 6
4.8309975 10.37902 -0.19983006 14 7
2.5137262 5.3589211 -1.5860431 13 0
2.7357149 5.8242378 -1.4855767 15 1
2.7984357 5.9496708 -1.2780387 30 2
29.746262 63.185444 6.1099663 24 10
3.009073 6.388813 -1.1185066 11 3
29.622023 62.836151 8.5296364 15 11
2.7911651 5.9154458 -0.803119 28 4
3.9919784 8.4565611 1.4811217 3 12
3.9859309 8.4361105 -0.81630063 11 5
4.998631 10.565137 -0.61254007 36 6
2.5534716 5.3486609 -1.5881137 14 0
2.7803364 5.8160319 -1.4882761 17 1
2.8466852 5.9441557 -1.2810917 30 2
28.56756 59.625061 5.7843523 15 10
3.116806 6.4994574 -1.1416589 11 3
2.8485515 5.9320993 -0.80799377 31 4
2.5958169 5.3411293 -1.5912195 14 0
2.7935843 5.7404075 -1.4738793 17 1
2.8984377 5.9453139 -1.2856711 26 2
3.8036821 7.798707 0.75912648 2 10
3.1473732 6.4473619 -1.1363401 12 3
2.9021008 5.9370365 -0.8114062 31 4
4.0332289 8.2364883 -0.80235577 22 5
7.0132809 14.303258 -0.83486325 17 6
2.6390374 5.3349977 -1.594843 13 0
2.8543508 5.7626748 -1.484677 17 1
32.687511 65.935242 3.8568461 33 9
2.9451089 5.9354858 -1.2879608 30 2
29.592144 59.613007 5.822701 16 10
3.1351767 6.3102431 -1.1160036 19 3
31.042847 62.425964 8.5603476 16 11
2.9434783 5.9166312 -0.8114062 28 4
4.0995193 8.2259626 -0.8040989 22 5
5.2446523 10.509963 -0.61557555 9 6
2.6631892 5.2905607 -1.5870785 16 0
2.9120548 5.777411 -1.493675 19 1
7.1058269 14.085468 0.82680351 4 9
2.9900143 5.9217906 -1.2894872 30 2
30.67775 60.731632 5.9527373 19 10
3.2335217 6.3957376 -1.1350887 8 3
2.9972644 5.9207325 -0.8148185 31 4
4.1622539 8.2078037 -0.80514479 11 5
5.3151855 10.467751 -0.61526155 18 6
5.4603801 10.739764 -0.21030149 15 7
2.6930141 5.2580833 -1.5829374 18 0
2.932754 5.7187915 -1.4837772 18 1
3.0366659 5.9112501 -1.291777 30 2
3.3919411 6.5943408 -1.1745101 11 3
3.0457971 5.9137816 -0.81676841 28 4
4.275557 8.2908411 -0.81612635 28 5
7.9025435 15.297781 -0.90237665 9 6
5.5131807 10.658751 -0.20946379 15 7
2.7439365 5.2665682 -1.5912195 14 0
2.9708021 5.6947241 -1.4828774 15 1
3.0895548 5.9148068 -1.2971196 32 2
7.1399174 13.6574 1.3482993 4 10
3.3744924 6.4520726 -1.153235 15 3
3.0925364 5.9029245 -0.81823081 26 4
4.3546214 8.3013716 -0.82013553 11 5
5.5509505 10.568521 -0.62562406 17 6
8.0734558 15.345119 -0.30265963 32 7
2.7616384 5.2136245 -1.5808668 18 0
2.9857588 5.6296072 -1.47118 18 1
30.85425 58.126308 3.4488351 14 9
3.1455102 5.9208341 -1.3032255 28 2
31.150675 58.610626 5.807013 15 10
3.4333696 6.4545174 -1.1579281 11 3
3.1419764 5.8992581 -0.82066822 23 4
4.3960261 8.2434092 -0.81734651 17 5
5.5897741 10.464333 -0.62175119 17 6
2.8089607 5.2146287 -1.5870785 15 0
3.0360863 5.629209 -1.4765787 16 1
31.093672 57.626656 3.4316688 13 9
3.1950676 5.9165602 -1.3070416 26 2
3.4650106 6.4084077 -1.1538608 12 3
34.706009 64.133949 8.9537411 21 11
3.192538 5.8946342 -0.82310557 28 4
4.4933591 8.2860785 -0.82466763 17 5
5.7561793 10.601562 -0.63221842 17 6
2.8592341 5.2224998 -1.5953608 19 0
3.0555983 5.5742359 -1.4675807 37 1
3.2419646 5.9044361 -1.3093314 26 2
31.606661 57.539906 5.7435632 14 10
3.5363111 6.4325304 -1.162621 15 3
3.2498155 5.9040718 -0.82749295 31 4
4.6001573 8.3434906 -0.83355749 29 5
8.4062786 15.227944 -0.91158777 9 6
5.8514047 10.586694 -0.21113922 15 7
2.8993826 5.2091637 -1.5974313 15 0
3.1077204 5.5765996 -1.4738793 20 1
3.2697098 5.8576589 -1.3039887 9 2
31.945427 57.206516 5.7324076 13 10
3.5425844 6.3387113 -1.1501063 12 3
34.946911 62.478878 8.7899494 19 11
3.3132493 5.921083 -0.83309889 48 4
4.6134801 8.231226 -0.82553917 34 5
5.9867163 10.66821 -0.64111555 8 6
2.9528017 5.2190599 -1.6067487 15 0
3.1312087 5.5276384 -1.4666809 16 1
3.2766178 5.7749238 -1.2906321 8 2
32.245674 56.808834 5.7149763 13 10
3.5574818 6.2622962 -1.1407202 13 3
32.609566 57.356609 8.1011438 10 11
3.3623595 5.9116101 -0.83504879 41 4
4.7211308 8.2871075 -0.83442909 11 5
6.068965 10.640035 -0.64195293 26 6
6.0680618 10.625521 -0.21358256 24 7
3.0093889 5.2334876 -1.6176192 13 0
3.18139 5.5259094 -1.4720796 14 1
32.790257 56.909088 3.4421363 14 9
3.3286204 5.7723184 -1.2952114 8 2
32.778851 56.820503 5.7390308 14 10
3.6781509 6.3707457 -1.1651241 13 3
3.4164608 5.910336 -0.83821738 35 4
6.1026239 10.540287 -1.0655661 15 5
6.2392612 10.763284 -0.65200138 8 6
3.0400016 5.2023439 -1.6145133 13 0
3.2257926 5.513658 -1.4747791 14 1
3.3916674 5.7878981 -1.3039887 9 2
3.8334939 6.5340328 -1.1998525 17 3
34.874668 59.394989 8.4570017 15 11
3.4656827 5.900034 -0.84016734 38 4
7.1137719 12.100926 2.2232468 1 12
6.190383 10.525985 -1.0683551 15 5
6.2574801 10.623096 -0.6461398 8 6
4.9460468 8.3866806 -0.16995154 10 7
3.0653973 5.1627216 -1.6088192 15 0
3.2711766 5.5027294 -1.4779284 13 1
3.4490569 5.7950463 -1.3108579 11 2
33.89122 56.898193 5.7941136 15 10
3.7979949 6.3737311 -1.1751359 15 3
35.318844 59.224407 8.4667521 15 11
3.5189965 5.8961501 -0.8430922 37 4
6.3291245 10.591971 -1.079511 16 5
6.3050351 10.539122 -0.64362764 8 6
3.0914903 5.1268477 -1.6041605 13 0
3.3307149 5.5170383 -1.4878262 10 1
3.5178759 5.8178649 -1.3215431 11 2
34.721127 57.39925 5.8690677 17 10
3.9037824 6.4484496 -1.193908 25 3
35.319996 58.297272 8.369256 13 11
3.5755117 5.8992224 -0.84699202 31 4
4.9933138 8.2287264 -0.84209877 11 5
6.3950505 10.522159 -0.64530241 8 6
5.0778418 8.3450203 -0.17051001 10 7
3.1060154 5.0705457 -1.5932901 15 0
3.3956385 5.5368428 -1.4995238 10 1
3.5717745 5.8172088 -1.3268858 9 2
35.248283 57.362522 5.8903332 36 10
3.7458587 6.093575 -1.1328986 23 3
3.6290979 5.8944016 -0.84991688 35 4
6.5728364 10.663129 -1.0958962 16 5
6.5451975 10.605856 -0.65315276 17 6
6.5195899 10.547878 -0.21644475 16 7
3.1607299 5.0799026 -1.6031252 13 0
3.425967 5.4997692 -1.4959245 13 1
3.614377 5.7954631 -1.327649 9 2
35.736511 57.257034 5.9049759 18 10
3.8772728 6.2073474 -1.1591796 8 3
3.6848924 5.8924875 -0.85332924 27 4
5.2134433 8.3270807 -0.85952991 12 5
12.454258 19.869207 -1.228953 10 6
5.2115474 8.3047056 -0.1711383 10 7
3.2014251 5.0680709 -1.6062311 9 0
3.4518664 5.4582047 -1.4909756 20 1
37.106018 58.650539 3.6372445 23 9
3.6369379 5.7441869 -1.3215431 9 2
37.057426 58.483387 6.0573239 22 10
3.8919165 6.1397853 -1.1513578 12 3
3.7387836 5.8913832 -0.85674155 32 4
5.1503072 8.1030722 -0.84000701 23 5
5.2593598 8.2650852 -0.51341575 11 6
3.2464352 5.0646167 -1.611925 20 0
3.493253 5.4433913 -1.4932251 14 1
3.6791379 5.7242522 -1.322688 7 2
39.922825 62.090816 6.4582405 33 10
3.8545189 5.9902244 -1.1282055 12 3
3.7938492 5.8891606 -0.86015391 32 4
6.7046161 10.39158 -1.0819514 16 5
6.8478289 10.601358 -0.6614219 8 6
6.8508806 10.593909 -0.22021447 25 7
3.2943602 5.0612583 -1.6181368 15 0
3.5492568 5.4466271 -1.5008734 14 1
3.7233033 5.7050042 -1.3242146 7 2
39.595058 60.646118 6.3365707 30 10
3.8638299 5.9135585 -1.1188195 12 3
3.8533444 5.8907723 -0.86429745 40 4
6.9451427 10.601174 -1.1087954 17 5
6.9063387 10.529912 -0.65995646 8 6
6.9949183 10.652802 -0.22244836 17 7
3.3253536 5.0316892 -1.6160662 15 0
3.6000986 5.4412179 -1.5062722 14 1
3.8053341 5.7426972 -1.3390976 9 2
40.019657 60.371552 6.3369193 30 10
3.9115722 5.8963165 -1.1206967 8 3
3.9085815 5.8828883 -0.86722231 40 4
7.0962238 10.668553 -1.1209971 17 5
6.9564357 10.44653 -0.65775836 17 6
7.0709682 10.602474 -0.22244836 17 7
3.3741939 5.0270128 -1.6222779 16 0
3.6476378 5.428257 -1.5098715 15 1
3.8223202 5.6817832 -1.3310837 7 2
40.237007 59.766308 6.303452 29 10
3.9602873 5.8780041 -1.1225739 8 3
3.9639869 5.8768525 -0.87039089 33 4
7.176106 10.627009 -1.1218687 44 5
7.0824795 10.472588 -0.66257328 35 6
7.1313624 10.532981 -0.22202952 17 7
3.4287851 5.0320721 -1.6315954 16 0
3.6920321 5.4123206 -1.512571 15 1
3.8861372 5.6883283 -1.3390976 9 2
40.765724 59.648422 6.3208828 30 10
3.9878454 5.830647 -1.1188195 8 3
4.0149136 5.8614383 -0.87234086 32 4
7.1471763 10.422572 -1.1056577 17 5
5.7186837 8.3300762 -0.52953523 11 6
3.43173 4.9597483 -1.6160662 15 0
3.7462022 5.4081898 -1.5188695 7 1
3.939177 5.6804209 -1.343677 13 2
4.0429878 5.8214307 -1.1225739 9 3
4.0818 5.8707528 -0.87794685 38 4
7.2174888 10.36915 -1.1053091 17 5
7.3131971 10.491025 -0.67021435 17 6
3.4751539 4.9483166 -1.6202073 16 0
5.8469152 8.319314 0.17749096 10 8
3.8006794 5.4058166 -1.5256181 15 1
3.986506 5.6617188 -1.3459667 11 2
4.1040139 5.8221278 -1.1282055 12 3
4.1444302 5.872932 -0.8825779 35 4
6.0734076 8.5968628 -0.92088759 13 5
5.8047261 8.2043781 -0.52670908 22 6
3.5275557 4.9491053 -1.6284895 11 0
5.9034038 8.2793255 0.17749096 20 8
3.8326669 5.3712196 -1.5233686 23 1
4.0352225 5.6488299 -1.3494014 13 2
4.1550422 5.8101239 -1.1313342 9 3
4.2119145 5.8809743 -0.88818389 37 4
7.4869404 10.442245 -1.1241348 17 5
5.95011 8.2896156 -0.53476888 21 6
5.9561582 8.2858257 -0.17811926 11 7
3.6075718 4.9891634 -1.6497126 9 0
3.8657107 5.3402715 -1.5220188 13 1
4.0964541 5.650722 -1.356652 13 2
4.2140651 5.8065557 -1.1363401 12 3
4.2646818 5.8698339 -0.89086497 35 4
6.0099812 8.259901 -0.893695 25 5
7.6941295 10.562894 -0.6848684 17 6
3.6217432 4.9358206 -1.6403952 14 0
3.9098208 5.3225765 -1.5247183 14 1
4.1288242 5.6124973 -1.3543624 11 2
4.2673845 5.7944908 -1.1397816 11 3
4.3220491 5.862287 -0.89427733 35 4
6.1550741 8.3363523 -0.90659404 12 5
7.6964545 10.412554 -0.67858809 17 6
7.8183522 10.565892 -0.22942933 19 7
3.649189 4.9011207 -1.6372893 14 0
3.9666803 5.3217149 -1.5323665 20 1
4.2125325 5.6433196 -1.3688638 9 2
4.3349309 5.800952 -1.1469777 12 3
4.3771396 5.8510447 -0.89720219 28 4
45.762905 61.127998 12.094263 28 12
6.2179017 8.2995567 -0.90729129 19 5
7.7881284 10.384137 -0.6802628 17 6
7.8102751 10.402314 -0.2270558 18 7
3.7159245 4.9186831 -1.6517832 22 0
4.0695667 5.3809304 -1.557561 14 1
4.2423425 5.6012554 -1.3658109 9 2
13.583055 17.927479 1.9678023 3 10
4.4600582 5.882309 -1.1691914 10 3
4.4406819 5.850389 -0.90183324 23 4
46.293663 60.945473 12.121796 28 12
6.2986002 8.2860823 -0.91060323 31 5
7.7902842 10.237328 -0.67419189 17 6
3.7583995 4.9033542 -1.6554067 11 0
4.090425 5.3307438 -1.5512625 18 1
4.4595828 5.803453 -1.4226719 5 2
10.165854 13.224499 1.4593358 3 10
4.5407658 5.9026942 -1.1795161 8 3
4.514122 5.8617067 -0.90841419 32 4
6.8960433 8.9482327 1.7892977 3 12
6.2855167 8.1530762 -0.90066743 25 5
4.5563116 5.9015684 -0.39074031 12 6
3.78898 4.8724227 -1.6538538 13 0
4.1191583 5.2912951 -1.5481132 23 1
4.5991473 5.9014921 -1.4543462 8 2
13.556347 17.382589 1.9285822 3 10
4.5856957 5.8778811 -1.1807675 5 3
4.5757108 5.8566422 -0.91255772 38 4
47.830204 61.197903 12.302009 30 12
6.374197 8.1498003 -0.90519953 25 5
4.5840669 5.8546901 -0.38969359 12 6
3.8208616 4.8450022 -1.6533362 14 0
4.1587024 5.2677236 -1.5494629 21 1
4.6402359 5.8692398 -1.4543462 8 2
13.535928 17.114889 1.9090594 1 10
4.6278458 5.8472733 -1.1810803 11 3
4.6240964 5.8362546 -0.9142639 28 4
47.080585 59.379608 12.00228 27 12
4.6167026 5.8185663 -0.6498332 25 5
4.5875611 5.7756262 -0.38655341 25 6
8.4294491 10.601067 -0.23641029 20 7
3.8545928 4.8182092 -1.6533362 16 0
4.0089965 5.0058379 -1.4806278 26 1
4.6344218 5.7785039 -1.4398447 24 2
4.6289797 5.7655311 -1.1710685 30 3
45.449802 56.568558 8.9098682 20 11
4.6261773 5.7558641 -0.906708 43 4
4.6247277 5.745842 -0.6453011 46 5
4.6315274 5.7481256 -0.3868674 25 6
8.4781389 10.510835 -0.2357122 50 7
3.8735282 4.773181 -1.6471245 14 0
4.1237159 5.0760422 -1.5098715 17 1
4.6820874 5.7551441 -1.4421345 24 2
4.6853375 5.752984 -1.1751359 33 3
6.7984719 8.3416977 1.3213075 4 11
4.6973581 5.7595329 -0.91255772 41 4
48.109833 58.967499 12.05359 27 12
4.6735497 5.7242188 -0.64652127 55 5
4.6980872 5.7481275 -0.38906553 25 6
3.8953049 4.7304277 -1.6419481 15 0
4.321075 5.2418838 -1.5683587 14 1
4.7846274 5.7980304 -1.4612154 8 2
4.8257952 5.8396029 -1.1998525 27 3
4.8272953 5.8351936 -0.92986321 31 4
48.268551 58.305233 11.988513 27 12
9.0048952 10.873446 -1.2351712 22 5
4.8028483 5.7912292 -0.39429915 26 6
8.7791624 10.574559 -0.23990077 21 7
3.9356649 4.7120137 -1.645054 16 0
4.3525653 5.2056098 -1.5665591 14 1
4.8436399 5.784718 -1.466558 11 2
4.8968978 5.8421063 -1.2073613 20 3
46.754124 55.739162 8.9327803 21 11
4.8972597 5.836328 -0.93546921 18 4
8.867856 10.557072 -1.2062355 21 5
4.8791633 5.8003507 -0.39722994 26 6
8.8862667 10.552776 -0.24080829 21 7
3.9634681 4.6785293 -1.6429834 14 0
4.3610692 5.1424007 -1.5566614 21 1
4.8981504 5.7695742 -1.4711374 9 2
4.9570184 5.8327222 -1.2123673 20 3
46.535717 54.717976 8.819685 19 11
4.9468918 5.8125787 -0.93717533 6 4
8.7837057 10.309879 -1.1849694 20 5
4.9405627 5.7928414 -0.39900938 26 6
8.9519262 10.481362 -0.24059887 21 7
4.0052938 4.6631637 -1.6471245 16 0
4.4379005 5.1613564 -1.5715082 23 1
4.9280591 5.7233377 -1.4680845 11 2
45.226631 52.506611 6.062902 23 10
5.0234089 5.8279009 -1.2186246 24 3
6.6942739 7.7581353 -1.2581792 16 4
50.248802 58.19326 12.177485 29 12
5.0305357 5.815609 -0.40298688 26 6
9.1068401 10.516934 -0.24283278 21 7
4.030138 4.626348 -1.6440187 14 0
4.4789491 5.1361232 -1.5733078 23 1
4.9875631 5.7133226 -1.4741904 11 2
45.749359 52.369663 6.0838189 23 10
5.0915613 5.8262935 -1.2255077 27 3
46.828339 53.548172 8.7343769 18 11
5.6083121 6.4085789 -1.0456392 7 4
51.164185 58.444424 12.302633 30 12
9.2532425 10.562452 -1.2285473 21 5
5.0963426 5.811265 -0.40508035 26 6
4.0538602 4.5901227 -1.6409128 15 0
4.5434909 5.1390986 -1.5836555 20 1
13.41555 15.163515 1.0610592 3 9
5.0182157 5.6680765 -1.471519 11 2
46.118008 52.071941 6.0855627 23 10
5.1609344 5.8231311 -1.2323909 25 3
5.6531186 6.3717442 -1.0458828 12 4
51.138184 57.598312 12.199387 29 12
9.2605915 10.423122 -1.2198317 21 5
5.1606808 5.8024073 -0.40696445 26 6
6.6154413 7.4302287 -0.17365146 11 7
4.1399422 4.6221466 -1.6626536 14 0
4.5597463 5.0854874 -1.5769069 26 1
5.0760269 5.6533556 -1.4768617 13 2
5.2252307 5.8134041 -1.2380226 23 3
47.77058 53.110481 8.770937 19 11
6.4569483 7.1762085 -1.1853014 7 4
50.669323 56.273968 11.99352 27 12
6.6177454 7.3445988 -0.86493361 12 5
5.215776 5.7825541 -0.40811583 26 6
4.1669126 4.5874138 -1.660583 15 0
9.6184196 10.581633 0.24960433 20 8
4.6488881 5.1126471 -1.5953529 20 1
5.1391664 5.6439075 -1.4837308 11 2
5.2976289 5.8118181 -1.2455313 22 3
48.474613 53.142357 8.831872 19 11
7.1812663 7.8700018 -1.3081456 13 4
10.107223 11.068828 2.3740497 3 12
7.6081996 8.3291187 -0.98695159 14 5
5.2937636 5.7872643 -0.41104665 27 6
7.5369148 8.2308712 -0.19480376 13 7
4.2014546 4.5610533 -1.6616182 14 0
4.617094 5.0070033 -1.5724078 30 1
5.1934414 5.6261086 -1.4883102 13 2
5.3692384 5.8104458 -1.2530402 22 3
7.3020949 7.8910718 -1.3200889 2 4
10.127314 10.940338 2.361222 3 12
7.5551333 8.1559496 -0.9726581 20 5
5.3561206 5.7759929 -0.41282606 27 6
7.5996394 8.1839094 -0.19494337 13 7
4.2192159 4.5182314 -1.6564419 15 0
4.5885224 4.9085507 -1.5512625 18 1
5.2674766 5.6269798 -1.4982322 11 2
5.4555969 5.8218269 -1.2636777 22 3
7.4140382 7.9034395 -1.3305696 1 4
49.547615 52.781326 11.466022 43 12
5.4400973 5.7850189 -0.41617554 27 6
4.2639422 4.5026908 -1.6616182 18 0
4.6427884 4.8976107 -1.5580109 23 1
46.527805 49.047218 3.54304 18 9
5.3377171 5.6228199 -1.5070095 14 2
5.5205989 5.8093758 -1.2693094 21 3
6.0365224 6.345624 -1.0753752 4 4
50.470596 53.017883 11.593673 23 12
10.114424 10.617482 -1.2829325 23 5
5.4955139 5.7627983 -0.41732696 40 6
4.2845683 4.4616661 -1.6574773 16 0
4.7781563 4.9704447 -1.5917536 22 1
5.3210206 5.5274262 -1.4913632 11 2
5.5911798 5.8019834 -1.2761924 21 3
6.0296826 6.2504654 -1.0663568 7 4
51.533714 53.383369 11.751984 24 12
8.017746 8.2997284 -1.0096121 14 5
5.5661545 5.7558813 -0.41962975 40 6
4.3129144 4.4288793 -1.6564419 16 0
4.8154588 4.9397588 -1.5926535 21 1
13.312089 13.646178 0.99909347 2 9
5.4157071 5.5477424 -1.5070095 14 2
5.6674452 5.79954 -1.284327 23 3
7.7167463 7.8883395 -1.3549435 1 4
50.440353 51.526028 11.420343 21 12
5.664938 5.7767711 -0.42402595 40 6
4.3708773 4.4261537 -1.6667948 14 0
4.8648973 4.9212646 -1.5976024 24 1
5.495738 5.5516582 -1.518458 14 2
5.7536774 5.8061385 -1.2946517 25 3
49.9217 50.341721 8.7051277 18 11
5.99054 6.0388341 -1.0444204 6 4
50.33403 50.704395 11.315845 20 12
8.0907278 8.1445646 -1.0043827 14 5
5.7361131 5.768239 -0.42632878 40 6
10.401728 10.449037 -0.25735319 24 7
4.4016709 4.3955312 -1.6667948 16 0
4.9212122 4.9091997 -1.6048008 30 1
5.5719166 5.5505657 -1.5287617 12 2
5.8234768 5.7950907 -1.3012221 20 3
50.680161 50.397884 8.7758121 19 11
7.8261294 7.7798305 -1.3549435 1 4
52.049 51.704918 11.619954 46 12
8.2096014 8.1496477 -1.0120524 14 5
5.8046036 5.7561822 -0.42842221 40 6
8.275259 8.1976385 -0.20332053 14 7
4.4639091 4.3958707 -1.6787004 12 0
4.9428596 4.8624263 -1.6007516 26 1
5.6049294 5.5060282 -1.5272354 10 2
5.8891702 5.7791977 -1.3068537 23 3
7.9156947 7.7597413 -1.3610369 4 4
52.812248 51.735664 11.709435 24 12
8.3260937 8.150672 -1.0193735 14 5
5.8760629 5.7462392 -0.43072498 40 6
4.4861741 4.3565249 -1.6755946 12 0
4.9654961 4.8169451 -1.5971525 35 1
5.6474619 5.4708619 -1.5283802 15 2
13.378089 12.955222 1.6292894 5 10
5.9818959 5.7887697 -1.3184298 27 3
51.20763 49.519791 8.7465639 18 11
8.0567331 7.7884569 -1.375905 1 4
10.131207 9.7870159 2.2310686 4 12
8.4444313 8.1518497 -1.0268689 29 5
5.9706678 5.7577605 -0.43470252 39 6
10.8199 10.423135 -0.26223987 25 7
4.5276408 4.3357882 -1.6797357 9 0
5.0271668 4.8091035 -1.6061505 25 1
5.7139101 5.4584241 -1.5360124 10 2
6.0707521 5.7932348 -1.3290673 25 3
8.1798782 7.7977662 -1.3876045 3 4
10.107748 9.6288471 2.211045 3 12
8.5805235 8.1711245 -1.0366304 14 5
6.042563 5.7462134 -0.43700528 39 6
4.5648212 4.3107076 -1.6823239 10 0
5.1626787 4.870173 -1.6385435 27 1
5.7666469 5.4342184 -1.5402104 10 2
6.1445627 5.7842774 -1.3365762 26 3
8.3295774 7.8302064 -1.4036912 1 4
55.366642 52.029133 12.033566 27 12
6.1077533 5.7295489 -0.43888938 39 6
4.5813375 4.2676826 -1.6776651 13 0
5.1728859 4.8136754 -1.631345 28 1
5.7469201 5.3403673 -1.5249456 13 2
6.2354689 5.7882733 -1.3475267 20 3
8.3826828 7.7733274 -1.4036912 1 4
55.84734 51.751427 12.059221 27 12
6.1945214 5.7301693 -0.4422389 39 6
4.6366267 4.2591209 -1.6869825 9 0
5.2322087 4.8011637 -1.6394434 19 1
5.8468127 5.3594985 -1.5417367 12 2
6.6811862 6.1178956 -1.4348172 14 3
53.40295 48.866291 8.8879318 20 11
8.4806957 7.7548032 -1.4110035 1 4
57.303493 52.380325 12.296376 30 12
6.2820687 5.7322974 -0.44569308 52 6
4.6712384 4.2326484 -1.6890532 9 0
5.2821074 4.7811279 -1.6448421 15 1
5.9059343 5.3382974 -1.547461 13 2
52.571461 47.501991 6.1988645 26 10
6.7237344 6.0711031 -1.4348172 8 3
8.4330444 7.6064901 -1.3944291 15 4
6.3753843 5.7363935 -0.44946122 52 6
11.560242 10.390635 -0.2713151 27 7
4.7237215 4.22053 -1.6973354 9 0
5.3357091 4.7623043 -1.6511407 14 1
5.9313335 5.2864857 -1.5444082 15 2
52.285946 46.585106 6.1266999 24 10
6.8087435 6.0621047 -1.4438903 24 3
8.4859457 7.5474267 -1.3944291 14 4
6.4481416 5.7209091 -0.45176399 51 6
4.7501721 4.184895 -1.6963001 9 0
5.3629746 4.7197886 -1.6493411 15 1
6.0919724 5.3538098 -1.5764639 15 2
52.780529 46.368847 6.1465712 25 10
6.840507 6.0053 -1.4417002 14 3
13.366018 11.725818 2.1831677 2 11
8.4906712 7.446116 -1.3866295 16 4
6.5435467 5.7244072 -0.45563689 38 6
4.7792726 4.1516309 -1.6963001 9 0
5.3840199 4.6720157 -1.6457419 22 1
6.1143613 5.2982955 -1.5726478 15 2
52.353016 45.349575 6.0597639 22 10
6.8255072 5.9082732 -1.4298111 11 3
8.512414 7.3606944 -1.3817548 19 4
9.4566813 8.1656647 -1.0931073 25 5
6.6120853 5.7033706 -0.45762566 51 6
4.8140073 4.1231933 -1.6983706 9 0
5.428349 4.6444516 -1.6493411 21 1
6.1974735 5.2950149 -1.584478 12 2
6.8395429 5.8373952 -1.4241794 16 3
8.6799097 7.4002552 -1.4005226 9 4
9.5498619 8.1304483 -1.0972908 33 5
6.6882539 5.6881285 -0.46013778 51 6
4.8515325 4.0969605 -1.7014765 9 0
5.457664 4.6039257 -1.6484413 19 1
6.2673216 5.2794452 -1.5928736 12 2
53.703465 45.222523 6.1423883 25 10
6.9466329 5.8454661 -1.4379457 19 3
10.108114 8.4997711 1.6215936 0 11
8.9820881 7.5502353 -1.4407395 10 4
59.005013 49.563766 12.205018 29 12
6.7920799 5.6951947 -0.46453398 50 6
9.6930113 8.1190014 -0.22070314 17 7
4.8829856 4.0654631 -1.7025118 9 0
5.4791842 4.5569892 -1.6452919 26 1
6.2662659 5.2042065 -1.5833331 15 2
54.131306 44.940674 6.1552868 25 10
6.9051766 5.7287178 -1.4210509 25 3
58.296791 48.278744 11.988513 27 12
6.9056978 5.714922 -0.78422731 38 5
6.8593826 5.6705446 -0.46641809 50 6
9.7247849 8.0307598 -0.22014466 17 7
4.9231954 4.0410795 -1.7066529 9 0
5.5349755 4.5383959 -1.6524904 25 1
6.3237143 5.177743 -1.5886757 22 2
