# .PCD v0.7 - Point Cloud Data file format
VERSION 0.7
FIELDS x y z intensity ring
SIZE 4 4 4 4 2
TYPE F F F F U
COUNT 1 1 1 1 1
WIDTH 1294
HEIGHT 1
VIEWPOINT 0 0 0 1 0 0 0
POINTS 1294
DATA ascii
-0.82690233 -11.825254 -2.3042095 4 2
-1.0581397 -15.019094 -2.3846872 4 3
-1.7855036 -25.155325 -3.0964565 2 4
-3.4529264 -47.819706 -2.5126495 1 6
-0.56388021 -7.4472218 -2.001189 2 0
-0.73970759 -9.7019014 -2.246361 8 1
-0.90793186 -11.799618 -2.3003933 4 2
-1.1626617 -15.007401 -2.3840616 4 3
-1.9616948 -25.150164 -3.0974314 5 4
-3.8336895 -48.38776 -2.5438418 1 6
-0.61601716 -7.4450288 -2.0017066 1 0
-0.80709696 -9.6926165 -2.2454615 9 1
-0.99094087 -11.800817 -2.3019197 6 2
-1.2677339 -15.002856 -2.3846872 4 3
-2.1358831 -25.120035 -3.0954816 5 4
-4.1666002 -48.3041 -2.540911 1 6
-0.66486901 -7.4059129 -1.9923891 1 0
-0.87579614 -9.6983919 -2.2481608 9 1
-1.071599 -11.79771 -2.3026831 6 2
-1.3694683 -14.989944 -2.3840616 4 3
-2.3119235 -25.112415 -3.0964565 5 4
-4.4899287 -48.216942 -2.5378754 1 6
-0.71786487 -7.4281363 -1.9996361 2 0
-0.94348592 -9.7096615 -2.2522099 11 1
-1.1527876 -11.778218 -2.3003933 6 2
-1.4744695 -14.983951 -2.3846872 4 3
-2.4769454 -25.036835 -3.0891445 5 4
-4.8246403 -48.166542 -2.5369334 1 6
-0.76811153 -7.4075713 -1.995495 1 0
-1.0106431 -9.6970234 -2.2508602 10 1
-1.2288421 -11.731047 -2.2927611 4 2
-1.5797356 -15.005 -2.3896933 3 3
-2.6504135 -25.007088 -3.0876818 5 4
-0.8155421 -7.375289 -1.988248 2 0
-1.0749027 -9.6744251 -2.247261 10 1
-1.312892 -11.741693 -2.2965772 6 2
-1.6853337 -15.001456 -2.3909445 3 3
-2.7853913 -24.676802 -3.0491712 2 4
-3.43206 -30.263674 -2.6646996 100 5
-0.86520565 -7.3540668 -1.9841069 2 0
-1.1410445 -9.6550741 -2.2445617 9 1
-1.3904691 -11.712989 -2.2927611 6 2
-1.7855338 -14.973947 -2.3884416 3 3
-2.9509771 -24.601568 -3.0423465 4 4
-3.6349118 -30.169743 -2.6585987 16 5
-0.92527115 -7.4285231 -2.0058477 3 0
-1.2069788 -9.6490173 -2.2450116 10 1
-1.4731873 -11.710787 -2.2942874 4 2
-1.8910185 -14.968956 -2.3896933 3 3
-3.1148691 -24.553341 -3.0389342 4 4
-0.9720664 -7.3835759 -1.995495 4 0
-1.2699709 -9.6075125 -2.2373631 8 1
-1.5507985 -11.684918 -2.2912345 6 2
-1.9897325 -14.93224 -2.3859386 3 3
-3.2746108 -24.444427 -3.0282097 4 4
-1.0264714 -7.3879118 -1.9986008 3 0
-1.3411098 -9.61555 -2.2414124 10 1
-1.6320492 -11.642131 -2.2851286 5 2
-2.0991375 -14.917253 -2.3859386 2 3
-3.4411178 -24.361403 -3.0208976 4 4
-4.258112 -30.031767 -2.653718 16 5
-5.6400156 -39.579304 -2.0952177 0 6
-1.0774653 -7.3767424 -1.9975655 3 0
-1.4062276 -9.5924559 -2.2382631 8 1
-1.7175441 -11.673483 -2.2935243 6 2
-2.2063992 -14.941704 -2.3921962 3 3
-3.5971177 -24.242533 -3.0091982 4 4
-4.4612136 -29.957954 -2.649883 17 5
-5.9092937 -39.539997 -2.0952177 0 6
-1.1282358 -7.3730569 -1.9986008 3 0
-1.4708964 -9.5788097 -2.2373631 9 1
-1.7936105 -11.626282 -2.2866549 5 2
-2.2949417 -14.824426 -2.375927 2 3
-3.7443745 -24.103714 -2.9950612 2 4
-4.6693201 -29.954454 -2.6523235 17 5
-1.1815151 -7.3764458 -2.0017066 3 0
-1.5377332 -9.5683069 -2.2373631 8 1
-1.8708302 -11.602175 -2.2843654 5 2
-2.3989487 -14.827961 -2.3790557 3 3
-3.9023705 -24.014288 -2.9872615 4 4
-4.8757596 -29.905396 -2.6509292 17 5
-6.438098 -39.358181 -2.0900888 0 6
-1.2266008 -7.3377461 -1.9934243 3 0
-1.6015368 -9.5499315 -2.2355635 8 1
-1.9498267 -11.577216 -2.2820759 6 2
-2.5043833 -14.822539 -2.3809328 3 3
-4.0511408 -23.901052 -2.9765372 4 4
-5.0804048 -29.847059 -2.6488373 17 5
-1.2791251 -7.3366165 -1.995495 3 0
-1.6681689 -9.538518 -2.2355635 9 1
-2.0312812 -11.567188 -2.2828391 4 2
-2.6071177 -14.800803 -2.3803072 3 3
-4.2082324 -23.817453 -2.9697125 4 4
-5.2886529 -29.810865 -2.6488373 17 5
-1.329623 -7.3237062 -1.9944596 3 0
-1.7347196 -9.5266399 -2.2355635 8 1
-2.1105735 -11.545 -2.2813125 6 2
-2.7110939 -14.786127 -2.3809328 3 3
-4.3449636 -23.627401 -2.9497259 4 4
-5.4878287 -29.754581 -2.6470942 17 5
-1.3814347 -7.3180423 -1.995495 3 0
-1.7975597 -9.4951487 -2.2310646 7 1
-2.1883769 -11.526509 -2.2805493 6 2
-2.8035491 -14.72464 -2.3740497 3 3
-4.4982557 -23.536047 -2.9421699 4 4
-5.6969213 -29.723372 -2.6477914 17 5
-6.9252663 -36.030144 -1.9228232 8 6
-1.4282451 -7.2933025 -1.9913538 3 0
-1.8621496 -9.4826937 -2.2310646 7 1
-2.2672737 -11.503245 -2.2790227 6 2
-2.9070423 -14.708584 -2.3746755 3 3
-4.6382866 -23.403629 -2.9294956 4 4
-5.900404 -29.663332 -2.6460483 17 5
-7.1770258 -35.982876 -1.9229279 8 6
-1.4818176 -7.2964063 -1.9949772 2 0
-1.9290816 -9.4732828 -2.2319643 7 1
-2.3447733 -11.473673 -2.2763515 7 2
-3.0033104 -14.656968 -2.3696697 3 3
-4.7791896 -23.261787 -2.9158461 4 4
-6.1097636 -29.633127 -2.6470942 17 5
-1.5331178 -7.2877741 -1.995495 2 0
-1.9887357 -9.4290752 -2.224766 7 1
-2.4227848 -11.44742 -2.2744434 4 2
-3.1055622 -14.635644 -2.3696697 3 3
-4.9232941 -23.142424 -2.9051216 4 4
-6.3055067 -29.563574 -2.6446538 17 5
-1.5761518 -7.2410278 -1.9856598 2 0
-2.0586693 -9.434001 -2.229265 7 1
-10.217136 -46.781567 2.5095093 0 9
-2.4981306 -11.419157 -2.2721536 4 2
-3.1966469 -14.575576 -2.3634121 3 3
-5.0681005 -23.031878 -2.8956158 6 4
-1.6254027 -7.2301321 -1.9856598 2 0
-2.1194081 -9.4045601 -2.2256656 7 1
-10.517097 -46.592201 2.5032289 1 9
-2.5790889 -11.407183 -2.2732985 7 2
-3.2991991 -14.556757 -2.364038 3 3
-5.2111201 -22.93684 -2.8880601 4 4
-8.2002668 -35.890594 -1.9294175 3 6
-1.6762758 -7.2204905 -1.9861774 3 0
-2.1867795 -9.3971272 -2.2274654 7 1
-10.801309 -46.342587 2.4938085 0 9
-2.6564317 -11.37934 -2.2713904 6 2
-3.3917425 -14.494901 -2.3577805 4 3
-5.357523 -22.841919 -2.8807478 4 4
-1.7257434 -7.204854 -1.9851422 3 0
-2.2605195 -9.41574 -2.2355635 7 1
-2.7376471 -11.368153 -2.2729168 6 2
-3.4900708 -14.459348 -2.3559034 4 3
-5.4939847 -22.709419 -2.8688045 4 4
-7.137908 -29.414711 -2.64814 17 5
-11.347616 -46.655952 -2.5164175 1 6
-1.7834086 -7.2226396 -1.9934243 3 0
-2.3449221 -9.4753971 -2.2535596 6 1
-2.8112681 -11.325898 -2.2683375 6 2
-3.5928385 -14.442299 -2.3571548 3 3
-5.6178155 -22.53183 -2.8512554 4 4
-7.3575883 -29.422148 -2.6533694 16 5
-11.676458 -46.589157 -2.5171504 1 6
-1.8271222 -7.1838017 -1.9861774 3 0
-2.4216049 -9.5003386 -2.2634575 6 1
-11.772432 -46.117828 2.4944365 0 9
-2.8912416 -11.309799 -2.2691007 6 2
-3.690634 -14.405383 -2.3552775 3 3
-5.7542429 -22.411304 -2.8410182 4 4
-10.807174 -41.878674 -2.2666705 1 6
-1.87723 -7.1708708 -1.9861774 3 0
-2.4908378 -9.4945116 -2.2661569 7 1
-8.1708126 -31.123163 1.6863693 7 9
-2.963165 -11.270871 -2.2652845 4 2
-11.880177 -45.124073 4.082375 1 10
-3.7795422 -14.345544 -2.3496459 3 3
-5.8847022 -22.272707 -2.8285878 4 4
-11.08737 -41.786774 -2.2657285 1 6
-1.9234867 -7.1485991 -1.9835893 2 0
-2.5543916 -9.4735737 -2.2652571 9 1
-12.210372 -45.222267 2.4548707 1 9
-3.0407536 -11.246119 -2.2645214 6 2
-12.144896 -44.886375 4.0682554 2 10
-3.8744354 -14.299743 -2.3465173 3 3
-5.9992394 -22.096119 -2.8112822 6 4
-11.373564 -41.689079 -2.2646818 1 6
-1.9779811 -7.1517539 -1.988248 3 0
-2.6173449 -9.4442425 -2.2625577 9 1
-8.4315567 -30.403219 1.6535023 22 9
-3.111979 -11.206245 -2.260705 6 2
-12.471311 -44.84848 4.0726132 1 10
-3.9621472 -14.238784 -2.3408856 3 3
-6.1378818 -21.998249 -2.8042138 4 4
-8.8774929 -31.688828 -1.7246794 17 6
-2.018173 -7.1083913 -1.9799658 3 0
-2.6815681 -9.4262085 -2.2625577 7 1
-9.3833723 -32.940598 1.7950188 5 9
-3.193368 -11.195573 -2.2629948 6 2
-12.722156 -44.572887 4.0553565 2 10
-4.0516849 -14.176588 -2.335254 3 3
-6.2634292 -21.871992 -2.7934892 4 4
-8.9394751 -31.073292 -1.6945338 9 6
-2.065587 -7.086709 -1.9778951 3 0
-2.7484024 -9.4109983 -2.2634575 7 1
-13.108789 -44.828571 2.4477527 0 9
-3.2747602 -11.184312 -2.2652845 4 2
-13.043659 -44.51931 4.0586686 1 10
-4.1372118 -14.102465 -2.3277452 4 3
-6.3958178 -21.759167 -2.7847147 4 4
-7.0148973 -23.758018 -1.2982459 10 6
-2.1183317 -7.0832214 -1.981001 3 0
-2.8140366 -9.3915815 -2.2634575 9 1
-13.135614 -43.783283 2.3956263 0 9
-3.3488066 -11.148016 -2.2626133 7 2
-13.430426 -44.680939 4.081852 1 10
-4.2275944 -14.046755 -2.323365 4 3
-6.5326695 -21.664572 -2.7783775 4 4
-7.174799 -23.68935 -1.2971991 10 6
-2.1626325 -7.0516372 -1.9763422 2 0
-2.8680854 -9.3344517 -2.2544594 9 1
-13.356386 -43.415623 2.3805537 1 9
-3.4201941 -11.103726 -2.2584155 6 2
-13.781343 -44.713654 4.0935307 0 10
-4.3220582 -14.005575 -2.3214879 4 3
-6.6714416 -21.578609 -2.7732589 6 4
-7.232213 -23.291533 -1.2781489 21 6
-2.2105806 -7.0367537 -1.9763422 2 0
-2.9116659 -9.2515125 -2.2391627 7 1
-14.05497 -44.603813 2.4508932 1 9
-3.5016015 -11.098911 -2.2622316 6 2
-14.72955 -46.659374 4.2807412 1 10
-4.4184837 -13.979598 -2.3221135 4 3
-6.7985411 -21.457708 -2.7637532 4 4
-7.4196358 -23.333126 -1.2831731 21 6
-2.2555485 -7.0042057 -1.9716836 2 0
-2.9395006 -9.1117439 -2.2103691 7 1
-14.370097 -44.490692 2.4502649 1 9
-3.5693414 -11.044306 -2.2561257 6 2
-15.124397 -46.742344 4.2981725 1 10
-4.5184045 -13.947623 -2.3221135 4 3
-6.9353099 -21.370071 -2.7586348 6 4
-7.57651 -23.249054 -1.2814984 21 6
-2.3128619 -7.0139732 -1.9789305 1 0
-2.9993732 -9.0798979 -2.2076695 9 1
-3.6482811 -11.018481 -2.2561257 4 2
-15.772411 -47.607742 4.3877687 1 10
-4.6212621 -13.932613 -2.3249292 4 3
-7.058043 -21.242012 -2.7483978 6 4
-7.8511448 -23.532831 -1.3001299 10 6
-2.3568285 -6.9830132 -1.9747895 2 0
-3.0676832 -9.0735064 -2.2112689 8 1
-3.7257161 -11.000831 -2.2576523 6 2
-15.998182 -47.183247 4.3588328 1 10
-4.7071071 -13.874645 -2.320549 4 3
-7.1844368 -21.128321 -2.7401106 5 4
-8.0292025 -23.531773 -1.3030608 21 6
-2.3891811 -6.9229808 -1.9623661 1 0
-3.1280992 -9.0487318 -2.2103691 8 1
-3.7947114 -10.952291 -2.2530727 4 2
-16.371187 -47.223858 4.3727779 1 10
-4.7999692 -13.830248 -2.3186719 4 3
-7.3098354 -21.026428 -2.7332859 5 4
-8.0484972 -23.060291 -1.280033 21 6
-2.4451692 -6.9279933 -1.9685777 1 0
-3.1976902 -9.0450459 -2.2148681 7 1
-17.043745 -48.15678 2.6771939 0 9
-3.8697677 -10.921833 -2.2523096 6 2
-16.711784 -47.140343 4.375741 1 10
-4.8950825 -13.792678 -2.3180461 4 3
-7.4391584 -20.926252 -2.7269487 5 4
-8.1284475 -22.81473 -2.1189303 29 5
-8.1260509 -22.770287 -1.2670536 10 6
-2.4974091 -6.9216571 -1.9716836 1 0
-3.263406 -9.0298328 -2.2166677 7 1
-17.254501 -47.691044 2.6579342 0 9
-3.9472592 -10.898242 -2.2530727 6 2
-17.305899 -47.75494 4.4438968 0 10
-4.9885583 -13.750741 -2.3167946 4 3
-7.5701547 -20.832762 -2.7215865 5 4
-8.1794205 -22.424047 -1.2509341 21 6
-2.5349772 -6.8750525 -1.9634014 2 0
-3.3317678 -9.0214548 -2.2202671 7 1
-4.0205212 -10.863054 -2.2515461 6 2
-5.0844345 -13.715579 -2.3167946 4 3
-7.703661 -20.747768 -2.7174428 7 4
-8.3873787 -22.50489 -1.2586799 21 6
-2.5788267 -6.8463402 -1.9602956 1 0
-3.4056742 -9.0271473 -2.2274654 7 1
-17.588444 -46.571053 2.6089478 0 9
-4.0997324 -10.843904 -2.2534544 7 2
-5.1772642 -13.67236 -2.3155432 5 3
-7.8236823 -20.628521 -2.7089119 13 4
-8.5634747 -22.496187 -1.2615061 21 6
-2.623786 -6.8209577 -1.958225 1 0
-3.4966359 -9.0758896 -2.2454615 8 1
-4.1748629 -10.819409 -2.2542176 7 2
-5.2687845 -13.633118 -2.3149173 5 3
-7.9230561 -20.45863 -2.6938002 16 4
-8.6329927 -22.257189 -2.0886002 30 5
-8.6231022 -22.197214 -1.2480034 31 6
-2.663095 -6.7849574 -1.9530486 1 0
-3.5512025 -9.0337429 -2.2409625 9 1
-8.7827721 -22.319212 1.2570051 5 9
-4.2438178 -10.773561 -2.250783 6 2
-5.3580337 -13.581303 -2.3124144 5 3
-7.9979372 -20.241758 -2.6723511 22 4
-8.6957531 -21.962967 -2.066637 31 5
-8.6814146 -21.893255 -1.2342913 21 6
-2.7132707 -6.7733741 -1.9551191 1 0
-3.6105556 -8.9996872 -2.238713 10 1
-4.317462 -10.740028 -2.2500198 6 2
-5.4586191 -13.558225 -2.3149173 5 3
-8.0833778 -20.04735 -2.6540709 26 4
-8.8488712 -21.901726 -2.066637 31 5
-8.8362942 -21.837669 -1.2346054 31 6
-8.876545 -21.904152 -0.41253999 34 7
-2.7634144 -6.7614198 -1.9571897 1 0
-3.6489339 -8.9147463 -2.2238662 9 1
-4.3938265 -10.713258 -2.250783 6 2
-5.5508871 -13.514305 -2.3139789 6 3
-8.1498852 -19.812351 -2.6304281 26 4
-9.0113964 -21.830833 -1.2377455 31 6
-2.7956839 -6.7063003 -1.9468369 2 0
-3.6885583 -8.8351059 -2.2103691 8 1
-4.4654813 -10.675076 -2.2492564 6 2
-5.646626 -13.478868 -2.3146045 6 3
-8.2204189 -19.593887 -2.6089792 22 4
-9.1692429 -21.812775 -2.0701232 31 5
-9.1728783 -21.78948 -1.2390016 31 6
-2.8348768 -6.6688404 -1.9416605 2 0
-3.7379365 -8.7804508 -2.2031708 9 1
-4.5352764 -10.632808 -2.2469668 6 2
-5.7390356 -13.435486 -2.3139789 7 3
-8.6306467 -20.185446 2.6955066 1 11
-8.285181 -19.368111 -2.5865552 24 4
-9.3222141 -21.760845 -2.0711691 31 5
-9.3468313 -21.7763 -1.2419324 31 6
-9.4517756 -21.989029 -0.41777572 34 7
-2.8836696 -6.6542048 -1.9432135 2 0
-3.7960413 -8.7469902 -2.201371 9 1
-4.6012859 -10.587286 -2.2439139 6 2
-5.8398147 -13.417845 -2.3177333 7 3
-8.3440208 -19.135115 -2.5631564 24 4
-9.4980402 -21.719496 -1.2423511 31 6
-2.9249945 -6.6255856 -1.9406252 2 0
-3.8507631 -8.7102547 -2.1986716 7 1
-4.6798563 -10.565676 -2.2462037 6 2
-5.9269395 -13.362303 -2.3152304 7 3
-8.3918819 -18.89283 -2.5382948 26 4
-9.5600109 -21.451984 -1.2308371 20 6
-2.9584985 -6.5768151 -1.9323431 2 0
-3.9050753 -8.6689453 -2.1950724 8 1
-4.7430058 -10.509483 -2.2412426 7 2
-6.0330958 -13.349401 -2.3202362 7 3
-8.4499092 -18.671017 -2.5163584 21 4
-9.8367777 -21.69512 -2.0840681 30 5
-9.8433056 -21.679329 -1.247794 31 6
-3.0172169 -6.5841007 -1.9406252 2 0
-3.9671254 -8.6450138 -2.1959722 8 1
-4.8146191 -10.472548 -2.2404792 7 2
-6.1162338 -13.285423 -2.3164818 6 3
-8.4952831 -18.427689 -2.491497 19 4
-10.005937 -21.674694 -2.0886002 30 5
-10.023759 -21.673527 -1.2514575 42 6
-10.058272 -21.718302 -0.41777572 34 7
-3.0484025 -6.5313659 -1.9313078 2 0
-4.01088 -8.5817986 -2.186974 7 1
-4.8899531 -10.448424 -2.2423875 6 2
-6.1939468 -13.216656 -2.3117888 4 3
-8.5452623 -18.200823 -2.4688294 13 4
-10.182115 -21.62829 -1.2528182 31 6
-3.1010773 -6.5279155 -1.9364842 2 0
-4.0708742 -8.5578194 -2.1878741 8 1
-4.9602413 -10.408716 -2.2412426 7 2
-6.2758555 -13.151697 -2.3080344 5 3
-8.6227379 -18.045515 -2.4556675 7 4
-10.35012 -21.592699 -1.2549117 31 6
-10.443287 -21.757835 -0.42126617 33 7
-3.1347997 -6.4817581 -1.9292372 1 0
-4.1186285 -8.5046368 -2.1815755 8 1
-5.018127 -10.348214 -2.2355182 6 2
-6.363503 -13.105122 -2.3074086 5 3
-8.8796244 -18.254429 -2.4924722 16 4
-10.509115 -21.546881 -1.2563771 31 6
-3.1865232 -6.4758701 -1.9338959 2 0
-4.1557512 -8.4344511 -2.1707778 7 1
-5.0945935 -10.321731 -2.2374265 7 2
-6.4443359 -13.039126 -2.3036542 5 3
-8.795002 -17.771906 -2.434706 22 4
-10.665226 -21.522669 -2.1014993 30 5
-10.688585 -21.532026 -1.2598312 21 6
-3.2307909 -6.4517393 -1.9333783 3 0
-4.1333003 -8.2432261 -2.1289368 5 1
-5.1462345 -10.249969 -2.2294126 6 2
-6.5205197 -12.97025 -2.299274 5 3
-8.7786789 -17.431719 -2.3964391 22 4
-10.84661 -21.481949 -1.261192 21 6
-3.2687376 -6.4152565 -1.9292372 4 0
-4.1429243 -8.1204319 -2.1046422 4 1
-5.2140894 -10.202392 -2.2271228 6 2
-6.6023674 -12.902156 -2.2955196 5 3
-8.7915344 -17.158007 -2.3671904 17 4
-8.9933996 -17.499268 -1.0311232 19 6
-3.3063309 -6.3785601 -1.9250962 3 0
-4.182456 -8.0584478 -2.0960939 3 1
-5.2888079 -10.17271 -2.2286491 6 2
-6.6795106 -12.831219 -2.2911394 5 3
-8.7716398 -16.828644 -2.330142 23 4
-9.022233 -17.279972 -1.7054635 37 5
-9.1209002 -17.446674 -1.0317512 19 6
-3.3489795 -6.3519044 -1.9240609 4 0
-4.2158689 -7.9859686 -2.0848465 4 1
-5.3505206 -10.118184 -2.224833 6 2
-6.7596803 -12.766818 -2.2880106 4 3
-8.7643185 -16.531977 -2.2974811 23 4
-9.2227879 -17.345541 -1.0295531 19 6
-3.3914163 -6.324964 -1.9230256 4 0
-4.2659879 -7.9460406 -2.0821469 4 1
-5.4174099 -10.078072 -2.2240696 6 2
-6.8464246 -12.72051 -2.2880106 5 3
-8.7890816 -16.302645 -2.2740822 22 4
-9.3145189 -17.255619 -1.7155735 38 5
-9.354887 -17.308718 -1.0311232 28 6
-3.4316156 -6.2966447 -1.9214727 6 0
-4.3181071 -7.9133983 -2.0812473 4 1
-5.4716291 -10.010719 -2.2175822 7 2
-6.9179945 -12.641212 -2.2823792 5 3
-8.7548542 -15.977827 -2.2370338 19 4
-9.5459547 -17.39278 -1.7357937 38 5
-9.5158911 -17.316505 -1.0355194 19 6
-3.472682 -6.2674646 -1.9199197 5 0
-4.3581223 -7.8557935 -2.0740488 4 1
-5.5480566 -9.9842901 -2.2202537 6 2
-7.0003128 -12.582253 -2.2805018 5 3
-8.7270803 -15.666595 -2.2019355 22 4
-9.5693398 -17.129339 -1.0282969 19 6
-3.5116124 -6.2346525 -1.9173316 6 0
-4.4004159 -7.8031106 -2.0681999 3 1
-5.6070037 -9.9265108 -2.2160556 7 2
-7.0860372 -12.529634 -2.2798762 5 3
-8.6308336 -15.242536 -2.1507504 21 4
-12.15919 -21.412745 -1.2905002 21 6
-3.5512137 -6.2032781 -1.915261 6 0
-4.446063 -7.7569838 -2.0641508 5 1
-5.6705332 -9.8813038 -2.2145293 9 2
-7.1711602 -12.481111 -2.2798762 5 3
-8.5934658 -14.932434 -2.1154084 23 4
-12.326612 -21.36755 -1.2928029 32 6
-3.5875289 -6.1689425 -1.9121553 6 0
-4.4869938 -7.7063313 -2.0587521 4 1
-5.7235541 -9.8143406 -2.2084234 7 2
-7.2541356 -12.423919 -2.2786248 5 3
-8.5135765 -14.563405 -2.0712914 21 4
-12.511849 -21.343 -1.2965711 32 6
-3.63149 -6.1454105 -1.9126729 5 0
-4.5307598 -7.6580472 -2.0542529 5 1
-5.7822223 -9.7616405 -2.2053704 7 2
-7.3284583 -12.357264 -2.275496 5 3
-8.4406729 -14.210062 -2.0293684 20 4
-10.988495 -18.477339 -1.880821 35 5
-12.687489 -21.308823 -1.2997112 32 6
-7.9374757 -13.320525 3.5798709 2 14
-12.703518 -21.301899 -0.43292442 32 7
-3.6642895 -6.1056409 -1.9080141 6 0
-4.5607009 -7.5902815 -2.0443552 4 1
-5.8563008 -9.7311296 -2.2076602 7 2
-7.4074101 -12.293957 -2.2733059 6 3
-8.3423796 -13.829325 -1.9830582 21 4
-12.873158 -21.28125 -1.3034796 32 6
-3.7138636 -6.0914578 -1.9116375 4 0
-4.6156082 -7.561584 -2.0452549 5 1
-5.9203563 -9.6876907 -2.206897 7 2
-7.5032935 -12.263473 -2.2770603 4 3
-8.3370762 -13.604874 -1.9591717 17 4
-13.046982 -21.240788 -1.3064103 32 6
-3.7471063 -6.0528965 -1.9074965 4 0
-4.6484952 -7.500176 -2.0371568 5 1
-5.977488 -9.6294441 -2.2030807 9 2
-7.5730848 -12.185624 -2.2723672 4 3
-8.3476896 -13.416344 -1.9401602 19 4
-13.235126 -21.213575 -1.3103878 32 6
-3.7861872 -6.0216832 -1.9059435 6 0
-4.69555 -7.4592953 -2.0349073 6 1
-6.0366154 -9.5785675 -2.2007911 7 2
-7.6590166 -12.138805 -2.2733059 6 3
-8.4263039 -13.334246 -1.9367478 15 4
-13.411278 -21.173613 -1.3135279 32 6
-3.8208511 -5.9860015 -1.9028376 6 0
-4.7294254 -7.400888 -2.027709 8 1
-6.1075726 -9.5428057 -2.2023175 7 2
-7.7414408 -12.081715 -2.2726803 6 3
-8.491147 -13.23648 -1.9308981 19 4
-13.597669 -21.139942 -1.3172961 32 6
-3.8562438 -5.9494538 -1.8997319 6 0
-4.7703705 -7.3513427 -2.0232098 6 1
-6.1761842 -9.5032263 -2.2030807 9 2
-7.8212886 -12.020751 -2.2714286 6 3
-8.5714273 -13.158583 -1.9282169 24 4
-11.872601 -18.198648 -1.9010409 35 5
-7.725194 -11.805333 3.7803111 1 15
-3.8998077 -5.9256158 -1.9007671 6 0
-4.8172855 -7.3113513 -2.02141 7 1
-6.2337284 -9.4467678 -2.2000279 7 2
-7.9093747 -11.972449 -2.2726803 6 3
-8.6597977 -13.093455 -1.9274857 23 4
-12.0116 -18.140669 -1.9034814 35 5
-3.9421544 -5.8998518 -1.9012847 4 0
-4.8530416 -7.2548656 -2.0151114 6 1
-6.3022537 -9.4106436 -2.2015543 7 2
-7.9928823 -11.921617 -2.2733059 6 3
-8.7532091 -13.035976 -1.9279732 19 4
-12.195751 -18.142353 -1.9125456 34 5
-3.9757171 -5.8632884 -1.8981789 4 0
-4.8847995 -7.1958671 -2.0079131 6 1
-6.3545532 -9.3469334 -2.196975 7 2
-8.0670252 -11.852462 -2.270803 6 3
-8.8842125 -13.038432 -1.9372352 18 4
-12.360297 -18.112724 -1.9184722 34 5
-4.0088863 -5.8242502 -1.8945554 6 0
-4.9238596 -7.1455426 -2.0034139 6 1
-6.4196525 -9.3023424 -2.196975 7 2
-8.1405916 -11.782853 -2.2683001 6 3
-8.9998646 -13.012009 -1.9425975 16 4
-12.502325 -18.048923 -1.9209125 34 5
-4.0417032 -5.7850366 -1.890932 4 0
-4.9669213 -7.1014128 -2.0007145 7 1
-6.4911942 -9.2669477 -2.1992648 7 2
-8.2113113 -11.70956 -2.2651713 6 3
-9.1132965 -12.981355 -1.9474722 28 4
-12.639485 -17.977499 -1.9226557 34 5
-4.088697 -5.7661347 -1.8940378 5 0
-5.0073538 -7.0538516 -1.9971154 6 1
-6.5466309 -9.2086029 -2.1962116 7 2
-8.2882748 -11.645514 -2.2639198 6 3
-9.2175226 -12.936819 -1.9503973 22 4
-12.794771 -17.930988 -1.9271878 34 5
-4.1153111 -5.7186332 -1.8878261 5 0
-5.0405293 -6.9965863 -1.9908168 6 1
-6.6038675 -9.1531219 -2.1939218 9 2
-8.364747 -11.58096 -2.2626684 6 3
-9.3680983 -12.955801 -1.9630717 21 4
-13.036498 -18.002598 -1.9446188 34 5
-4.1460199 -5.6772823 -1.8836851 4 0
-5.0800514 -6.9486413 -1.9872177 6 1
-6.6768856 -9.1194687 -2.196975 7 2
-17.125858 -23.382389 2.5357091 12 10
-8.4453936 -11.522282 -2.2626684 6 3
-9.4865036 -12.928494 -1.9689212 21 4
-4.1880164 -5.6535873 -1.8852381 6 0
-17.118708 -23.09244 0.50175673 59 8
-5.1121416 -6.8935528 -1.9813689 5 1
-6.7247596 -9.0548954 -2.1923954 7 2
-8.5189133 -11.458188 -2.2614169 6 3
-9.6169519 -12.920949 -1.9776958 20 4
-13.280359 -17.823463 -1.9446188 34 5
-4.2285447 -5.6257567 -1.8857557 4 0
-5.13905 -6.8296671 -1.9732707 4 1
-6.7909603 -9.0151844 -2.1939218 7 2
-8.584816 -11.384165 -2.2582881 6 3
-9.7356367 -12.891515 -1.9835457 25 4
-13.404468 -17.730314 -1.9446188 34 5
-4.2597127 -5.587625 -1.8826498 4 0
-5.1771436 -6.7836843 -1.9701214 3 1
-6.8632708 -8.9800348 -2.196975 10 2
-8.6688814 -11.33023 -2.2595396 6 3
-9.8688631 -12.87996 -1.9923203 20 4
-13.588553 -17.715347 -1.9533345 33 5
-4.2901306 -5.5447769 -1.8785087 4 0
-5.2064614 -6.7218137 -1.9629229 3 1
-6.9161711 -8.9194889 -2.1939218 10 2
-8.7509499 -11.269468 -2.2598526 5 3
-9.9755945 -12.832691 -1.9957327 20 4
-13.68253 -17.582312 -1.9491509 34 5
-4.3263488 -5.5116529 -1.8774734 5 0
-5.2604861 -6.6944962 -1.9656224 3 1
-6.9846768 -8.8759413 -2.1954484 9 2
-8.8159647 -11.191031 -2.2564111 6 3
-10.09936 -12.806379 -2.0025573 20 4
-16.370575 -20.721312 5.1331439 12 13
-4.3611116 -5.4767814 -1.8759204 6 0
-5.2949448 -6.6423702 -1.9611233 3 1
-16.48811 -20.6765 1.3859609 27 9
-7.0547266 -8.8404703 -2.1985013 7 2
-16.46604 -20.619268 2.3085814 21 10
-8.8746719 -11.109159 -2.2520308 6 3
-16.466068 -20.597178 3.2378249 21 11
-10.267884 -12.834767 -2.0181565 17 4
-16.464094 -20.572615 4.1733594 22 12
-16.404339 -20.468641 5.0987983 10 13
-4.380085 -5.4244237 -1.868156 4 0
-5.32656 -6.5895042 -1.9561743 2 1
-16.627035 -20.554676 1.3855423 27 9
-7.108861 -8.781847 -2.1962116 9 2
-16.669952 -20.58568 2.3174713 13 10
-8.9495277 -11.043859 -2.2514052 6 3
-10.380021 -12.79541 -2.0230312 18 4
-4.430088 -5.4086595 -1.8733324 4 0
-5.3526626 -6.528048 -1.9489759 2 1
-7.1859088 -8.7545023 -2.2015543 9 2
-9.0219851 -10.979632 -2.2507794 6 3
-10.471617 -12.725699 -2.0235186 26 4
-4.4655671 -5.3768926 -1.8728148 6 0
-5.3870068 -6.4794745 -1.9453768 3 1
-7.2317805 -8.6860151 -2.196975 9 2
-9.090826 -10.907277 -2.2489021 6 3
-10.621582 -12.730338 -2.0357056 18 4
-4.4930391 -5.3337665 -1.8686736 6 0
-5.4195476 -6.4268098 -1.9408777 1 1
-7.2907367 -8.6365891 -2.196975 7 2
-9.1521101 -10.830058 -2.2457736 6 3
-10.79483 -12.755888 -2.0517924 23 4
-4.5292406 -5.3030596 -1.8686736 6 0
-5.4657011 -6.3927336 -1.9417773 1 1
-7.3508515 -8.5854816 -2.196975 7 2
-9.2274923 -10.765903 -2.2457736 6 3
-10.920186 -12.727311 -2.0591044 16 4
-4.5636215 -5.2683911 -1.8676383 6 0
-5.4846621 -6.3249755 -1.9327793 2 1
-7.4028869 -8.5250597 -2.1946852 7 2
-9.2920599 -10.689293 -2.2432706 6 3
-10.999652 -12.640282 -2.0573983 22 4
-4.5939169 -5.2291451 -1.8650501 5 0
-5.5080957 -6.2631168 -1.925581 2 1
-7.4583297 -8.468749 -2.1935403 6 2
-9.3625402 -10.619718 -2.242332 5 3
-11.12441 -12.604856 -2.0642233 32 4
-4.620029 -5.1854081 -1.8609091 4 0
-5.5413084 -6.2128773 -1.9219818 3 1
-7.4831114 -8.381176 -2.1839998 7 2
-9.4122276 -10.530706 -2.2370131 6 3
-11.250528 -12.569779 -2.0712914 17 4
-4.6629872 -5.1624413 -1.8640147 5 0
-5.5834699 -6.175015 -1.9219818 2 1
-7.5546207 -8.3432808 -2.1878161 7 2
-9.4934788 -10.473519 -2.2388902 7 3
-11.597281 -12.781048 -2.1190643 20 4
-4.6871691 -5.1169424 -1.8593562 6 0
-5.5948339 -6.1014128 -1.9111842 4 1
-7.6179929 -8.2961226 -2.1893425 7 2
-9.5423012 -10.380812 -2.2332587 6 3
-11.635144 -12.644266 -2.1098022 18 4
-4.7056866 -5.0656939 -1.8526268 5 0
-5.6492367 -6.075048 -1.9152331 7 1
-7.6690331 -8.2355547 -2.1874344 6 2
-9.6064558 -10.305274 -2.2313814 6 3
-11.743453 -12.584497 -2.1134584 15 4
-4.759481 -5.0524063 -1.8598738 5 0
-5.6861615 -6.0297914 -1.9134337 7 1
-7.7142115 -8.1689653 -2.1839998 7 2
-9.6890249 -10.249439 -2.2338843 6 3
-12.058882 -12.742997 -2.1541626 20 4
-4.7759557 -4.9994988 -1.8526268 4 0
-5.7200375 -5.9814968 -1.9107343 7 1
-7.7629046 -8.1064062 -2.1817102 7 2
-9.7412024 -10.161586 -2.2295043 6 3
-12.001853 -12.50668 -2.1283264 18 4
-4.8214951 -4.9771347 -1.8567679 3 0
-5.758944 -5.9386201 -1.9098345 7 1
-7.8111053 -8.043561 -2.1794205 7 2
-9.8050241 -10.086246 -2.2279398 5 3
-12.066727 -12.399821 -2.1244266 21 4
-4.8493543 -4.9364638 -1.8541797 2 0
-5.7947974 -5.8927126 -1.9080348 7 1
-7.8959951 -8.0182095 -2.1874344 6 2
-9.861331 -10.003484 -2.2248113 5 3
-12.298007 -12.462227 -2.1497755 21 4
-4.8850632 -4.9038577 -1.8546973 3 0
-5.8165293 -5.8327961 -1.9017363 8 1
-7.9476166 -7.9587245 -2.1862895 7 2
-9.9239435 -9.927412 -2.2232468 6 3
-12.343988 -12.335376 -2.1427069 23 4
-4.908196 -4.8587613 -1.8505563 2 0
-5.848794 -5.7838259 -1.8990368 8 1
-7.9778433 -7.8782139 -2.1794205 7 2
-9.9986343 -9.8634338 -2.2244983 6 3
-12.47081 -12.289304 -2.1497755 21 4
-19.972977 -19.634254 -1.4678143 11 6
-4.9171138 -4.8000865 -1.8412387 2 0
-5.8806591 -5.7346888 -1.8963374 8 1
-7.9665403 -7.7579517 -2.1614842 6 2
-10.061585 -9.7878838 -2.2232468 6 3
-12.630327 -12.273885 -2.1624498 21 4
-4.930192 -4.747745 -1.8339919 2 0
-5.9139395 -5.6891232 -1.8945377 7 1
-7.8464332 -7.5376139 -2.1149271 3 2
-10.125126 -9.7164335 -2.2226212 6 3
-12.74224 -12.215102 -2.1673245 17 4
-12.94309 -12.385989 3.4822643 2 13
-4.9912333 -4.7398167 -1.8443446 2 0
-5.9365468 -5.6316051 -1.8891391 7 1
-7.7778535 -7.3705974 -2.082871 3 2
-10.173812 -9.6309958 -2.2188668 6 3
-12.929628 -12.222668 -2.1846299 11 4
-5.0121012 -4.6951666 -1.8402034 1 0
-5.9690504 -5.5857396 -1.8873394 7 1
-7.7746134 -7.2651792 -2.0683696 3 2
-10.24369 -9.5624275 -2.2194924 6 3
-12.956558 -12.077964 -2.1748805 10 4
-5.0455709 -4.6591811 -1.8402034 2 0
-5.9916797 -5.5270276 -1.8819405 7 1
-7.7876053 -7.176137 -2.0584474 3 2
-10.308947 -9.486208 -2.2188668 6 3
-13.065412 -12.010052 -2.179024 12 4
-5.0694036 -4.6160402 -1.8370978 2 0
-6.0272355 -5.4824419 -1.8810407 8 1
-7.8038802 -7.0885468 -2.0492887 3 2
-10.366144 -9.4060421 -2.2169895 6 3
-13.204826 -11.969209 -2.1882861 15 4
-5.1029449 -4.5818257 -1.8376153 2 0
-6.0566602 -5.4324217 -1.8783413 8 1
-7.8212438 -7.0077505 -2.0412748 4 2
-10.435817 -9.3405333 -2.218241 6 3
-13.367988 -11.948164 -2.201448 16 4
-5.0891805 -4.5072799 -1.8215685 2 0
-6.0847392 -5.3833237 -1.8756418 7 1
-7.8449626 -6.9308805 -2.0347872 3 2
-10.48892 -9.2569952 -2.2157381 6 3
-13.568128 -11.961919 -2.220947 16 4
-5.1379848 -4.4868894 -1.8277801 2 0
-6.1104255 -5.3304644 -1.8720427 7 1
-7.8490348 -6.8399162 -2.0237205 4 2
-10.554667 -9.1879787 -2.2163637 6 3
-13.852065 -12.041414 -2.253608 1 4
-5.2006083 -4.4795508 -1.8391682 3 0
-6.1347485 -5.2785816 -1.8684435 7 1
-7.842988 -6.7388926 -2.0099821 4 2
-10.627549 -9.1217899 -2.218241 7 3
-14.999151 -12.860372 -2.4259312 6 4
-5.2023058 -4.4181228 -1.8288155 3 0
-6.1744232 -5.2381439 -1.8693433 7 1
-7.8856812 -6.6828122 -2.0092189 4 2
-10.677331 -9.0390272 -2.2157381 6 3
-15.0916 -12.757908 -2.426419 6 4
-5.2381811 -4.3875728 -1.830886 3 0
-6.1949897 -5.1834893 -1.8648442 7 1
-7.8794117 -6.5835404 -1.9958621 3 2
-10.743206 -8.9667997 -2.2163637 6 3
-15.138449 -12.62184 -2.4200816 6 4
-5.2567682 -4.3410554 -1.8267449 3 0
-6.2280183 -5.1376348 -1.8639444 7 1
-7.9342752 -6.5358591 -1.9981518 3 2
-10.787242 -8.8765154 -2.2126093 6 3
-15.161791 -12.462898 -2.4098444 5 4
-5.2839489 -4.3018126 -1.8257096 4 0
-6.254662 -5.0866542 -1.8612449 8 1
-7.9461808 -6.4530816 -1.9897563 3 2
-10.848948 -8.800992 -2.2126093 6 3
-15.256137 -12.362999 -2.4110632 8 4
-5.3168669 -4.2672358 -1.8267449 3 0
-6.2748179 -5.0306735 -1.8567461 8 1
-7.9378204 -6.3571181 -1.9767814 3 2
-10.902433 -8.7220058 -2.2113578 6 3
-15.328114 -12.245043 -2.4088695 6 4
-23.702963 -18.894743 -1.5886058 23 6
-5.3336701 -4.2213559 -1.8226038 3 0
-6.3150282 -4.992681 -1.8585455 7 1
-7.9665971 -6.2893834 -1.972965 3 2
-10.959953 -8.6432362 -2.2107322 6 3
-15.392399 -12.125679 -2.4059448 6 4
-24.024309 -18.878126 -1.601271 22 6
-5.3295012 -4.1578741 -1.8112158 4 0
-6.3374338 -4.938889 -1.8549464 7 1
-7.960731 -6.1950297 -1.9607532 3 2
-11.010671 -8.5592365 -2.2088549 7 3
-15.435908 -11.986273 -2.3996074 6 4
-24.310259 -18.829809 -1.611529 22 6
-5.3737125 -4.1323423 -1.8163921 4 0
-6.359396 -4.8850284 -1.8513472 8 1
-7.97263 -6.1154041 -1.9531209 3 2
-11.054477 -8.4701443 -2.2057261 7 3
-15.490838 -11.856501 -2.3952203 5 4
-24.598289 -18.779612 -1.6218915 21 6
-5.3870344 -4.0830584 -1.8112158 4 0
-6.3778067 -4.8287506 -1.8468481 7 1
-8.0119972 -6.0572281 -1.9523578 3 2
-11.113339 -8.3927622 -2.2057261 7 3
-15.554219 -11.733719 -2.3922954 5 4
-24.877211 -18.71911 -1.6316259 21 6
-5.4092174 -4.0407252 -1.8091452 4 0
-6.4113641 -4.7841058 -1.8468481 7 1
-8.0351973 -5.987072 -1.9477782 3 2
-11.187508 -8.326767 -2.2088549 7 3
-15.594337 -11.594049 -2.3859582 5 4
-25.154882 -18.654432 -1.6412557 20 6
-5.437295 -4.0028634 -1.8091452 4 0
-6.4210567 -4.7219138 -1.8400996 5 1
-8.0040064 -5.877378 -1.9302238 3 2
-11.238993 -8.2437897 -2.2076035 7 3
-15.633265 -11.454393 -2.379621 5 4
-25.479618 -18.620958 -1.653921 20 6
-5.4713616 -3.9693458 -1.8112158 3 0
-6.455442 -4.6781163 -1.8405495 3 1
-8.0066719 -5.7937346 -1.9210651 3 2
-11.299476 -8.1674414 -2.2082293 7 3
-15.696753 -11.333357 -2.3771837 5 4
-25.771063 -18.559349 -1.6643883 19 6
-5.4706521 -3.9108279 -1.8018982 4 0
-6.4831877 -4.6295357 -1.8391999 2 1
-8.021347 -5.7194595 -1.9149592 3 2
-11.362655 -8.0929403 -2.2094805 7 3
-15.715645 -11.180918 -2.3681653 4 4
-26.084059 -18.509588 -1.6762161 19 6
-5.5136147 -3.8836665 -1.8070747 3 0
-6.5153489 -4.5841637 -1.8391999 2 1
-8.0514431 -5.6565495 -1.9126694 3 2
-11.415643 -8.0111475 -2.2088549 7 3
-15.751058 -11.041305 -2.3618281 4 4
-26.387791 -18.449492 -1.6874161 18 6
-5.518373 -3.8296607 -1.7998277 3 0
-6.527976 -4.5252419 -1.833801 2 1
-8.1020355 -5.6080251 -1.9153408 4 2
-11.48429 -7.9402461 -2.2113578 7 3
-15.770584 -10.891593 -2.3532972 5 4
-26.710037 -18.398512 -1.6997674 18 6
-5.5290279 -3.7801375 -1.7946514 9 0
-6.5465336 -4.4707675 -1.8302019 5 1
-8.1036825 -5.5258861 -1.9065636 4 2
-11.544341 -7.8632126 -2.2122965 8 3
-15.816697 -10.761125 -2.3489099 5 4
-27.022928 -18.337196 -1.7114905 17 6
-5.5376568 -3.7295756 -1.7889572 11 0
-6.5678835 -4.4184303 -1.8275024 4 1
-8.1411066 -5.4705997 -1.9065636 4 2
-11.589395 -7.7789488 -2.2107322 7 3
-15.858457 -10.628342 -2.3440351 5 4
-27.329748 -18.27496 -1.7230045 17 6
-5.5725732 -3.6982052 -1.7920631 11 0
-6.6075525 -4.3800821 -1.8302019 5 1
-8.175828 -5.4114618 -1.9058005 6 2
-11.650012 -7.7022052 -2.2119834 7 3
-15.917182 -10.511398 -2.3420851 5 4
-27.693518 -18.239716 -1.737868 16 6
-5.6014895 -3.661325 -1.7930984 6 0
-6.6232839 -4.3242569 -1.8261526 6 1
-8.2035389 -5.3478208 -1.9035107 4 2
-11.700188 -7.6185322 -2.2113578 7 3
-15.943582 -10.369719 -2.3352606 5 4
-28.004499 -18.165495 -1.7493819 16 6
-5.6155429 -3.6148105 -1.789475 4 0
-6.6320028 -4.2642112 -1.8203038 5 1
-8.2010231 -5.2649636 -1.8943518 6 2
-11.753092 -7.5366611 -2.2113578 7 3
-15.992187 -10.243165 -2.3318481 5 4
-28.181126 -18.001806 -1.7525219 7 6
-5.6373782 -3.5734513 -1.7884396 4 0
-6.655025 -4.2136378 -1.8185043 5 1
-8.2143469 -5.1928945 -1.8890091 6 2
-11.795398 -7.4481001 -2.2094805 7 3
-16.023008 -10.105857 -2.3259985 5 4
-27.995043 -17.608952 -1.7332623 8 6
-5.6490774 -3.525825 -1.7842987 5 0
-6.6776638 -4.1629519 -1.8167046 4 1
-8.2437325 -5.1312733 -1.8874826 4 2
-11.848783 -7.3666167 -2.2097936 8 3
-16.086426 -9.9895611 -2.3250237 5 4
-29.051199 -17.991457 -1.7908319 7 6
-5.6801386 -3.4903467 -1.7863692 5 0
-6.7115469 -4.1192899 -1.8180546 6 1
-8.2567091 -5.0617018 -1.8825216 7 2
-11.859907 -7.2620659 -2.2025976 7 3
-16.108353 -9.8480215 -2.3181989 5 4
-29.411703 -17.938892 -1.805486 13 6
-5.6806254 -3.4376016 -1.7791222 5 0
-6.7260876 -4.0654473 -1.8144552 7 1
-8.2834415 -4.9988637 -1.8806137 6 2
-11.890013 -7.1668568 -2.198843 7 3
-16.151199 -9.7238159 -2.3147867 5 4
-29.741709 -17.856493 -1.8180467 12 6
-5.7177644 -3.4057665 -1.7832633 4 0
-6.7442579 -4.0124116 -1.8117559 7 1
-8.2919588 -4.9273205 -1.8748893 4 2
-11.697305 -6.9425902 -2.1544156 3 3
-16.184534 -9.5905819 -2.3099117 5 4
-27.278452 -16.126003 -1.6607248 20 6
-5.7374816 -3.3648133 -1.782228 4 0
-6.7680497 -3.9644418 -1.810856 7 1
-8.3176813 -4.8643584 -1.8729813 4 2
-11.363408 -6.6375828 -2.0843329 3 3
-16.232292 -9.4701958 -2.3074741 5 4
-27.222908 -15.837754 -1.6505716 30 6
-5.7474461 -3.3169525 -1.7780869 5 0
-6.7989383 -3.9190435 -1.8117559 6 1
-8.3029594 -4.7802014 -1.8622959 4 2
-11.288455 -6.4911518 -2.0624323 3 3
-16.242924 -9.3250113 -2.2996747 5 4
-27.153299 -15.550842 -1.639895 31 6
-5.7766094 -3.2815709 -1.7801574 5 0
-6.7983379 -3.8572867 -1.8045573 6 1
-8.3241711 -4.7153459 -1.8596245 4 2
-11.271602 -6.3771672 -2.0511689 3 3
-16.285278 -9.2025175 -2.2967498 5 4
-27.115036 -15.278544 -1.6311026 31 6
-5.7926331 -3.2373927 -1.7780869 4 0
-6.8148913 -3.8040323 -1.8018579 6 1
-8.3097763 -4.6327639 -1.8493209 3 2
-11.211197 -6.2426357 -2.0323968 4 3
-16.300549 -9.061594 -2.2899251 5 4
-27.061207 -15.006451 -1.6216822 32 6
-5.8179212 -3.1997507 -1.7791222 4 0
-6.8235469 -3.7481744 -1.7973589 6 1
-8.3746214 -4.5925756 -1.8565717 4 2
-11.190401 -6.1291075 -2.0208206 5 3
-16.292187 -8.9123268 -2.2801757 5 4
-27.02504 -14.740652 -1.6133084 33 6
-5.8367181 -3.1572187 -1.7780869 3 0
-6.8564048 -3.7041526 -1.7991585 7 1
-8.4064808 -4.5339956 -1.8565717 4 2
-11.189442 -6.0274115 -2.0129991 3 3
-16.329538 -8.7851973 -2.2767632 5 4
-27.067448 -14.519522 -1.6097494 33 6
-5.8483834 -3.1109517 -1.774981 4 0
-6.8648872 -3.6470544 -1.7946595 6 1
-8.3945684 -4.4522023 -1.8470311 3 2
-11.136983 -5.8992195 -1.996104 2 3
-16.390469 -8.6709862 -2.2767632 5 4
-27.332447 -14.416861 -1.6194841 21 6
-5.8699603 -3.0700452 -1.774981 3 0
-6.8936362 -3.6008425 -1.7955593 7 1
-8.4202223 -4.3907671 -1.8458863 4 2
-11.125335 -5.7939548 -1.9867179 2 3
-16.432993 -8.5471869 -2.2743258 5 4
-27.684196 -14.35626 -1.6343473 21 6
-5.9067121 -3.0369418 -1.7796398 2 0
-6.883935 -3.5348263 -1.7865613 6 1
-8.4244652 -4.31844 -1.8401619 3 2
-11.140897 -5.7035384 -1.9823378 3 3
-16.495798 -8.434062 -2.2748132 5 4
-27.993717 -14.26967 -1.6466986 20 6
-5.9312181 -2.9973738 -1.7806751 2 0
-6.8893089 -3.4770231 -1.7816124 10 1
-8.4641829 -4.2662983 -1.8424517 3 2
-11.133587 -5.6044798 -1.9742032 2 3
-16.543634 -8.3133507 -2.273351 6 4
-28.356243 -14.212141 -1.6622947 10 6
-5.9445629 -2.9534934 -1.7786045 2 0
-6.9145617 -3.4309146 -1.7820623 15 1
-8.4832048 -4.2018766 -1.8401619 3 2
-11.112241 -5.4968405 -1.9635657 2 3
-16.617638 -8.209342 -2.2757883 6 4
-28.771915 -14.170013 -1.6808217 19 6
-5.9268441 -2.8932779 -1.7672166 2 0
-6.9453516 -3.3859756 -1.7838619 11 1
-8.4904289 -4.1337237 -1.8355827 3 2
-11.049913 -5.3727016 -1.9460449 3 3
-16.642395 -8.0775261 -2.2714009 5 4
-29.124769 -14.098287 -1.6957898 18 6
-5.9516258 -2.8553746 -1.7687694 2 0
-6.9735107 -3.3411477 -1.7852116 7 1
-8.529707 -4.0794311 -1.8378724 3 2
-11.065763 -5.2852116 -1.9422905 3 3
-16.668325 -7.9503837 -2.2675011 5 4
-29.538141 -14.044702 -1.7141075 17 6
-5.9941325 -2.8244612 -1.7754986 2 0
-6.9878507 -3.2882318 -1.7829621 7 1
-8.5288477 -4.0079165 -1.8317665 3 2
-11.033528 -5.1778774 -1.9304014 3 3
-16.712637 -7.8287754 -2.2660389 5 4
-29.88096 -13.959135 -1.7284474 16 6
-6.0132198 -2.7835937 -1.7754986 2 0
-6.9959192 -3.2340505 -1.7793628 7 1
-8.5280972 -3.9351175 -1.8256606 3 2
-11.037114 -5.085845 -1.9247699 4 3
-16.70783 -7.6882796 -2.258239 5 4
-26.506643 -12.158079 -1.5283147 11 6
-6.0114017 -2.7319541 -1.7692871 2 0
-7.0041304 -3.1786885 -1.7757636 7 1
-8.5618372 -3.8802187 -1.8271869 3 2
-11.037284 -4.9951248 -1.9188254 4 3
-16.71768 -7.5518365 -2.2523894 5 4
-26.392118 -11.88878 -1.5170102 11 6
-5.9998674 -2.6775899 -1.7604873 2 0
-7.0327244 -3.1341138 -1.7775632 7 1
-8.542078 -3.799608 -1.8172649 3 2
-11.035781 -4.9019108 -1.912568 5 3
-16.741478 -7.4257951 -2.2487333 4 4
-26.368521 -11.657404 -1.5109391 11 6
-6.0290313 -2.6402874 -1.763593 2 0
-7.0508614 -3.0833778 -1.7766634 7 1
-8.564146 -3.7398024 -1.8165017 3 2
-11.048973 -4.8179932 -1.9091264 6 3
-16.707365 -7.2715082 -2.2372777 5 4
-26.31901 -11.42199 -1.5036122 23 6
-6.0220156 -2.5885086 -1.7563461 2 0
-7.0573597 -3.0291653 -1.7730643 7 1
-8.5701942 -3.6714201 -1.8123039 4 2
-11.046016 -4.7252045 -1.9028691 6 3
-16.719961 -7.1420197 -2.2324028 5 4
-26.372381 -11.227017 -1.5021467 27 6
-6.0684223 -2.5584104 -1.7646283 2 0
-7.0747437 -2.978308 -1.7721643 6 1
-8.6064758 -3.6160645 -1.8145936 4 2
-11.027729 -4.6265774 -1.8941088 6 3
-16.696175 -6.994441 -2.2226534 5 4
-6.093276 -2.5189362 -1.7666988 2 0
-7.1097741 -2.9347944 -1.7757636 6 1
-8.6169901 -3.5499072 -1.8115407 4 2
-11.052454 -4.5464683 -1.8928572 6 3
-16.704203 -6.8611126 -2.2172909 5 4
-6.0892282 -2.4676292 -1.7604873 2 0
-7.1066055 -2.8755851 -1.769915 4 1
-8.5978718 -3.4720216 -1.8023818 4 2
-11.049114 -4.455164 -1.8869127 5 3
-16.703815 -6.7250566 -2.2109537 5 4
-25.242708 -10.142386 -2.380049 23 5
-6.1242614 -2.4321883 -1.7656636 2 0
-7.1156387 -2.8215916 -1.7672155 4 1
-8.6255541 -3.4133556 -1.8031452 4 2
-11.035858 -4.3604937 -1.8794039 5 3
-16.694962 -6.5864186 -2.2036417 5 4
-25.197958 -9.9206648 -2.3692417 23 5
-27.300127 -10.731803 -1.5373164 11 6
-6.0978823 -2.3725631 -1.7532402 2 0
-7.1315298 -2.7704365 -1.7663157 2 1
-8.6784601 -3.3644106 -1.809251 4 2
-10.994184 -4.2555361 -1.867202 3 3
-16.659065 -6.4382238 -2.1929171 5 4
-25.333527 -9.7703114 -2.3755169 23 5
-27.624144 -10.637116 -1.5513426 12 6
-6.117908 -2.3313103 -1.7542756 2 0
-7.1652689 -2.7261236 -1.769915 2 1
-8.6742048 -3.2932911 -1.8035268 4 2
-11.056872 -4.1912842 -1.8728336 2 3
-16.607063 -6.2852302 -2.1802428 5 4
-27.955626 -10.541257 -1.5657873 12 6
-6.1792841 -2.3054245 -1.7672166 2 0
-7.1804733 -2.6746755 -1.7690151 2 1
-8.6743402 -3.2259593 -1.7989473 4 2
-11.062923 -4.1076746 -1.8690792 3 3
-16.550022 -6.1318913 -2.1670809 5 4
-28.36772 -10.476656 -1.5848376 11 6
-6.1549129 -2.2487266 -1.7558285 2 0
-7.1948519 -2.624402 -1.7681153 2 1
-8.641304 -3.1451781 -1.7874987 10 2
-11.046773 -4.0141487 -1.8615704 3 3
-16.550322 -6.0042067 -2.1617186 5 4
-28.808325 -10.411418 -1.6053532 11 6
-6.1995687 -2.216105 -1.7641107 2 0
-7.2093277 -2.5727985 -1.7672155 1 1
-8.6852446 -3.0926766 -1.7920781 10 2
-11.100585 -3.9461932 -1.8659505 3 3
-16.298126 -5.7842789 -2.1234517 3 4
-29.196663 -10.321877 -1.6229382 10 6
-6.2002993 -2.167671 -1.7599696 2 0
-7.2087135 -2.5159855 -1.7627165 2 1
-8.7418509 -3.0442343 -1.7993289 4 2
-11.109206 -3.8621137 -1.8628219 3 3
-16.146824 -5.6039672 -2.0985904 3 4
-29.581358 -10.226125 -1.6403136 10 6
-6.2006574 -2.1193335 -1.7558285 2 0
-7.2408576 -2.4706302 -1.7663157 1 1
-8.7140512 -2.9682014 -1.7894068 4 2
-11.105314 -3.7762313 -1.8578159 3 3
-16.020126 -5.4349813 -2.0771413 3 4
-32.696476 -11.054428 -1.8088354 6 6
-6.2002811 -2.0721803 -1.7516873 2 0
-7.2464151 -2.4175873 -1.7636162 1 1
-8.7531891 -2.9134963 -1.7932231 4 2
-11.123908 -3.6961207 -1.8565645 3 3
-15.873985 -5.2651935 -2.0534985 5 4
-32.621136 -10.775779 -1.8004616 13 6
-6.2145967 -2.0288422 -1.7516873 2 0
-7.2519999 -2.3633161 -1.7609169 2 1
-8.7000055 -2.8301611 -1.77834 3 2
-11.126263 -3.6129956 -1.85281 3 3
-15.787608 -5.1144748 -2.0376556 3 4
-32.587292 -10.519125 -1.7946001 6 6
-6.2098575 -1.9806249 -1.746511 2 0
-7.2530622 -2.3091707 -1.7573177 2 1
-8.7700729 -2.7854025 -1.7886436 4 2
-11.132384 -3.5292618 -1.8496813 3 3
-15.697144 -4.9673686 -2.021569 3 4
-32.492298 -10.238552 -1.7853891 7 6
-6.2475123 -1.9446878 -1.7532402 3 0
-7.2503967 -2.2526963 -1.7528186 2 1
-8.783679 -2.7223623 -1.7874987 3 2
-11.156752 -3.4514573 -1.8496813 3 3
-15.600564 -4.8172488 -2.004751 2 4
-32.467529 -9.9821157 -1.7801553 7 6
-6.2627854 -1.9015859 -1.753758 2 0
-7.2547569 -2.198633 -1.7501192 3 1
-8.7460918 -2.6439333 -1.7760502 3 2
-11.165445 -3.368922 -1.8471783 3 3
-15.495057 -4.6664352 -1.9869579 2 4
-6.2536793 -1.8512384 -1.7475463 2 0
-7.2830105 -2.1517985 -1.7532685 3 1
-8.8057671 -2.5950191 -1.7844458 3 2
-11.139421 -3.2763982 -1.8390437 2 3
-15.416785 -4.5257158 -1.9728212 2 4
-31.395981 -9.1748848 -1.7142121 8 6
-6.2460341 -1.8016435 -1.7418523 3 0
-7.2697663 -2.0928128 -1.74652 4 1
-8.8387651 -2.5378144 -1.7874987 3 2
-11.162023 -3.1985507 -1.8390437 2 3
-15.348758 -4.3895922 -1.9601468 2 4
-31.386272 -8.9346895 -1.7102345 8 6
-6.2733374 -1.7621748 -1.7459934 3 0
-7.2954578 -2.045167 -1.7492194 4 1
-8.8146706 -2.4644189 -1.7791032 3 2
-11.115583 -3.1014352 -1.8277806 3 3
-15.310185 -4.2631607 -1.9513721 1 4
-31.343946 -8.6865568 -1.7045822 18 6
-6.2907772 -1.720962 -1.7475463 2 0
-7.2904105 -1.9903287 -1.7447205 4 1
-8.8463945 -2.4084878 -1.7821561 3 2
-11.155499 -3.0308807 -1.8309091 3 3
-15.273709 -4.1411872 -1.9430851 2 4
-31.572039 -8.5187902 -1.7137934 17 6
-6.3101058 -1.6789906 -1.7496167 2 0
-7.3135448 -1.9418857 -1.7469698 3 1
-8.873971 -2.3512335 -1.7844458 3 2
-11.152953 -2.9488206 -1.8271548 3 3
-15.238903 -4.0177584 -1.9350417 2 4
-32.007923 -8.4030991 -1.7343091 8 6
-6.3176479 -1.6350322 -1.7485816 2 0
-7.3265934 -1.8920588 -1.7469698 3 1
-8.8787622 -2.2862868 -1.7821561 3 2
-11.15605 -2.8664625 -1.8243389 4 3
-15.16783 -3.8887942 -1.922611 2 4
-32.015491 -8.1665936 -1.7315876 8 6
-6.2839427 -1.5795839 -1.7361581 2 0
-7.3226123 -1.8365967 -1.7429208 4 1
-8.8449869 -2.2118642 -1.772234 3 2
-11.158541 -2.7842073 -1.8215232 4 3
-15.088661 -3.7564354 -1.9092052 2 4
-31.881735 -7.8958392 -1.7213298 8 6
-6.3117085 -1.5397959 -1.740817 3 0
-7.3447227 -1.787735 -1.7451702 3 1
-8.9327126 -2.167654 -1.7867355 3 2
-11.125868 -2.6936851 -1.8130757 8 3
-15.120309 -3.6524 -1.9099365 3 4
-31.916658 -7.6684117 -1.7202832 8 6
-6.3166642 -1.4943601 -1.739264 2 0
-7.3475409 -1.7341774 -1.7429208 3 1
-8.9587259 -2.1095002 -1.7890252 3 2
-11.167021 -2.6233146 -1.81683 4 3
-15.087453 -3.5331762 -1.9026244 3 4
-6.3097434 -1.4474417 -1.7346053 2 0
-7.3515768 -1.682385 -1.7411212 4 1
-8.9043283 -2.031189 -1.775287 3 2
-11.183138 -2.544852 -1.8165172 4 3
-15.074373 -3.4220474 -1.8979933 2 4
-32.864891 -7.4184828 -1.7657107 7 6
-6.3083792 -1.4008451 -1.7314996 2 0
-7.3669481 -1.631865 -1.742021 4 1
-8.8914518 -1.9630477 -1.7699443 3 2
-11.219923 -2.4709656 -1.819646 3 3
-15.07269 -3.3111877 -1.8948246 2 4
-33.473946 -7.3107433 -1.7956468 6 6
-6.2991171 -1.3527155 -1.7263231 2 0
-7.3895946 -1.5828414 -1.7447205 5 1
-8.8972597 -1.8992885 -1.768418 3 2
-11.190529 -2.382705 -1.812137 4 3
-15.060487 -3.1984606 -1.8904375 3 4
-34.040073 -7.1857791 -1.8232802 6 6
-6.3386722 -1.3149834 -1.7346053 2 0
-7.3890142 -1.5288465 -1.742021 4 1
-8.8949203 -1.8339561 -1.765365 3 2
-11.187542 -2.3005433 -1.8090084 4 3
-15.051336 -3.0868559 -1.8865376 3 4
-6.3590636 -1.2729759 -1.7377111 1 0
-7.388041 -1.4749368 -1.7393216 4 1
-8.9229116 -1.7748772 -1.768418 3 2
-11.211081 -2.2239213 -1.8102598 3 3
-15.023834 -2.9720752 -1.880444 2 4
-35.312939 -6.9409299 -1.8860834 4 6
-6.3981457 -1.2344041 -1.7459934 1 0
-7.3905039 -1.4218483 -1.737522 3 1
-8.9077921 -1.7089211 -1.7630752 3 2
-11.206557 -2.1438465 -1.8071312 4 3
-15.014967 -2.861546 -1.876788 2 4
-6.3950043 -1.1887078 -1.7428875 1 0
-7.3846817 -1.3686702 -1.7339227 3 1
-8.9040594 -1.6438421 -1.7600222 3 2
-11.209595 -2.0634148 -1.805254 3 3
-15.030192 -2.7585592 -1.8763006 2 4
-6.3575053 -1.1358787 -1.7304642 2 0
-7.4055676 -1.3191326 -1.7366221 4 1
-8.8959885 -1.5782106 -1.756206 3 2
-11.215944 -1.9837304 -1.8040025 3 3
-15.006077 -2.645978 -1.8709384 2 4
-38.939529 -6.8170547 -2.0717714 0 6
-6.3728962 -1.0927747 -1.7325348 1 0
-7.4145966 -1.2673999 -1.7366221 4 1
-8.9493685 -1.5233139 -1.7646016 3 2
-11.213941 -1.9027367 -1.8014996 2 3
-15.000695 -2.5371785 -1.8680135 2 4
-39.561325 -6.6415873 -2.1023357 0 6
-6.3536816 -1.0438724 -1.7252878 1 0
-7.4174943 -1.2146623 -1.7352724 3 1
-8.9479046 -1.4604667 -1.7623119 3 2
-11.211035 -1.8238268 -1.7989967 2 3
-14.98081 -2.4263618 -1.8633825 2 4
-39.010101 -6.2763443 -2.0707247 0 6
-6.36064 -1.0005999 -1.7252878 1 0
-7.4140391 -1.1623338 -1.7325729 3 1
-8.9540033 -1.3973576 -1.7615488 3 2
-11.16884 -1.7370118 -1.7902362 2 3
-14.963631 -2.3191657 -1.8592389 3 4
-41.413952 -6.366818 -2.1959121 0 6
-6.4171414 -0.9636302 -1.7387464 1 0
-7.4200459 -1.1102592 -1.7321231 4 1
-8.9400053 -1.3329052 -1.7569693 3 2
-11.250747 -1.6713974 -1.8014996 2 3
-14.948036 -2.2100017 -1.8553391 3 4
-42.713123 -6.2692509 -2.2624836 0 6
-6.3853049 -0.91445035 -1.7283937 1 0
-7.4312897 -1.0602772 -1.7330229 3 1
-8.9607553 -1.2721132 -1.759259 3 2
-11.215199 -1.5861753 -1.7939906 2 3
-14.947375 -2.1033781 -1.8533891 3 4
-6.3725433 -0.86613297 -1.7232174 2 0
-7.4425483 -1.0075959 -1.7339227 2 1
-8.9655266 -1.2090018 -1.7584958 3 2
-11.206684 -1.5032545 -1.7908621 2 3
-14.873154 -1.9871446 -1.8424209 5 4
-6.3937626 -0.82359755 -1.7273583 2 0
-7.4455361 -0.9551149 -1.7330229 2 1
-8.9739485 -1.1448151 -1.7584958 3 2
-11.24042 -1.4279704 -1.7946163 2 3
-14.912265 -1.8865044 -1.8455895 3 4
-6.3705912 -0.77543926 -1.7195939 2 0
-7.448153 -0.90264481 -1.7321231 2 1
-8.9620419 -1.0813527 -1.7546796 3 2
-11.222423 -1.3481276 -1.7902362 2 3
-14.879737 -1.7769337 -1.8399835 4 4
-6.4025912 -0.73514462 -1.7268407 2 0
-7.4347634 -0.84971303 -1.7276241 3 1
-8.9771757 -1.019648 -1.756206 3 2
-11.235487 -1.2701913 -1.7908621 2 3
-14.857953 -1.6718394 -1.83584 3 4
-6.4094877 -0.69063514 -1.7273583 2 0
-7.4753919 -0.80152929 -1.7357224 2 1
-8.9487686 -0.95476735 -1.749337 3 2
-11.216371 -1.1907645 -1.7864817 2 3
-14.869263 -1.5680707 -1.83584 3 4
-6.4276085 -0.64722651 -1.7309818 2 0
-7.4575367 -0.74699104 -1.7303236 3 1
-8.9631863 -0.89148629 -1.7508634 3 2
-11.224604 -1.1104742 -1.7864817 2 3
-14.85614 -1.4618961 -1.8329151 3 4
-6.4204292 -0.60125673 -1.7278759 2 0
-7.4470472 -0.69346392 -1.7267244 3 1
-8.9455881 -0.82828307 -1.746284 3 2
-11.208299 -1.0318718 -1.7827275 2 3
-14.846216 -1.356339 -1.8304777 3 4
-6.4301472 -0.55804294 -1.7294289 3 0
-7.4593611 -0.64342898 -1.728524 2 1
-8.9668016 -0.76714969 -1.749337 3 2
-11.227039 -0.95460218 -1.7846047 1 3
-14.864993 -1.256088 -1.8316964 2 4
-47.297176 -3.9384115 -2.4873188 0 6
-6.4435153 -0.51390487 -1.7320172 2 0
-7.4636712 -0.59133536 -1.728524 2 1
-9.0071688 -0.70729953 -1.756206 3 2
-11.249186 -0.87743098 -1.7871076 2 3
-14.833817 -1.1492171 -1.8268216 2 4
-47.375301 -3.6120667 -2.4900403 0 6
-6.4026299 -0.46568644 -1.7201115 3 0
-7.4831672 -0.54033923 -1.7321231 2 1
-8.9844713 -0.64243788 -1.7508634 3 2
-11.243215 -0.79803365 -1.7852304 3 3
-14.83752 -1.045347 -1.8263341 2 4
-6.4230747 -0.42211804 -1.7247702 2 0
-7.4789782 -0.48757845 -1.7303236 2 1
-8.9887371 -0.57970095 -1.7508634 3 2
-11.205142 -0.71675032 -1.7783473 3 3
-14.838511 -0.94136262 -1.8256029 2 4
-6.4297218 -0.37749109 -1.7258054 2 0
-7.4549637 -0.4337669 -1.7240249 3 1
-9.0435266 -0.51986521 -1.7607856 3 2
-11.21776 -0.63895547 -1.7795987 2 3
-14.820939 -0.8364051 -1.822678 2 4
-6.4283419 -0.33239603 -1.7247702 2 0
-7.4461336 -0.38111496 -1.7213255 3 1
-8.9959545 -0.45414105 -1.7508634 3 2
-11.218002 -0.56042808 -1.778973 3 3
-14.798659 -0.731543 -1.8192657 2 4
-6.4382253 -0.28785321 -1.7268407 2 0
-7.4525056 -0.32929215 -1.7222252 3 1
-9.0499039 -0.39354622 -1.7607856 3 2
-11.217695 -0.48193109 -1.7783473 3 3
-14.815306 -0.62871957 -1.8207282 2 4
-6.3802333 -0.24064331 -1.710794 2 0
-7.4740977 -0.27798188 -1.7267244 2 1
-8.9778185 -0.32920244 -1.746284 3 2
-11.232559 -0.40599144 -1.7802243 3 3
-14.825286 -0.52548134 -1.8214594 2 4
-6.3933091 -0.19756678 -1.7138997 2 0
-7.4719205 -0.22698243 -1.7258245 3 1
-8.9916735 -0.26686689 -1.7485738 3 2
-11.19168 -0.32629701 -1.7733413 3 3
-14.802724 -0.42382142 -1.8182908 2 4
-6.4157772 -0.15343785 -1.7195939 2 0
-7.4538412 -0.17435911 -1.7213255 3 1
-8.9618759 -0.20493805 -1.7424678 3 2
-11.217341 -0.25063944 -1.7770958 3 3
-14.773566 -0.31978124 -1.8143909 2 4
-6.4359884 -0.11009381 -1.7247702 2 0
