# .PCD v0.7 - Point Cloud Data file format
VERSION 0.7
FIELDS x y z intensity ring
SIZE 4 4 4 4 2
TYPE F F F F U
COUNT 1 1 1 1 1
WIDTH 1299
HEIGHT 1
VIEWPOINT 0 0 0 1 0 0 0
POINTS 1299
DATA ascii
-4.6166663 -11.690166 -2.4431186 6 2
-5.210042 -13.172502 -2.2435834 25 3
-7.5451784 -19.037531 -2.5144086 1 4
-8.5473194 -21.533152 -2.0268939 32 5
-8.5463114 -21.497772 -1.2124149 41 6
-3.024431 -7.5311055 -2.1745977 3 0
-3.7602055 -9.3490906 -2.3264439 8 1
-4.6871581 -11.630337 -2.4373941 7 2
-5.3003974 -13.132143 -2.2429576 17 3
-7.5347223 -18.63973 -2.4685855 1 4
-8.7104473 -21.47275 -1.2144036 31 6
-3.0696096 -7.4919305 -2.1694212 3 0
-3.825382 -9.3226118 -2.3264439 9 1
-4.768239 -11.597331 -2.4373941 7 2
-5.3904438 -13.091166 -2.242332 17 3
-8.2148476 -19.920849 -2.6457837 3 4
-8.86625 -21.426182 -1.2152411 41 6
-3.1218383 -7.4703183 -2.1694212 3 0
-3.8873632 -9.2884874 -2.3246443 8 1
-4.8498459 -11.565571 -2.4377759 6 2
-5.5015922 -13.100569 -2.2504666 16 3
-7.7526846 -18.433901 -2.4554236 3 4
-9.0350304 -21.409763 -1.2178578 31 6
-9.0448189 -21.40167 -0.40555903 35 7
-3.1617973 -7.4199071 -2.161139 3 0
-3.9521143 -9.2611227 -2.3246443 9 1
-4.918891 -11.504354 -2.4320514 7 2
-5.5960264 -13.069105 -2.251718 17 3
-7.8858805 -18.390276 -2.4568863 3 4
-9.194541 -21.370016 -1.2192186 41 6
-3.202997 -7.3769488 -2.1549275 3 0
-4.0135064 -9.2304335 -2.3237445 8 1
-4.9978709 -11.472404 -2.4324331 6 2
-5.6777458 -13.014416 -2.2489021 18 3
-8.0418711 -18.407116 -2.466392 22 4
-9.3646441 -21.363644 -1.2224634 31 6
-9.3792267 -21.366482 -0.40730426 35 7
-3.2559822 -7.3579412 -2.1559627 3 0
-4.0746899 -9.1950626 -2.3219447 8 1
-5.0710664 -11.427354 -2.4301436 6 2
-5.7678041 -12.979079 -2.2495279 21 3
-8.1830988 -18.379538 -2.4702919 12 4
-9.5155439 -21.31217 -1.2231961 41 6
-9.5281649 -21.300482 -0.40730426 35 7
-3.2996399 -7.3215189 -2.1518216 3 0
-4.1323748 -9.156456 -2.3192453 8 1
-5.1482925 -11.386306 -2.4289987 7 2
-5.8835325 -12.99428 -2.2592268 17 3
-5.9479966 -13.118372 -1.7685682 3 4
-8.3671265 -18.428127 -1.7706561 38 5
-9.6773281 -21.274309 -1.2248708 41 6
-3.336165 -7.2667031 -2.1425042 4 0
-4.197825 -9.1309252 -2.3201451 8 1
-5.2182899 -11.334948 -2.4255641 6 2
-5.9842515 -12.980841 -2.2639198 23 3
-6.1493039 -13.314413 -1.8007416 13 4
-8.495575 -18.369265 -1.7706561 38 5
-9.8387003 -21.244192 -1.2269642 41 6
-3.3937304 -7.2613273 -2.1476805 3 0
-4.2598801 -9.1021404 -2.3201451 8 1
-5.2947927 -11.29291 -2.4244192 7 2
-6.0831203 -12.956629 -2.2670486 21 3
-8.5334644 -18.142759 -2.461761 3 4
-8.6236095 -18.309507 -1.7706561 38 5
-9.9987011 -21.200279 -1.2284297 41 6
-3.4306557 -7.2054601 -2.1383629 3 0
-4.3232269 -9.0679054 -2.3192453 8 1
-5.3701196 -11.248583 -2.4228928 7 2
-6.1876121 -12.937716 -2.2714286 18 3
-8.7542324 -18.279684 -2.4885721 4 4
-8.7822342 -18.313532 -1.7769312 38 5
-10.179551 -21.189398 -1.2319885 42 6
-3.4741349 -7.1674266 -2.1342218 3 0
-4.3830237 -9.0304899 -2.3174458 9 1
-5.4436069 -11.195742 -2.4198396 7 2
-6.2933488 -12.926173 -2.2770603 18 3
-8.8903351 -18.235964 -2.4910095 4 4
-10.336884 -21.137548 -1.2331399 31 6
-3.5087013 -7.111814 -2.1249044 4 0
-4.4459596 -8.999671 -2.3174458 8 1
-5.5170741 -11.153152 -2.418695 6 2
-6.3917103 -12.904277 -2.2808149 21 3
-9.0191927 -18.17701 -2.491497 4 4
-10.500095 -21.106039 -1.2354426 31 6
-3.5414317 -7.0566874 -2.115587 4 0
-4.5088658 -8.9726839 -2.3183455 8 1
-5.5886245 -11.102089 -2.4160237 7 2
-6.513648 -12.922843 -2.292078 18 3
-9.1507578 -18.131151 -2.4936907 3 4
-10.666131 -21.069641 -1.2376407 42 6
-3.5756733 -7.0025434 -2.1067872 6 0
-4.5678463 -8.9340477 -2.316546 8 1
-5.6560125 -11.048062 -2.4125891 6 2
-6.5960536 -12.86766 -2.2902007 22 3
-9.3006907 -18.112738 -2.5000281 3 4
-10.839464 -21.055155 -1.2410949 31 6
-3.6294868 -6.9900436 -2.1104105 4 0
-4.6285529 -8.9027481 -2.316546 8 1
-5.7348156 -11.01179 -2.4133523 6 2
-6.6893797 -12.828304 -2.2914524 19 3
-9.4301958 -18.061329 -2.5017343 3 4
-11.005651 -21.016123 -1.243293 42 6
-3.672785 -6.9542851 -2.1073048 4 0
-4.6814833 -8.8529911 -2.312047 9 1
-5.7931738 -10.936788 -2.40572 6 2
-6.7972832 -12.816195 -2.2977097 21 3
-9.5569839 -17.996807 -2.5019777 3 4
-9.5644922 -17.980623 -1.781812 38 5
-11.165246 -20.963455 -1.2447585 21 6
-3.7212458 -6.9284749 -2.1073048 4 0
-4.7413282 -8.8166599 -2.311147 8 1
-5.8824201 -10.920275 -2.4110627 4 2
-6.9109716 -12.813632 -2.3058443 19 3
-9.6937113 -17.950609 -2.5049026 3 4
-9.6942387 -17.929125 -1.7832065 38 5
-11.314148 -20.864111 -0.41428521 34 7
-3.7658212 -6.895545 -2.1052344 4 0
-4.7990255 -8.7765055 -2.3093476 9 1
-5.9387031 -10.847263 -2.4038119 7 2
-7.02177 -12.809599 -2.3136661 17 3
-9.8273926 -17.898157 -2.5070963 4 4
-9.8383684 -17.895929 -1.7866927 37 5
-3.7957945 -6.8393488 -2.0959167 3 0
-4.8567586 -8.7402287 -2.3084476 10 1
-6.0114222 -10.800392 -2.402667 6 2
-7.1177578 -12.772345 -2.3158562 18 3
-9.9547977 -17.841251 -2.5085588 4 4
-9.9288597 -17.772888 -1.7811147 38 5
-3.8377542 -6.8025866 -2.0928109 3 0
-4.9195757 -8.7095041 -2.3093476 9 1
-6.077064 -10.745553 -2.3996141 6 2
-7.2278881 -12.764854 -2.323365 18 3
-10.088903 -17.788584 -2.5109961 3 4
-10.084179 -17.758579 -1.7866927 37 5
-11.843966 -20.798412 -0.41777572 34 7
-3.8858905 -6.7796583 -2.0938461 3 0
-4.9671063 -8.6555328 -2.3039486 10 1
-6.1431293 -10.687547 -2.3961794 7 2
-7.3306222 -12.738054 -2.3277452 21 3
-10.205785 -17.712622 -2.5100212 4 4
-10.198846 -17.679174 -1.7856468 37 5
-3.9224296 -6.7340035 -2.0881522 2 0
-5.0274119 -8.6206455 -2.3039486 9 1
-6.2058358 -10.62853 -2.3923633 7 2
-7.4440751 -12.733906 -2.3361926 16 3
-10.470621 -17.882479 -2.5443883 6 4
-10.376433 -17.700359 -1.7950596 37 5
-3.9544039 -6.6838703 -2.0809052 2 0
-5.0859747 -8.5862246 -2.3039486 10 1
-13.809666 -23.295168 1.4192467 21 9
-6.2708702 -10.56975 -2.3889287 6 2
-7.5267401 -12.671436 -2.3343153 17 3
-7.8730755 -13.233451 -1.8906811 4 4
-10.520144 -17.661722 -1.798546 37 5
-3.9891887 -6.6338797 -2.0741758 2 0
-5.1452737 -8.5462732 -2.3030491 9 1
-6.3536267 -10.540848 -2.3923633 7 2
-7.6549931 -12.679822 -2.3458915 12 3
-10.59092 -17.522186 -2.513921 10 4
-10.626684 -17.560572 -1.7957568 37 5
-4.0313768 -6.5992742 -2.0721054 2 0
-5.2027788 -8.5068188 -2.3021491 10 1
-6.4124846 -10.468327 -2.3862574 7 2
-7.8166523 -12.74563 -2.3681052 15 3
-10.779465 -17.556087 -2.5295203 9 4
-10.763626 -17.509722 -1.7981973 37 5
-10.968681 -17.815397 -1.0964384 9 6
-4.0783687 -6.5726104 -2.072623 2 0
-5.259984 -8.4669781 -2.3012493 10 1
-6.4773703 -10.414433 -2.3839676 7 2
-7.8176064 -12.554626 -2.3424499 11 3
-10.890212 -17.461876 -2.5268393 6 4
-10.910928 -17.47471 -1.8023807 37 5
-12.977531 -20.768387 4.760303 7 13
-4.0993271 -6.5071039 -2.0607173 2 0
-5.3278894 -8.447463 -2.3057485 9 1
-6.5509682 -10.370618 -2.3843493 6 2
-13.087175 -20.709866 2.1433339 13 10
-7.9219575 -12.526456 -2.3474557 8 3
-13.085494 -20.675228 3.0043232 22 11
-8.3476744 -13.184327 -1.91603 4 4
-13.078741 -20.640636 3.8701892 17 12
-11.042422 -17.420229 -1.8044724 37 5
-13.090197 -20.634813 4.7499995 10 13
-4.154026 -6.4929733 -2.065376 2 0
-5.395143 -8.4231901 -2.3093476 9 1
-13.183612 -20.575064 1.280661 22 9
-6.6065674 -10.302651 -2.3790066 6 2
-13.227129 -20.61129 2.1426368 13 10
-7.9771547 -12.425701 -2.3386955 8 3
-13.28386 -20.675867 3.0174851 20 11
-8.3987179 -13.062279 -1.906768 4 4
-11.168083 -17.349417 -1.8051698 37 5
-11.38733 -17.66968 -1.1016721 9 6
-4.1907611 -6.4532056 -2.0617526 2 0
-5.4438548 -8.3732004 -2.3057485 9 1
-6.6740475 -10.249698 -2.3774803 6 2
-8.0647869 -12.371361 -2.3390083 10 3
-13.298026 -20.375809 -2.9875054 19 4
-11.333866 -17.346388 -1.8128394 37 5
-4.2133765 -6.3899236 -2.0508821 2 0
-5.5000305 -8.3317375 -2.3048484 9 1
-6.7512379 -10.215496 -2.3801515 7 2
-8.1608 -12.334301 -2.3424499 13 3
-13.412539 -20.241104 -2.9814119 7 4
-11.461299 -17.2768 -1.8138852 37 5
-28.885168 -43.492157 -2.7362287 0 6
-4.2299156 -6.3209572 -2.0379412 2 0
-5.5479383 -8.2811546 -2.3012493 8 1
-6.8092647 -10.148551 -2.3755722 7 2
-8.2665377 -12.306544 -2.3480816 14 3
-8.6803341 -12.907965 -1.9099365 11 4
-4.2880521 -6.3120475 -2.0446706 2 0
-5.5836964 -8.2099953 -2.2922513 9 1
-6.8777361 -10.097523 -2.374809 7 2
-8.3789606 -12.287702 -2.3555903 13 3
-8.8351517 -12.942141 -1.9240733 3 4
-4.3210468 -6.2660532 -2.0394943 2 0
-5.6541629 -8.1900587 -2.2976501 9 1
-6.938014 -10.034727 -2.3713744 6 2
-8.4735308 -12.241901 -2.3580933 17 3
-14.447342 -20.849064 -3.1144934 7 4
-4.3392076 -6.1993327 -2.0275886 2 0
-5.7044926 -8.14081 -2.2949507 9 1
-6.9903727 -9.9647675 -2.3660316 6 2
-8.5748291 -12.209805 -2.3630993 18 3
-14.587975 -20.741198 -3.1135182 7 4
-4.3723545 -6.157053 -2.0234473 1 0
-5.7507381 -8.0890875 -2.2913516 9 1
-7.0620461 -9.9189205 -2.3667948 6 2
-8.6919632 -12.194685 -2.3718596 19 3
-14.719594 -20.628494 -3.1115685 7 4
-4.4310455 -6.1483197 -2.0306942 1 0
-5.8070707 -8.0487423 -2.2913516 8 1
-7.1357183 -9.8757448 -2.3683214 6 2
-8.8023567 -12.168918 -2.3787427 19 3
-9.2059937 -12.712909 -1.927242 2 4
-27.119511 -37.354221 -2.4191775 0 6
-4.4464908 -6.079812 -2.018271 1 0
-5.860817 -8.004859 -2.2904515 9 1
-7.1975255 -9.8161869 -2.3660316 6 2
-8.9151478 -12.14539 -2.3862517 20 3
-15.060247 -20.494551 -3.1227803 7 4
-4.4865236 -6.0455189 -2.0172358 1 0
-5.9235315 -7.9731345 -2.2931509 9 1
-7.2407427 -9.7354622 -2.3583994 6 2
-9.0259256 -12.122452 -2.3937604 20 3
-9.5783873 -12.845715 -1.9674588 3 4
-26.914616 -36.016823 -2.3563743 0 6
-4.5113049 -5.9932323 -2.0099888 2 0
-5.961247 -7.9108405 -2.2868524 10 1
-7.3085327 -9.6846743 -2.3583994 6 2
-9.1365328 -12.093818 -2.4006436 19 3
-15.309059 -20.242207 -3.1161995 5 4
-4.5389652 -5.9431677 -2.0037773 3 0
-6.0139608 -7.8659363 -2.2859526 9 1
-7.3532867 -9.6037998 -2.3511486 7 2
-9.2495785 -12.067368 -2.4081526 21 3
-9.7328386 -12.684081 -1.9630717 8 4
-26.474737 -34.415413 -2.2755678 0 6
-9.4964523 -12.322496 4.1685395 1 15
-4.5696964 -5.8975916 -1.9991184 2 0
-6.0567842 -7.8083606 -2.2814536 10 1
-7.4297895 -9.5646334 -2.3542016 7 2
-9.3651285 -12.043043 -2.4162872 20 3
-15.260948 -19.603559 -3.0503898 4 4
-26.805281 -34.346264 -2.2833133 0 6
-4.6143398 -5.8701015 -2.0006714 4 0
-6.1135602 -7.7689495 -2.2823534 9 1
-7.4898629 -9.5076704 -2.3526752 7 2
-9.476243 -12.016243 -2.4237959 19 3
-9.820405 -12.434786 -1.9455223 13 4
-27.162407 -34.319614 -2.2937806 0 6
-4.6373296 -5.8174086 -1.9934243 3 0
-6.1565742 -7.7149711 -2.278754 8 1
-7.5536022 -9.4520836 -2.3519118 7 2
-9.5919857 -11.9899 -2.4319305 24 3
-15.384604 -19.209995 -3.0218725 7 4
-27.448847 -34.188335 -2.2977581 0 6
-4.6656823 -5.7698703 -1.988248 3 0
-6.2127371 -7.6748314 -2.279654 9 1
-7.6091151 -9.3897696 -2.3492403 6 2
-9.7069769 -11.965751 -2.440378 21 3
-15.448246 -19.015841 -3.0082233 7 4
-27.759106 -34.096737 -2.3042479 0 6
-4.6803489 -5.7081017 -1.9778951 4 0
-6.2623591 -7.6293535 -2.278754 9 1
-7.662015 -9.3212557 -2.3454244 6 2
-9.8329506 -11.949555 -2.4510155 19 3
-10.150123 -12.321847 -1.9601468 3 4
-28.098211 -34.025314 -2.3126216 0 6
-4.7225571 -5.6782575 -1.9789305 4 0
-6.3005095 -7.5674758 -2.2733555 8 1
-7.7168446 -9.2554741 -2.3423715 6 2
-9.9629679 -11.93673 -2.4625916 17 3
-15.642773 -18.721827 -2.9955487 7 4
-28.360706 -33.858948 -2.3147149 0 6
-4.7645745 -5.6481042 -1.9799658 4 0
-6.3431258 -7.5113955 -2.2697561 8 1
-7.7838078 -9.2043724 -2.3431346 6 2
-10.100942 -11.931714 -2.4760451 12 3
-15.701223 -18.527355 -2.9818993 7 4
-28.72571 -33.81234 -2.325182 0 6
-4.8038907 -5.6147022 -1.9799658 5 0
-6.3599181 -7.4254861 -2.2571588 7 1
-7.8376493 -9.137887 -2.3400817 6 2
-10.262488 -11.95233 -2.4951301 6 3
-15.749957 -18.323957 -2.9667876 6 4
-29.091438 -33.76228 -2.3356493 0 6
-4.8227119 -5.557683 -1.9716836 4 0
-6.1713414 -7.1043243 -2.1725771 3 1
-7.8793492 -9.0577641 -2.3335941 7 2
-10.358657 -11.895288 -2.4982588 5 3
-15.814892 -18.141727 -2.9550881 6 4
-29.392145 -33.633553 -2.3408828 0 6
-4.8562875 -5.5180793 -1.969613 5 0
-6.1641054 -6.9967308 -2.1527817 3 1
-7.9408193 -9.0039234 -2.3335941 7 2
-10.491678 -11.883739 -2.5107734 5 3
-15.885932 -17.968418 -2.9448512 6 4
-29.75284 -33.582211 -2.3513501 0 6
-4.8963079 -5.4877787 -1.9706483 5 0
-6.1830306 -6.9226336 -2.1428835 3 1
-8.0008669 -8.9453402 -2.3328309 7 2
-10.574387 -11.810205 -2.5107734 4 3
-15.949574 -17.794827 -2.9341264 6 4
-30.050646 -33.444981 -2.3563743 0 6
-4.9215388 -5.439137 -1.9654719 5 0
-6.1932683 -6.8374157 -2.1298366 5 1
-8.0496998 -8.8775845 -2.3293962 6 2
-10.662494 -11.746731 -2.5126505 5 3
-16.046711 -17.653666 -2.9292519 6 4
-30.455132 -33.434566 -2.3701911 0 6
-4.9541664 -5.3989525 -1.9634014 5 0
-6.1960297 -6.7452173 -2.1145399 4 1
-8.0970707 -8.8024168 -2.3248169 6 2
-10.730224 -11.652691 -2.5088961 5 3
-16.123821 -17.491583 -2.9209645 6 4
-30.785769 -33.315536 -2.3773088 0 6
-4.9891057 -5.3614058 -1.9623661 4 0
-6.2217164 -6.6789813 -2.1073413 4 1
-8.1460876 -8.73561 -2.321764 6 2
-10.782331 -11.550506 -2.5026388 4 3
-16.185892 -17.314787 -2.9102402 6 4
-31.148369 -33.250969 -2.3877759 0 6
-5.0016227 -5.3020272 -1.9530486 5 0
-6.2536545 -6.6223083 -2.1028426 4 1
-8.2082224 -8.6799564 -2.3221457 7 2
-10.865422 -11.477818 -2.5032647 4 3
-16.259682 -17.158106 -2.9024405 6 4
-31.517302 -33.177505 -2.398243 0 6
-5.0251608 -5.2530212 -1.9478723 5 0
-6.2592983 -6.5362663 -2.0893452 4 1
-8.2645454 -8.618187 -2.3210008 6 2
-10.942553 -11.398833 -2.5026388 5 3
-16.340557 -17.004095 -2.8956158 6 4
-31.798044 -33.00845 -2.4020114 0 6
-5.063055 -5.2191992 -1.9483899 6 0
-6.2871299 -6.4742322 -2.0834966 6 1
-8.3204021 -8.5560589 -2.3198559 7 2
-10.99706 -11.296687 -2.4970071 4 3
-16.417303 -16.846954 -2.8883038 6 4
-32.167274 -32.92852 -2.4124784 0 6
-5.0885315 -5.1727066 -1.9442488 6 0
-6.3267045 -6.4246297 -2.0816972 7 1
-8.3784494 -8.4992256 -2.3198559 7 2
-11.051498 -11.199074 -2.4920013 4 3
-16.498241 -16.695215 -2.8819664 6 4
-5.1181655 -5.1324797 -1.9421781 6 0
-6.3331175 -6.3441796 -2.0695498 4 1
-8.4306383 -8.4335852 -2.3179479 6 2
-11.114043 -11.106288 -2.4885597 4 3
-16.590425 -16.561497 -2.8783104 4 4
-5.1483774 -5.0911894 -1.9401076 6 0
-6.3578429 -6.2806392 -2.0632513 3 1
-8.4949026 -8.3800354 -2.3194742 6 2
-11.144878 -10.982671 -2.478235 4 3
-16.667444 -16.407669 -2.8717294 6 4
-33.171959 -32.57523 -2.436553 0 6
-5.1561341 -5.0281477 -1.9297549 6 0
-6.401535 -6.2361002 -2.0632513 2 1
-8.5560122 -8.323267 -2.3202376 6 2
-11.177361 -10.861922 -2.4685361 4 3
-16.758795 -16.268789 -2.8678296 6 4
-5.2008581 -5.0014024 -1.9333783 5 0
-6.4139977 -6.1615558 -2.0533531 2 1
-8.6195784 -8.2687674 -2.321764 6 2
-11.231525 -10.763124 -2.4638431 4 3
-16.808868 -16.090994 -2.857105 6 4
-5.2272372 -4.956996 -1.9302725 4 0
-6.4342213 -6.0951848 -2.0461547 5 1
-8.6571274 -8.1895018 -2.3164213 6 2
-11.302086 -10.680381 -2.4629045 4 3
-16.887592 -15.941912 -2.8514991 4 4
-5.2419605 -4.9019098 -1.9230256 5 0
-6.4509821 -6.0261731 -2.0380566 5 1
-8.7040567 -8.1223497 -2.3141315 4 2
-11.364407 -10.593777 -2.4607143 5 3
-16.954887 -15.78305 -2.844187 4 4
-20.372274 -18.924463 -1.4572425 11 6
-5.2638459 -4.8556371 -1.9188845 4 0
-6.4760871 -5.9675965 -2.0331075 6 1
-8.7735519 -8.0733509 -2.3175662 7 2
-11.400278 -10.47942 -2.4525797 5 3
-17.009291 -15.618939 -2.8354123 4 4
-20.487803 -18.793356 -2.4323423 22 5
-20.492113 -18.770985 -1.4564052 34 6
-5.2947574 -4.8161712 -1.9178492 5 0
-6.4916301 -5.8986526 -2.0250094 6 1
-8.8268509 -8.0121222 -2.3171847 6 2
-11.456712 -10.388308 -2.4494512 4 3
-17.113497 -15.495819 -2.834681 6 4
-20.692381 -18.716696 -2.4410579 22 5
-20.718693 -18.720783 -1.4634181 23 6
-5.3360443 -4.7877603 -1.9209551 3 0
-6.4924483 -5.8192096 -2.012862 4 1
-8.8781805 -7.9463782 -2.3160398 7 2
-11.496556 -10.279109 -2.4425681 4 3
-17.187487 -15.351203 -2.8295627 4 4
-20.96797 -18.708059 -2.4584892 21 5
-20.963713 -18.677982 -1.4714779 23 6
-5.3432956 -4.7273498 -1.9116375 2 0
-6.5241561 -5.7660003 -2.0101628 4 1
-8.9099884 -7.866272 -2.3103154 6 2
-11.563295 -10.198003 -2.4419422 5 3
-17.189955 -15.139003 -2.812501 4 4
-21.213379 -18.642971 -1.4800609 23 6
-5.3622499 -4.6794376 -1.9069788 2 0
-6.5515003 -5.7112131 -2.0065634 5 1
-8.9602432 -7.8000112 -2.3091705 7 2
-11.614828 -10.100179 -2.437875 4 3
-17.24765 -14.982585 -2.8051889 4 4
-21.42452 -18.565048 -1.4857132 23 6
-5.3611059 -4.6129088 -1.8950732 2 0
-6.54392 -5.6246886 -1.9921664 5 1
-9.0159702 -7.7385468 -2.3095522 6 2
-11.662564 -9.9995594 -2.433182 4 3
-17.34881 -14.85923 -2.8047013 4 4
-21.706972 -18.546066 -1.4962852 23 6
-5.4167509 -4.5953636 -1.9033554 2 0
-6.5815425 -5.5776048 -1.9917165 7 1
-9.0667772 -7.6728773 -2.308789 6 2
-11.701918 -9.8923903 -2.4269247 5 3
-17.397524 -14.691642 -2.7959268 4 4
-21.94285 -18.48414 -1.5036122 23 6
-5.4412904 -4.55124 -1.9007671 2 0
-6.5963931 -5.5115309 -1.9845182 7 1
-9.0779152 -7.5741758 -2.2981036 4 2
-11.731241 -9.7775707 -2.4187901 5 3
-17.466103 -14.541883 -2.7905643 4 4
-22.212709 -18.447899 -1.513242 23 6
-5.4639874 -4.5057683 -1.8976613 2 0
-6.6076369 -5.4430413 -1.9764199 7 1
-9.115407 -7.4981451 -2.2942874 4 2
-11.771742 -9.6728621 -2.4131584 4 3
-17.505821 -14.369218 -2.7808149 4 4
-22.47695 -18.403725 -1.5224532 23 6
-5.4713273 -4.4480128 -1.889379 2 0
-6.6227837 -5.3783526 -1.9696715 5 1
-9.1431341 -7.4145393 -2.2881815 5 2
-11.802146 -9.5606022 -2.4056494 4 3
-17.51004 -14.16923 -2.765703 4 4
-22.71212 -18.332914 -1.5296755 23 6
-5.5037541 -4.4109173 -1.8898968 3 0
-6.6464777 -5.3210268 -1.9656224 3 1
-9.1762724 -7.3358169 -2.2836022 6 2
-11.814578 -9.4348316 -2.3946991 4 3
-17.526283 -13.981036 -2.752785 4 4
-22.973953 -18.280863 -1.5386772 23 6
-5.5495734 -4.3843608 -1.8950732 3 0
-6.6804042 -5.272079 -1.9647225 7 1
-9.1933365 -7.2448444 -2.2752066 6 2
-11.859978 -9.3362389 -2.3906317 4 3
-17.584452 -13.827663 -2.7466917 4 4
-23.234596 -18.224804 -1.5475744 23 6
-5.5640473 -4.3346138 -1.8898968 3 0
-6.697679 -5.2121248 -1.9593236 7 1
-9.192831 -7.1435499 -2.2629948 4 2
-11.904528 -9.2407589 -2.3868773 4 3
-17.609138 -13.654131 -2.7359669 3 4
-23.512936 -18.185978 -1.5578322 24 6
-5.6003022 -4.3003702 -1.8919673 3 0
-6.712256 -5.1486344 -1.953025 7 1
-9.2331295 -7.0720339 -2.260705 4 2
-11.962477 -9.1526203 -2.3856258 5 3
-17.631485 -13.47541 -2.724755 3 4
-23.791803 -18.137632 -1.5678807 24 6
-5.5870557 -4.2285247 -1.8774734 3 0
-6.7387094 -5.0945973 -1.9503256 7 1
-9.2133303 -6.9553571 -2.2439139 6 2
-11.966147 -9.0236902 -2.3737369 5 3
-17.645849 -13.292275 -2.712568 3 4
-24.043995 -18.065866 -1.5761498 23 6
-5.6133432 -4.1871071 -1.8764381 2 0
-6.7584853 -5.0357866 -1.9458266 7 1
-9.2195129 -6.8620057 -2.2339919 6 2
-12.000343 -8.9219933 -2.368418 6 3
-17.668087 -13.116696 -2.7018437 3 4
-24.373434 -18.055153 -1.5896524 23 6
-5.6463828 -4.1522346 -1.8779911 2 0
-6.7737598 -4.975822 -1.9404278 7 1
-9.238698 -6.7765756 -2.2271228 4 2
-12.032063 -8.8158159 -2.3624737 5 3
-17.691282 -12.94806 -2.6918504 5 4
-24.345642 -17.77268 -1.5797087 23 6
-5.6752319 -4.1127152 -1.8779911 2 0
-6.786231 -4.9124146 -1.9341292 8 1
-9.0121098 -6.5140972 -2.1614842 3 2
-12.080501 -8.722353 -2.3599706 5 3
-17.705572 -12.769664 -2.6803946 3 4
-24.772312 -17.820387 -1.5992823 11 6
-5.6896577 -4.0628891 -1.8733324 2 0
-6.8044968 -4.8536005 -1.92963 8 1
-8.9870062 -6.400908 -2.1446934 3 2
-12.128223 -8.6286421 -2.3574677 5 3
-17.768398 -12.627347 -2.6764948 3 4
-24.74295 -17.538441 -1.5894431 11 6
-5.7099824 -4.0175123 -1.8707441 2 0
-6.82546 -4.7970152 -1.9260309 8 1
-8.9644871 -6.2933402 -2.1290469 4 2
-12.164031 -8.5300121 -2.3530874 5 3
-17.773191 -12.444922 -2.6640639 5 4
-24.724228 -17.273537 -1.5806507 11 6
-5.7165589 -3.964241 -1.8640147 2 0
-6.8419347 -4.7393479 -1.921532 7 1
-8.9290867 -6.1758771 -2.1103475 3 2
-12.213536 -8.4381437 -2.3512104 5 3
-17.753428 -12.247274 -2.648221 3 4
-25.805014 -17.761835 -1.6417791 20 6
-5.7511616 -3.9275906 -1.8660854 1 0
-6.8531351 -4.6748924 -1.9152331 7 1
-8.9460249 -6.0957036 -2.1042418 3 2
-12.262173 -8.3427515 -2.3490202 6 3
-17.758049 -12.068356 -2.6362779 5 4
-26.134806 -17.714558 -1.6546538 20 6
-5.7752342 -3.8851891 -1.8650501 2 0
-6.8629589 -4.6117191 -1.9089346 8 1
-8.9307241 -5.9921527 -2.0905035 3 2
-12.323398 -8.2591438 -2.3496459 6 3
-17.736294 -11.873416 -2.6206787 5 4
-26.425606 -17.643682 -1.6652256 19 6
-5.7893357 -3.8362377 -1.8609091 2 0
-6.8949885 -4.5636926 -1.9089346 7 1
-8.9107103 -5.8911633 -2.0763836 4 2
-12.374386 -8.1718044 -2.3487074 5 3
-17.769035 -11.716521 -2.6133664 5 4
-23.955488 -15.759761 -1.5027747 11 6
-5.8056068 -3.7904062 -1.8578032 1 0
-6.9063053 -4.5038824 -1.903536 7 1
-8.9187155 -5.8073874 -2.0687513 4 2
-12.39139 -8.05937 -2.3411984 5 3
-17.81175 -11.571511 -2.6080043 5 4
-23.924126 -15.500916 -1.4939823 23 6
-5.8124285 -3.7372456 -1.8515915 2 0
-6.9408593 -4.4576635 -1.9044356 7 1
-8.8902864 -5.7030826 -2.0531049 3 2
-12.439308 -7.9705749 -2.339947 5 3
-17.831907 -11.408363 -2.5992296 5 4
-23.759718 -15.165775 -1.4772348 11 6
-5.8409958 -3.6996641 -1.8526268 2 0
-6.9265752 -4.3821864 -1.8922883 2 1
-8.8701324 -5.6031327 -2.0393667 3 2
-12.472933 -7.8698354 -2.3358798 6 3
-17.862122 -11.257091 -2.5924048 5 4
-23.614744 -14.842239 -1.4617435 11 6
-5.8404555 -3.6424379 -1.8443446 3 0
-6.9206109 -4.3110528 -1.8823904 4 1
-8.8480558 -5.5052872 -2.0256283 3 2
-12.4893 -7.7618127 -2.3289967 6 3
-17.91666 -11.117461 -2.5889926 4 4
-23.643902 -14.637001 -1.4573472 11 6
-5.8848662 -3.6147337 -1.8505563 3 0
-6.9497957 -4.2638459 -1.8823904 2 1
-8.8762293 -5.4372315 -2.0233386 3 2
-12.519591 -7.6600013 -2.3246164 6 3
-17.968204 -10.980762 -2.5855803 4 4
-5.8719363 -3.5505707 -1.8386506 2 0
-6.9860649 -4.219255 -1.8841901 2 1
-8.9122915 -5.374115 -2.0229571 4 2
-12.540614 -7.5530438 -2.3186719 5 3
-17.989996 -10.822302 -2.5777805 4 4
-23.979551 -14.385599 -1.4655116 11 6
-5.9065404 -3.5154197 -1.8417563 2 0
-7.0220513 -4.1743636 -1.8859898 2 1
-8.876996 -5.2686791 -2.0065475 3 2
-12.538661 -7.4330783 -2.30866 5 3
-17.969454 -10.639811 -2.5641313 4 4
-24.192909 -14.284856 -1.4724199 11 6
-5.9276052 -3.4721444 -1.8407211 2 0
-7.0140176 -4.1035881 -1.8760917 2 1
-8.8525314 -5.1709318 -1.9928092 3 2
-12.559535 -7.3274469 -2.3030286 5 3
-17.964401 -10.468128 -2.5529194 4 4
-5.9617429 -3.4364672 -1.843827 2 0
-7.0222278 -4.0428553 -1.8706928 2 1
-8.8918219 -5.1109586 -1.9935726 3 2
-12.576122 -7.2199125 -2.296771 5 3
-17.947495 -10.29111 -2.5402448 4 4
-24.778378 -14.167749 -1.4958664 11 6
-5.9805474 -3.3919036 -1.8422741 3 0
-7.0570636 -3.9975746 -1.8724926 2 1
-8.9101954 -5.0390944 -1.9897563 3 2
-12.58494 -7.1086249 -2.2892623 5 3
-17.963575 -10.134354 -2.5324452 4 4
-24.991571 -14.059049 -1.5027747 23 6
-5.9770889 -3.3350081 -1.8339919 3 0
-7.0745869 -3.942518 -1.8697932 2 1
-8.8490849 -4.923315 -1.9683858 3 2
-12.596275 -6.9994807 -2.2823792 5 3
-17.981821 -9.9797945 -2.5251331 4 4
-25.375702 -14.042838 -1.519941 11 6
-5.9765158 -3.2801874 -1.8267449 3 0
-7.0780139 -3.8799193 -1.8634945 2 1
-8.8350172 -4.8350263 -1.9577004 3 2
-12.606699 -6.8905315 -2.275496 5 3
-17.981358 -9.8159723 -2.5153835 4 4
-25.648548 -13.960818 -1.5304081 11 6
-5.9811425 -3.2312946 -1.8215685 4 0
-7.1070209 -3.8347414 -1.8643943 2 1
-8.8565197 -4.7707372 -1.9554106 3 2
-12.599934 -6.7786918 -2.2661099 5 3
-17.990107 -9.6664324 -2.5075836 4 4
-25.916624 -13.884728 -1.5408753 11 6
-6.0069671 -3.1912739 -1.8226038 3 0
-7.1232901 -3.779551 -1.8616948 3 1
-8.8670549 -4.696847 -1.9504496 4 2
-12.612027 -6.6720915 -2.2598526 4 3
-17.993965 -9.5072222 -2.4988093 4 4
-26.251482 -13.829126 -1.5550061 24 6
-5.9982791 -3.1331587 -1.8132863 4 0
-7.1460476 -3.7279267 -1.8607951 2 1
-8.8491316 -4.6085324 -1.9393828 4 2
-12.586446 -6.5465074 -2.2470248 6 3
-18.005291 -9.3529968 -2.4912534 6 4
-26.595675 -13.774118 -1.5696601 24 6
-6.0091558 -3.086962 -1.8101805 9 0
-7.1539178 -3.6703048 -1.8562962 3 1
-8.8802958 -4.5481915 -1.9393828 4 2
-12.590266 -6.4399924 -2.2398291 4 3
-18.036715 -9.2139711 -2.486866 6 4
-22.798544 -11.631481 -2.2392054 55 5
-26.898823 -13.699726 -1.5820113 23 6
-5.9989901 -3.0303087 -1.8008629 9 0
-7.154377 -3.609236 -1.8499974 4 1
-8.8654585 -4.4646807 -1.9294606 6 2
-12.56675 -6.320416 -2.2279398 5 3
-18.06531 -9.0740547 -2.482235 4 4
-22.775679 -11.425104 -2.2292695 100 5
-6.0286512 -2.9926505 -1.8034512 10 0
-7.1497173 -3.5444882 -1.8423492 3 1
-8.8745317 -4.3937764 -1.9248812 6 2
-12.53511 -6.197958 -2.2147994 5 3
-18.094397 -8.9310265 -2.4776042 6 4
-6.0714526 -2.9625585 -1.8101805 4 0
-7.1824379 -3.5000079 -1.8445988 5 1
-8.8838024 -4.3214102 -1.9203018 6 2
-12.517661 -6.0809507 -2.2041619 5 3
-18.079756 -8.7712622 -2.4673669 6 4
-6.0780511 -2.9134178 -1.8060393 4 0
-7.1873627 -3.4405222 -1.8396497 6 1
-8.8747845 -4.240665 -1.9119062 4 2
-12.520587 -5.9746995 -2.1972787 4 3
-18.110086 -8.6303148 -2.4632235 4 4
-6.0912499 -2.867624 -1.8039688 4 0
-7.1953349 -3.3828011 -1.8356007 5 1
-8.8650742 -4.1602526 -1.9035107 3 2
-12.341984 -5.7840338 -2.1587958 3 3
-18.092585 -8.4674864 -2.4527426 6 4
-6.1111217 -2.8250291 -1.8039688 4 0
-7.2046204 -3.3259513 -1.8320013 5 1
-8.8725042 -4.0884042 -1.8989313 3 2
-12.227735 -5.6267176 -2.1318891 3 3
-18.100752 -8.3177652 -2.4459181 6 4
-23.535036 -10.780149 -1.3566527 11 6
-6.1201401 -2.7775066 -1.8008629 5 0
-7.2294397 -3.276377 -1.8324513 3 1
-8.8757877 -4.0150347 -1.8935887 3 2
-12.165907 -5.4956751 -2.1143684 4 3
-18.100477 -8.1650705 -2.4381182 6 4
-6.14644 -2.7378581 -1.8029336 4 0
-7.2414527 -3.221076 -1.829752 3 1
-8.8742046 -3.9417744 -1.8874826 3 2
-12.089272 -5.3622775 -2.0946577 5 3
-18.066278 -7.9983301 -2.4259312 5 4
-6.1613932 -2.6944089 -1.8018982 4 0
-7.2560673 -3.1685889 -1.8279523 3 1
-8.9033051 -3.8805108 -1.8878642 4 2
-12.00868 -5.2265105 -2.0743213 4 3
-18.032915 -7.8371921 -2.414232 5 4
-6.1374454 -2.633049 -1.789475 4 0
-7.2583065 -3.1094153 -1.8230033 4 1
-8.9259024 -3.818274 -1.8871011 4 2
-11.967682 -5.1120586 -2.0611808 4 3
-18.008669 -7.6776319 -2.4037511 4 4
-6.1659083 -2.5957088 -1.7925807 4 0
-7.2810998 -3.0606925 -1.8234532 7 1
-8.9070807 -3.7368801 -1.8775605 3 2
-11.897403 -4.984117 -2.0430343 3 3
-17.981764 -7.5219321 -2.3932703 5 4
-6.1910224 -2.5555494 -1.7946514 4 0
-7.2806692 -3.0008769 -1.8180546 7 1
-8.9468355 -3.6821425 -1.8806137 3 2
-11.865279 -4.8759851 -2.0317712 3 3
-17.971394 -7.3706064 -2.3849833 5 4
-6.1903672 -2.5060999 -1.789475 5 0
-7.2756333 -2.9410248 -1.8117559 7 1
-8.9213448 -3.5990238 -1.8699282 3 2
-11.803751 -4.7546515 -2.015502 2 3
-17.947479 -7.2184787 -2.3752339 5 4
-29.516077 -11.8295 -1.6664816 9 6
-6.2041206 -2.4613969 -1.7884396 4 0
-7.2887406 -2.8872888 -1.8099562 7 1
-8.9389505 -3.5337687 -1.8684019 3 2
-11.74846 -4.6373205 -2.0004842 2 3
-17.943874 -7.0719013 -2.3681653 4 4
-29.434347 -11.558907 -1.6572706 10 6
-6.2067475 -2.4124267 -1.7842987 4 0
-7.2832861 -2.826463 -1.8036577 7 1
-8.9670639 -3.4726949 -1.8691651 3 2
-11.695796 -4.5224166 -1.9860923 2 3
-17.918734 -6.9178596 -2.3584158 4 4
-29.350281 -11.290039 -1.6480595 10 6
-6.216217 -2.3662858 -1.782228 4 0
-7.2973762 -2.7734702 -1.8023077 14 1
-8.9611254 -3.4004331 -1.8630592 3 2
-11.6635 -4.4189053 -1.9754546 2 3
-17.838472 -6.7441559 -2.3415978 5 4
-29.247032 -11.022379 -1.638011 10 6
-6.2430406 -2.3279684 -1.7853339 4 0
-7.3033013 -2.7189748 -1.7991585 14 1
-9.0545788 -3.3637719 -1.8775605 3 2
-11.619982 -4.309896 -1.9629399 2 3
-17.779716 -6.5839777 -2.3279483 5 4
-24.48982 -9.0493431 -2.2841778 25 5
-29.233326 -10.784745 -1.6329867 10 6
-6.2555103 -2.2830038 -1.7842987 4 0
-7.3349218 -2.6725936 -1.8023077 5 1
-8.9855881 -3.2669361 -1.8584797 3 2
-11.590369 -4.2070971 -1.9529281 2 3
-17.690874 -6.4109912 -2.3103991 5 4
-29.101261 -10.505795 -1.6214728 21 6
-6.271296 -2.2392781 -1.7842987 3 0
-7.3478942 -2.6193597 -1.8009582 7 1
-8.9304876 -3.176492 -1.8424517 3 2
-11.578505 -4.1115394 -1.9460449 2 3
-17.634165 -6.2515154 -2.2972372 5 4
-29.064667 -10.263801 -1.6154017 22 6
-6.2721863 -2.1903448 -1.7801574 4 0
-7.3586411 -2.5654299 -1.7991585 7 1
-8.9376106 -3.1089101 -1.8393987 3 2
-11.565873 -4.0163531 -1.9391619 3 3
-17.583599 -6.095747 -2.2850504 5 4
-29.007236 -10.01632 -1.6082841 11 6
-6.2617288 -2.1377666 -1.7729106 3 0
-7.3616152 -2.5089672 -1.7955593 7 1
-8.9814034 -3.0540204 -1.8439783 3 2
-11.548738 -3.9202678 -1.931653 2 3
-17.527966 -5.9397087 -2.2723761 5 4
-28.951557 -9.7714128 -1.6013757 11 6
-6.3058214 -2.1037815 -1.7811928 3 0
-7.3715563 -2.4550493 -1.7937597 7 1
-8.9684486 -2.9816685 -1.8371091 3 2
-11.511411 -3.8204119 -1.9210155 2 3
-17.461588 -5.7816343 -2.2584829 4 4
-28.160097 -9.2912645 -1.554064 12 6
-6.3053017 -2.0560191 -1.7770516 3 0
-7.362154 -2.3963714 -1.7874612 7 1
-8.9666386 -2.9117079 -1.8325297 3 2
-11.492702 -3.7253377 -1.9135066 3 3
-17.370218 -5.6204753 -2.2416649 5 4
-27.539911 -8.8739204 -1.5163821 23 6
-6.3231831 -2.0131233 -1.7780869 3 0
-7.3712745 -2.3425562 -1.7856615 6 1
-8.9792624 -2.8466649 -1.8310033 3 2
-11.465696 -3.6283252 -1.9047463 3 3
-17.314388 -5.4691753 -2.2294779 5 4
-27.906029 -8.7773275 -1.5331296 11 6
-6.3223243 -1.9643445 -1.7739457 3 0
-7.3762817 -2.2875748 -1.7829621 6 1
-8.9689074 -2.7746248 -1.8248973 3 2
-11.449224 -3.5353696 -1.8978633 3 3
-17.232635 -5.3113294 -2.2141225 4 4
-28.127016 -8.6315117 -1.5419221 23 6
-6.3044538 -1.9106332 -1.7651459 2 0
-7.3995328 -2.2382796 -1.7847617 7 1
-8.9781885 -2.710676 -1.8229893 4 2
-11.446544 -3.4493783 -1.893483 2 3
-17.168535 -5.1606112 -2.2012043 5 4
-28.336267 -8.4851179 -1.5501912 12 6
-6.3395443 -1.8742484 -1.7713577 2 0
-7.3959064 -2.1823456 -1.7802627 7 1
-8.9611092 -2.6373985 -1.8157386 3 2
-11.428648 -3.3571336 -1.8865999 2 3
-17.102308 -5.0140262 -2.1882861 3 4
-28.50985 -8.3206682 -1.5564715 12 6
-6.3394799 -1.8262028 -1.7677342 3 0
-7.3959785 -2.1263533 -1.7766634 7 1
-8.9807415 -2.5768847 -1.8161201 4 2
-11.428446 -3.2727406 -1.8828454 2 3
-16.715057 -4.7740288 -2.1344197 2 4
-28.485144 -8.1034613 -1.5520753 12 6
-6.3703632 -1.7882299 -1.7729106 3 0
-7.4008985 -2.0733328 -1.7744139 4 1
-8.9663677 -2.5051413 -1.8096325 3 2
-11.435794 -3.1886282 -1.8803425 3 3
-16.569311 -4.6106515 -2.1117523 3 4
-28.417831 -7.8702903 -1.5453763 11 6
-6.3416934 -1.7325124 -1.7615224 3 0
-7.4057918 -2.0190511 -1.7721643 3 1
-8.9888954 -2.4455996 -1.8107775 4 2
-11.411479 -3.0982935 -1.8728336 2 3
-16.394156 -4.4388375 -2.0854285 8 4
-28.355042 -7.6454692 -1.5390959 11 6
-6.3813443 -1.6967517 -1.7692871 2 0
-7.4268975 -1.9705937 -1.7739639 3 1
-8.9658928 -2.3722401 -1.8027636 3 2
-11.390813 -3.007457 -1.8659505 3 3
-16.263491 -4.2818174 -2.0649543 3 4
-28.314993 -7.4230161 -1.5340717 11 6
-6.3652654 -1.6438003 -1.7615224 3 0
-7.4049544 -1.9081584 -1.7654159 3 1
-8.9822359 -2.3095884 -1.8027636 3 2
-11.385254 -2.9190011 -1.8615704 3 3
-16.114132 -4.1224213 -2.0422866 2 4
-34.812756 -8.8607159 -1.8826292 4 6
-6.3634691 -1.5960324 -1.757899 2 0
-7.4067521 -1.8535788 -1.7627165 2 1
-8.9871035 -2.2424042 -1.8004738 3 2
-11.397687 -2.8375394 -1.8603188 2 3
-15.972984 -3.96771 -2.0208375 2 4
-6.3763332 -1.5520251 -1.7584167 3 0
-7.4270868 -1.8036642 -1.7645161 2 1
-9.019331 -2.1853399 -1.8039083 4 2
-11.366816 -2.7478211 -1.8521842 2 3
-15.849768 -3.8198237 -2.001826 2 4
-31.762016 -7.6195235 -1.7118045 8 6
-6.3641887 -1.5032592 -1.752205 3 0
-7.4391918 -1.7530696 -1.7645161 2 1
-8.9942322 -2.1128912 -1.7958944 3 2
-11.381876 -2.6675003 -1.8515586 2 3
-15.711099 -3.6734371 -1.9811082 2 4
-6.3707619 -1.4579287 -1.7511697 3 0
-7.4474497 -1.7002221 -1.7636162 2 1
-8.9758635 -2.044209 -1.7894068 4 2
-11.361242 -2.5812113 -1.8453012 1 3
-15.651175 -3.5443723 -1.9703838 1 4
-30.574219 -6.8901944 -1.6425117 20 6
-6.388082 -1.4162043 -1.7532402 3 0
-7.4131837 -1.6393925 -1.7528186 2 1
-8.9956675 -1.9827658 -1.7905518 3 2
-11.332683 -2.4916544 -1.8377923 2 3
-15.548901 -3.4101174 -1.9545406 2 4
-34.040451 -7.4220209 -1.825897 6 6
-6.4110355 -1.3744073 -1.7568637 2 0
-7.4549384 -1.5941187 -1.760017 2 1
-8.959033 -1.9108406 -1.7806298 3 2
-11.357109 -2.4161017 -1.8390437 3 3
-15.508247 -3.2878928 -1.9464973 3 4
-34.332512 -7.2412539 -1.8388764 5 6
-6.3918681 -1.3248572 -1.7490991 3 0
-7.4312654 -1.536238 -1.7519189 2 1
-9.0067673 -1.855378 -1.7874987 3 2
-11.33887 -2.3295991 -1.8334121 3 3
-15.431087 -3.1619363 -1.9340667 4 4
-34.707108 -7.0675564 -1.856252 5 6
-6.3649688 -1.2730011 -1.739264 2 0
-7.468565 -1.4896553 -1.7582175 1 1
-8.9886904 -1.7863309 -1.7813929 3 2
-11.323855 -2.2442381 -1.8284062 3 3
-15.365152 -3.0368099 -1.9230984 3 4
-35.312195 -6.9343739 -1.8859788 4 6
-6.3869796 -1.2310952 -1.7428875 3 0
-7.4558172 -1.4330664 -1.7528186 1 1
-9.0163689 -1.7264884 -1.7844458 3 2
-11.30432 -2.1584592 -1.8227745 4 3
-15.245574 -2.902734 -1.9055492 2 4
-35.595234 -6.7322273 -1.8985393 4 6
-6.3916202 -1.185771 -1.7418523 3 0
-7.4733052 -1.3823979 -1.7546182 2 1
-8.9699917 -1.6543932 -1.7729974 3 2
-11.293494 -2.0768185 -1.8187072 4 3
-15.218604 -2.7876487 -1.8996994 3 4
-6.3843284 -1.139523 -1.7377111 3 0
-7.4480076 -1.3253512 -1.74652 2 1
-8.9658566 -1.5889916 -1.7699443 3 2
-11.235744 -1.9852102 -1.8071312 6 3
-15.186398 -2.6750407 -1.8933623 3 4
-6.392128 -1.0949227 -1.7377111 3 0
-7.4762878 -1.276602 -1.751019 2 1
-8.9842062 -1.5292439 -1.7714708 3 2
-11.270419 -1.9123197 -1.8105727 5 3
-15.126409 -2.5557222 -1.8836126 3 4
-6.4074249 -1.0504037 -1.7397816 3 0
-7.489078 -1.2236989 -1.7519189 2 1
-8.9796724 -1.4608257 -1.768418 3 2
-11.239286 -1.8223829 -1.8033768 4 3
-15.112955 -2.4423513 -1.8797129 3 4
-6.4031515 -1.0038522 -1.7366759 3 0
-7.4704828 -1.1671757 -1.7456201 2 1
-8.9622498 -1.3954403 -1.7630752 3 2
-11.241671 -1.7443228 -1.8018124 4 3
-15.062935 -2.3264813 -1.8714259 3 4
-6.4021931 -0.95909894 -1.7346053 3 0
-7.4628358 -1.113997 -1.742021 2 1
-9.0067282 -1.3380287 -1.7699443 3 2
-11.196906 -1.6574078 -1.7927393 4 3
-15.011651 -2.2140491 -1.8631387 3 4
-6.4125581 -0.91492724 -1.7356406 3 0
-7.4549956 -1.0596753 -1.7384217 2 1
-9.0311785 -1.2788951 -1.7729974 3 2
-11.196192 -1.5795012 -1.7908621 3 3
-14.981526 -2.1028514 -1.8575326 2 4
-6.4148083 -0.87073731 -1.7346053 3 0
-7.4658985 -1.0094285 -1.7393216 1 1
-8.9892969 -1.2090104 -1.7630752 3 2
-11.187366 -1.4986758 -1.7877333 3 3
-14.926627 -1.9916375 -1.8490019 2 4
-6.4130669 -0.8249464 -1.7325348 3 0
-7.4573002 -0.95530295 -1.7357224 2 1
-8.9897289 -1.1452336 -1.7615488 3 2
-11.185799 -1.4190476 -1.785856 3 3
-14.881084 -1.8799176 -1.8416896 2 4
-40.153545 -5.0227418 -2.1207578 0 6
-6.4033275 -0.77829152 -1.7283937 3 0
-7.421226 -0.89806736 -1.7258245 3 1
-8.9819107 -1.0805696 -1.7584958 3 2
-11.179743 -1.3390422 -1.7833531 3 3
-14.852451 -1.7710497 -1.8365711 2 4
-6.4086051 -0.7335673 -1.7283937 3 0
-7.4156976 -0.84491187 -1.7231251 4 1
-8.9734526 -1.0176367 -1.7554429 3 2
-11.161117 -1.259811 -1.778973 3 3
-14.821054 -1.662449 -1.8312089 2 4
-6.4172916 -0.69034153 -1.7294289 3 0
-7.4135261 -0.79358548 -1.7213255 5 1
-9.0389042 -0.96119553 -1.7668914 3 2
-11.161782 -1.1810322 -1.7777214 3 3
-14.770826 -1.5550869 -1.823653 3 4
-6.4104218 -0.64436585 -1.7263231 3 0
-7.4266419 -0.74258727 -1.7231251 3 1
-8.9789715 -0.89147162 -1.7539164 3 2
-11.142234 -1.100359 -1.7733413 3 3
-14.726007 -1.4464921 -1.8168284 3 4
-6.3705239 -0.59546179 -1.7144175 2 0
-7.4277644 -0.69036078 -1.7222252 4 1
-8.9888849 -0.82912767 -1.7546796 3 2
-11.14571 -1.0221865 -1.7727156 2 3
-14.613178 -1.3324773 -1.8017164 7 4
-44.855099 -4.0347762 -2.3602471 0 6
-6.4361157 -0.55629599 -1.7309818 2 0
-7.4168701 -0.63715404 -1.718626 4 1
-8.9318571 -0.76102185 -1.7424678 3 2
-11.132892 -0.9426806 -1.7695868 2 3
-14.635972 -1.2315873 -1.8034227 5 4
-6.4186587 -0.50966936 -1.7252878 3 0
-7.4133668 -0.58474785 -1.7168264 4 1
-8.9212942 -0.6974209 -1.7394148 3 2
-11.103751 -0.86218542 -1.7639554 2 3
-14.634317 -1.1286193 -1.802204 3 4
-6.4085727 -0.46386996 -1.7216644 2 0
-7.4017186 -0.53186113 -1.7132272 4 1
-8.8866692 -0.63388783 -1.7317824 3 2
-11.085717 -0.78491026 -1.7602009 2 3
-14.590354 -1.0228192 -1.7958668 3 4
-6.4192929 -0.42074281 -1.7237349 2 0
-7.4207244 -0.48247832 -1.7168264 4 1
-8.8673677 -0.57031953 -1.727203 3 2
-11.047556 -0.70473421 -1.7533176 2 3
-14.569242 -0.92172718 -1.7924545 3 4
-6.3661451 -0.37264517 -1.7087234 2 0
-7.4161301 -0.4302105 -1.7150269 4 1
-8.8788843 -0.51040077 -1.7287296 3 2
-11.052097 -0.6295194 -1.7533176 2 3
-14.575321 -0.81999224 -1.7924545 3 4
-6.3936148 -0.33060035 -1.7154527 2 0
-7.4169402 -0.37962076 -1.714577 3 1
-8.8704662 -0.44780603 -1.7264398 3 2
-11.052278 -0.55214876 -1.752692 2 3
-14.513155 -0.71742958 -1.7841673 3 4
-6.3745379 -0.28500575 -1.7097588 2 0
-7.3902073 -0.32653946 -1.7078284 3 1
-8.8733768 -0.38586971 -1.7264398 3 2
-11.071651 -0.47565678 -1.7551949 2 3
-14.488059 -0.61483216 -1.7805113 2 4
-6.4246345 -0.24231797 -1.7226996 2 0
-7.4156752 -0.27580902 -1.7132272 3 1
-8.8562355 -0.3231965 -1.7226238 3 2
-11.015479 -0.39621767 -1.7458088 2 3
-14.452322 -0.51226169 -1.7756364 2 4
-6.4261694 -0.1974612 -1.7226996 2 0
-7.4213161 -0.22415055 -1.7141271 2 1
-8.8386059 -0.26232398 -1.7188075 3 2
-11.045564 -0.32203695 -1.7501891 2 3
-14.479358 -0.412034 -1.7785614 2 4
-6.4080515 -0.15325309 -1.7175232 2 0
-7.4070845 -0.17326538 -1.7105279 2 1
-8.848074 -0.20079064 -1.7203341 3 2
-11.023845 -0.24439113 -1.7464346 2 3
-14.432211 -0.31239241 -1.7724679 2 4
-6.4012389 -0.1083819 -1.7154527 2 0
-7.3925252 -0.12129421 -1.7069286 3 1
-8.8531609 -0.14062342 -1.7210972 3 2
-11.025252 -0.16935101 -1.7464346 3 3
-14.402283 -0.2111668 -1.7685682 2 4
-6.397965 -0.064768344 -1.7144175 2 0
-7.3931799 -0.070971973 -1.7069286 2 1
-8.8578529 -0.078848228 -1.7218604 3 2
-10.978759 -0.091978937 -1.7389257 3 3
-14.387506 -0.11300031 -1.7666181 2 4
-6.3905339 -0.020077799 -1.7123468 2 0
-7.4207768 -0.019429313 -1.7132272 2 1
-8.8542585 -0.018546673 -1.7210972 3 2
-10.951475 -0.017205777 -1.7345455 2 3
-14.340302 -0.012515687 -1.7607684 2 4
-6.4079089 0.023485463 -1.7170056 3 0
-7.4012504 0.031001242 -1.7087282 2 1
-8.8306131 0.043155134 -1.7165178 3 2
-10.95528 0.059274342 -1.7351713 3 3
-14.312249 0.087429032 -1.7573562 2 4
-6.3747373 0.068983428 -1.7082058 2 0
-7.3657641 0.083564647 -1.7006299 2 1
-8.8497276 0.10503428 -1.7203341 3 2
-10.938772 0.1374684 -1.7326683 3 3
-14.29144 0.18708538 -1.7549187 2 4
-6.3721695 0.11344989 -1.7076882 3 0
-7.3883824 0.13541386 -1.7060288 2 1
-8.872304 0.16880693 -1.7249134 3 2
-10.929647 0.21367505 -1.7314169 3 3
-14.277878 0.28661144 -1.7534562 1 4
-6.3519092 0.15745604 -1.7025118 3 0
-7.3443985 0.18590634 -1.696131 3 1
-8.8473988 0.22858652 -1.7203341 3 2
-10.951636 0.28869063 -1.7351713 3 3
-14.235842 0.38521233 -1.7485815 2 4
-6.3391051 0.20032094 -1.6994059 3 0
-7.3429627 0.23589212 -1.696131 3 1
-8.8455877 0.29034534 -1.7203341 3 2
-10.925663 0.36434776 -1.7314169 3 3
-14.197179 0.48089087 -1.7441941 2 4
-6.3510647 0.24509281 -1.7030294 2 0
-7.3313999 0.28676903 -1.6938814 3 1
-8.8551769 0.3510153 -1.7226238 3 2
-10.907139 0.43807653 -1.728914 2 3
-14.185542 0.57967001 -1.7432193 2 4
-6.3183713 0.2869139 -1.6947472 2 0
-7.3467989 0.3374688 -1.6979306 3 1
-8.840744 0.41227883 -1.7203341 3 2
-10.907761 0.51439548 -1.7295396 2 3
-14.159456 0.67517126 -1.7405381 2 4
-6.3297191 0.3317267 -1.6983706 3 0
-7.3267493 0.38782558 -1.6938814 3 1
-8.8102036 0.47251675 -1.7149915 3 2
-10.903903 0.59053344 -1.7295396 2 3
-14.118719 0.77205539 -1.7361507 2 4
-6.3484616 0.37716714 -1.7040646 2 0
-7.3063569 0.43791544 -1.6898323 4 1
-8.7870932 0.5328238 -1.7111752 3 2
-10.887685 0.66591913 -1.7276624 2 3
-14.122892 0.87121499 -1.7373695 2 4
-6.3437462 0.42135203 -1.703547 3 0
-7.3089538 0.48930493 -1.691182 3 1
-8.7832632 0.59262341 -1.7111752 3 2
-10.886842 0.740282 -1.7282882 2 3
-14.076858 0.96706575 -1.7324947 2 4
-6.3253183 0.46339223 -1.6994059 3 0
-7.3015676 0.53875566 -1.6902822 3 1
-8.7593327 0.65246719 -1.7073588 3 2
-10.861711 0.81478816 -1.7251595 2 3
-14.113496 1.0661513 -1.737857 2 4
-6.3180776 0.50723076 -1.6983706 3 0
-7.2840319 0.5886184 -1.687133 4 1
-8.7349968 0.71200591 -1.7035428 3 2
-10.843945 0.88963091 -1.7232823 2 3
-14.050315 1.1600857 -1.7310323 2 4
-6.306684 0.55065322 -1.6963001 3 0
-7.283627 0.63979542 -1.6880326 4 1
-8.7180796 0.77193344 -1.7012531 3 2
-10.809923 0.96285796 -1.7189021 2 3
-14.081418 1.2616869 -1.7359071 1 4
-6.2873001 0.59321702 -1.6921589 3 0
-7.2673435 0.68952477 -1.6853334 5 1
-8.7007532 0.83165544 -1.6989634 3 2
-10.806871 1.0386775 -1.7195278 3 3
-14.040652 1.3569045 -1.7320073 2 4
-6.2906933 0.6378758 -1.6942296 3 0
-7.2875547 0.7428124 -1.691182 6 1
-8.7220755 0.89518613 -1.704306 3 2
-10.795426 1.1136955 -1.7189021 3 3
-13.999245 1.4516211 -1.7281073 2 4
-6.2649598 0.67948622 -1.6885355 10 0
-7.249258 0.79008174 -1.6835337 5 1
-8.6726799 0.95134425 -1.6959105 3 2
-10.791315 1.1894649 -1.7195278 3 3
-13.992716 1.5497526 -1.7285949 2 4
-6.2370348 0.72054535 -1.6823239 12 0
-7.2435656 0.84067184 -1.6835337 5 1
-8.6268272 1.0073119 -1.6882781 3 2
-10.790596 1.2656939 -1.7207794 3 3
-13.950012 1.6436857 -1.7246951 2 4
-6.2145948 0.76195461 -1.6776651 13 0
-7.2355862 0.89098108 -1.6830838 15 1
-8.6821203 1.0737225 -1.7004899 3 2
-10.754286 1.3357053 -1.7163991 3 3
-13.965774 1.7444797 -1.7281073 2 4
-6.216928 0.80522954 -1.6797357 4 0
-7.2119622 0.93794799 -1.6790346 27 1
-8.6199045 1.127179 -1.6898044 3 2
-10.72903 1.4086921 -1.7138962 3 3
-13.886662 1.8306768 -1.7198203 2 4
-6.2341237 0.85175192 -1.6859473 4 0
-7.2168221 0.98986465 -1.6817341 8 1
-8.6604471 1.1940335 -1.699345 15 2
-10.699368 1.4808524 -1.7107675 3 3
-13.912868 1.9330431 -1.7246951 3 4
-6.2165523 0.89360279 -1.6828415 4 0
-7.1923766 1.0377172 -1.6776849 5 1
-8.6052704 1.2477047 -1.6901863 22 2
-10.688768 1.555512 -1.7107675 4 3
-13.897069 2.029839 -1.7244513 2 4
-6.194881 0.93467659 -1.6787004 4 0
-7.196517 1.0896564 -1.6803844 6 1
-8.5752277 1.3030059 -1.6859884 3 2
-10.640829 1.6225744 -1.704823 14 3
-13.857052 2.1228983 -1.7212827 3 4
-6.1845584 0.97621834 -1.6776651 4 0
-7.1927834 1.1392243 -1.6812842 7 1
-8.5697994 1.3634554 -1.6867516 3 2
-10.631193 1.6971307 -1.7051359 10 3
-13.865802 2.2209387 -1.7242076 3 4
-6.1775928 1.0193708 -1.6776651 4 0
-7.1654286 1.1862289 -1.6767852 7 1
-8.6048641 1.4291549 -1.6955289 4 2
-10.603807 1.7668585 -1.7026329 4 3
-13.775558 2.3052394 -1.7149456 22 4
-6.1590877 1.0594305 -1.6745592 4 0
-7.1648703 1.2362987 -1.6785848 7 1
-8.5714645 1.4851713 -1.6909494 4 2
-10.597052 1.8418586 -1.7035716 4 3
-13.774775 2.4040818 -1.7168955 3 4
-6.143743 1.1021124 -1.6724888 5 0
-7.1481686 1.2861573 -1.6767852 7 1
-8.5763445 1.5477625 -1.6940023 4 2
-10.573883 1.9158789 -1.7020072 6 3
-13.755702 2.4998345 -1.7166517 4 4
-6.1283031 1.1435593 -1.6704183 4 0
-7.1351838 1.3353126 -1.6758853 7 1
-8.5341768 1.603296 -1.6878965 4 2
-10.538897 1.9856312 -1.6985657 8 3
-13.734014 2.5950694 -1.7161642 4 4
-32.311497 6.1462064 -1.7237372 8 6
-6.1239624 1.1870503 -1.6714535 4 0
-7.1256876 1.3850931 -1.6758853 7 1
-8.4922342 1.6553375 -1.6817905 4 2
-10.492179 2.0508766 -1.6932468 9 3
-13.72725 2.6931772 -1.7176267 4 4
-6.1214232 1.229849 -1.6730064 6 0
-7.1084533 1.4320247 -1.6740857 7 1
-8.5228062 1.7231433 -1.6901863 4 2
-10.473733 2.123291 -1.6926211 9 3
-13.70471 2.7857625 -1.7171392 5 4
-6.1202531 1.2741281 -1.6750768 6 0
-7.1020985 1.4824109 -1.6749856 7 1
-8.4955063 1.7778971 -1.6871332 4 2
-10.462905 2.1953433 -1.6932468 9 3
-13.698525 2.8842349 -1.7188454 7 4
-6.1019964 1.313725 -1.6724888 5 0
-7.068985 1.5257852 -1.6695868 9 1
-8.4771309 1.8359191 -1.6859884 4 2
-10.414506 2.2612116 -1.6879282 8 3
-13.622324 2.9651668 -1.711777 9 4
-32.617508 7.1415806 -1.7499051 7 6
-6.0700474 1.3512557 -1.6662771 5 0
-7.0429444 1.5717032 -1.6659875 9 1
-8.4985924 1.9027748 -1.6928575 4 2
-10.369555 2.3273721 -1.683235 9 3
-13.457979 3.0279484 -1.6937402 9 4
-6.0868239 1.3996606 -1.6735239 5 0
-7.0128107 1.616457 -1.6614884 9 1
-8.4564095 1.955423 -1.6871332 7 2
-10.310719 2.3898957 -1.6763519 9 3
-13.332097 3.097573 -1.6805785 9 4
-6.0787845 1.4425652 -1.6740416 6 0
-6.9861889 1.6617669 -1.6578892 9 1
-8.3779726 1.9974582 -1.6741582 7 2
-10.217361 2.4416583 -1.6638372 9 3
-13.248374 3.1757622 -1.6727787 9 4
-30.91264 7.444294 -1.6663771 9 6
-6.0669475 1.4834499 -1.6735239 9 0
-6.9728231 1.7088182 -1.6574394 11 1
-8.3333206 2.0484009 -1.6680523 9 2
-10.154034 2.501586 -1.6563283 9 3
-13.130091 3.2420743 -1.6605918 9 4
-30.20085 7.4963322 -1.6307886 10 6
-6.0377097 1.5210496 -1.6683476 7 0
-6.9342713 1.7507772 -1.6511407 10 1
-8.2655277 2.0930343 -1.6573671 10 2
-10.101857 2.5636671 -1.6506966 9 3
-13.043651 3.3175104 -1.6525484 7 4
-29.644669 7.5783763 -1.6035738 11 6
-6.0344243 1.5651025 -1.6704183 9 0
-6.9294248 1.8011043 -1.6529404 13 1
-22.264544 5.7953291 1.2057159 13 9
-8.2203178 2.1427641 -1.6512611 9 2
-10.045488 2.6241434 -1.6444392 9 3
-12.997127 3.4024582 -1.6496235 7 4
-57.316525 15.026026 9.3848181 1 12
-29.108158 7.6581011 -1.5774059 11 6
-6.0177507 1.6056999 -1.6688653 10 0
-6.8809114 1.8398743 -1.6443923 13 1
-22.223543 5.9506187 1.2057159 37 9
-8.1558552 2.1868787 -1.6413391 7 2
-57.618004 15.460243 5.2192345 0 10
-10.002124 2.6875465 -1.6403719 8 3
-57.631985 15.507145 7.3280039 0 11
-12.919386 3.4786613 -1.6427989 7 4
-57.105339 15.397508 9.36761 0 12
-22.05365 5.9670496 -1.197342 20 6
-5.9859014 1.6420493 -1.6631712 9 0
-6.8378348 1.8796011 -1.6371938 14 1
-22.18531 6.1066895 1.2059252 100 9
-8.1214628 2.2385473 -1.6375229 7 2
-9.945035 2.7467906 -1.6341145 8 3
-12.846956 3.5555334 -1.6367054 9 4
-5.9482603 1.6764605 -1.6559243 9 0
-22.284048 6.2889495 0.40416282 43 8
-6.8132939 1.9241132 -1.6344943 13 1
-22.132528 6.2586999 1.2054019 60 9
-8.0584116 2.2818191 -1.6279825 6 2
-9.8990126 2.8086026 -1.6297344 8 3
-12.745444 3.6234188 -1.6269559 9 4
-5.9252763 1.7147255 -1.6528184 9 0
-22.158934 6.4209876 0.40269685 42 8
-6.7847214 1.9672921 -1.6308951 14 1
-22.0998 6.4164023 1.2060299 78 9
-8.0083523 2.3281565 -1.6211133 6 2
-9.8620949 2.8726704 -1.6269187 9 3
-12.685538 3.7023003 -1.6225686 9 4
-5.8798275 1.7461493 -1.643501 9 0
-22.087875 6.5637007 0.40220818 42 8
-6.7334661 2.0034938 -1.6218971 12 1
-22.082413 6.5746617 1.2074952 100 9
-7.9942007 2.3831728 -1.6214949 7 2
-9.817708 2.9323814 -1.6228514 8 3
-12.625152 3.7805219 -1.6181813 9 4
-5.8641095 1.7850064 -1.6424657 9 0
-22.066381 6.7253165 0.40266192 42 8
-6.7010331 2.043596 -1.6173981 15 1
-22.007324 6.7199116 1.2059252 64 9
-7.9398184 2.4274468 -1.6138625 7 2
-9.7497768 2.9863894 -1.6150296 9 3
-12.549784 3.8512292 -1.6118441 9 4
-25.568392 7.8805137 -1.4021851 11 6
-5.8330631 1.8201476 -1.6372893 9 0
-22.004822 6.8705945 0.4023827 42 8
-6.6642828 2.0833509 -1.6119993 11 1
-21.943918 6.8641891 1.2049831 74 9
-7.8893886 2.4708714 -1.6069933 7 2
-9.702837 3.0444036 -1.6106495 9 3
-12.454421 3.9173045 -1.6030694 9 4
-24.874208 7.8523488 -1.3670152 11 6
-5.827899 1.8621618 -1.6393598 9 0
-22.02108 7.0447602 0.40356943 42 8
-6.6425238 2.1262884 -1.6101997 12 1
-21.878344 7.0117278 1.2040411 83 9
-7.8420367 2.5162923 -1.6008875 7 2
-9.670063 3.1084406 -1.6087722 9 3
-12.361335 3.9806917 -1.5945386 11 4
-5.8110852 1.9016 -1.6383246 9 0
-21.940954 7.1883688 0.40301096 42 8
-6.6238141 2.1713946 -1.6092998 11 1
-21.7966 7.1537142 1.2022618 100 9
-7.7981663 2.5623987 -1.5955449 7 2
-9.6274862 3.1690805 -1.6053306 8 3
-12.252177 4.0401616 -1.5840578 9 4
-16.393074 5.4278374 -0.90499347 72 6
-5.7793498 1.9359863 -1.6331483 9 0
-21.950907 7.361712 0.40412796 43 8
-6.5937138 2.2126267 -1.6057006 13 1
-21.770741 7.313972 1.2036225 100 9
-7.7800875 2.6167758 -1.5955449 7 2
-9.5470972 3.2166615 -1.5956318 10 3
-12.165367 4.1059208 -1.576502 7 4
-23.122927 7.8356743 -1.2795097 21 6
-5.7401085 1.9675169 -1.6259012 9 0
-6.5559883 2.2510099 -1.6003017 12 1
-21.779589 7.486558 1.2069719 64 9
-7.746779 2.6659169 -1.592492 7 2
-9.5019979 3.2755091 -1.5918773 9 3
-12.119518 4.1849198 -1.5743083 9 4
-22.531731 7.81112 -1.2497828 21 6
-5.7229371 2.0052657 -1.624866 9 0
-6.5368366 2.2942922 -1.599402 13 1
-21.722473 7.6326485 1.206658 18 9
-7.7228971 2.7166293 -1.5913471 6 2
-9.4478092 3.3289492 -1.5865585 8 3
-12.062673 4.2574077 -1.5706522 7 4
-22.071404 7.8202252 -1.2271737 10 6
-5.6906118 2.0386536 -1.6196897 9 0
-6.516993 2.3385541 -1.5985022 13 1
