# .PCD v0.7 - Point Cloud Data file format
VERSION 0.7
FIELDS x y z intensity ring
SIZE 4 4 4 4 2
TYPE F F F F U
COUNT 1 1 1 1 1
WIDTH 1304
HEIGHT 1
VIEWPOINT 0 0 0 1 0 0 0
POINTS 1304
DATA ascii
-3.7666259 4.9140868 -1.6590302 14 0
-4.20331 5.4897523 -1.5962527 22 1
-6.3791375 8.3345146 0.55005091 4 9
-4.7302709 6.1846976 -1.513497 11 2
-4.8737464 6.3792067 -1.2714995 22 3
-6.5403748 8.5730429 -1.3239887 4 4
-9.1194429 11.957991 2.3818715 4 12
-8.7674799 11.50479 -1.2655014 23 5
-4.8354144 6.3519893 -0.41837367 27 6
-8.7237959 11.476533 -0.25162879 23 7
-3.7226067 4.9257407 -1.6543714 19 0
-4.1517558 5.4995728 -1.5908539 22 1
-4.6609793 6.1830812 -1.5051014 11 2
-4.8077035 6.3846717 -1.2658678 23 3
-6.4386101 8.5629625 -1.3154578 19 4
-9.0998354 12.10663 2.3987663 1 12
-8.3590937 11.129216 -1.2177401 21 5
-4.7525983 6.3344665 -0.41502416 27 6
-8.434845 11.258687 -0.24555536 22 7
-3.6826487 4.9460549 -1.6523008 15 0
-4.1309032 5.5541601 -1.5980524 20 1
-4.6013079 6.1934071 -1.4997588 4 2
-4.7371769 6.3855953 -1.2592976 25 3
-6.3491249 8.567831 -1.3093643 20 4
-6.5979285 8.913331 -0.97021776 13 5
-4.6359177 6.2719455 -0.40874386 26 6
-8.4011736 11.37843 -0.24688175 22 7
-3.6434574 4.965414 -1.6502303 15 0
-4.0643778 5.5451417 -1.5872546 21 1
-4.5591903 6.2293429 -1.500522 6 2
-6.2833438 8.5882444 0.93099761 4 10
-4.5957179 6.2861547 -1.2333294 27 3
-4.5810618 6.2729983 -0.95374954 31 4
-4.5688534 6.26546 -0.67842031 60 5
-4.5661478 6.268641 -0.40644106 26 6
-6.559104 9.0145874 -0.19459434 13 7
-3.6222897 5.0095129 -1.6564419 15 0
-3.994761 5.5307255 -1.5751073 23 1
-4.5305195 6.2817206 -1.505483 14 2
-4.527472 6.2844276 -1.2267592 28 3
-4.5348372 6.3016052 -0.95326209 25 4
-4.5343018 6.3101478 -0.67981476 46 5
-4.5572119 6.3490424 -0.40958121 66 6
-6.3724995 8.8878946 -0.19089442 13 7
-3.5737741 5.015801 -1.6502303 15 0
-3.9492695 5.5489554 -1.5724078 25 1
-4.4240041 6.2251801 -1.4844941 6 2
-4.509788 6.3529301 -1.2339553 27 3
-6.1074433 8.6130953 -1.2964462 14 4
-4.4770246 6.330153 -0.4063364 26 6
-3.5497725 5.056438 -1.6554067 14 0
-3.9249823 5.5971313 -1.5782566 16 1
-4.3297634 6.1835446 -1.4673213 9 2
-4.4540038 6.368072 -1.2308265 23 3
-6.01192 8.6050777 -1.2888902 4 4
-6.1442628 8.8075943 -0.9395389 19 5
-4.4178786 6.339952 -0.40497568 26 6
-7.9659519 11.444445 -0.24339128 21 7
-3.5055909 5.0683875 -1.6512655 15 0
-3.8747318 5.6083655 -1.5737575 22 1
-4.2864914 6.2136192 -1.4673213 8 2
-4.3825402 6.3599715 -1.2233176 21 3
-5.9291921 8.6141319 -1.2840155 9 4
-6.0615973 8.8163748 -0.93605268 13 5
-4.3486404 6.334415 -0.40267289 26 6
-7.7727685 11.33486 -0.23990077 21 7
-3.4744754 5.099122 -1.6533362 16 0
-3.8311002 5.6288338 -1.5719579 15 1
-4.2352667 6.2296638 -1.4642683 8 2
-4.3125138 6.3504353 -1.2158087 20 3
-5.6238112 8.2938595 -1.2303931 9 4
-5.9462647 8.7792988 -0.92768568 19 5
-4.2740865 6.3175502 -0.39974207 26 6
-3.431071 5.1098232 -1.649195 14 0
-3.7623034 5.6094646 -1.5593606 21 1
-38.858814 57.980892 3.6579697 24 9
-4.1851177 6.2492919 -1.4619786 9 2
-4.2439113 6.3442655 -1.2089256 21 3
-9.0645552 13.560935 2.0028009 2 11
-5.7591271 8.6191387 -1.2728035 5 4
-5.8399186 8.7499647 -0.92036462 26 5
-4.2010832 6.3040204 -0.39702061 26 6
-3.3739998 5.1014256 -1.6388422 16 0
-7.3989043 11.191252 0.23417638 18 8
-3.7187538 5.6290898 -1.557561 22 1
-4.13167 6.2612481 -1.4581624 8 2
-4.1897573 6.3565125 -1.205797 23 3
-5.6737142 8.6209974 -1.2671976 7 4
-5.7983899 8.8204908 -0.92350227 19 5
-4.1339579 6.2957406 -0.39471781 26 6
-3.3391974 5.1242738 -1.6388422 18 0
-3.6760991 5.6477399 -1.5557615 18 1
-4.0771589 6.2734785 -1.4543462 8 2
-4.1216159 6.3491569 -1.1989139 22 3
-5.5414615 8.5461569 -1.2506232 13 4
-6.1322198 9.4644709 1.7861689 1 12
-5.7561612 8.8908606 -0.92663985 26 5
-4.0877361 6.3210936 -0.39450848 26 6
-5.7863665 8.9580631 -0.18614736 12 7
-3.2949951 5.1344547 -1.6347013 18 0
-3.6386843 5.6765475 -1.5566614 15 1
-4.0099797 6.2654114 -1.4459506 8 2
-11.860469 18.538567 1.9254446 1 10
-4.0473986 6.3311744 -1.1901536 26 3
-5.4410667 8.5210581 -1.2413613 19 4
-6.0109959 9.4281063 -0.97823608 14 5
-4.0177588 6.3090453 -0.39199635 25 6
-5.7687626 9.0691071 -0.18761338 12 7
-3.2590721 5.157331 -1.6347013 15 0
-3.6197717 5.7347684 -1.5656594 21 1
-3.966141 6.2932539 -1.4459506 10 2
-9.0460415 14.359313 1.4847852 2 10
-3.9894195 6.3375435 -1.1860863 20 3
-5.3708792 8.5420303 -1.2389238 19 4
-5.5191722 8.7914953 -0.90816277 25 5
-3.946028 6.2929463 -0.38927487 25 6
-5.5843024 8.9159603 -0.18363422 24 7
-3.2433965 5.2127647 -1.645054 14 0
-7.0603161 11.356114 0.23340848 36 8
-3.567301 5.7400393 -1.5602605 17 1
-3.8993394 6.2840867 -1.4375551 8 2
-11.772714 18.98003 1.9540318 1 10
-3.9221871 6.3283005 -1.1792032 21 3
-5.3361912 8.6198263 -1.2447736 15 4
-5.4513769 8.819644 -0.90711701 25 5
-3.8789165 6.2829533 -0.3869721 25 6
-3.2089462 5.2385736 -1.6460892 15 0
-7.0184469 11.46653 0.23466507 18 8
-3.5251095 5.7614775 -1.5593606 15 1
-9.0874615 14.864298 0.91305321 2 9
-3.8430889 6.2910533 -1.4329756 8 2
-3.8655617 6.3352947 -1.1754488 20 3
-3.8564463 6.3278041 -0.90987664 17 4
-5.4497404 8.9562054 -0.91722697 13 5
-3.8287349 6.2996397 -0.38634408 25 6
-3.1822715 5.2773924 -1.6512655 14 0
-3.451622 5.7308588 -1.5445139 24 1
-3.826395 6.3631549 -1.4432793 7 2
-3.8049681 6.3350306 -1.1704428 17 3
-3.7948184 6.3256326 -0.90573299 27 4
-5.2652526 8.7906342 -0.89648396 38 5
-3.7580018 6.2816529 -0.38362259 25 6
-3.1374629 5.28619 -1.6471245 15 0
-3.4184854 5.7665501 -1.5476632 22 1
-3.7968783 6.4150558 -1.4490036 8 2
-3.7505958 6.3444352 -1.1673142 10 3
-3.7233136 6.305819 -0.8991521 32 4
-5.1946516 8.8117285 -0.89491516 12 5
-3.7120321 6.3042912 -0.38341326 25 6
-6.6814265 11.360931 -0.23005761 19 7
-3.0995073 5.3062968 -1.6466069 13 0
-3.3663595 5.7700768 -1.5422645 22 1
-3.7707748 6.4736395 -1.4562544 4 2
-3.6952853 6.3516831 -1.1638726 5 3
-3.657258 6.2938991 -0.89378983 27 4
-5.0870166 8.7685032 -0.88689685 12 5
-3.6438971 6.288578 -0.38090113 25 6
-6.5338364 11.289609 -0.2276841 18 7
-3.0643127 5.3311558 -1.6476421 13 0
-3.3279352 5.7968178 -1.5431641 21 1
-3.7459905 6.5355759 -1.4642683 4 2
-36.163952 63.120258 6.3644609 31 10
-3.6469262 6.3704686 -1.162621 1 3
-3.6014054 6.2985988 -0.89086497 26 4
-3.5900133 6.2965136 -0.37985441 25 6
-3.0127544 5.3271956 -1.6398776 14 0
-3.3065531 5.8538451 -1.5521622 14 1
-3.6908062 6.5421138 -1.4600705 4 2
-35.207783 62.458252 6.2727728 28 10
-4.4064078 7.8201127 -1.4216765 1 3
-3.5456655 6.3028259 -0.88794011 27 4
-5.0437112 8.9767685 -0.90084171 12 5
-3.5138385 6.2615848 -0.37629557 25 6
-2.9886374 5.369523 -1.6466069 13 0
-3.2344377 5.818306 -1.5368656 20 1
-3.656476 6.5883203 -1.4646499 4 2
-4.3880978 7.916338 -1.4335656 1 3
-3.4872975 6.299027 -0.8840403 32 4
-4.9924841 9.0326872 -0.90293348 19 5
-3.4584558 6.2649813 -0.37503949 24 6
-6.2245855 11.289782 -0.22503133 18 7
-2.9464421 5.381783 -1.6440187 14 0
-3.2217877 5.8920393 -1.5503626 17 1
-3.5577126 6.5171866 -1.4432793 5 2
-3.7010655 6.7882357 -1.2245692 6 3
-3.4299467 6.2988124 -0.88062793 32 4
-4.959754 9.1233349 -0.90851146 12 5
-3.4012916 6.2643995 -0.37357411 12 6
-4.8491931 8.9422646 -0.17756079 11 7
-2.8941445 5.3750067 -1.6357363 16 0
-3.1676559 5.8903584 -1.544064 16 1
-3.5093448 6.536675 -1.4421345 5 2
-3.6461198 6.7999792 -1.2220662 1 3
-3.3652718 6.2841053 -0.87526566 30 4
-4.7002087 8.7879381 -0.87190604 24 5
-3.3480678 6.2703743 -0.37252739 24 6
-4.7038417 8.8206253 -0.17448916 11 7
-2.8628771 5.4070311 -1.6393598 13 0
-3.1191688 5.8985481 -1.5404649 21 1
-3.4106755 6.4579859 -1.4196191 3 2
-34.878281 66.096565 6.5384235 36 10
-3.645829 6.9120007 -1.2377096 3 3
-3.3028204 6.2723169 -0.87039089 27 4
-4.6461616 8.8346443 -0.87330055 24 5
-3.2774475 6.2399726 -0.36938724 24 6
-4.6365757 8.8426237 -0.17427972 16 7
-2.8036981 5.3835578 -1.6264189 16 0
-3.0483725 5.8608608 -1.5251682 21 1
-3.3618882 6.4746695 -1.4180925 7 2
-3.3519542 6.4638104 -1.153235 1 3
-3.254575 6.2840757 -0.86892849 30 4
-4.5953555 8.8881016 -0.87539226 12 5
-3.2411382 6.2768965 -0.3702246 24 6
-4.5854445 8.8917522 -0.17462878 11 7
-2.7766094 5.4236355 -1.6326306 18 0
-3.0286732 5.9236426 -1.5359658 17 1
-3.3291001 6.5224638 -1.4234352 5 2
-4.1123509 8.0674591 -1.4341913 1 3
-3.1890101 6.2641864 -0.86307877 27 4
-5.690412 11.197027 -1.0988595 25 5
-3.1773515 6.2601895 -0.3679218 12 6
-2.7352045 5.4359851 -1.63056 14 0
-2.9767442 5.9237471 -1.5305669 17 1
-3.3010893 6.5806427 -1.4310676 5 2
-4.0435424 8.0712461 -1.4298111 1 3
-3.143424 6.2827473 -0.86259133 28 4
-4.3817849 8.7731533 -0.85796112 18 5
-3.1014764 6.2178779 -0.36415362 12 6
-2.686059 5.4324341 -1.6238307 13 0
-2.9335904 5.9408894 -1.5296671 15 1
-3.2498593 6.5929627 -1.4287778 7 2
-3.7951572 7.7093797 -1.36098 6 3
-3.0802178 6.2653475 -0.85722905 27 4
-5.5352764 11.278964 -1.0992082 17 5
-3.0544758 6.2322049 -0.36373493 24 6
-2.6522861 5.4597435 -1.6264189 15 0
-5.49652 11.324669 0.21972579 15 8
-2.8869402 5.9507051 -1.5269678 14 1
-3.2242892 6.657897 -1.4379367 7 2
-3.6672783 7.5827513 -1.3340733 9 3
-3.026042 6.2652483 -0.85430413 32 4
-5.4165974 11.234776 -1.0911899 33 5
-3.0091593 6.2497778 -0.36352557 12 6
-5.4688435 11.373571 -0.22028428 25 7
-2.593308 5.4345374 -1.6134779 9 0
-2.8335922 5.946085 -1.5206691 14 1
-3.1288159 6.5774174 -1.4158028 5 2
-3.6108603 7.6010313 -1.3328218 2 3
-2.9720187 6.2646999 -0.85137933 31 4
-6.0468087 12.757529 2.2360744 4 12
-2.9552081 6.2489672 -0.36226952 12 6
-5.3261151 11.277668 -0.21770133 25 7
-2.5544822 5.4507623 -1.6129603 11 0
-2.7771404 5.9339538 -1.512571 15 1
-3.1393282 6.7200522 -1.4417528 5 2
-3.7898808 8.1237164 -1.4197993 1 3
-2.9064174 6.2385101 -0.84504211 28 4
-2.91151 6.2694459 -0.36226952 12 6
-2.5139465 5.4631968 -1.6114074 13 0
-2.7307663 5.9425716 -1.5098715 16 1
-3.0456784 6.6400909 -1.4200007 5 2
-3.6721961 8.0170784 -1.3966471 3 3
-2.8561845 6.2442079 -0.8430922 26 4
-2.8494418 6.2496395 -0.35996673 12 6
-2.4677918 5.4630084 -1.6062311 21 0
-2.5962603 5.7554321 -1.4576828 16 1
-2.9662037 6.5877943 -1.4043542 7 2
-3.6663649 8.1542196 -1.4160448 1 3
-2.8060203 6.249507 -0.8411423 28 4
-2.7959511 6.2475033 -0.35871068 12 6
-3.5124459 7.8595328 -0.15026523 16 7
-2.419414 5.4571452 -1.5995017 15 0
-2.6459503 5.9765558 -1.5089717 14 1
-2.9339945 6.6365614 -1.4104601 5 2
-3.5836511 8.1175442 -1.4054073 1 3
-2.7607181 6.2653122 -0.84065479 33 4
-4.8659229 11.058658 -1.0570248 22 5
-2.7453265 6.2481046 -0.35766396 12 6
-4.9641747 11.319429 -0.21574664 24 7
-2.3883798 5.487658 -1.6036428 14 0
-2.5943336 5.9694066 -1.502673 16 1
-2.8985288 6.6820984 -1.4158028 5 2
-3.5441661 8.1822443 -1.4122906 1 3
-2.7054017 6.2548065 -0.83675498 30 4
-4.8663812 11.267112 -1.0737587 16 5
-4.8348103 11.215517 -0.64006883 8 6
-2.3500106 5.5041986 -1.6036428 11 0
-3.4416804 8.0650063 0.15305761 7 8
-2.5556529 5.9945436 -1.5044726 15 1
-2.8891208 6.7865729 -1.4337388 5 2
-6.0494471 14.223985 1.3523085 3 10
-3.4976625 8.227994 -1.4160448 1 3
-2.6477132 6.2406478 -0.83236772 31 4
-4.7114367 11.121025 -1.0566761 15 5
-2.6713715 6.3147926 -0.3593387 12 6
-4.7251854 11.191523 -0.21204674 15 7
-2.3050282 5.5022473 -1.5984664 11 0
-2.513289 6.0082035 -1.5035729 19 1
-3.4092815 8.1581488 0.46338257 2 9
-2.8666313 6.866364 -1.4463322 3 2
-3.4370949 8.2449188 -1.4147935 1 3
-2.5960186 6.2365332 -0.8294428 31 4
-3.6262276 8.7286205 -0.82693368 17 5
-4.6399183 11.185182 -0.63462585 8 6
-4.6152263 11.142138 -0.21051092 15 7
-2.2680247 5.521781 -1.5995017 10 0
-2.4594481 5.9967566 -1.4963745 20 1
-2.8335025 6.9225469 -1.4539646 3 2
-3.373472 8.2540855 -1.4122906 1 3
-2.5404155 6.2250981 -0.82554299 31 4
-3.5817351 8.7943182 -0.83076853 11 5
-4.5587087 11.209903 -0.63420719 17 6
-4.6020274 11.333425 -0.21351273 16 7
-2.2272582 5.5321026 -1.5979488 9 0
-2.4291558 6.0427089 -1.5035729 17 1
-2.5234044 6.2898531 -1.3173454 7 2
-3.3128273 8.2701006 -1.411039 1 3
-2.4899096 6.2283716 -0.82359308 33 4
-3.4655945 8.6821785 -0.81786948 23 5
-3.4709861 8.7089272 -0.49133 24 6
-5.4756713 13.766747 -0.25860977 24 7
-2.1769843 5.5209408 -1.5901842 10 0
-2.377286 6.038178 -1.4981741 15 1
-2.4550138 6.2451925 -1.3043704 13 2
-3.3078082 8.4232216 0.79172277 1 10
-3.1807003 8.1078625 -1.3794394 4 3
-2.4333348 6.2123322 -0.81920576 30 4
-3.3918343 8.672761 -0.8147319 23 5
-3.4209223 8.7651711 -0.49310946 11 6
-2.1209857 5.4909525 -1.5772433 13 0
-3.4151316 8.8505154 0.16558844 25 8
-2.2691586 5.8837156 -1.4558831 20 1
-2.4067354 6.2534385 -1.3024622 26 2
-3.1629937 8.2312841 -1.3966471 1 3
-2.3827975 6.2106338 -0.81676841 28 4
-3.3582916 8.7669287 -0.8213557 17 5
-2.0914853 5.5291157 -1.5839727 10 0
-2.2776003 6.030674 -1.4882761 17 1
-2.3474894 6.2255878 -1.2933035 32 2
-2.3169451 6.1543427 -1.0415409 21 3
-3.2471514 8.6343241 1.1326538 1 11
-2.2988904 6.1193371 -0.80263156 35 4
-2.299927 6.131846 -0.57296187 54 5
-2.2946219 6.1274657 -0.34290522 23 6
-4.1921859 11.218484 -0.20904493 15 7
-2.060513 5.5613389 -1.589149 10 0
-2.2081022 5.9692745 -1.4693804 19 1
-2.2631791 6.1313176 -1.2704064 32 2
-2.2595789 6.1314435 -1.0349705 35 3
-2.246217 6.1050353 -0.79873174 28 4
-2.2485147 6.1211772 -0.57052147 54 5
-2.2531657 6.1470852 -0.34311455 23 6
-3.2470925 8.8730888 -0.16492525 15 7
-2.0199752 5.5679722 -1.5870785 11 0
-2.1733918 6.0006561 -1.4734293 24 1
-2.2253959 6.1576591 -1.2726961 28 2
-2.2198021 6.1522565 -1.0359092 29 3
-2.2288282 6.1874175 -0.80750632 24 4
-2.2290499 6.1982093 -0.5762738 33 5
-4.017796 11.196625 -0.62342596 8 6
-1.9716852 5.552465 -1.5787963 12 0
-2.1539841 6.0759234 -1.4882761 14 1
-2.2056904 6.2355938 -1.2856711 32 2
-2.3949375 6.7818971 -1.139156 6 3
-2.1921747 6.22155 -0.80994374 45 4
-3.0081804 8.5517149 -0.79311723 22 5
-3.1301618 8.9133921 -0.49509817 11 6
-3.8981152 11.125038 -0.20576388 14 7
-1.9103661 5.5043793 -1.5611964 12 0
-2.1078987 6.0838161 -1.4864765 17 1
-2.1556861 6.2322865 -1.2818549 28 2
-2.3611679 6.8418097 -1.1463519 13 3
-2.1396341 6.2104268 -0.80653143 34 4
-3.1233354 9.0759687 1.5202303 7 12
-2.9347966 8.5329418 -0.78945673 27 5
-4.6701097 13.60926 -0.75405657 8 6
-1.8917552 5.5761232 -1.5777609 12 0
-2.0578759 6.0762339 -1.4810777 17 1
-2.103492 6.2252331 -1.2772754 28 2
-5.9093294 17.498585 1.6158675 1 10
-2.2363181 6.6297722 -1.1081818 16 3
-2.0924239 6.2139254 -0.80506897 27 4
-2.9049909 8.641984 -0.79764932 16 5
-3.6554158 10.899591 -0.60249156 27 6
-3.7297075 11.140456 -0.20506579 14 7
-1.8564277 5.6001964 -1.5808668 10 0
-3.722363 11.23564 0.20660159 14 8
-2.0092835 6.0719514 -1.4765787 15 1
-2.0586061 6.2319503 -1.275749 32 2
-2.7417073 8.3144932 -1.3866353 3 3
-2.0471306 6.2227249 -0.80433774 26 4
-2.8029385 8.5352287 -0.78597051 33 5
-3.6085148 11.007727 -0.60709715 27 6
-3.6518416 11.166224 -0.20506579 14 7
-1.8099302 5.5869741 -1.5736198 12 0
-3.6475265 11.272768 0.20681101 14 8
-1.9703048 6.0929046 -1.4783784 15 1
-2.0114353 6.2349586 -1.2734593 28 2
-2.1991942 6.8292003 -1.1363401 5 3
-1.9919717 6.1968269 -0.79921919 28 4
-2.7679121 8.6261997 -0.79259431 27 5
-3.5760272 11.171511 -0.61473817 36 6
-2.7979105 8.7564602 -0.16045742 23 7
-1.766804 5.5865798 -1.5699965 14 0
-3.5393724 11.198185 0.20499596 13 8
-1.9218539 6.0879283 -1.4738793 15 1
-1.9654082 6.2372708 -1.2711695 26 2
-2.6315534 8.3665781 -1.3891382 2 3
-1.9427155 6.1916428 -0.79678184 26 4
-2.7326281 8.7251692 -0.79991537 28 5
-3.4987106 11.191781 -0.61452883 18 6
-2.7355244 8.7719603 -0.16038762 9 7
-1.733866 5.6150894 -1.5746551 11 0
-3.445786 11.172939 0.20408843 40 8
-1.8769263 6.089695 -1.47118 15 1
-1.9091232 6.2095551 -1.262774 26 2
-2.1088824 6.8720927 -1.1385301 5 3
-1.8936348 6.1860719 -0.79434443 26 4
-2.6489472 8.6697206 -0.79311723 22 5
-3.0152175 9.8808241 2.0080738 2 13
-2.6473753 8.6808367 -0.47562921 24 6
-1.6953112 5.6329026 -1.576208 9 0
-3.364244 11.185233 0.20387901 13 8
-1.7856466 5.9443297 -1.4329382 30 1
-1.862343 6.2114491 -1.2604843 28 2
-2.0545588 6.8699741 -1.1357143 9 3
-1.8481305 6.1915326 -0.79336947 27 4
-2.5587754 8.5887108 -0.78405303 22 5
-2.9959936 10.069107 2.042038 1 13
-2.6022568 8.7569942 -0.47876939 24 6
-3.3201365 11.194233 -0.2038092 14 7
-1.6412615 5.5945501 -1.5622318 11 0
-3.3088577 11.293457 0.20541482 13 8
-1.7911974 6.1174898 -1.4716297 15 1
-1.8112426 6.2020016 -1.2559049 28 2
-2.399565 8.2325335 -1.3581642 14 3
-1.8004528 6.193162 -0.79190701 33 4
-2.504468 8.6316767 -0.78631908 27 5
-3.2093768 11.082832 -0.60468972 37 6
-3.8691823 13.396311 -0.24339128 21 7
-1.5990639 5.598721 -1.5601612 20 0
-1.6164963 5.6709991 -1.3614038 20 1
-1.7668262 6.2107196 -1.2551417 26 2
-2.3384364 8.2418928 -1.3569127 14 3
-1.7550092 6.1979408 -0.79093212 31 4
-2.4208484 8.5665064 -0.77882373 21 5
-3.1446168 11.157418 -0.60751587 18 6
-1.5598261 5.6017585 -1.5580908 18 0
-1.6936364 6.0946655 -1.4603822 18 1
-1.721364 6.2112503 -1.252852 26 2
-2.2858286 8.2648354 -1.3581642 13 3
-1.7128078 6.2056174 -0.79044467 36 4
-2.3794019 8.6442566 -0.78440166 22 5
-3.067374 11.166473 -0.60688782 18 6
-3.7350945 13.625169 -0.24660251 22 7
-1.5282587 5.640481 -1.5658553 13 0
-3.0286841 11.193736 0.20241301 13 8
-1.6012025 5.9219837 -1.4162918 15 1
-1.6769401 6.2193241 -1.2520887 26 2
-2.2188389 8.2462568 -1.3525326 14 3
-1.6632652 6.194418 -0.78751975 36 4
-2.3478541 8.7684345 -0.79416311 22 5
-2.9687195 11.110434 -0.60270095 9 6
-1.487859 5.6472764 -1.5648201 12 0
-2.9392755 11.172061 0.20164511 26 8
-1.6034238 6.0988708 -1.4558831 15 1
-1.6265101 6.2042928 -1.2467461 30 2
-2.1567156 8.2443457 -1.3497167 19 3
-1.6149657 6.1866708 -0.7850824 39 4
-2.2745409 8.7383356 -0.78997964 11 5
-2.9021332 11.173415 -0.60500371 27 6
-2.9093428 11.225346 -0.20241301 14 7
-1.4368981 5.6126099 -1.5523967 12 0
-2.8651702 11.207808 0.20192434 13 8
-1.5048568 5.8908958 -1.4036945 19 1
-1.5783105 6.1964712 -1.2429299 30 2
-2.0840225 8.199852 -1.3400177 18 3
-1.5678345 6.1824007 -0.78313243 33 4
-2.1998005 8.6999178 -0.78509891 16 5
-2.829915 11.216643 -0.60625976 9 6
-1.4014082 5.6375031 -1.5565379 13 0
-2.772403 11.169312 0.20087719 26 8
-1.5143603 6.1055322 -1.452284 19 1
-1.5350125 6.2073393 -1.2429299 32 2
-2.0503862 8.3100948 -1.3556613 20 3
-1.5189408 6.1700654 -0.78020763 31 4
-2.1599104 8.8002014 -0.79276866 11 5
-2.8577228 11.652131 2.3320675 1 13
-2.7349176 11.168228 -0.60259628 18 6
-2.740942 11.218249 -0.20157529 14 7
-1.3629227 5.6509056 -1.5575731 13 0
-2.6849954 11.149512 0.2001791 39 8
-1.4707869 6.1121664 -1.4513842 18 1
-1.4870628 6.198813 -1.2391137 30 2
-1.9932364 8.3280487 -1.3562869 15 3
-1.4721371 6.1650729 -0.77825767 33 4
-2.6290245 11.044029 -0.99322683 14 5
-3.7995675 15.998434 -0.86176395 8 6
-2.6468811 11.170953 -0.20038854 28 7
-1.315522 5.6264229 -1.5482556 12 0
-2.605279 11.160196 0.20003949 26 8
-1.4263093 6.1146941 -1.4495846 16 1
-1.4410799 6.1975703 -1.236824 32 2
-1.9225526 8.2878809 -1.3475267 12 3
-1.4245882 6.1558595 -0.77582031 25 4
-2.5518584 11.062114 -0.99322683 14 5
-2.5527315 11.092436 -0.59652531 9 6
-3.1335082 13.648788 -0.24443841 21 7
-1.2834663 5.6674995 -1.5570555 11 0
-2.5511158 11.283437 0.20192434 13 8
-1.3835889 6.1245022 -1.4495846 16 1
-1.3926022 6.1844964 -1.2322445 34 2
-1.8585843 8.2741175 -1.3431464 17 3
-1.3798414 6.1579075 -0.77484536 28 4
-2.4650135 11.03688 -0.98939192 14 5
-3.5306518 15.847179 -0.85087812 8 6
-2.4620183 11.077985 -0.19808482 34 7
-1.2397332 5.6574507 -1.551879 9 0
-1.3349723 6.1073594 -1.4432859 16 1
-1.3460492 6.1787219 -1.2291917 32 2
-1.8016138 8.2907524 -1.3437722 18 3
-1.3342943 6.1557498 -0.7733829 30 4
-2.8054135 12.964595 2.100915 4 12
-2.3740184 10.989553 -0.98363966 35 5
-3.4060485 15.807013 -0.84742391 17 6
-2.401427 11.173105 -0.19948101 35 7
-1.1974016 5.652739 -1.5482556 13 0
-2.3933191 11.317958 0.20192434 13 8
-1.2971333 6.139411 -1.4486848 17 1
-1.3004568 6.1764412 -1.2269019 30 2
-1.7380096 8.276062 -1.3393921 12 3
-1.2896616 6.1571426 -0.77240795 28 4
-2.8073297 13.449656 -1.202052 20 5
-3.2601967 15.660291 -0.83831745 8 6
-2.3209264 11.17785 -0.19927157 21 7
-1.1540376 5.6420345 -1.5430793 13 0
-2.2742476 11.138462 0.19843386 12 8
-1.2604728 6.1788673 -1.4558831 15 1
-1.255741 6.1776738 -1.2253754 28 2
-1.6899974 8.3363953 -1.3472137 3 3
-1.2450689 6.1582136 -0.771433 31 4
-2.7385533 13.593927 -1.213208 21 5
-2.74716 13.673625 -0.73092401 26 6
-1.1127537 5.6404762 -1.540491 17 0
-1.2308507 6.256351 -1.4720796 15 1
-2.8752794 14.641878 0.78200394 4 9
-1.2103134 6.1747313 -1.2230858 28 2
-1.6264518 8.3208485 -1.3428336 6 3
-1.1990076 6.1511683 -0.76948309 30 4
-2.166523 11.156169 -0.99427271 14 5
-2.1427937 11.06496 -0.59066367 28 6
-1.0747914 5.6556993 -1.5425617 13 0
-1.1951252 6.3069139 -1.4819776 14 1
-1.164994 6.1714544 -1.220796 34 2
-1.5551711 8.2621136 -1.3315703 9 3
-1.1567706 6.163291 -0.7699706 28 4
-2.9439306 15.74597 -1.4014642 28 5
-2.0354793 10.91865 -0.58208054 9 6
-2.9721622 15.989635 -0.28388086 29 7
-1.0366706 5.6706657 -1.5446322 15 0
-1.1468722 6.292098 -1.4765787 15 1
-1.1176724 6.1562572 -1.2162166 31 2
-1.5087119 8.3349705 -1.3415821 2 3
-1.1123042 6.1634026 -0.76899564 28 4
-1.9514574 10.889341 -0.57977778 29 6
-1.0047417 5.7215281 -1.5565379 12 0
-1.9471663 11.110954 0.19689806 38 8
-1.1032532 6.3018708 -1.4770286 13 1
-1.0753409 6.1677785 -1.2169799 31 2
-1.4271457 8.2110128 -1.3199942 17 3
-1.0678929 6.1631937 -0.76802069 28 4
-1.9153721 11.088811 -0.98451126 21 5
-2.3460126 13.638709 -0.72527176 8 6
-0.96316922 5.7188778 -1.5539496 15 0
-1.8748143 11.143671 0.1972471 12 8
-1.0469706 6.2363896 -1.4599323 15 1
-1.032685 6.1710825 -1.2162166 29 2
-1.3881224 8.3218565 -1.3362634 20 3
-1.0254902 6.1744151 -0.76850814 27 4
-0.92822462 5.7500944 -1.5606788 13 0
-1.8026896 11.192024 0.19787538 12 8
-1.0196676 6.337647 -1.4819776 21 1
-0.98833561 6.1703873 -1.2146901 31 2
-1.3299911 8.3313446 -1.3362634 10 3
-0.97844785 6.1498857 -0.76460832 27 4
-1.3514382 8.5326414 -0.75581461 15 5
-1.7638115 11.174125 -0.59286177 19 6
-2.1513433 13.675712 -0.24164602 21 7
-0.88805878 5.7564344 -1.5606788 13 0
-1.7135594 11.133186 0.19661881 25 8
-0.96503365 6.2771969 -1.466231 13 1
-0.94464308 6.1732554 -1.2139269 27 2
-1.2720968 8.3423796 -1.3365762 2 3
-0.93549263 6.1565661 -0.76460832 27 4
-1.6690187 11.035872 -0.97649294 20 5
-2.047375 13.585742 -0.72003812 8 6
-0.84784693 5.7624941 -1.5606788 9 0
-0.90507257 6.1738787 -1.4405866 16 1
-0.89982218 6.1680436 -1.2116373 31 2
-1.2087104 8.3158684 -1.3309445 9 3
-0.89248896 6.1629472 -0.76460832 30 4
-1.5904468 11.023313 -0.97440118 27 5
-1.5789613 10.997986 -0.58228987 19 6
-1.9381109 13.55001 -0.23892345 20 7
-0.8089385 5.7778382 -1.5632671 12 0
-1.198236 8.569314 0.15103312 33 8
-0.87137336 6.2475982 -1.4563332 14 1
-0.856736 6.1662474 -1.2101108 31 2
-1.1442243 8.2671585 -1.3218714 14 3
-0.84835571 6.1611619 -0.76363337 28 4
-1.5118264 11.022304 -0.97335529 13 5
-1.5127102 11.071804 -0.58563942 19 6
-1.8456211 13.579062 -0.23920268 20 7
-0.77010083 5.7870402 -1.5643023 11 0
-1.1404905 8.5933285 0.15131237 6 8
-0.82575434 6.2302022 -1.4509343 14 1
-0.81315333 6.1681852 -1.2093475 31 2
-1.0887952 8.292573 -1.3246872 1 3
-0.80434203 6.1510472 -0.76168346 27 4
-1.7498732 13.45486 -1.1870612 20 5
-1.4220372 10.979098 -0.58019644 19 6
-1.1637303 9.0218697 -0.15878199 9 7
-0.7296809 5.7922754 -1.5643023 10 0
-0.77908605 6.2106791 -1.4450855 17 1
-0.77055758 6.1776085 -1.2101108 31 2
-1.0342841 8.3274164 -1.3290673 24 3
-0.76040542 6.1486316 -0.76070851 22 4
-1.0713489 8.7128477 -0.7680164 16 5
-1.3667181 11.163213 -0.58940756 9 6
-0.67896235 5.7109041 -1.5410087 13 0
-1.3155704 11.0986 0.19508299 25 8
-0.73250169 6.1888733 -1.438787 17 1
-0.72419941 6.1555395 -1.2047681 34 2
-0.71745843 6.153791 -0.76070851 19 4
-1.0104957 8.7201147 -0.7680164 16 5
-0.99808955 8.6526718 -0.45647424 25 6
-1.2675861 11.039774 -0.19396605 26 7
-0.64251083 5.7462225 -1.5492908 8 0
-1.2424911 11.147262 0.1957811 12 8
-0.69035494 6.2035198 -1.4410365 13 1
-0.68163949 6.1643481 -1.2055314 31 2
-0.91380793 8.3037386 -1.3231229 14 3
-0.67275345 6.1428633 -0.7587586 24 4
-0.93795091 8.6199999 -0.75860357 21 5
-0.92475349 8.5402899 -0.45019394 12 6
-0.94454151 8.7659168 -0.15389533 8 7
-0.60177803 5.7448044 -1.547738 11 0
-1.1579887 11.092019 0.19466414 37 8
-0.6498605 6.2353239 -1.4473351 14 1
-0.63777906 6.1611457 -1.2040049 34 2
-0.85682654 8.3197412 -1.3246872 2 3
-0.63147044 6.163208 -0.76070851 15 4
-0.87976998 8.6461582 -0.76034665 15 5
-0.86108977 8.5067959 -0.44810051 26 6
-0.88011944 8.7404623 -0.15333684 17 7
-0.5620327 5.7527108 -1.5487732 9 0
-1.0729674 11.022212 0.19330285 49 8
-0.59952891 6.1698828 -1.4311386 15 1
-0.59362245 6.1537223 -1.2017151 29 2
-0.79759496 8.3137217 -1.3228099 2 3
-0.58711094 6.1536331 -0.75900233 13 4
-0.79722118 8.4180355 -0.73977798 20 5
-0.81478876 8.6517925 -0.45542756 12 6
-0.52011061 5.7372546 -1.5435969 10 0
-1.0006729 11.081215 0.19421038 37 8
-0.56028575 6.2166176 -1.4410365 14 1
-0.54994744 6.1498947 -1.2001886 34 2
-0.73603654 8.2797346 -1.3165526 2 3
-0.54500979 6.167469 -0.76022106 13 4
-0.74939442 8.5484371 -0.75075954 26 5
-0.75228733 8.6333933 -0.45417148 25 6
-0.75489092 8.7160387 -0.15270855 29 7
-0.47875923 5.7253447 -1.5394558 9 0
-0.91980243 11.046083 0.19347738 12 8
-0.52042514 6.2631021 -1.4509343 12 1
-0.50764161 6.1614113 -1.2017151 31 2
-0.60681206 7.412497 -1.1779517 5 3
-0.50032729 6.1513386 -0.75778365 10 4
-0.6940245 8.6070805 -0.75546592 21 5
-0.69056541 8.6205168 -0.45322946 25 6
-0.68704742 8.6333876 -0.15117276 20 7
-0.44099021 5.7574406 -1.5472202 8 0
-0.84479207 11.08015 0.19396605 24 8
-0.47417501 6.2335501 -1.4432859 9 1
-0.46284395 6.1413126 -1.1971357 34 2
-0.62330526 8.3286018 -1.3228099 2 3
-0.63125682 8.4946089 -1.0458828 6 4
-0.55054337 7.4791188 -0.65610844 8 5
-0.63254559 8.6550074 -0.4547995 25 6
-0.63225323 8.7137632 -0.15249914 12 7
-0.40118718 5.7661605 -1.5487732 9 0
-0.76409793 11.0379 0.19312833 36 8
-0.42715478 6.1861615 -1.4315885 7 1
-0.42103216 6.1600633 -1.2001886 31 2
-0.56461471 8.3248663 -1.3215585 3 3
-0.56741005 8.4314671 -1.0375956 7 4
-0.60396308 9.0691929 -0.79520899 11 5
-0.57289684 8.6711702 -0.45542756 12 6
-0.57218897 8.7299366 -0.15270855 8 7
-0.36140728 5.7765326 -1.5508437 9 0
-0.46848854 7.530292 0.13169587 27 8
-0.38649374 6.2298369 -1.4410365 9 1
-0.37729537 6.1510954 -1.197899 29 2
-0.50600284 8.3207188 -1.320307 2 3
-0.51343131 8.5164642 -1.0475889 9 4
-0.50965476 8.5281515 -0.74744761 10 5
-0.5116443 8.6629953 -0.4547995 25 6
-0.51450467 8.7896147 -0.1536859 8 7
-0.32149658 5.7866311 -1.5529144 11 0
-0.34074014 6.1915226 -1.4315885 11 1
-0.33498996 6.14568 -1.1963725 31 2
-0.44807589 8.3002996 -1.3165526 4 3
-0.45375139 8.5158758 -1.0471015 9 4
-0.58383435 11.06628 -0.96952045 13 5
-0.57934892 11.091638 -0.58208054 19 6
-0.28116041 5.7693901 -1.547738 11 0
-0.29605421 6.1411433 -1.4194412 7 1
-0.29095885 6.1243358 -1.1917931 31 2
-0.39141586 8.3308516 -1.3209327 2 3
-0.39255065 8.4493656 -1.0385706 10 4
-0.39208078 8.5682707 -0.75041097 31 5
-0.3854734 8.5215807 -0.44705379 13 6
-0.38719285 8.6600285 -0.15131237 8 7
-0.24176453 5.7924442 -1.553432 9 0
-0.2526952 6.1313782 -1.4167417 9 1
-0.24819584 6.1262178 -1.1917931 34 2
-0.32890487 8.224822 -1.303725 14 3
-0.33691946 8.5371914 -1.0490514 16 4
-0.33256215 8.5787621 -0.75110817 26 5
-0.33177263 8.6757441 -0.45500883 25 6
-0.20111848 5.7881985 -1.551879 9 0
-0.21214713 6.1992111 -1.4320384 9 1
-0.2055552 6.1317263 -1.1925563 31 2
-0.2672151 8.0129204 0.70142943 1 10
-0.27232763 8.2525835 -1.3077923 4 3
-0.27808765 8.5631437 -1.0519762 20 4
-0.27203023 8.5609617 -0.74936509 31 5
-0.26920003 8.6139669 -0.45165932 25 6
-0.16064799 5.7875304 -1.5513614 8 0
-0.17146286 6.2959943 -1.4540836 10 1
-0.16274269 6.1330113 -1.1925563 34 2
-0.21552894 8.2858782 -1.3127981 4 3
-0.21500723 8.4358883 -1.0361333 12 4
-0.21176714 8.5427341 -0.74762189 26 5
-0.44355768 18.279528 -0.9582715 27 6
-0.26222864 11.045205 -0.19284908 13 7
-0.12044286 5.7981677 -1.5539496 11 0
-0.12679723 6.2619677 -1.4459854 12 1
-0.12007279 6.1418495 -1.1940827 38 2
-0.15617032 8.2081804 -1.3002834 9 3
-0.1538408 8.2366962 1.0115156 3 11
-0.15632869 8.4490919 -1.0375956 15 4
-0.15198059 8.5360365 -0.7469247 26 5
-0.31703597 18.346081 -0.96162093 9 6
-0.079907805 5.7950044 -1.5529144 11 0
-0.083826974 6.3192086 -1.4590325 14 1
-0.076947898 6.1229072 -1.1902666 38 2
-0.098438308 8.1735153 -1.2946517 12 3
-0.10264821 8.9104891 -1.094143 5 4
-0.093565777 8.6464643 -0.75651181 10 5
-0.11375047 11.046254 -0.57894039 9 6
-0.039383356 5.7857618 -1.5503261 8 0
-0.039733022 6.3235369 -1.4599323 15 1
-0.034112349 6.1075888 -1.1872137 31 2
-0.030535581 6.0327234 -0.95550185 18 3
-0.027322516 6.0207233 -0.73925954 33 4
-0.02418712 6.0249372 -0.52711791 48 5
-0.019897532 5.9997334 -0.31443447 43 6
0.0009912746 5.6950989 -1.5259972 10 0
0.0073704249 6.0330763 -1.1727122 34 2
0.010514866 6.0248899 -0.9542504 41 3
0.014734975 6.0306926 -0.74047816 33 4
0.01782817 6.0090199 -0.5257234 51 5
0.020962816 6.0057216 -0.31474847 32 6
0.040474162 5.7973461 -1.553432 13 0
0.045337699 6.040925 -1.3946966 75 1
0.049392432 6.0210986 -1.1704224 34 2
0.052490082 6.0147934 -0.95268601 35 3
0.055949599 6.0483174 -0.74267185 7 4
0.060058977 6.0366421 -0.52816379 28 5
0.093921065 9.2778645 1.8035268 4 13
0.11568381 11.046234 -0.57894039 9 6
0.080970488 5.7988539 -1.5539496 11 0
0.091064066 6.2859764 -1.4513842 12 1
0.21478055 14.476539 0.75876677 2 9
0.092797667 6.1109066 -1.1879768 34 2
0.14179893 8.73524 -1.0726941 19 4
0.18759972 11.080083 -0.96952045 13 5
0.18916787 10.837474 -0.5680545 20 6
0.19802728 11.014543 -0.19229062 13 7
0.12133076 5.7923527 -1.5523967 8 0
0.13473707 6.2754459 -1.4491347 13 1
0.13545465 6.1101098 -1.1879768 29 2
0.18221873 8.0298138 -1.2721251 9 3
0.31082207 13.489093 1.656692 2 11
0.24875736 10.714626 -1.3159453 3 4
0.20957573 8.8277836 -0.7725485 10 5
0.26755574 10.947702 -0.57391614 20 6
0.16187671 5.7952271 -1.553432 9 0
0.31041187 11.043956 0.19284908 12 8
0.17899111 6.2899356 -1.4527339 14 1
0.17738596 6.120821 -1.1902666 27 2
0.24060418 8.1547575 -1.2921488 9 3
0.29490769 9.7641869 -1.1994381 3 4
0.33630779 10.945007 -0.95801592 13 5
0.49466714 15.82854 -0.82994366 8 6
0.27720955 8.6762505 -0.15152179 8 7
0.2006463 5.774684 -1.5482556 8 0
0.38946953 11.097478 0.19382644 12 8
0.21987499 6.2340407 -1.4401367 12 1
0.2201101 6.1194334 -1.1902666 23 2
0.29594049 8.1094503 -1.2852658 11 3
0.35960135 9.714344 -1.1935885 2 4
0.4133161 10.958321 -0.95941037 20 5
0.42213836 11.038772 -0.57894039 9 6
0.33548602 8.6541815 -0.15117276 24 7
0.23942563 5.7364688 -1.5384204 11 0
0.46542144 11.058525 0.19319814 12 8
0.26553082 6.2829762 -1.4518342 14 1
0.26248938 6.1099019 -1.1887401 27 2
0.35649559 8.1979675 -1.2996577 9 3
0.47000423 10.679385 -1.3125329 10 4
0.48891965 10.935265 -0.95766729 13 5
0.49197292 10.875937 -0.57056665 10 6
0.39699233 8.6756001 -0.15159161 12 7
0.27927983 5.7307982 -1.5373851 10 0
0.54124069 11.027044 0.19270948 12 8
0.31226406 6.3393607 -1.4653312 13 1
0.30533406 6.1118417 -1.1895033 27 2
0.41680703 8.2564383 -1.3093567 5 3
0.43857178 8.5981684 -1.0570948 13 4
0.56079996 10.73661 -0.56344897 10 6
0.4567028 8.656641 -0.15131237 12 7
0.31777653 5.7017055 -1.5301383 10 0
0.61821079 11.022998 0.19270948 12 8
0.35454321 6.3020039 -1.457233 14 1
0.34732252 6.0978007 -1.1872137 31 2
0.47614211 8.2829084 -1.3140497 3 3
0.49767196 8.5790424 -1.0551448 14 4
0.49745083 8.4729891 -0.74256694 20 5
0.64589864 10.903896 -0.57245076 30 6
0.35781613 5.7032042 -1.5311736 11 0
0.69363463 10.994464 0.19229062 36 8
0.39828479 6.295486 -1.4563332 14 1
0.39038897 6.1030645 -1.1887401 27 2
0.54208857 8.4055452 -1.3340733 1 3
0.55999589 8.6129961 -1.0597758 9 4
0.55619931 8.4633446 -0.74204391 30 5
0.5737986 8.5935526 -0.15033503 24 7
0.39762056 5.7005672 -1.5311736 16 0
0.77317029 11.029249 0.19298871 12 8
0.4392173 6.2497849 -1.4464353 14 1
0.43270883 6.0962734 -1.1879768 29 2
0.5903312 8.2557497 -1.310921 2 3
0.61512053 8.5395784 -1.0512451 12 4
0.62163049 8.54669 -0.74971366 31 5
0.62063086 8.4716396 -0.44516969 26 6
0.63142049 8.5574312 -0.14977656 16 7
0.4359296 5.67839 -1.5259972 13 0
0.84738761 10.987694 0.19236042 36 8
0.48073578 6.2193656 -1.4401367 14 1
0.47495297 6.0891891 -1.1872137 29 2
0.64980847 8.2750587 -1.3146753 3 3
0.67628741 8.5548649 -1.0536824 12 4
0.68017364 8.5282402 -0.74849349 15 5
0.69606161 8.670167 -0.45584619 25 6
0.47798401 5.7040844 -1.5337617 8 0
0.92273408 10.965569 0.19208118 36 8
0.52709377 6.2508106 -1.4482349 14 1
0.51911235 6.1052876 -1.1910298 27 2
0.70621246 8.2545767 -1.3121724 1 3
0.72815961 8.4589577 -1.0424705 19 4
0.94951123 10.940927 -0.96080488 13 5
1.5925403 18.239483 -0.95952755 18 6
0.52128947 5.7390871 -1.5441145 8 0
1.0025291 10.994707 0.19270948 12 8
0.56983334 6.2372756 -1.4459854 16 1
0.56028277 6.085875 -1.1879768 27 2
0.76601255 8.2730474 -1.3159269 1 3
0.79309022 8.5169163 -1.0502701 14 4
0.79098803 8.4306297 -0.74082375 10 5
1.7202038 18.231897 -0.95973688 9 6
0.55776501 5.6987782 -1.5342795 9 0
1.0780894 10.975499 0.19250005 12 8
0.60706311 6.1691461 -1.4311386 11 1
0.60275942 6.0818148 -1.1879768 27 2
0.82120448 8.2419443 -1.3118596 5 3
0.84738618 8.4598169 -1.0439328 13 4
0.84862596 8.4130096 -0.73977798 15 5
1.0989213 10.83748 -0.57088071 20 6
1.1203398 10.991367 -0.19284908 13 7
0.59894758 5.7081947 -1.5379028 8 0
0.6631971 6.2887893 -1.4599323 14 1
0.64602995 6.0852675 -1.1895033 25 2
0.87117571 8.1652994 -1.3005962 8 3
0.91382933 8.5227785 -1.0524638 10 4
0.90565848 8.405057 -0.73960358 25 5
1.7437415 16.07752 -0.84752852 8 6
0.63663095 5.6846757 -1.5327265 8 0
0.69488257 6.1755605 -1.4347378 15 1
0.6878773 6.0846314 -1.1902666 29 2
0.92829555 8.1729193 -1.3027864 9 3
0.98390138 8.6088867 -1.0639194 13 4
0.96204209 8.3787355 -0.7378605 30 5
1.2599086 10.922486 -0.5762189 29 6
0.67189229 5.6514349 -1.5249618 10 0
1.300588 10.907059 0.19173212 24 8
0.74452782 6.2345428 -1.4495846 17 1
0.73174429 6.0913763 -1.1925563 29 2
0.9848575 8.1623173 -1.3021606 9 3
1.0331633 8.5251341 -1.0544137 16 4
1.0357015 8.4964123 -0.74884212 10 5
1.3322479 10.881705 -0.57454419 50 6
1.3432378 10.92405 -0.1921161 58 7
0.7077086 5.617856 -1.5171974 13 0
0.77825183 6.1518598 -1.4315885 17 1
0.77375668 6.0822239 -1.1917931 31 2
1.0468235 8.1944313 -1.308418 7 3
1.0671444 8.3188477 -1.0297961 15 4
1.1220105 8.6984339 -0.7673192 10 5
1.4092101 10.880061 -0.57496285 19 6
1.43778 11.055199 -0.19459434 13 7
0.7456345 5.6032038 -1.5146091 11 0
1.1414644 8.5548697 0.15064916 26 8
0.77369314 5.7908673 -1.3488065 9 1
0.81567705 6.072782 -1.1910298 29 2
1.1161494 8.2769766 -1.3228099 6 3
1.1129441 8.220706 -1.0185841 16 4
1.1593347 8.5186329 -0.75215399 26 5
1.4840516 10.862043 -0.57454419 30 6
1.4948164 10.898288 -0.19201139 19 7
0.77239716 5.5098572 -1.4907978 11 0
1.5470929 11.008125 0.19403586 12 8
0.86406714 6.1403942 -1.4315885 14 1
0.85860014 6.070828 -1.1917931 29 2
1.1733472 8.2650709 -1.3221843 9 3
1.2123111 8.5075226 -1.0551448 19 4
1.5540477 10.851414 -0.9590618 13 5
1.5538789 10.809902 -0.57234609 40 6
0.81760406 5.5502 -1.503221 11 0
1.6314962 11.04849 0.19494337 12 8
0.91147727 6.1650567 -1.438787 20 1
0.90442353 6.0879893 -1.1963725 31 2
1.2269416 8.2293253 -1.3178041 2 3
1.3133888 8.7776318 -1.0897558 3 4
1.6309465 10.848181 -0.959759 13 5
1.6349648 10.836315 -0.57433486 30 6
0.851906 5.5157185 -1.4954566 13 0
1.6932932 10.938024 0.19319814 12 8
0.83779228 5.4055758 -1.2628752 13 1
0.94690651 6.0815263 -1.1963725 29 2
1.2868066 8.2361717 -1.320307 2 3
1.3309815 8.4897661 -1.0551448 11 4
1.7140805 10.883766 -0.96394247 13 5
1.7012241 10.765453 -0.57119471 30 6
0.90672696 5.610714 -1.5228913 10 0
1.7715321 10.937779 0.19340758 12 8
1.0015185 6.1767364 -1.4446357 15 1
0.98744416 6.0631418 -1.1940827 31 2
1.3423592 8.215291 -1.3184298 2 3
1.3812227 8.4254169 -1.0483202 14 4
1.4253259 8.6660204 -0.76836497 10 5
1.4254377 8.629055 -0.45835835 25 6
1.822728 10.998286 -0.19459434 13 7
0.94008774 5.5699577 -1.5135738 11 0
1.0475438 6.1868873 -1.4486848 16 1
1.0300069 6.0640216 -1.1956092 25 2
1.3995752 8.2137537 -1.3196814 2 3
1.4507235 8.4781818 -1.0561198 12 4
1.4632078 8.5242939 -0.75668615 26 5
1.8854197 10.949613 -0.58228987 29 6
0.98065537 5.5786519 -1.517715 10 0
1.0815108 6.1335535 -1.4378871 16 1
10.946815 61.956017 3.2972703 7 9
1.0736858 6.0644164 -1.1971357 27 2
1.4575747 8.2076712 -1.320307 1 3
1.4972593 8.4055719 -1.0483202 19 4
1.5219815 8.5099487 -0.75633752 26 5
1.9600533 10.926353 -0.58176655 19 6
1.9741915 10.972111 -0.19459434 13 7
1.0230553 5.5906725 -1.5228913 10 0
1.1299334 6.1565218 -1.4450855 16 1
1.1167086 6.0606346 -1.197899 29 2
1.5306342 8.2827654 -1.3340733 1 3
1.5768867 8.5081224 -1.0624571 16 4
2.0183375 10.847682 -0.96533698 13 5
2.023468 10.843684 -0.57810301 29 6
2.0507486 10.958059 -0.19459434 13 7
1.0710828 5.6308403 -1.5358323 8 0
2.0803347 10.915841 0.19396605 24 8
1.1688669 6.1274276 -1.4401367 15 1
11.754555 61.502869 3.2815695 6 9
1.1619464 6.0681157 -1.2009518 29 2
1.5839511 8.2485991 -1.3303189 1 3
1.6178529 8.401392 -1.0505139 24 4
2.0830572 10.786745 -0.96115357 20 5
3.013561 15.54689 -0.82994366 8 6
1.0946493 5.5436244 -1.5140915 13 0
1.2082093 6.1019135 -1.4360875 17 1
12.180657 61.460625 3.283663 6 9
1.2024564 6.0562158 -1.2001886 27 2
1.6361998 8.2182522 -1.3271902 1 3
13.449263 67.429451 8.4423771 14 11
1.6729614 8.3723726 -1.0483202 23 4
2.175138 10.855944 -0.96864891 34 5
2.1900909 10.900913 -0.5827086 29 6
2.2051241 10.9362 -0.19473396 20 7
1.1420366 5.5833616 -1.5270324 11 0
1.2473667 6.0820937 -1.4333881 17 1
12.641591 61.530594 3.2920368 7 9
1.2447103 6.0476727 -1.2001886 31 2
3.3919694 16.466043 1.4708403 1 10
1.7023213 8.2491903 -1.3340733 1 3
13.772564 66.622414 8.3531685 13 11
2.1920578 10.594353 -1.3283759 7 4
2.2294061 10.737102 -0.95941037 27 5
3.8105423 18.303905 -0.97983384 9 6
2.2827823 10.936598 -0.1950132 13 7
1.1845909 5.5922618 -1.5316912 8 0
1.2922263 6.0846748 -1.4360875 21 1
1.2885345 6.0465169 -1.2017151 31 2
12.940183 60.670406 5.4273624 5 10
1.7598701 8.2371054 -1.3340733 1 3
13.675674 63.900234 8.0236349 9 11
1.79739 8.3912134 -1.0536824 12 4
2.3306916 10.843993 -0.97039205 34 5
2.3349273 10.836081 -0.58092916 19 6
2.3785017 11.010306 -0.19661881 13 7
1.2215359 5.5744205 -1.529103 10 0
1.3405277 6.1021519 -1.4423862 19 1
1.3340964 6.052712 -1.2047681 31 2
3.0863438 13.990899 1.2534739 2 10
1.817329 8.2246189 -1.3340733 1 3
14.316203 64.683136 8.1342916 10 11
2.3371847 10.551085 -1.3269135 9 4
2.3825662 10.720486 -0.96080488 27 5
2.4291964 10.903343 -0.58543009 28 6
2.4666433 11.044175 -0.19752634 13 7
1.2518866 5.5280743 -1.5187503 11 0
1.3865502 6.1078467 -1.4459854 18 1
1.3780638 6.0509071 -1.2062945 29 2
1.8672291 8.1789923 -1.3287545 8 3
3.073143 13.439585 1.6927652 2 11
2.4307158 10.621591 -1.3378818 2 4
2.4778538 10.792919 -0.96882319 20 5
2.4841993 10.79464 -0.5805105 19 6
2.5185089 10.917569 -0.19557166 13 7
1.2938837 5.5382366 -1.5239266 10 0
1.4378654 6.1400108 -1.4558831 16 1
13.843239 59.021091 3.1771069 1 9
1.4192191 6.0413871 -1.2062945 29 2
14.575805 61.998386 5.572041 9 10
1.9319139 8.2045488 -1.3350118 8 3
14.962446 63.444 8.0036478 9 11
2.4701328 10.457534 -1.3193576 13 4
2.9951782 12.670506 2.0621192 3 12
2.5659554 10.837842 -0.97440118 13 5
2.5719197 10.83772 -0.58375531 9 6
2.5854049 10.860813 -0.19487357 27 7
1.3343872 5.5325913 -1.5249618 9 0
2.638283 10.930392 0.19626977 12 8
1.4826813 6.1333532 -1.4567831 17 1
14.231392 58.780758 3.1695704 1 9
1.4641352 6.0427799 -1.2085842 29 2
14.478788 59.665859 5.3715825 3 10
1.9826442 8.1578827 -1.3296931 1 3
16.126535 66.304588 8.3785181 13 11
2.5571694 10.497897 -1.3266698 13 4
2.6363525 10.798375 -0.97248381 34 5
2.6631784 10.875299 -0.5867908 19 6
1.3836958 5.5662618 -1.5368675 8 0
1.5183944 6.0944891 -1.4500345 23 1
1.5073388 6.0321479 -1.2085842 29 2
14.816678 59.250195 5.3433442 3 10
2.0702617 8.2664785 -1.3497167 1 3
16.654675 66.403145 8.405817 14 11
2.6245968 10.456684 -1.3237449 12 4
2.699451 10.723202 -0.96742868 13 5
2.9145732 11.569217 2.3190925 3 13
2.7654214 10.961016 -0.59244311 19 6
2.7515008 10.881818 -0.19592072 13 7
1.4244384 5.563952 -1.538938 8 0
2.8173716 10.988855 0.198015 12 8
1.5458916 6.0252247 -1.4360875 22 1
7.1240172 27.726112 1.5002627 8 9
1.5533284 6.0366888 -1.2116373 29 2
15.028246 58.361958 5.2725735 2 10
2.1160841 8.2059183 -1.3422079 1 3
17.563545 68.011246 8.6246939 17 11
2.301671 8.9063129 -1.1294852 4 4
2.7902427 10.765812 -0.97300667 27 5
2.784637 10.721066 -0.5805105 19 6
1.4671849 5.5688171 -1.5430793 8 0
1.5938905 6.0368953 -1.4414864 18 1
1.5974416 6.033289 -1.2131636 27 2
15.46084 58.351917 5.2812896 1 10
1.6738086 6.3083649 -1.0337191 3 3
16.128387 60.700176 7.7116489 5 11
2.2643194 8.515933 -1.0819561 6 4
17.023401 63.93372 10.47892 22 12
2.8619149 10.740796 -0.97248381 34 5
2.890867 10.819069 -0.58689547 9 6
1.4893576 5.4969049 -1.5259972 11 0
1.6421244 6.0481882 -1.4468851 15 1
15.446377 56.852165 3.0875077 0 9
1.6395057 6.0260644 -1.2139269 27 2
15.74735 57.80043 5.2411976 0 10
2.2342203 8.1950197 -1.3453366 1 3
16.541159 60.588993 7.7116489 5 11
2.3064461 8.4367275 -1.0739127 9 4
2.3825266 8.6971169 -0.78893375 11 5
2.9406514 10.71247 -0.58218521 19 6
1.5298443 5.497808 -1.529103 11 0
1.6487079 5.9129801 -1.4171916 21 1
1.6836473 6.0220356 -1.2154534 29 2
16.134008 57.668869 5.2391062 1 10
1.8117838 6.4672923 -1.0637544 1 3
16.508005 58.847424 7.5044713 2 11
2.4163926 8.6081324 -1.0977992 4 4
3.0434558 10.812943 -0.98276818 14 5
3.0283782 10.737814 -0.58469737 19 6
3.0480332 10.785886 -0.19564149 13 7
1.5825223 5.5371451 -1.5430793 8 0
1.7060429 5.9575291 -1.4306886 20 1
16.572271 57.794411 3.1509387 0 9
1.7278152 6.0176826 -1.2169799 27 2
16.524088 57.512707 5.235271 0 10
2.3484199 8.1630268 -1.3453366 1 3
16.593161 57.601475 7.3601775 1 11
1.7429579 6.0465455 -0.77265167 6 4
2.4760625 8.5673037 -0.78021818 16 5
4.4882321 15.499085 -0.84564447 8 6
1.6108074 5.4907413 -1.5332441 10 0
1.7497909 5.9529524 -1.4324883 20 1
17.014824 57.811428 3.1582661 0 9
1.7731141 6.0167723 -1.2192695 29 2
18.211185 61.756924 5.63305 11 10
1.8459673 6.2519135 -1.0324676 4 3
17.084913 57.788826 7.3991761 1 11
1.7834388 6.0285192 -0.77192044 9 4
2.5091863 8.4600315 -0.77202559 26 5
2.7666445 9.3221159 1.890154 3 13
3.1899498 10.734691 -0.58689547 28 6
3.23827 10.876437 -0.19808482 13 7
1.6546685 5.4978604 -1.5384204 9 0
1.7901825 5.9368596 -1.4315885 18 1
18.003361 59.630016 3.2644033 5 9
1.8150759 6.0042472 -1.2192695 29 2
2.4667463 8.1445665 -1.3478395 3 3
18.399288 60.673409 7.7847705 6 11
1.8289409 6.0273185 -0.7733829 10 4
2.6545856 8.7263222 -0.79799795 22 5
3.2787888 10.758011 -0.58940756 28 6
3.3094509 10.838264 -0.19780558 34 7
1.6964283 5.497251 -1.5415263 9 0
1.8442495 5.9651766 -1.4414864 17 1
1.8604364 6.0026808 -1.2215593 26 2
17.887785 57.679268 5.283381 1 10
2.5282321 8.1422386 -1.3503424 2 3
18.040977 58.029915 7.4615731 1 11
1.869206 6.0087171 -0.77265167 12 4
2.6592836 8.5379791 1.4163579 4 12
2.640413 8.4721851 -0.77638328 10 5
3.3311813 10.662416 -0.58543009 28 6
3.4017661 10.868329 -0.19878291 35 7
1.7423353 5.5092196 -1.5482556 8 0
1.8670114 5.8927093 -1.4270895 18 1
1.9048134 6.0011067 -1.2238491 32 2
2.5740144 8.0947227 -1.3453366 2 3
1.9123149 5.9993038 -0.77313918 12 4
3.396492 10.636208 -0.97684151 13 5
3.4231551 10.700368 -0.58877957 38 6
3.4287026 10.691983 -0.19599053 20 7
1.7601609 5.4365797 -1.5311736 10 0
3.5498323 10.95128 0.20094702 13 8
1.9227134 5.9280591 -1.438787 21 1
1.9539465 6.0100665 -1.2284284 30 2
2.6378083 8.0990934 -1.3490911 2 3
19.204916 58.896706 7.6063538 3 11
1.9584609 5.9990177 -0.77484536 16 4
2.7751646 8.4856243 -0.78108978 27 5
3.5412967 10.80907 -0.59610659 28 6
3.5718937 10.876773 -0.19983006 14 7
1.7892882 5.3945074 -1.5228913 11 0
1.902408 5.7255173 -1.392897 21 1
1.9983401 6.0037293 -1.2299548 34 2
6.451283 19.359442 1.7852982 1 10
2.7006938 8.0950012 -1.351594 2 3
20.146107 60.350418 7.8120694 6 11
2.0002942 5.985199 -0.77484536 16 4
2.8431931 8.4924946 -0.78353012 27 5
3.6261787 10.806173 -0.59736264 18 6
3.6795933 10.946345 -0.20157529 14 7
1.8107575 5.3343225 -1.5094327 11 0
2.6091559 7.6775246 0.14153902 5 8
2.0006757 5.8836818 -1.4347378 14 1
2.0450506 6.0004258 -1.2322445 34 2
19.989056 58.616894 5.4182982 5 10
2.4878135 7.2870483 -1.2195632 3 3
20.681454 60.50901 7.8515549 7 11
2.0503833 5.9955053 -0.77801394 22 4
2.5595505 7.4715767 -0.69097072 9 5
3.6807766 10.720146 -0.59401315 9 6
2.554028 7.4258657 -0.13707121 20 7
1.8194362 5.2394285 -1.4861389 12 0
2.0551476 5.9082227 -1.4441857 16 1
2.0948877 6.0123224 -1.2375872 32 2
20.661591 59.232166 5.4883714 7 10
2.8159549 8.0681858 -1.3534712 2 3
20.961889 59.992035 7.8028069 6 11
2.0948091 5.9885402 -0.7789889 27 4
3.0056372 8.5779467 -0.79520899 11 5
3.7834311 10.779647 -0.59872341 18 6
3.8320756 10.893901 -0.20157529 14 7
1.8505347 5.2141781 -1.4825156 10 0
3.8823466 10.927032 0.20241301 13 8
2.0927052 5.8867521 -1.4423862 17 1
2.1381283 6.0012498 -1.2383504 30 2
2.8755326 8.0576324 -1.3550355 14 3
21.386909 59.862915 7.8052449 6 11
2.141537 5.9909663 -0.78118259 42 4
3.8381901 10.713764 -0.99566722 21 5
3.8970408 10.860126 -0.60468972 27 6
3.8926065 10.829929 -0.20087719 14 7
1.9020444 5.2429004 -1.4944212 13 0
2.1231027 5.8426943 -1.4351877 17 1
2.1853445 6.0009356 -1.2414035 30 2
22.596302 62.01548 5.774591 15 10
2.947288 8.0800419 -1.3622315 6 3
2.1887622 5.9907851 -0.78313243 31 4
3.0566049 8.3480549 -0.77777785 10 5
3.9301271 10.716396 -0.59820002 28 6
3.9529498 10.761195 -0.20010929 28 7
2.0091074 5.4196906 -1.5487732 11 0
4.0595756 10.939255 0.20366959 13 8
2.1787636 5.8679209 -1.4450855 17 1
2.2312963 5.9965715 -1.2436931 32 2
23.595907 63.379848 5.9168286 18 10
3.0063815 8.0666752 -1.363483 3 3
2.2333064 5.9827986 -0.78410745 33 4
4.0139265 10.730043 -1.0022911 14 5
4.0237718 10.739194 -0.60102618 18 6
4.0659261 10.834433 -0.20199415 14 7
2.0605748 5.4416666 -1.559126 11 0
2.2314217 5.8835435 -1.4527339 15 1
23.464376 61.802879 3.4645362 15 9
2.2772908 5.991859 -1.2459828 34 2
23.308428 61.295406 5.737288 14 10
3.0738683 8.0750284 -1.3684888 2 3
2.2778485 5.9744806 -0.7850824 33 4
4.1541634 10.872986 -1.0183277 14 5
4.1471853 10.820723 -0.20227338 14 7
2.0971212 5.4235449 -1.5580908 10 0
2.2689235 5.858736 -1.4504844 17 1
24.10174 62.170155 3.4944723 16 9
2.3105402 5.9538527 -1.2414035 20 2
23.686745 61.00489 5.7254348 13 10
2.3021832 5.9231133 -1.0064995 22 3
2.2806163 5.8585396 -0.77192044 31 4
2.2931042 5.8784761 -0.55204445 43 5
2.293072 5.8693156 -0.33023992 22 6
4.2226276 10.791506 -0.20227338 14 7
2.1299713 5.396193 -1.5544673 9 0
2.3226681 5.8753729 -1.4585826 23 1
2.3361428 5.8974214 -1.2330078 34 2
24.294119 61.297394 5.7686644 14 10
2.3383763 5.8940449 -1.0043093 42 3
2.3361185 5.8793716 -0.77679521 34 4
2.3296657 5.8512182 -0.55099863 50 5
2.3450882 5.8809915 -0.33181 22 6
4.3201132 10.817477 -0.20332053 14 7
2.1625364 5.3686481 -1.5508437 10 0
2.3767529 5.8915448 -1.4666809 17 1
6.1870689 15.321241 0.86595082 2 9
2.3846152 5.8991694 -1.236824 34 2
24.46596 60.494617 5.7090497 13 10
2.3816941 5.8830681 -1.005248 17 3
2.4218628 5.9732971 -0.79141963 34 4
4.3509593 10.709768 -1.0113552 14 5
4.3446326 10.67816 -0.60416633 18 6
2.2029014 5.3605676 -1.5529144 11 0
2.3918645 5.8117361 -1.4509343 23 1
2.4661605 5.9803863 -1.2574313 30 2
24.987999 60.565453 5.732059 13 10
3.3079419 8.0097866 -1.3725561 19 3
2.4650226 5.9599123 -0.79190701 31 4
4.4271474 10.682815 -1.0117038 14 5
4.4772649 10.787763 -0.6121214 18 6
4.5259895 10.889054 -0.20583369 14 7
2.2273929 5.3169408 -1.5446322 10 0
2.434381 5.8025093 -1.4527339 25 1
2.509851 5.9707022 -1.2589579 30 2
3.3639157 7.9907289 -1.3731819 17 3
2.5142825 5.9608493 -0.79434443 20 4
3.6717546 8.6922665 -0.82553917 11 5
4.5498085 10.755199 -0.61201674 9 6
4.5972171 10.846146 -0.20562425 22 7
2.2836032 5.3435001 -1.5570555 11 0
2.5049772 5.8530202 -1.4698302 14 1
2.5545669 5.9602528 -1.2604843 28 2
3.4475112 8.0281658 -1.3838195 12 3
2.5605414 5.954093 -0.79580688 26 4
3.5463617 8.2345638 -0.78440166 11 5
4.5965853 10.652681 -0.6080392 27 6
