# .PCD v0.7 - Point Cloud Data file format
VERSION 0.7
FIELDS x y z intensity ring
SIZE 4 4 4 4 2
TYPE F F F F U
COUNT 1 1 1 1 1
WIDTH 1334
HEIGHT 1
VIEWPOINT 0 0 0 1 0 0 0
POINTS 1334
DATA ascii
21.768723 12.096411 -1.3051542 10 6
5.7474475 3.1675315 -1.7584167 22 0
6.7161322 3.6968098 -1.769915 15 1
8.036046 4.4178591 -1.7825377 19 2
9.7277546 5.3412542 -1.7576978 10 3
10.508706 5.7605038 -1.4714506 5 4
18.05312 9.8715162 -1.0783302 19 6
5.7858586 3.1375427 -1.763593 9 0
6.7462821 3.6537895 -1.7712647 14 1
8.063242 4.3597784 -1.7817745 19 2
9.7665472 5.2741461 -1.7580107 10 3
10.283851 5.5465479 -1.434646 5 4
18.250008 9.8142967 -1.0859712 29 6
5.8110299 3.0988941 -1.7646283 9 0
6.7613044 3.6011095 -1.7685652 14 1
8.1004152 4.3070664 -1.783301 18 2
20.109238 10.68778 1.9923801 2 10
9.698452 5.1502457 -1.7392386 11 3
10.425792 5.5294948 -1.4490266 19 4
14.368174 7.6075568 -1.4223818 28 5
14.4832 7.6587543 -0.85862374 8 6
5.839366 3.0618386 -1.7666988 9 0
6.7931852 3.557435 -1.7703648 14 1
8.107667 4.2385893 -1.77834 12 2
20.110968 10.509288 1.9852335 8 10
9.8339806 5.1345248 -1.7570721 13 3
10.589112 5.5217409 -1.4663321 27 4
10.585954 5.5106983 -1.0441258 15 5
14.720611 7.6532707 -0.86950964 17 6
5.8709025 3.0263083 -1.7698047 9 0
6.8247857 3.5134909 -1.7721643 14 1
8.1737299 4.2007294 -1.7863539 19 2
16.797131 8.6288433 1.6521243 4 10
9.9803019 5.1225781 -1.7767829 19 3
10.735158 5.502923 -1.4812001 23 4
10.727039 5.4893022 -1.0542358 30 5
5.8815489 2.9800065 -1.7666988 9 0
6.8352399 3.4587171 -1.7685652 15 1
8.2063618 4.1453342 -1.7871171 19 2
20.129461 10.163719 1.9728574 1 10
10.133986 5.1123896 -1.7977451 14 3
10.915138 5.4992976 -1.5006992 23 4
10.917214 5.4931788 -1.0692266 31 5
10.97451 5.5124106 -0.64362764 8 6
5.8849154 2.9302649 -1.7615224 9 0
6.8627071 3.4126525 -1.769465 14 1
8.248455 4.096365 -1.79017 18 2
20.099979 9.9733486 1.9630958 3 10
10.200404 5.0590901 -1.8033768 12 3
11.10626 5.4987035 -1.5216608 23 4
11.121398 5.49895 -1.0854375 40 5
11.124603 5.493288 -0.650222 17 6
5.8925767 2.8841972 -1.757899 11 0
6.8997822 3.37271 -1.7730643 13 1
8.2697945 4.0352364 -1.7886436 18 2
20.090401 9.7987452 1.9556006 9 10
10.263886 5.0015998 -1.8083826 16 3
11.272903 5.4835591 -1.53921 25 4
11.263457 5.4716735 -1.0955477 41 5
11.232761 5.4494944 -0.65430421 52 6
5.9565949 2.8628786 -1.77084 9 0
6.9132004 3.3181872 -1.7703648 14 1
8.3101568 3.9833441 -1.791315 12 2
20.111486 9.6314955 1.9508941 1 10
10.367127 4.9604235 -1.8202716 11 3
11.282252 5.3910317 -1.5353101 25 4
11.297787 5.391191 -1.0951991 41 5
11.269667 5.3681164 -0.65419954 35 6
5.96246 2.8146265 -1.7666988 9 0
6.9432468 3.2731702 -1.7721643 14 1
8.3562126 3.9321349 -1.7951311 12 2
10.365748 4.8711233 -1.8140143 13 3
11.635896 5.4605618 -1.5782082 20 4
11.665298 5.4669094 -1.127098 27 5
11.654215 5.4517956 -0.67429656 35 6
5.9749551 2.7696793 -1.7646283 9 0
6.9623933 3.2229769 -1.7712647 14 1
8.3631821 3.8661034 -1.7909334 10 2
10.491927 4.8435068 -1.8302835 15 3
11.861231 5.4655995 -1.603557 15 4
11.862453 5.4586353 -1.1424375 27 5
11.861647 5.4507337 -0.68413568 35 6
6.000701 2.7321498 -1.7666988 9 0
6.9877162 3.1771269 -1.7721643 14 1
16.680542 7.5771599 0.96015555 2 9
8.4328737 3.827095 -1.8000921 9 2
10.525485 4.7701411 -1.8302835 16 3
12.03464 5.436377 -1.1553365 28 5
12.052341 5.4367766 -0.69292814 35 6
6.0412645 2.698595 -1.7729106 9 0
7.0209508 3.1318059 -1.7748638 13 1
8.4665585 3.7713287 -1.8016186 10 2
10.400508 4.6240792 -1.8027509 30 3
12.714732 5.6450148 -1.7081208 4 4
12.232585 5.4232888 -1.170676 29 5
12.257142 5.4239411 -0.70245332 26 6
6.0564184 2.6548018 -1.7718753 9 0
7.0390735 3.0811512 -1.7739639 13 1
8.5185156 3.7216504 -1.8069613 10 2
10.628077 4.6366711 -1.8365408 17 3
12.913144 5.6228337 -1.7293261 7 4
12.464757 5.4198284 -1.189153 40 5
12.476079 5.4169865 -0.71281582 35 6
6.093009 2.619024 -1.7770516 9 0
7.0681047 3.0337768 -1.7757636 14 1
8.5298548 3.6559024 -1.8039083 10 2
10.657352 4.5589457 -1.8359152 16 3
12.73302 5.4389787 -1.7000775 7 4
12.674556 5.4061608 -1.2055383 31 5
12.696452 5.4050207 -0.72317833 35 6
6.0960064 2.5725472 -1.7729106 9 0
7.0988445 2.9913726 -1.778463 14 1
8.5473022 3.594712 -1.8023818 9 2
10.709209 4.4973407 -1.8396695 16 3
12.867667 5.3958635 -1.7132393 13 4
12.904937 5.4035497 -1.2240152 32 5
12.931045 5.4038672 -0.73448288 26 6
6.1209579 2.5328808 -1.774981 9 0
7.1123509 2.9387636 -1.7766634 13 1
8.5715733 3.536449 -1.8023818 10 2
10.732267 4.4213314 -1.8384181 16 3
13.029869 5.3572288 -1.7298136 19 4
17.616484 7.2322345 -1.6660691 36 5
13.154176 5.392242 -0.74505478 35 6
6.1416368 2.4926112 -1.7760164 9 0
7.1358023 2.891747 -1.7775632 13 1
8.592412 3.475054 -1.8016186 9 2
10.744555 4.3389072 -1.8352894 17 3
13.154402 5.3040519 -1.7415131 12 4
17.969673 7.2310524 -1.6946561 37 5
13.373119 5.373251 -0.75531262 35 6
6.1588888 2.4496737 -1.7760164 7 0
7.1558166 2.8418593 -1.7775632 12 1
8.6456652 3.4265523 -1.8077245 7 2
10.800301 4.2739611 -1.8396695 16 3
13.353579 5.2762752 -1.7629621 16 4
13.627737 5.3653698 -0.76755917 35 6
6.1704397 2.4045155 -1.7744634 6 0
7.1791129 2.7932496 -1.778463 13 1
8.6400957 3.3547413 -1.8016186 9 2
10.675163 4.1384788 -1.8133886 16 3
13.408601 5.1900868 -1.7653995 14 4
13.702211 5.2954879 -1.2851986 59 5
13.694681 5.2815924 -0.769234 35 6
6.1960998 2.3648233 -1.7770516 5 0
7.1984382 2.743062 -1.778463 14 1
29.025463 11.054743 1.627753 8 9
8.6700687 3.2986493 -1.8031452 9 2
10.717856 4.0713358 -1.8158915 16 3
13.581864 5.1484251 -1.7834362 11 4
14.130133 5.3393397 -0.79163373 26 6
6.2229109 2.3266523 -1.7801574 5 0
7.2132921 2.692637 -1.7775632 14 1
8.7186441 3.2476301 -1.8084878 7 2
10.740465 3.9943411 -1.8149529 20 3
13.665864 5.0714369 -1.7897733 15 4
18.884552 6.9968586 -1.7619405 38 5
14.401215 5.3271775 -0.80471772 35 6
6.2140002 2.2727723 -1.7729106 5 0
7.2470193 2.6462984 -1.7811624 14 1
8.707902 3.1745837 -1.8016186 9 2
10.919137 3.972086 -1.8402953 16 3
13.887522 5.0436721 -1.8141472 14 4
14.656828 5.3028107 -0.81685966 35 6
6.2479043 2.2358441 -1.7780869 5 0
7.2579765 2.5930176 -1.7793628 12 1
8.7414932 3.1161413 -1.8039083 7 2
10.968936 3.903702 -1.8440496 13 3
13.963549 4.9612103 -1.8195094 13 4
14.955203 5.2929826 -0.8314091 26 6
6.2633615 2.1921709 -1.7780869 5 0
7.2869406 2.5461411 -1.7820623 14 1
8.755085 3.0539851 -1.8023818 9 2
11.06614 3.8536391 -1.8559387 14 3
14.095348 4.8974915 -1.8321838 16 4
15.232459 5.2747159 -0.84480709 26 6
6.2598615 2.1432292 -1.7729106 5 0
7.3114791 2.4990022 -1.7838619 13 1
8.8059216 3.0029314 -1.8084878 10 2
11.115212 3.7839339 -1.8596932 9 3
14.229851 4.8359323 -1.8453459 18 4
15.552689 5.2642975 -0.86050791 26 6
6.261847 2.0951838 -1.7692871 6 0
7.3213534 2.4454284 -1.7820623 11 1
8.8303986 2.9426184 -1.809251 7 2
11.139485 3.7056136 -1.8593802 9 3
14.402678 4.7827597 -1.8633825 18 4
15.869704 5.248405 -0.87599933 26 6
6.2891746 2.0556211 -1.7729106 5 0
7.3382463 2.3942595 -1.7820623 14 1
8.861927 2.8845448 -1.8115407 9 2
11.183871 3.6338592 -1.8625089 9 3
14.624542 4.7433376 -1.8877563 15 4
15.926148 5.1562872 -1.464565 45 5
15.940168 5.1485353 -0.87788337 26 6
6.2849679 2.0057909 -1.7677342 5 0
7.3584967 2.3441536 -1.7829621 14 1
8.8813553 2.8241611 -1.8115407 9 2
11.212111 3.5588498 -1.8631347 9 3
14.736785 4.6662917 -1.8979933 16 4
24.058455 7.5902181 -1.322111 10 6
6.302165 1.9641105 -1.7687694 5 0
7.3780046 2.2951658 -1.7838619 14 1
8.8933554 2.7597611 -1.8100141 9 2
11.238571 3.4810722 -1.8634475 8 3
15.045098 4.6514792 -1.9335792 14 4
23.832161 7.3362947 -1.306829 10 6
6.3231158 1.9223161 -1.77084 4 0
7.3863883 2.2413416 -1.7820623 11 1
8.9311972 2.70329 -1.8138304 9 2
11.268273 3.4042356 -1.8643861 9 3
15.176035 4.5761318 -1.9462537 15 4
17.209755 5.1762791 -1.5722896 33 5
23.898102 7.1743302 -1.3076664 21 6
6.3549042 1.8836156 -1.7760164 4 0
7.398118 2.1886148 -1.7811624 13 1
8.9573832 2.6430995 -1.815357 10 2
11.287973 3.3243744 -1.8637605 9 3
15.272363 4.4891124 -1.9545406 16 4
17.604916 5.1613779 -1.6050601 34 5
24.553343 7.1845474 -1.3407427 11 6
6.3827467 1.8434956 -1.7801574 4 0
7.4094725 2.1358333 -1.7802627 14 1
28.983517 8.34375 1.5806507 8 9
8.9831638 2.5826705 -1.8168833 10 2
11.303311 3.2433093 -1.8625089 9 3
15.387301 4.4064283 -1.9652653 16 4
18.023674 5.1477895 -1.6399224 35 5
24.948633 7.1115198 -1.3595836 11 6
6.4140577 1.8041215 -1.7853339 4 0
7.4204502 2.0829999 -1.7793628 12 1
9.0047569 2.5209517 -1.8176465 9 2
11.331387 3.1659131 -1.8634475 8 3
15.323992 4.2727718 -1.9533219 23 4
18.170507 5.052794 -1.6500325 36 5
18.154058 5.0379815 -0.98737025 28 6
6.4060016 1.7536849 -1.7796398 6 0
7.4385715 2.032172 -1.7802627 12 1
9.0183477 2.4569974 -1.8168833 9 2
11.370366 3.0913975 -1.8662634 9 3
15.516294 4.2098689 -1.9740397 18 4
18.905397 5.115232 -1.7134819 38 5
26.58806 7.1789918 -1.4433211 11 6
6.4012871 1.7044462 -1.774981 4 0
7.441277 1.9771887 -1.7775632 13 1
9.0428734 2.3959849 -1.8184099 10 2
11.380215 3.0089068 -1.8643861 9 3
15.332253 4.0452309 -1.9469848 10 4
26.927299 7.069284 -1.4590219 23 6
6.4429526 1.6674627 -1.7832633 4 0
7.4586711 1.9261687 -1.778463 12 1
9.0593805 2.3327951 -1.8184099 7 2
11.374158 2.9225025 -1.860006 9 3
15.479339 3.9686587 -1.9620966 18 4
27.107599 6.9146795 -1.4661397 11 6
6.4394493 1.6186742 -1.7791222 4 0
7.490839 1.8787913 -1.7829621 13 1
9.0868711 2.2723539 -1.8206996 9 2
11.392366 2.8425519 -1.8596932 8 3
15.458509 3.8485143 -1.9560032 21 4
28.306791 7.0104647 -1.5283147 11 6
6.4993892 1.5855833 -1.7925807 4 0
7.5189214 1.8301331 -1.7865613 15 1
9.0643568 2.1996007 -1.8130672 9 2
11.410013 2.7624841 -1.8593802 9 3
15.481141 3.7395678 -1.9555157 17 4
20.559471 4.9510827 -1.850142 36 5
20.486086 4.9220638 -1.1041842 29 6
6.50278 1.5383914 -1.7905102 4 0
7.5428939 1.7802858 -1.7892607 14 1
9.09478 2.139863 -1.8161201 7 2
11.444406 2.6863713 -1.8618832 9 3
15.537798 3.6386323 -1.9594156 17 4
6.5208941 1.4946824 -1.7925807 4 0
7.5665369 1.7301896 -1.7919601 12 1
9.101841 2.0745721 -1.8145936 9 2
11.501406 2.6151686 -1.8681406 9 3
15.605411 3.5397377 -1.9647778 15 4
29.900845 6.7439389 -1.6064 11 6
6.5575738 1.45498 -1.7998277 3 0
7.5860424 1.6790074 -1.7937597 13 1
9.1410246 2.0164766 -1.8195547 6 2
11.534816 2.5382059 -1.8706435 9 3
15.678214 3.4413445 -1.9708712 11 4
31.317041 6.8339367 -1.6798798 9 6
6.5562377 1.4067354 -1.7967219 4 0
7.5899563 1.6243783 -1.7919601 11 1
9.179841 1.957935 -1.8245157 9 2
11.550323 2.4572048 -1.8703307 8 3
15.723217 3.3363385 -1.9735522 11 4
22.782812 4.8052483 -1.2202653 20 6
6.5507655 1.3577933 -1.7925807 3 0
7.6163788 1.5745033 -1.7955593 13 1
9.2048225 1.896181 -1.8268054 7 2
11.571065 2.3773091 -1.8709565 8 3
15.748071 3.2268949 -1.9737961 10 4
23.894161 4.8656678 -1.2779396 10 6
6.4975724 1.2995214 -1.7754986 2 0
7.646297 1.5251045 -1.8000585 13 1
9.209815 1.8319452 -1.8252789 10 2
11.579228 2.2969489 -1.869705 8 3
15.723477 3.1076286 -1.9679463 10 4
24.495056 4.8146205 -1.3082944 21 6
6.5081639 1.2556328 -1.7760164 3 0
7.6832914 1.4781802 -1.806357 14 1
9.218523 1.7668692 -1.8245157 9 2
11.591102 2.2153187 -1.8690792 8 3
15.696039 2.9885004 -1.9618529 12 4
25.01671 4.736001 -1.3343576 43 6
6.5055861 1.206915 -1.7729106 3 0
7.7396612 1.4316691 -1.8171545 13 1
9.2344942 1.7031808 -1.8252789 7 2
11.548372 2.1216044 -1.8596932 11 3
15.743856 2.8838558 -1.9652653 8 4
26.010851 4.7316608 -1.3855423 22 6
6.5385776 1.1658765 -1.7796398 2 0
7.7417932 1.3762369 -1.8153551 13 1
9.2851095 1.6439022 -1.8329114 7 2
11.636823 2.053983 -1.8715822 9 3
15.746009 2.7707841 -1.9630717 10 4
26.853846 4.6915727 -1.4286671 22 6
6.5103774 1.1140126 -1.7698047 3 0
7.6321115 1.3018363 -1.7874612 5 1
9.2612467 1.574734 -1.8260422 9 2
11.673907 1.9786819 -1.8753366 7 3
15.784541 2.6640918 -1.9655088 10 4
27.348045 4.5863156 -1.453265 23 6
6.5273418 1.0712332 -1.772393 2 0
7.6177168 1.2460843 -1.7820623 7 1
9.3107681 1.5163559 -1.8336746 7 2
11.667936 1.8939749 -1.8722079 9 3
15.790554 2.5546861 -1.9640466 10 4
30.063307 4.826118 -1.5957235 11 6
6.5251184 1.024143 -1.7698047 3 0
7.6185293 1.1916713 -1.7802627 6 1
9.3599262 1.4573585 -1.8413069 7 2
11.700396 1.8155001 -1.8753366 7 3
15.809964 2.4446883 -1.9642901 8 4
29.567184 4.5349836 -1.5676713 36 6
6.5473933 0.98085374 -1.7739457 3 0
7.6150985 1.1367286 -1.7775632 7 1
9.3854065 1.3942862 -1.8443599 7 2
11.708876 1.733193 -1.8747108 7 3
15.858069 2.3388886 -1.9681902 8 4
33.30555 4.8706326 -1.7640359 7 6
6.5617323 0.93620884 -1.7760164 3 0
7.6189899 1.0829854 -1.7766634 7 1
9.4005117 1.3311952 -1.8455048 6 2
11.720402 1.653453 -1.8747108 7 3
15.875974 2.2284048 -1.9684337 10 4
31.862223 4.4382567 -1.6859506 18 6
6.5526371 0.88944709 -1.7718753 3 0
7.6261854 1.031103 -1.7766634 7 1
9.3784437 1.2613477 -1.8393987 4 2
11.737534 1.5723759 -1.8756495 7 3
15.908484 2.1226442 -1.9706273 8 4
36.624718 4.8412461 -1.9361167 3 6
6.5663514 0.84466529 -1.7739457 3 0
7.6293321 0.97734189 -1.7757636 7 1
9.2721176 1.1812097 -1.8168833 4 2
11.779579 1.4943773 -1.8806553 8 3
15.895345 2.0080545 -1.9672151 8 4
34.138741 4.2703567 -1.8030787 13 6
28.103081 3.4904759 7.588057 4 15
6.5529113 0.79646885 -1.7687694 3 0
7.6475768 0.92545635 -1.778463 7 1
9.2898846 1.1176218 -1.8187915 4 2
11.846604 1.4189167 -1.8897287 9 3
15.901092 1.8960952 -1.9662402 8 4
6.5141678 0.74565166 -1.7568637 12 0
7.6499786 0.87160605 -1.7775632 7 1
9.2777681 1.0521492 -1.8149751 4 2
11.91095 1.3444501 -1.8984889 9 3
15.913941 1.7850307 -1.9662402 8 4
37.49947 4.1664739 -1.9773573 2 6
6.5171714 0.70108712 -1.7563461 14 0
7.6363578 0.81743979 -1.7730643 7 1
9.2497482 0.98361576 -1.8081062 4 2
11.969156 1.2664597 -1.9063107 8 3
15.92967 1.6770897 -1.9667276 8 4
6.5507393 0.65847296 -1.7641107 12 0
7.6535125 0.76527506 -1.7757636 7 1
9.28374 0.92173183 -1.8134488 4 2
12.026851 1.1877217 -1.9141324 9 3
15.960747 1.5677793 -1.9691651 8 4
41.012981 3.978009 -2.1594863 1 6
6.5590234 0.6130805 -1.7651459 2 0
7.66255 0.71218181 -1.7766634 7 1
9.2743101 0.85545862 -1.810396 4 2
11.737814 1.0764937 -1.8668892 4 3
15.991072 1.4581244 -1.9716024 8 4
6.5766168 0.56843942 -1.7687694 3 0
9.2681808 0.79130387 -1.8081062 4 2
11.754711 0.99740124 -1.8684534 4 3
15.992949 1.3457766 -1.9706273 8 4
6.5841851 0.52397025 -1.7698047 3 0
7.6327872 0.60339665 -1.7676654 25 1
9.2656498 0.72597146 -1.8065797 4 2
11.747601 0.91424626 -1.8662634 5 3
16.063093 1.2416348 -1.9781833 10 4
6.6030974 0.47910649 -1.7739457 3 0
7.667913 0.55233157 -1.7748638 7 1
9.2703772 0.66288084 -1.8065797 4 2
11.712174 0.83131897 -1.8596932 5 3
16.095133 1.1311331 -1.9811082 10 4
6.6100607 0.43440595 -1.774981 3 0
7.675384 0.50038207 -1.7757636 7 1
9.2453909 0.59625441 -1.8008554 28 2
11.72952 0.75029457 -1.8615704 4 3
16.187647 1.0269549 -1.991589 8 4
6.593647 0.38711619 -1.7698047 3 0
7.6786904 0.44678557 -1.7757636 6 1
9.2336483 0.53079355 -1.7978026 25 2
11.698972 0.66636664 -1.8559387 4 3
16.32523 0.92130083 -2.0076756 8 4
6.6000471 0.34127709 -1.77084 3 0
7.7010841 0.39416713 -1.7802627 6 1
54.823879 2.7868564 2.8769078 0 9
9.2645798 0.46770337 -1.8031452 4 2
54.972233 2.7655425 4.8155289 0 10
11.673746 0.58319783 -1.8512456 4 3
15.984297 0.79015511 -1.9650215 6 4
6.5733199 0.29389432 -1.7630754 2 0
7.7017012 0.34030411 -1.7798127 5 1
9.2754641 0.40335858 -1.8046715 4 2
11.634115 0.49982575 -1.8443626 9 3
15.923974 0.67577451 -1.9569781 7 4
6.6080294 0.2492345 -1.7718753 3 0
7.6727319 0.28536898 -1.7726144 4 1
9.280015 0.33866099 -1.8050531 4 2
11.641269 0.41872856 -1.8449883 24 3
15.914417 0.56408793 -1.9552718 5 4
6.6076775 0.20303951 -1.7713577 2 0
7.6823282 0.23203523 -1.7744139 5 1
9.2801914 0.27380812 -1.8046715 4 2
11.687348 0.3387059 -1.8518714 4 3
15.842564 0.45082489 -1.9460098 5 4
6.6050715 0.15681256 -1.7703223 2 0
7.6896052 0.17853251 -1.7757636 3 1
9.2367344 0.20800135 -1.7958944 3 2
11.661779 0.256502 -1.8474913 3 3
15.841355 0.34012672 -1.9455223 4 4
6.598279 0.11056719 -1.7682518 2 0
7.6848192 0.1247497 -1.7744139 4 1
9.2713318 0.14403012 -1.8023818 4 2
11.675138 0.1752591 -1.8493685 3 3
15.750055 0.22818094 -1.9340667 19 4
6.5911632 0.064424299 -1.7661812 2 0
7.6835532 0.071074814 -1.7739639 3 1
9.2780008 0.079350889 -1.8035268 3 2
11.644471 0.093493253 -1.8443626 3 3
15.838606 0.1188748 -1.9447912 3 4
6.6262255 0.018504845 -1.7754986 2 0
7.6565804 0.017373525 -1.7676654 3 1
9.2469168 0.014522542 -1.7974207 3 2
11.660643 0.012208225 -1.8468655 3 3
15.803319 0.0082713375 -1.9404038 3 4
6.6068749 -0.027674973 -1.7703223 2 0
7.6798997 -0.036190942 -1.7730643 3 1
9.2526827 -0.050062321 -1.7985657 4 2
11.613036 -0.068913952 -1.8393567 3 3
15.75932 -0.10177067 -1.9350417 3 4
6.6258378 -0.074014395 -1.7754986 2 0
7.6619225 -0.089600347 -1.7690151 3 1
9.2305136 -0.11438887 -1.7943679 3 2
11.635974 -0.15029204 -1.843111 3 3
15.750286 -0.2116814 -1.9340667 3 4
6.5768714 -0.11939269 -1.7625577 2 0
7.6961823 -0.14374307 -1.7771133 3 1
9.2530451 -0.1792831 -1.7989473 3 2
11.618842 -0.23120774 -1.8406081 2 3
15.730562 -0.32126829 -1.9318731 2 4
6.5951905 -0.16579011 -1.7677342 1 0
7.6910944 -0.19736864 -1.7762135 2 1
9.2201672 -0.24304889 -1.7928416 3 2
11.597198 -0.31178537 -1.8374794 2 3
15.721983 -0.43091643 -1.9311417 3 4
6.5745635 -0.21120851 -1.7625577 2 0
7.6700521 -0.25042146 -1.7717146 2 1
9.2614126 -0.30885088 -1.801237 3 2
11.578944 -0.39220583 -1.8349764 2 3
15.692801 -0.53977805 -1.9279732 2 4
6.5922327 -0.2578572 -1.7677342 1 0
7.6914835 -0.30488822 -1.7771133 2 1
9.1884108 -0.37065095 -1.7874987 3 2
11.579871 -0.47319326 -1.8356022 2 3
15.648982 -0.64767867 -1.9230984 2 4
6.5825524 -0.30351704 -1.7656636 1 0
7.6697016 -0.35766923 -1.7726144 2 1
9.2601194 -0.43831596 -1.8020002 3 2
11.588124 -0.5545904 -1.8374794 2 3
15.65994 -0.75767994 -1.9250482 2 4
6.5841312 -0.3496691 -1.7666988 1 0
7.6436658 -0.40995231 -1.7672155 2 1
9.2450724 -0.50231349 -1.7997105 3 2
11.572136 -0.63482738 -1.8356022 2 3
15.624538 -0.86534095 -1.9213922 2 4
6.5699592 -0.39493057 -1.763593 1 0
7.66785 -0.46495607 -1.7735142 3 1
9.2217445 -0.56564158 -1.7958944 3 2
11.53982 -0.71389234 -1.8312221 2 3
15.630004 -0.97514051 -1.9228547 3 4
6.5554776 -0.44001129 -1.7604873 2 0
7.6430302 -0.51702911 -1.7685652 3 1
9.2293234 -0.63081038 -1.7981842 3 2
11.550321 -0.79552335 -1.833725 2 3
15.618855 -1.083959 -1.9223672 3 4
6.5888505 -0.48847979 -1.7703223 2 0
7.6567245 -0.57168043 -1.7726144 3 1
9.1933699 -0.69286662 -1.7920781 3 2
11.552363 -0.87673759 -1.8349764 3 3
15.595072 -1.1917617 -1.9204172 3 4
6.5891304 -0.53477895 -1.7713577 2 0
7.6467195 -0.6246441 -1.7712647 3 1
9.2020054 -0.75815946 -1.7947495 4 2
11.540056 -0.9568767 -1.8340379 4 3
15.536918 -1.2964793 -1.9143238 2 4
6.5794635 -0.58025724 -1.7698047 3 0
7.6363497 -0.67749602 -1.769915 5 1
9.2023554 -0.82290721 -1.7958944 3 2
11.5449 -1.0384793 -1.8359152 4 3
15.553189 -1.4072405 -1.9174925 3 4
88.620247 -8.1742525 -1.5534387 46 7
6.5829444 -0.6269086 -1.7718753 3 0
7.6217337 -0.72986192 -1.7676654 3 1
9.1963863 -0.88713121 -1.7958944 3 2
11.513774 -1.1167637 -1.8321607 4 3
15.539033 -1.5154015 -1.9170049 3 4
88.638634 -8.8004417 -1.5548 24 7
6.5516191 -0.66895521 -1.7646283 3 0
7.6088352 -0.78092825 -1.7658658 6 1
9.1862278 -0.94930434 -1.7951311 3 2
11.521625 -1.1967415 -1.8346636 4 3
15.536257 -1.621961 -1.91798 3 4
6.531426 -0.71300036 -1.7604873 4 0
7.6109462 -0.83487844 -1.7676654 7 1
9.1832809 -1.0138435 -1.7958944 3 2
11.489429 -1.2745342 -1.8309091 5 3
15.508772 -1.7286249 -1.91603 3 4
6.5339651 -0.75947267 -1.7625577 3 0
7.5971899 -0.88708806 -1.7658658 6 1
9.1681795 -1.0770135 -1.7943679 3 2
11.492021 -1.3561029 -1.8327864 4 3
15.508154 -1.8382554 -1.9174925 3 4
6.5169992 -0.8036508 -1.759452 4 0
7.5908117 -0.94010442 -1.7658658 6 1
9.1606359 -1.1393938 -1.7943679 3 2
11.498205 -1.4362533 -1.8352894 4 3
15.463428 -1.9425182 -1.9135926 3 4
6.5113778 -0.8479917 -1.759452 4 0
7.5958304 -0.9932673 -1.7685652 7 1
9.1719236 -1.2058781 -1.7981842 3 2
11.466357 -1.5136466 -1.8318479 4 3
15.469526 -2.0503371 -1.91603 3 4
6.5052996 -0.89342868 -1.759452 4 0
7.5655456 -1.0430777 -1.7631663 6 1
9.1516132 -1.2682632 -1.7958944 3 2
11.467249 -1.5952922 -1.833725 4 3
15.484326 -2.1624022 -1.9196861 2 4
6.502728 -0.93937457 -1.7604873 4 0
7.5735078 -1.0981064 -1.7667656 7 1
9.1347647 -1.33099 -1.7943679 3 2
11.430423 -1.6715932 -1.8296577 4 3
15.464925 -2.2698729 -1.9191986 2 4
6.5303917 -0.98996073 -1.7698047 4 0
7.5618038 -1.1503661 -1.7658658 6 1
9.1371384 -1.3949145 -1.7966576 3 2
11.428542 -1.750854 -1.8312221 4 3
15.456549 -2.3789904 -1.9201735 2 4
6.4853415 -1.0283376 -1.759452 3 0
7.5614963 -1.2030352 -1.7676654 6 1
9.0884037 -1.4524728 -1.7890252 3 2
11.41604 -1.830597 -1.8312221 4 3
15.449797 -2.4857204 -1.9213922 2 4
6.4780045 -1.0735883 -1.759452 4 0
7.5509915 -1.2554752 -1.7672155 5 1
9.0935335 -1.5184727 -1.7920781 3 2
11.391294 -1.9082928 -1.8293447 4 3
15.44577 -2.5958221 -1.9230984 2 4
6.4970026 -1.1233948 -1.7666988 3 0
7.5266819 -1.3054957 -1.7636162 5 1
9.0672388 -1.5792251 -1.7890252 3 2
11.385477 -1.9891317 -1.8305963 4 3
15.423362 -2.7029045 -1.922611 2 4
6.4699888 -1.1653005 -1.7615224 3 0
7.5212202 -1.3587025 -1.7645161 4 1
9.0637197 -1.643889 -1.7905518 3 2
11.363539 -2.0671539 -1.8293447 4 3
15.409974 -2.8115819 -1.9233421 2 4
6.4541001 -1.2090179 -1.759452 3 0
7.5268736 -1.4140555 -1.7681153 4 1
9.0848188 -1.7133101 -1.7970392 4 2
11.368241 -2.1501067 -1.8324735 2 3
15.405572 -2.9220536 -1.925292 2 4
6.4568806 -1.25626 -1.7625577 3 0
7.5282936 -1.4688072 -1.7708147 5 1
9.032486 -1.7671922 -1.7890252 3 2
11.353342 -2.227437 -1.8324735 2 3
15.336106 -3.0199444 -1.9191986 2 4
6.4709044 -1.3047632 -1.7687694 3 0
7.5181217 -1.5200161 -1.7708147 3 1
9.0276251 -1.8317689 -1.7905518 3 2
11.337515 -2.3066435 -1.8324735 1 3
15.34826 -3.1310086 -1.9233421 3 4
6.4521828 -1.3479313 -1.7661812 2 0
7.4787169 -1.5664725 -1.7640662 3 1
9.0264759 -1.8955961 -1.7928416 3 2
11.313819 -2.3821335 -1.8312221 2 3
15.294952 -3.2315168 -1.9194423 3 4
6.4371934 -1.3905946 -1.7646283 3 0
7.4850225 -1.6210541 -1.7681153 2 1
9.0322065 -1.9627349 -1.7966576 3 2
11.312354 -2.4644239 -1.833725 3 3
15.274541 -3.3359742 -1.9196861 4 4
6.4442973 -1.4392902 -1.7692871 2 0
7.5077529 -1.6809334 -1.7762135 1 1
8.9569874 -2.0119746 -1.7844458 3 2
11.260186 -2.5355275 -1.8280934 4 3
15.279924 -3.4490848 -1.9233421 3 4
6.4284453 -1.4829416 -1.7677342 2 0
7.4806461 -1.7297937 -1.7726144 2 1
8.9886227 -2.085104 -1.7936047 3 2
11.2653 -2.6194448 -1.8318479 4 3
15.274807 -3.5601802 -1.9257796 3 4
6.4029002 -1.5242051 -1.763593 1 0
7.4949245 -1.7883078 -1.7789129 2 1
8.9585714 -2.1441493 -1.7905518 3 2
11.240974 -2.6966443 -1.8309091 4 3
15.276601 -3.6732275 -1.9291918 3 4
6.4033608 -1.5716313 -1.7666988 1 0
7.4595494 -1.8350022 -1.7735142 2 1
8.9853191 -2.2169857 -1.7989473 3 2
11.173934 -2.7631993 -1.8230875 3 3
15.246732 -3.7788332 -1.9287045 3 4
55.250904 -13.765355 -2.9840918 0 6
6.4109616 -1.6210321 -1.7718753 2 0
7.450335 -1.8879919 -1.7744139 2 1
8.9429836 -2.2728901 -1.7936047 3 2
11.142885 -2.8382149 -1.8212101 4 3
15.235367 -3.8891101 -1.9306543 3 4
6.3845325 -1.6618562 -1.7677342 1 0
7.4369731 -1.9399587 -1.7744139 2 1
8.9117031 -2.3312931 -1.7905518 3 2
11.147641 -2.9224494 -1.8252774 4 3
15.240482 -4.003952 -1.9347978 2 4
6.3578458 -1.7023903 -1.763593 2 0
7.4232488 -1.9918308 -1.7744139 2 1
8.9217529 -2.4005928 -1.7958944 3 2
11.138411 -3.003288 -1.8271548 4 3
15.204494 -4.108182 -1.933823 2 4
6.3458061 -1.7467346 -1.763593 2 0
7.412919 -2.0446424 -1.7753137 2 1
8.8972063 -2.460726 -1.7943679 3 2
11.101943 -3.0767546 -1.8246518 13 3
15.236649 -4.231225 -1.9416226 2 4
6.3446107 -1.7941481 -1.7666988 2 0
7.3909645 -2.094219 -1.7735142 2 1
8.9255781 -2.5340986 -1.8035268 3 2
11.086444 -3.1538732 -1.8255905 9 3
15.218193 -4.3407602 -1.9430851 2 4
6.3433833 -1.8405224 -1.7698047 2 0
7.3690534 -2.1423025 -1.7717146 3 1
8.9114389 -2.5974476 -1.8042899 3 2
11.115353 -3.246145 -1.8340379 4 3
15.192104 -4.4453607 -1.9435725 2 4
6.332231 -1.8853136 -1.7703223 2 0
7.35952 -2.1953666 -1.7730643 3 1
8.8535881 -2.6477845 -1.796276 4 2
11.099988 -3.3259332 -1.8352894 4 3
15.175909 -4.5558782 -1.9455223 2 4
24.645672 -7.4175062 -2.2517557 26 5
6.3096776 -1.9266536 -1.7677342 2 0
7.360786 -2.2518229 -1.7771133 4 1
8.8236265 -2.7060754 -1.7939863 4 2
11.085939 -3.4062445 -1.8368537 4 3
15.143734 -4.6617141 -1.9455223 2 4
35.554459 -10.992345 -1.950352 3 6
6.2997603 -1.9718102 -1.7687694 2 0
7.3262911 -2.2973249 -1.7726144 4 1
8.8288679 -2.7752631 -1.7989473 3 2
11.060005 -3.4829621 -1.8365408 4 3
15.13543 -4.7750874 -1.948691 3 4
35.43877 -11.228227 -1.9482585 3 6
6.3134346 -2.0245912 -1.776534 2 0
7.31564 -2.3502035 -1.7739639 3 1
8.8242264 -2.8416462 -1.8020002 4 2
11.07114 -3.5716133 -1.8424854 3 3
15.113059 -4.8842978 -1.9501534 3 4
34.291874 -11.128874 -1.8894329 4 6
6.2881341 -2.0650012 -1.7734282 2 0
7.297204 -2.4006097 -1.7735142 5 1
8.7990866 -2.899801 -1.8008554 4 2
11.057827 -3.650605 -1.8443626 3 3
15.095554 -4.9952998 -1.952347 5 4
33.69976 -11.190823 -1.8609622 5 6
6.2684383 -2.1059093 -1.7718753 3 0
7.2843881 -2.4514678 -1.7744139 4 1
8.7637463 -2.9561388 -1.7978026 15 2
11.039557 -3.7302425 -1.845614 3 3
15.081884 -5.1049361 -1.9550281 3 4
32.992985 -11.212455 -1.826211 6 6
6.2462759 -2.1471076 -1.7698047 3 0
7.270781 -2.5035307 -1.7753137 4 1
8.750844 -3.0182834 -1.7993289 13 2
11.036316 -3.8130403 -1.8493685 3 3
15.049631 -5.2114019 -1.9555157 3 4
32.94986 -11.448569 -1.8280951 6 6
6.2388067 -2.192136 -1.7718753 3 0
7.2737927 -2.5600796 -1.7802627 6 1
8.7240067 -3.077343 -1.7981842 3 2
11.001977 -3.8873622 -1.8481169 3 3
15.036266 -5.3216681 -1.9584407 3 4
32.274422 -11.46702 -1.7950188 6 6
6.2378964 -2.2408626 -1.7760164 3 0
7.2410736 -2.6055191 -1.7766634 6 1
8.6967688 -3.136174 -1.7970392 4 2
10.963423 -3.9600492 -1.8462398 3 3
15.013681 -5.4319124 -1.9603903 3 4
32.381306 -11.760236 -1.805486 6 6
6.2112193 -2.2803619 -1.7729106 3 0
7.2227068 -2.6560073 -1.7766634 7 1
8.6820316 -3.1995275 -1.7985657 4 2
10.96516 -4.0474358 -1.8512456 3 3
15.04801 -5.5634418 -1.9698963 2 4
32.73283 -12.147224 -1.8297698 6 6
6.2078094 -2.3284173 -1.776534 2 0
7.2076373 -2.707737 -1.7775632 6 1
8.6558084 -3.2586777 -1.7978026 4 2
10.962513 -4.1336451 -1.8556259 3 3
15.097939 -5.702024 -1.9815956 2 4
32.083221 -12.161649 -1.798159 6 6
6.189599 -2.3710077 -1.7760164 3 0
7.2031136 -2.7635736 -1.7811624 7 1
8.6420097 -3.3225496 -1.7997105 3 2
10.940763 -4.2129154 -1.8568773 3 3
15.055913 -5.8065748 -1.981352 2 4
32.194973 -12.461756 -1.8092543 6 6
6.1692972 -2.4127541 -1.774981 3 0
7.1691289 -2.8081074 -1.7775632 6 1
8.6265049 -3.3841643 -1.801237 3 2
10.911833 -4.2872887 -1.8568773 3 3
15.153541 -5.9660835 -1.9996324 2 4
29.007133 -11.455465 -1.6344521 10 6
6.1599083 -2.4575541 -1.7770516 3 0
7.1498485 -2.8568406 -1.7775632 7 1
8.5953789 -3.4413869 -1.7997105 3 2
10.896303 -4.3692441 -1.8593802 3 3
15.169686 -6.0920243 -2.0071883 3 4
28.989437 -11.683076 -1.638011 10 6
6.1354446 -2.4975848 -1.774981 4 0
7.1116843 -2.8993294 -1.7730643 7 1
8.5566044 -3.4953699 -1.7966576 3 2
10.847252 -4.4377279 -1.8562515 4 3
15.174546 -6.2173476 -2.0135255 3 4
28.84067 -11.857833 -1.6342428 10 6
6.1178589 -2.5403571 -1.774981 3 0
7.0840731 -2.945914 -1.7712647 7 1
8.5609894 -3.5671022 -1.8027636 3 2
10.856114 -4.5300837 -1.8631347 3 3
15.174729 -6.3415036 -2.0193753 3 4
27.147385 -11.383842 -1.5427594 11 6
6.1035328 -2.5845122 -1.7760164 3 0
7.0848632 -3.0044277 -1.7766634 7 1
8.5214224 -3.62064 -1.7997105 3 2
10.824224 -4.6057625 -1.8631347 3 3
15.221396 -6.4861965 -2.0315621 3 4
25.638502 -10.962202 -1.4613247 11 6
6.0782461 -2.623997 -1.7739457 4 0
7.0780263 -3.0600023 -1.7802627 7 1
8.5355721 -3.6972096 -1.8081062 3 2
10.804491 -4.6867194 -1.8653249 4 3
15.210338 -6.6073308 -2.0361931 5 4
24.931515 -10.86641 -1.4253175 11 6
6.0420966 -2.6585863 -1.7687694 4 0
7.0564909 -3.1093411 -1.7802627 7 1
8.5209846 -3.7599788 -1.810396 3 2
10.748851 -4.7497749 -1.8612576 4 3
15.27638 -6.7631807 -2.0513051 5 4
24.656174 -10.946712 -1.4138037 11 6
6.0520668 -2.7122924 -1.7770516 4 0
7.049386 -3.1636841 -1.7838619 7 1
8.4694586 -3.8081024 -1.8050531 3 2
10.726237 -4.8295655 -1.8631347 4 3
24.630102 -11.141625 -1.4167345 22 6
6.0400143 -2.7576869 -1.7791222 4 0
7.0164938 -3.2079587 -1.7811624 7 1
8.4469128 -3.8672986 -1.8058165 3 2
10.71107 -4.910696 -1.8662634 4 3
15.325993 -7.0394487 -2.0708041 5 4
24.42671 -11.25053 -1.4094075 22 6
5.9780884 -2.7812796 -1.7666988 4 0
7.011023 -3.2663147 -1.7856615 7 1
8.4468021 -3.9423985 -1.8119223 3 2
10.69984 -5.0007892 -1.8706435 4 3
15.343549 -7.180913 -2.0800662 5 4
24.227877 -11.374959 -1.4027085 22 6
5.9724922 -2.8295636 -1.77084 3 0
6.9810066 -3.3118398 -1.7838619 7 1
8.4552374 -4.0166502 -1.8195547 3 2
10.661986 -5.0718079 -1.8700178 4 3
15.386227 -7.332262 -2.0927405 5 4
5.956574 -2.8718288 -1.7718753 5 0
6.9460182 -3.3533504 -1.7807125 5 1
8.4022465 -4.0636134 -1.814212 3 2
10.65832 -5.1616158 -1.8756495 3 3
15.428842 -7.4818621 -2.1054149 5 4
23.820885 -11.587358 -1.3882637 22 6
5.9190373 -2.9048324 -1.7666988 4 0
6.9364295 -3.4086363 -1.7843118 5 1
8.3595819 -4.1152363 -1.8111591 3 2
10.653918 -5.2516198 -1.8812811 3 3
15.424294 -7.6131144 -2.1119957 8 4
23.72867 -11.748059 -1.3876357 11 6
5.9020705 -2.9478102 -1.7677342 4 0
6.9316363 -3.4665666 -1.7892607 6 1
8.3271389 -4.1717377 -1.810396 3 2
10.662904 -5.3488979 -1.8894157 3 3
15.381413 -7.7259569 -2.1134584 8 4
23.860115 -12.021266 -1.4001963 22 6
5.8985696 -2.9976947 -1.7729106 3 0
6.9055295 -3.5139897 -1.7888107 5 1
8.3397894 -4.2511683 -1.8195547 3 2
10.649934 -5.4357805 -1.893796 3 3
15.334172 -7.8367634 -2.1144333 11 4
23.789829 -12.194836 -1.4010336 22 6
5.8774977 -3.0388012 -1.7729106 4 0
6.8704457 -3.5567381 -1.7861114 4 1
8.2645941 -4.2857885 -1.8096325 3 2
10.653801 -5.5318451 -1.9013047 3 3
15.455216 -8.0351934 -2.1388073 15 4
23.792664 -12.406795 -1.4062673 22 6
5.8595595 -3.0815578 -1.7739457 4 0
6.845448 -3.6046159 -1.7861114 4 1
8.2848301 -4.3699436 -1.8206996 4 2
10.656843 -5.6282272 -1.9088136 2 3
15.851492 -8.3823099 -2.2016916 8 4
23.317287 -12.366716 -1.3832394 22 6
5.841311 -3.1242118 -1.774981 4 0
6.8235517 -3.6541579 -1.7870111 3 1
8.2420111 -4.4211793 -1.8180283 3 2
10.638175 -5.7137046 -1.912568 3 3
15.610762 -8.3949881 -2.176343 1 4
23.550318 -12.701756 -1.4022897 11 6
5.8091745 -3.1593773 -1.7718753 5 0
6.7978749 -3.7017057 -1.7870111 4 1
8.2186203 -4.480937 -1.8195547 3 2
10.616375 -5.7954483 -1.9156966 4 3
16.859802 -9.2190008 -2.3593907 11 4
22.463869 -12.298607 -2.2405999 26 5
23.428286 -12.842561 -1.4001963 22 6
5.8078241 -3.2100601 -1.7780869 4 0
6.7963924 -3.7611012 -1.7933098 4 1
8.2094603 -4.5505776 -1.8245157 4 2
10.630927 -5.9000974 -1.9257084 3 3
17.140301 -9.5284166 -2.4078948 9 4
22.521566 -12.550793 -1.3512099 11 6
5.7577605 -3.236392 -1.7698047 4 0
6.7777958 -3.8144171 -1.7955593 3 1
8.1860428 -4.6125979 -1.8264238 3 2
10.602197 -5.9837861 -1.9282113 3 3
17.479502 -9.877347 -2.4651732 12 4
22.326921 -12.652548 -1.3449296 22 6
5.7819934 -3.3033426 -1.7842987 4 0
6.7493095 -3.8606744 -1.7951094 5 1
8.1885996 -4.6915531 -1.8344377 4 2
10.587581 -6.0733843 -1.9332174 3 3
17.604633 -10.110851 -2.4927156 13 4
22.421503 -12.913773 -1.3560247 11 6
5.7554493 -3.3416877 -1.7832633 4 0
22.335606 -12.973552 0.45086548 51 8
6.7221928 -3.9076991 -1.7951094 5 1
8.1242361 -4.7284184 -1.8271869 3 2
10.597197 -6.1751471 -1.9426033 3 3
17.866222 -10.427631 -2.5400012 9 4
21.615942 -12.646525 -1.3124813 10 6
5.735898 -3.3827486 -1.7842987 3 0
6.6954389 -3.9533646 -1.7951094 5 1
8.0842695 -4.781023 -1.8256606 3 2
10.594624 -6.2731328 -1.9501122 3 3
17.501123 -10.374887 -2.4980781 9 4
21.554594 -12.813452 -1.3141559 21 6
5.7121425 -3.4227102 -1.7842987 3 0
6.6609917 -3.996001 -1.7933098 4 1
8.0793018 -4.8545346 -1.8321481 4 2
10.582732 -6.366291 -1.9560568 4 3
18.315924 -11.031438 -2.6253097 12 4
21.611647 -13.052415 -1.3231578 10 6
5.7046103 -3.4725497 -1.789475 3 0
21.819925 -13.292817 0.44597879 50 8
6.6462445 -4.0505185 -1.796909 5 1
8.0401878 -4.9077516 -1.8310033 3 2
10.561627 -6.4544377 -1.9604369 5 3
18.575426 -11.365205 -2.6738136 7 4
21.114828 -12.954393 -1.2982459 21 6
5.660511 -3.5000985 -1.7832633 3 0
6.6144905 -4.094768 -1.7960092 5 1
8.048315 -4.9882221 -1.8405437 4 2
10.581232 -6.5657563 -1.972326 13 3
18.249472 -11.341626 -2.6382277 8 4
21.229591 -13.224541 -1.3108065 10 6
5.6725516 -3.5611444 -1.7946514 3 0
6.6029649 -4.1500659 -1.8005083 4 1
8.0049868 -5.0390577 -1.8386356 3 2
10.500042 -6.6173487 -1.9657558 24 3
17.367682 -10.95819 -2.521477 9 4
21.511448 -13.609487 -1.3340436 21 6
5.6280041 -3.5881965 -1.7884396 3 0
6.5738311 -4.1960621 -1.8005083 5 1
7.9828453 -5.1032801 -1.8416885 3 2
10.551753 -6.7533183 -1.984215 5 3
17.150358 -10.98921 -2.501003 10 4
21.627636 -13.895358 -1.3472323 22 6
5.6060605 -3.6294994 -1.789475 3 0
6.5411062 -4.2397337 -1.7996083 5 1
7.9503169 -5.1610231 -1.8424517 3 2
10.532506 -6.8451176 -1.9895338 6 3
17.196348 -11.188787 -2.5190394 11 4
5.5773568 -3.6664257 -1.7884396 3 0
6.5227437 -4.2927942 -1.8027576 6 1
7.933764 -5.2293663 -1.8470311 3 2
10.53887 -6.9543843 -1.9998584 4 3
17.11285 -11.305285 -2.5183084 13 4
17.072281 -11.308469 -1.0732012 19 6
5.5773339 -3.7224324 -1.7967219 3 0
6.4861341 -4.3338962 -1.8009582 6 1
7.9264317 -5.3042808 -1.8539003 3 2
10.516321 -7.0453801 -2.0048645 5 3
17.010427 -11.408997 -2.5148962 13 4
15.807993 -10.618525 -1.6660691 36 5
16.790722 -11.291405 -1.0604312 19 6
5.5640049 -3.7699475 -1.8008629 3 0
6.4653964 -4.3856354 -1.8036577 6 1
7.8989525 -5.366107 -1.8561901 3 2
10.524049 -7.1575074 -2.0158148 7 3
15.780122 -10.744303 -2.3440351 2 4
15.29288 -10.43992 -0.97041345 9 6
5.502533 -3.784615 -1.789475 3 0
6.4410415 -4.4350863 -1.8054571 6 1
7.8645296 -5.4233503 -1.8569533 3 2
10.506336 -7.2532492 -2.0220721 6 3
14.643266 -10.120583 -2.1856048 13 4
14.827271 -10.274548 -0.94539684 18 6
5.4854817 -3.8295722 -1.7925807 3 0
6.4290891 -4.4933405 -1.810856 7 1
7.8917761 -5.5217767 -1.8722179 3 2
10.52144 -7.3699279 -2.0345869 7 3
14.526752 -10.190645 -2.1787803 13 4
14.696541 -10.332734 -0.94152397 9 6
5.4655938 -3.8712881 -1.7946514 3 0
6.401535 -4.5392523 -1.8117559 7 1
7.8562369 -5.5790105 -1.8729813 3 2
10.474562 -7.4466352 -2.0355256 8 3
14.579967 -10.376769 -2.1973045 9 4
14.737851 -10.51629 -0.94885099 18 6
5.4321594 -3.90484 -1.7925807 3 0
6.3633623 -4.5792789 -1.8099562 7 1
7.8616929 -5.6658607 -1.8836665 3 2
10.47198 -7.5554085 -2.0452244 9 3
14.46211 -10.445759 -2.1904798 15 4
14.479662 -10.485379 -0.93691838 18 6
5.4234948 -3.956331 -1.7987925 3 0
6.3280911 -4.6212935 -1.8090565 7 1
7.812438 -5.713654 -1.8813769 3 2
10.594302 -7.7566962 -2.0796399 9 3
14.777894 -10.831634 -2.2497082 11 4
14.469914 -10.617549 -1.5701978 33 5
14.441517 -10.612228 -0.9392212 9 6
5.3895321 -3.9894991 -1.7967219 3 0
6.3113303 -4.6769614 -1.8135554 7 1
7.7859802 -5.7760563 -1.8844297 3 2
10.775967 -8.0029383 -2.1259446 9 3
14.87872 -11.066037 -2.2767632 9 4
14.315534 -10.658813 -1.5614822 33 5
14.449015 -10.769963 -0.94445479 18 6
5.3653412 -4.0284119 -1.7977571 3 0
6.2886963 -4.7268376 -1.8162549 7 1
7.7611518 -5.8420777 -1.8882459 3 2
11.054287 -8.3300018 -2.1922729 10 3
14.356154 -10.829928 -2.2080288 16 4
14.300197 -10.815154 -0.93963981 18 6
5.3340135 -4.0634294 -1.7967219 4 0
6.2555437 -4.7706256 -1.8162549 7 1
7.7264175 -5.9008846 -1.8897724 3 2
11.077465 -8.4693604 -2.2085421 10 3
12.833105 -9.8223009 -1.9842769 8 4
14.213254 -10.906214 -0.93890715 18 6
5.3330288 -4.1218333 -1.8060393 3 0
6.2035909 -4.7998705 -1.810856 7 1
7.7036576 -5.9691114 -1.8943518 3 2
10.49206 -8.1384754 -2.1031051 5 3
12.823801 -9.9579172 -1.993539 15 4
5.3010836 -4.15658 -1.8050041 3 0
6.17453 -4.8466725 -1.8122058 5 1
7.7107034 -6.0590134 -1.9061821 4 2
10.422448 -8.1987123 -2.1002893 9 3
12.869361 -10.138103 -2.0115755 16 4
13.417239 -10.592495 -0.89588696 17 6
5.2741799 -4.193769 -1.8055217 2 0
6.1551189 -4.8995113 -1.8162549 6 1
7.6866379 -6.1273808 -1.9107615 4 2
10.355692 -8.2638807 -2.098412 9 3
12.461947 -9.9553661 -1.9584407 25 4
13.379799 -10.703914 -1.4990788 31 5
14.315742 -11.464972 -0.96120226 18 6
5.2131968 -4.2050171 -1.7946514 4 0
6.1328936 -4.9521565 -1.819854 6 1
7.6085615 -6.1525016 -1.9019842 3 2
11.691866 -9.4645071 -2.3824971 9 3
12.976663 -10.515798 -2.0508175 10 4
13.394475 -10.869876 -1.5091888 31 5
13.319195 -10.820355 -0.89934111 18 6
5.1896935 -4.2462029 -1.7967219 4 0
6.0891261 -4.9874425 -1.8171545 6 1
7.6155157 -6.2465563 -1.9145776 4 2
11.643827 -9.5609446 -2.3862517 9 3
12.625368 -10.377977 -2.0067008 13 4
5.1866817 -4.3045368 -1.8060393 3 0
6.0751438 -5.0472651 -1.8234532 6 1
7.5898318 -6.3146377 -1.919157 4 2
11.692154 -9.7380781 -2.4100296 10 3
12.578528 -10.487475 -2.0108442 20 4
12.479772 -10.419914 -1.4223818 28 5
13.413545 -11.211486 -0.91619331 18 6
5.1299014 -4.3182483 -1.7967219 4 0
6.0412502 -5.0908103 -1.8239032 5 1
7.593576 -6.4079871 -1.9313688 16 2
11.744606 -9.9214478 -2.4350593 10 3
12.206403 -10.322515 -1.9628278 20 4
12.461458 -10.553137 -1.4286568 29 5
13.11252 -11.116293 -0.90091121 9 6
5.1231375 -4.3740263 -1.8050041 4 0
5.9996367 -5.1277971 -1.8221035 4 1
7.5247908 -6.4404187 -1.9252628 28 2
11.996069 -10.278244 -2.502013 10 3
12.492652 -10.715064 -2.0208375 21 4
12.934609 -11.109818 -1.4917578 31 5
13.513152 -11.61904 -0.93398756 9 6
5.0749512 -4.3945107 -1.7987925 4 0
5.9843073 -5.1874266 -1.8284022 5 1
7.5033665 -6.5133853 -1.9313688 9 2
11.894201 -10.335827 -2.4957557 9 3
12.477451 -10.854132 -2.0305872 17 4
12.276844 -10.694688 -1.4244734 28 5
12.657988 -11.038377 -0.8801862 26 6
5.0528574 -4.4374814 -1.8018982 4 0
5.9699001 -5.2483792 -1.8351506 6 1
7.4916034 -6.595448 -1.940146 4 2
11.420138 -10.064664 -2.4109683 8 3
11.569255 -10.206849 -1.8943372 21 4
12.240703 -10.814434 -1.4290055 29 5
12.99653 -11.494314 -0.90928501 9 6
5.0275254 -4.477788 -1.8039688 4 0
5.9360237 -5.292522 -1.8360505 3 1
7.4878473 -6.6855073 -1.951213 4 2
11.068285 -9.8927135 -2.3512104 2 3
11.472568 -10.264867 -1.8901937 5 4
12.703355 -11.394068 -0.89431691 17 6
12.753049 -11.450694 -0.29916915 31 7
5.0018768 -4.5179567 -1.8060393 4 0
5.8945942 -5.3299127 -1.8347007 4 1
7.4540892 -6.7494779 -1.9546474 4 2
11.171657 -10.126288 -2.3881288 4 3
11.90046 -10.798249 -1.9730648 12 4
12.808184 -11.650465 -0.90740091 9 6
4.9588175 -4.5423274 -1.8018982 4 0
5.8773489 -5.3893733 -1.8409994 4 1
7.4212484 -6.8146315 -1.9584637 4 2
11.025067 -10.134518 -2.3718596 2 3
11.218572 -10.323235 -1.8719133 18 4
12.190785 -11.22965 -1.4500972 29 5
12.932063 -11.929186 -0.92205495 18 6
4.9383087 -4.5873537 -1.8060393 4 0
5.8766856 -5.4647765 -1.8526968 4 1
7.3890605 -6.8783655 -1.9622798 4 2
11.184165 -10.422107 -2.421293 2 3
11.35377 -10.594974 -1.906768 15 4
12.835978 -12.003293 -0.92100829 18 6
4.9266596 -4.6394033 -1.8132863 4 0
5.8322625 -5.4979677 -1.8504474 3 1
7.3579922 -6.9459538 -1.9668592 4 2
10.941718 -10.339834 -2.3843744 2 3
11.745739 -11.111278 -1.9852518 16 4
12.864907 -12.19981 -0.92917269 9 6
4.8941507 -4.6736846 -1.8132863 4 0
5.8035975 -5.547976 -1.8535968 4 1
7.3502584 -7.0338831 -1.9775445 4 2
10.945259 -10.485131 -2.4006436 2 3
11.266777 -10.808225 -1.9170049 19 4
12.188349 -11.716823 -0.88604778 8 6
4.8733287 -4.7176385 -1.8174274 3 0
5.7838931 -5.6049819 -1.8594455 6 1
7.3206987 -7.104167 -1.9828871 6 2
11.838113 -11.500006 -2.6140203 12 3
11.609379 -11.29357 -1.9886642 12 4
12.023305 -11.720769 -0.87997687 26 6
4.8311753 -4.7442684 -1.8143215 4 0
5.7450261 -5.6475921 -1.8598953 4 1
7.2835188 -7.1674957 -1.9863218 7 2
11.769587 -11.598289 -2.6171491 12 3
11.063897 -10.914294 -1.9082304 5 4
11.144196 -11.005026 -1.3702626 27 5
12.109543 -11.975027 -0.89253747 8 6
4.7897234 -4.7697015 -1.8112158 4 0
5.7220201 -5.704072 -1.8652942 5 1
7.2320428 -7.2194314 -1.9863218 7 2
11.657589 -11.649452 -2.6102657 10 3
10.717975 -10.721716 -1.8614326 11 4
11.419058 -11.43501 -1.4138404 28 5
12.08629 -12.120087 -0.8970384 18 6
4.7563081 -4.8030238 -1.8112158 4 0
5.7026167 -5.7646608 -1.8720427 6 1
7.1799736 -7.2656975 -1.9855584 10 2
11.189454 -11.334911 -2.5226626 13 3
11.076269 -11.235935 -1.9372352 18 4
12.175793 -12.377205 -0.90991306 9 6
4.7262049 -4.8380513 -1.812251 3 0
13.104016 -13.423495 0.32744205 31 8
5.6605234 -5.8005543 -1.871143 6 1
7.1345568 -7.3212705 -1.987085 9 2
11.322246 -11.63073 -2.5708442 13 3
10.899888 -11.208601 -1.9196861 20 4
12.367219 -12.748616 -0.93084741 9 6
4.7030363 -4.8820581 -1.8163921 3 0
5.6334028 -5.8539724 -1.8756418 6 1
7.1444864 -7.4346008 -2.0042579 10 2
11.306436 -11.777891 -2.5858619 10 3
11.909554 -12.419168 -2.1127272 11 4
11.466107 -11.986025 -0.86930031 8 6
4.6848049 -4.9315801 -1.8226038 3 0
5.5856905 -5.8860893 -1.8733923 4 1
7.2652631 -7.6667008 -2.0531049 10 2
11.204925 -11.836454 -2.5814819 10 3
11.858027 -12.539511 -2.1190643 10 4
12.009848 -12.731178 -0.91724008 9 6
4.6449795 -4.9585266 -1.8205333 3 0
5.5697608 -5.9519758 -1.8819405 6 1
7.3523092 -7.8678513 -2.0931747 9 2
11.023618 -11.80898 -2.5586424 14 3
12.660702 -13.610239 -0.97418153 9 6
4.6076274 -4.9879951 -1.8194979 3 0
12.181555 -13.196401 0.31348014 29 8
5.5333591 -5.9964437 -1.8837402 6 1
7.4901094 -8.1283321 -2.1485093 10 2
10.987732 -11.936519 -2.5695927 10 3
11.12283 -12.095985 -2.0176692 12 4
11.956482 -13.034499 -0.92697448 18 6
4.5896049 -5.0386066 -1.8262272 2 0
5.4992309 -6.0435762 -1.8864396 7 1
7.542892 -8.298255 -2.1798022 12 2
10.94341 -12.05198 -2.5783532 10 3
11.71416 -12.91892 -2.1412446 6 4
12.36464 -13.665028 -0.9658078 9 6
10.98394 -12.156165 -0.28597516 29 7
4.5719872 -5.0884113 -1.8329566 3 0
5.4840002 -6.1098728 -1.8954376 7 1
7.5909157 -8.4691296 -2.2107131 9 2
10.92489 -12.20167 -2.5939965 10 3
15.916373 -17.795242 -2.9314454 6 4
11.354122 -12.725689 -0.89379358 17 6
11.270824 -12.64565 -0.29567868 31 7
4.5299468 -5.1129761 -1.8303684 2 0
5.4463782 -6.1538458 -1.8972371 7 1
7.5773048 -8.570612 -2.2236881 9 2
10.799739 -12.228371 -2.5839849 10 3
9.9409122 -11.271786 -1.8453459 7 4
11.259322 -12.793681 -0.89316547 8 6
4.4823275 -5.1291451 -1.825192 2 0
5.4094911 -6.1966472 -1.8990368 7 1
7.5766306 -8.6913767 -2.2412426 9 2
11.586621 -13.324183 -2.1680558 16 4
11.533634 -13.291336 -0.92226434 18 6
4.4555955 -5.1727982 -1.8293331 2 0
5.3828044 -6.2558784 -1.9053354 8 1
7.7320404 -8.995677 -2.3057361 12 2
10.509999 -12.244917 -2.5558267 10 3
11.063046 -12.902919 -2.0868907 5 4
11.381108 -13.306743 -0.91765875 9 6
4.4231257 -5.2081957 -1.830886 3 0
7.7030044 -9.0927181 -2.3164213 10 2
10.429362 -12.32402 -2.5570781 10 3
10.839416 -12.822175 -2.061542 10 4
11.280209 -13.376714 -0.91703075 9 6
4.39534 -5.2493153 -1.8345095 2 0
7.7617798 -9.2895718 -2.3530567 12 2
10.337641 -12.385628 -2.5552011 10 3
10.735656 -12.880763 -2.0588608 8 4
11.015206 -13.244345 -0.90279531 27 6
4.3668876 -5.2880497 -1.8376153 2 0
5.2517219 -6.3663187 -1.9053354 26 1
7.7516608 -9.4102077 -2.369848 12 2
10.137957 -12.320213 -2.5270426 10 3
10.128392 -12.321734 -1.9584407 3 4
10.988328 -13.401235 -0.90823823 9 6
4.3176675 -5.3034253 -1.8324389 2 0
5.2305107 -6.4315534 -1.9138836 11 1
7.7885013 -9.5905867 -2.4015222 7 2
9.5713272 -11.798538 -2.4062753 7 3
10.182101 -12.564877 -1.9857392 8 4
4.2865829 -5.3409715 -1.8350271 3 0
5.1927967 -6.477035 -1.9165829 7 1
7.7311726 -9.6569872 -2.4045751 9 2
10.00073 -12.505298 -2.5361156 9 3
10.192017 -12.75818 -2.0049946 18 4
4.2731652 -5.4010677 -1.8453798 3 0
5.15591 -6.5238314 -1.9197323 6 1
7.6745129 -9.7245951 -2.4080098 10 2
9.8043404 -12.436747 -2.5082705 13 3
14.886312 -18.903545 -2.9543569 11 4
4.2306027 -5.424675 -1.8433093 3 0
5.1270075 -6.5811892 -1.9260309 7 1
7.6112576 -9.7841349 -2.4095361 10 2
9.4869814 -12.208529 -2.4488254 19 3
10.096877 -13.007438 -2.0218124 21 4
4.1973376 -5.4602041 -1.8453798 3 0
5.1070471 -6.6508255 -1.9359287 7 1
7.5982528 -9.9058151 -2.4267089 16 2
9.6331377 -12.572311 -2.5085835 9 3
14.611279 -19.096939 -2.9524071 11 4
4.164742 -5.4948063 -1.8474505 3 0
5.0640121 -6.6885419 -1.9368286 7 1
7.5952153 -10.046319 -2.4480796 9 2
9.6010838 -12.713346 -2.5232882 10 3
10.069598 -13.348261 -2.0530112 15 4
4.1332169 -5.5330343 -1.8505563 3 0
5.0241866 -6.7331028 -1.9395281 8 1
7.6205201 -10.223712 -2.4786091 9 2
9.8057117 -13.169757 -2.6005669 9 3
9.9809027 -13.424606 -2.0539861 15 4
4.1173949 -5.5928688 -1.8609091 3 0
4.9724407 -6.7617335 -1.9377284 7 1
7.3658943 -10.031119 -2.4190764 7 2
9.6212597 -13.11694 -2.5764761 6 3
14.078945 -19.215322 -2.9248645 9 4
4.0850558 -5.6308589 -1.8640147 3 0
4.9456973 -6.824687 -1.9458266 7 1
7.5845656 -10.481519 -2.5148625 10 2
9.4091034 -13.017289 -2.5439377 13 3
14.009529 -19.403269 -2.938514 11 4
4.0478926 -5.662384 -1.8650501 3 0
4.906992 -6.8717341 -1.9494258 7 1
7.5032287 -10.523023 -2.5121913 10 2
9.2790346 -13.027954 -2.5332999 27 3
14.064755 -19.769106 -2.9789743 11 4
4.0149384 -5.6999817 -1.868156 3 0
4.872355 -6.9249501 -1.9548247 7 1
7.451025 -10.605671 -2.5194421 10 2
9.1413326 -13.026122 -2.5204725 21 3
13.986792 -19.952963 -2.9918926 16 4
3.9684389 -5.7183495 -1.8650501 3 0
4.8327727 -6.9716082 -1.9584239 7 1
7.3823905 -10.665502 -2.5213501 10 2
9.0232096 -13.050626 -2.5129635 20 3
13.910327 -20.141594 -3.005542 7 4
3.9349627 -5.7554836 -1.868156 3 0
4.7949748 -7.0212698 -1.9629229 7 1
7.3962369 -10.846542 -2.5518796 10 2
8.93188 -13.113301 -2.5129635 20 3
13.91342 -20.449936 -3.0369844 11 4
3.9054782 -5.7988377 -1.8733324 3 0
4.7393141 -7.0448728 -1.9602236 9 1
7.4155726 -11.039699 -2.5850804 10 2
8.8136988 -13.135969 -2.5054548 28 3
13.733847 -20.492153 -3.0289409 16 4
3.8542204 -5.8098631 -1.868156 4 0
4.6921697 -7.0810351 -1.9611233 8 1
7.3586783 -11.117751 -2.591568 10 2
8.6892214 -13.142927 -2.4954429 16 3
13.544518 -20.517954 -3.0187037 16 4
3.8336098 -5.8650699 -1.8774734 3 0
4.65345 -7.1274962 -1.9651723 10 1
7.3302016 -11.244505 -2.6091223 10 2
8.599411 -13.206579 -2.4960685 16 3
13.37532 -20.564743 -3.0121231 11 4
3.7904799 -5.888442 -1.8764381 4 0
4.5951467 -7.1466966 -1.9615731 10 1
7.2428842 -11.27762 -2.6053061 10 2
8.4858532 -13.228229 -2.4891856 17 3
13.228213 -20.652603 -3.0113916 14 4
3.7565181 -5.9238954 -1.879544 4 0
4.5443087 -7.1745162 -1.9606735 12 1
7.155581 -11.314636 -2.6022532 7 2
8.3605928 -13.235374 -2.4794865 23 3
13.056613 -20.693478 -3.0043232 11 4
3.7232556 -5.9630847 -1.8836851 4 0
4.5106106 -7.2325225 -1.9678718 16 1
7.088779 -11.379745 -2.6060696 9 2
8.2369156 -13.238307 -2.4694748 20 3
12.896116 -20.758833 -3.0006673 14 4
3.6805558 -5.9849992 -1.8826498 4 0
4.4796357 -7.2929473 -1.97597 17 1
7.013268 -11.435649 -2.6075959 7 2
8.1184988 -13.253376 -2.461653 17 3
12.771095 -20.873224 -3.0045671 14 4
3.638684 -6.0105476 -1.8826498 4 0
4.4770117 -7.4040866 -1.9975653 16 1
6.9332623 -11.484332 -2.6075959 10 2
7.9972134 -13.262364 -2.4528925 7 3
12.660908 -21.021391 -3.0130978 11 4
3.6065226 -6.0523996 -1.8878261 4 0
4.4909935 -7.5456839 -2.0272589 16 1
6.8448944 -11.518953 -2.604543 10 2
9.111269 -15.351226 -2.8273969 5 3
12.56648 -21.198065 -3.0257723 11 4
3.5759096 -6.0974274 -1.8940378 4 0
4.4608603 -7.6155276 -2.0376067 15 1
6.742506 -11.529176 -2.5961473 10 2
9.015831 -15.434929 -2.8311515 4 3
12.389177 -21.235552 -3.0187037 16 4
3.5351853 -6.1255898 -1.8950732 5 0
4.4552712 -7.7292128 -2.0596519 21 1
6.6412897 -11.540232 -2.5881333 10 2
8.8901377 -15.466667 -2.8255196 5 3
12.248529 -21.3353 -3.0206537 16 4
3.5018747 -6.1669197 -1.9002496 7 0
4.4415822 -7.8313217 -2.0785477 16 1
6.5625839 -11.585171 -2.5881333 12 2
8.7972994 -15.549172 -2.829587 11 3
12.078783 -21.383993 -3.0155354 11 4
3.4522765 -6.1771216 -1.8961084 13 0
4.4261656 -7.9294376 -2.0965438 16 1
6.4719887 -11.613554 -2.5843172 10 2
8.6472225 -15.535991 -2.8161335 9 3
11.912692 -21.429279 -3.0104167 16 4
3.4090688 -6.2010722 -1.8961084 22 0
4.3819551 -7.9806433 -2.1019428 14 1
6.3964148 -11.668782 -2.586607 12 2
8.4996567 -15.524939 -2.8033059 10 3
11.764705 -21.515406 -3.0109043 14 4
3.3822334 -6.2553096 -1.9054259 37 0
4.3002067 -7.963028 -2.0893452 16 1
6.3175921 -11.718337 -2.5877516 7 2
8.3058453 -15.425625 -2.7748349 7 3
11.574723 -21.523584 -3.0006673 14 4
3.3375742 -6.2770634 -1.9049082 15 0
