# .PCD v0.7 - Point Cloud Data file format
VERSION 0.7
FIELDS x y z intensity ring
SIZE 4 4 4 4 2
TYPE F F F F U
COUNT 1 1 1 1 1
WIDTH 1292
HEIGHT 1
VIEWPOINT 0 0 0 1 0 0 0
POINTS 1292
DATA ascii
-5.2913017 6.6951413 -1.351594 14 3
-5.4060564 6.8477087 -1.0712316 13 4
-4.5709424 5.7940488 1.1688784 12 12
-3.9409556 4.9990807 -0.55692518 6 5
-4.1011868 5.2079387 -0.34740612 11 6
-4.1133494 5.2290144 -0.11612831 7 7
-3.817193 4.8822703 -1.660583 20 0
-4.7127867 6.0320916 0.13361563 13 8
-4.227025 5.4122915 -1.5854551 21 1
-4.2307978 5.421021 0.36038542 7 9
-4.6748586 5.9943194 -1.4776249 4 2
-4.1478262 5.3204489 0.59021866 15 10
-5.2565727 6.7475028 -1.3547227 13 3
-4.3523288 5.592824 -0.87014717 6 4
-4.5606966 5.8648033 1.1767002 9 12
-3.7466524 4.8197231 -0.5340904 18 5
-3.9839017 5.1323123 -0.34049776 11 6
-5.0570283 6.5218282 -0.14405216 18 7
-3.820751 4.9577661 -1.6771475 6 0
-4.0565467 5.2656317 0.1160236 9 8
-4.1772499 5.426228 -1.580956 16 1
-4.1487312 5.391129 0.35651258 14 9
-4.593257 5.9730873 -1.4646499 4 2
-4.1445732 5.3935113 0.59509945 17 10
-5.1996913 6.7690268 -1.3519068 9 3
-4.3066788 5.6105442 0.86844105 4 11
-4.3023038 5.6088972 -0.86795354 7 4
-4.5218725 5.8972783 1.177013 9 12
-3.8134913 4.9770279 -0.54855824 12 5
-3.8978901 5.0926981 -0.33610156 11 6
-5.0478024 6.6046371 -0.1450993 18 7
-3.7658801 4.9559693 -1.66783 11 0
-3.9568033 5.2110081 0.11420855 21 8
-4.1343288 5.4467726 -1.5787065 14 1
-4.0771976 5.3754048 0.35358176 11 9
-4.5490737 6.0018792 -1.4638867 4 2
-4.1390476 5.4628863 0.59963149 8 10
-5.1403847 6.7894144 -1.3487781 9 3
-4.1763797 5.5201607 0.84991688 19 11
-4.2606473 5.6356287 -0.86746609 11 4
-4.5341868 5.9996209 1.1910921 5 12
-3.5901399 4.7539101 -0.52119136 13 5
-3.8887031 5.1548643 -0.33840433 22 6
-4.9606628 6.5854106 -0.14391254 30 7
-3.7129533 4.9595933 -1.6600655 9 0
-3.8472428 5.140841 0.11207936 2 8
-4.075407 5.4496875 -1.5710582 21 1
-4.1629667 5.5708323 0.36446762 9 9
-4.4823904 6.0004592 -1.4558728 9 2
-4.1165357 5.5147181 0.60207188 4 10
-5.0916691 6.8260245 -1.3487781 9 3
-4.1163807 5.5205374 0.84552956 14 11
-3.5154917 4.7181125 -0.72244155 12 4
-4.4958577 6.0382509 1.1923436 22 12
-3.5711391 4.7980371 -0.52328306 17 5
-3.9327297 5.2915645 -0.34552202 11 6
-4.8406639 6.5203357 -0.14174846 21 7
-3.6518562 4.9496412 -1.6481597 11 0
-3.8566372 5.2310119 0.11344065 23 8
-4.0303221 5.468596 -1.5683587 8 1
-4.1180539 5.5917163 0.36394429 7 9
-4.4265347 6.0149894 -1.4516749 11 2
-3.583724 4.8750825 -0.95831764 7 3
-4.0720706 5.5434532 0.8445546 18 11
-3.4671936 4.7217398 -0.71927297 13 4
-4.6978331 6.402349 1.2577332 4 12
-3.5234149 4.8035731 -0.52119136 33 5
-3.860287 5.2705522 -0.34238186 23 6
-4.7407112 6.4797325 -0.14014283 14 7
-3.630847 4.9937634 -1.6543714 12 0
-3.8115358 5.2442012 0.1131614 11 8
-3.9679997 5.4634852 -1.5589108 10 1
-4.0036263 5.5145631 0.3571406 14 9
-4.3866448 6.0465674 -1.4520565 9 2
-3.5435047 4.8897643 -0.95644045 5 3
-4.0878 5.6450014 0.85576659 16 11
-3.4376361 4.7506547 -0.72000414 7 4
-4.6147819 6.3797603 1.2470957 9 12
-3.4804561 4.8151364 -0.51979685 38 5
-3.8547204 5.3388081 -0.34510332 11 6
-4.7327809 6.5645776 -0.14125979 28 7
-3.593395 5.0136514 -1.6528184 9 0
-3.7655168 5.2576776 0.11288217 8 8
-3.9114344 5.4634318 -1.5512625 17 1
-3.5513279 4.9641004 0.31987742 9 9
-4.3283405 6.0546856 -1.4467138 8 2
-3.9327745 5.5033789 0.59178752 8 10
-4.8558226 6.8000813 -1.3234357 13 3
-4.0286922 5.6459303 0.85162306 15 11
-3.3764007 4.7335415 -0.7139107 18 4
-4.5540814 6.3892994 1.2427155 9 12
-3.5473173 4.9805026 -0.53496194 12 5
-3.5603194 5.0043011 -0.32186615 10 6
-3.7033596 5.2111344 -0.11159069 4 7
-3.529331 4.9975872 -1.6393598 9 0
-3.7460141 5.3083448 0.11340573 5 8
-3.861964 5.4746814 -1.5467634 28 1
-3.5165858 4.9887724 0.31987742 14 9
-4.2837048 6.0815454 -1.4459506 8 2
-3.9596403 5.6235576 0.60172325 15 10
-3.4726138 4.9355326 -0.95581466 18 3
-3.8966985 5.5423818 0.83188021 18 11
-3.3409917 4.7537479 -0.71342319 19 4
-4.5286646 6.4484181 1.2480342 4 12
-3.4643915 4.9366498 -0.52764088 28 5
-3.7637525 5.3692122 -0.34363794 11 6
-3.8848145 5.5480919 -0.1182226 13 7
-3.5120094 5.0474772 -1.6476421 9 0
-3.485122 5.0125656 0.1065644 28 8
-3.8280983 5.5079107 -1.548563 12 1
-3.4691396 4.9951563 0.318726 26 9
-4.1963692 6.0467863 -1.4306859 12 2
-3.8566873 5.5593901 0.5919618 2 10
-4.5927248 6.6253204 -1.2768183 10 3
-3.9732068 5.7358975 0.85674155 12 11
-3.3122432 4.7834849 -0.71439815 18 4
-4.4947758 6.4961214 1.251163 4 12
-3.4261723 4.9535637 -0.52694362 37 5
-3.3720617 4.8826075 -0.31098029 20 6
-3.575737 5.1833229 -0.10991526 15 7
-3.4723165 5.0654988 -1.6455716 9 0
-3.4554427 5.0427699 0.10670401 28 8
-3.4632607 5.0598583 0.3213428 16 9
-4.0542555 5.9277458 -1.3959587 5 2
-3.9200833 5.735868 0.60782415 13 10
-4.5274634 6.627069 -1.2711866 12 3
-3.9542177 5.7923207 0.86112887 10 11
-3.3100898 4.8524089 -0.72122282 16 4
-4.2056179 6.1675153 1.1823319 25 12
-3.4274096 5.0300484 -0.53252155 5 5
-3.4084232 5.0078168 -0.31746995 10 6
-3.874414 5.7010245 -0.12031689 13 7
-3.4215353 5.0650043 -1.6378069 11 0
-3.4604301 5.1264381 0.10796059 27 8
-3.4051712 5.046474 -1.4054942 23 1
-3.931422 5.8307681 0.36854982 7 9
-3.945857 5.8565865 -1.3726799 5 2
-5.2265387 7.7603431 0.81856668 1 10
-3.9759588 5.907937 -1.1278926 12 3
-3.727581 5.543045 0.82018077 12 11
-3.3057775 4.9176612 -0.72756004 10 4
-3.9862225 5.934361 1.1322728 27 12
-4.1317229 6.1556106 -0.64861304 8 5
-3.2955229 4.9153652 -0.3101429 10 6
-3.7620795 5.6176038 -0.11801317 13 7
-3.389302 5.0935926 -1.6393598 9 0
-3.5064914 5.2736945 0.11054354 11 8
-3.3676999 5.0668783 -1.4045944 27 1
-3.9392414 5.9312754 0.37315539 4 9
-3.6877558 5.5568295 -1.2963563 18 2
-3.9981308 6.0267887 0.63275069 10 10
-3.9477139 5.955308 -1.131647 13 3
-3.7370265 5.6417513 0.83090526 6 11
-3.4587705 5.2236509 -0.76923937 12 4
-3.9141755 5.9159169 1.1235124 24 12
-3.6205573 5.4762931 -0.57435632 6 5
-4.2269654 6.3959451 1.4902184 2 13
-3.214901 4.8682537 -0.3057467 9 6
-3.4761264 5.2698197 -0.11019449 9 7
-3.3398957 5.0961237 -1.6326306 11 0
-4.1312943 6.3084745 0.13162605 18 8
-3.3514588 5.1196117 -1.4126925 18 1
-3.6287746 5.5474639 0.34740612 7 9
-3.8744426 5.9275417 -1.3764962 12 2
-3.9178128 5.9961791 0.6266498 6 10
-3.9103615 5.9893394 -1.1328986 16 3
-3.4480832 5.2853103 0.77484536 12 11
-3.2855897 5.0381627 -0.73852831 6 4
-3.8911135 5.9712343 1.1288313 14 12
-3.6114717 5.5442157 -0.57888842 10 5
-4.1693587 6.4055543 1.4856389 8 13
-3.4653974 5.3342052 -0.11103221 9 7
-3.3010941 5.1144476 -1.6310778 9 0
-3.8410792 5.9533372 0.12366775 11 8
-3.3061321 5.1281438 -1.4086435 47 1
-3.7900085 5.8809381 0.36666575 7 9
-3.7117677 5.7639561 -1.3326101 5 2
-3.4284372 5.3280544 0.5543105 9 10
-3.8011103 5.9094901 -1.1128749 13 3
-3.4141736 5.3119979 0.77533287 7 11
-3.2814453 5.109416 -0.74559671 4 4
-3.8525155 6.0009046 1.129457 21 12
-3.2542458 5.0729036 -0.52729225 8 5
-4.1340733 6.4493814 1.4890735 15 13
-3.268157 5.1004634 -0.31746995 10 6
-3.3547919 5.2437248 -0.10865869 24 7
-3.241327 5.0976734 -1.6186544 13 0
-4.2326627 6.6618938 0.1377693 15 8
-3.3212979 5.2294898 -1.4302388 45 1
-3.4941549 5.5059047 0.34175381 7 9
-3.7692189 5.9439206 -1.3681006 13 2
-3.3888903 5.3462191 0.55378759 3 10
-3.7597649 5.9358807 -1.1128749 13 3
-3.3748801 5.3323512 0.77484536 12 11
-3.2785892 5.1842084 -0.75315261 3 4
-4.1377444 6.5452662 1.2264463 10 12
-3.2517366 5.1477175 -0.53269589 17 5
-3.2857575 5.2076116 -0.32270354 10 6
-3.4097676 5.4125247 -0.1116605 11 7
-3.2139895 5.1354761 -1.6233131 11 0
-4.1139321 6.5760016 0.13539577 4 8
-3.439769 5.5026422 -1.4981741 38 1
-3.370019 5.3952508 0.33338007 7 9
-3.7016363 5.9284577 -1.3585601 15 2
-3.2051246 5.1412416 -0.9595691 1 3
-3.4058158 5.4652882 0.7906884 5 11
-3.2517607 5.2221375 -0.7553463 4 4
-3.7057233 5.9558129 1.1109977 7 12
-3.2125652 5.1652164 -0.53217298 11 5
-3.8861055 6.2530179 1.4310676 21 13
-3.1767626 5.115612 -0.31558585 21 6
-3.6649263 5.9086132 -0.12136403 5 7
-3.1669116 5.1396971 -1.6176192 13 0
-4.0856414 6.6359224 0.13602406 4 8
-3.2807441 5.330687 -1.4450855 30 1
-3.3008838 5.3676076 0.33023992 7 9
-3.4227142 5.5700741 -1.270788 16 2
-3.4287243 5.5820379 0.57313615 1 10
-3.1309216 5.1012006 -0.94799298 9 3
-3.2908609 5.3659892 0.77289546 12 11
-3.7640288 6.142334 -0.8845278 8 4
-4.2026768 6.8608289 1.2743154 2 12
-3.1318359 5.1167006 -0.52485186 11 5
-3.9672565 6.48667 1.4780066 12 13
-3.1263866 5.1138091 -0.31412044 10 6
-3.6517234 5.9824786 -0.12234137 13 7
-3.136061 5.1721382 -1.6207249 7 0
-4.093112 6.7532101 0.13783911 10 8
-3.19103 5.2690163 -1.4221406 40 1
-3.8621314 6.3821626 0.39094964 7 9
-3.3705349 5.5719957 -1.2658269 14 2
-3.5999703 5.9559798 0.60887003 8 10
-3.084126 5.106565 -0.94486433 9 3
-3.2728119 5.4211216 0.77752644 11 11
-4.8243499 7.9974136 -1.1467906 2 4
-3.9699171 6.5862002 1.2179989 17 12
-3.1083772 5.1589189 -0.52694362 28 5
-3.9694674 6.5932603 1.4959426 15 13
-3.0361731 5.0470562 -0.30867749 10 6
-3.5954471 5.9838319 -0.1218527 16 7
-3.0808859 5.1579952 -1.6098546 10 0
-3.6699128 6.1490135 0.12499414 19 8
-3.176981 5.3252082 -1.4315885 30 1
-3.2183812 5.3988843 0.32940254 26 9
-3.1567101 5.2996354 -1.1990438 14 2
-3.3065853 5.5534577 0.56546646 1 10
-3.484488 5.8568974 -1.0793979 19 3
-3.2540944 5.4739876 0.78191376 10 11
-3.9072146 6.5752687 -0.93912524 13 4
-4.0814595 6.8739595 1.2661808 19 12
-3.0456197 5.1314473 -0.5220629 5 5
-3.9246504 6.6177535 1.495561 2 13
-3.9934988 6.7418885 1.8090565 20 14
-3.7329085 6.3069749 -0.12792614 18 7
-2.8852205 4.907917 -1.5254794 12 0
-3.1436734 5.3539801 -1.4333881 28 1
-3.5434885 6.0373168 0.36687508 7 9
-3.0947406 5.2769685 -1.1891217 17 2
-3.3181 5.6623559 0.57418203 2 10
-3.2758081 5.5924215 -1.0265231 15 3
-3.2157562 5.4942975 0.78167003 6 11
-4.4133902 7.5465631 -1.0734253 9 4
-3.9637928 6.7805014 1.2439669 9 12
-3.3714912 5.7719274 -0.58481503 7 5
-3.2984319 5.6513796 1.2719328 9 13
-4.2664199 7.3128166 -0.44370431 13 6
-3.7922492 6.5052843 1.7384217 9 14
-3.5136571 6.0322213 -0.1218527 13 7
-2.9872215 5.1615257 -1.5979488 14 0
-3.0642462 5.3010201 -1.4135925 33 1
-3.4023623 5.8906851 0.35651258 9 9
-3.0951157 5.3630605 -1.2036232 17 2
-2.8722861 4.9789538 0.50288862 3 10
-3.3905792 5.8821363 -1.0753307 1 3
-3.5845165 6.2236075 0.88184667 17 11
-4.475821 7.7742696 -1.1014552 6 4
-3.824755 6.648767 1.2148702 23 12
-3.3410423 5.8125978 -0.58655816 7 5
-3.2471731 5.6515708 1.2669718 5 13
-4.175487 7.273139 -0.43951741 13 6
-3.7661345 6.5654087 1.7474198 13 14
-3.5003672 6.1045709 -0.12283003 16 7
-2.9348626 5.1537161 -1.589149 10 0
-4.9298987 8.6641064 0.17400049 9 8
-3.0021162 5.2782402 -1.4018949 25 1
-3.3325338 5.8639398 0.35347709 9 9
-3.0789292 5.4220948 -1.2120188 14 2
-2.8866301 5.0855222 0.51160419 7 10
-3.44981 6.0826426 -1.1075561 19 3
-3.7680445 6.6491551 0.93839401 7 11
-3.7238307 6.5738168 -0.92766953 5 4
-3.9018216 6.8936324 1.2546046 12 12
-3.2513413 5.7490683 -0.57784253 7 5
-3.1854167 5.6347942 1.2581946 21 13
-4.5489554 8.0533648 -0.48473567 12 6
-3.7470267 6.6390595 1.760017 12 14
-3.4498036 6.1149263 -0.1225508 19 7
-2.8487668 5.0847549 -1.5617142 22 0
-3.0736768 5.4929385 -1.4531839 22 1
-2.9893646 5.3466439 0.3210288 7 9
-2.9835513 5.3406215 -1.1891217 17 2
-2.9831686 5.3421264 0.53531057 9 10
-3.1887729 5.7149982 -1.0365349 19 3
-2.9414582 5.2760882 0.74169689 1 11
-3.3802197 6.0655756 -0.85259801 6 4
-2.8608868 5.1378908 0.93141097 10 12
-3.2634368 5.8656425 -0.58725542 7 5
-3.1087868 5.5899796 1.2433115 3 13
-4.1298003 7.4319849 -0.44558835 13 6
-3.7403164 6.7366142 1.7789129 12 14
-3.1372616 5.6527882 -0.11284725 4 7
-2.8411727 5.1552768 -1.5772433 12 0
-2.9224889 5.3093987 -1.3991956 26 1
-2.9105778 5.2921309 0.3165279 11 9
-3.043581 5.5385399 -1.2284284 10 2
-2.8364487 5.1637473 0.51543909 15 10
-3.212476 5.8531446 -1.0574971 22 3
-2.7966962 5.0998111 0.71415442 11 11
-3.0534401 5.5702929 -0.77996385 12 4
-2.7746572 5.0659127 0.91482884 10 12
-3.5485668 6.4842787 -0.64669561 25 5
-3.0696883 5.611546 1.2433115 14 13
-3.0969141 5.666018 -0.33840433 11 6
-3.544682 6.490623 1.7073785 21 14
-3.1513782 5.7728438 -0.11480194 15 7
-2.8152394 5.1936684 -1.5829374 14 0
-4.1378803 7.6400948 0.15166141 20 8
-2.81113 5.1925745 -1.3632034 25 1
-2.9248745 5.4071846 0.32218018 21 9
-2.9992394 5.5492902 -1.2261386 12 2
-2.9385943 5.4393516 0.54088855 7 10
-3.2803805 6.0770712 -1.0937898 19 3
-2.8288722 5.245008 0.73170358 5 11
-2.9909272 5.547791 -0.77387041 10 4
-2.7654536 5.1338549 0.92358917 21 12
-3.5241861 6.5451202 -0.65035611 42 5
-2.9076552 5.404623 1.1929379 14 13
-3.5410042 6.5901327 1.7271742 21 14
-2.9937127 5.5762339 -0.11047374 6 7
-2.7589202 5.1756911 -1.5715494 18 0
-3.3410306 6.2703571 0.12401681 7 8
-2.7766418 5.2155137 -1.3641032 33 1
-3.3674583 6.3279376 0.37566754 7 9
-2.9365115 5.5227737 -1.215835 17 2
-2.7809 5.2345181 0.51857668 7 10
-3.1963215 6.0190058 -1.0793979 6 3
-2.7903137 5.2588811 0.73097235 4 11
-4.3012671 8.1134014 -1.1275353 4 4
-2.9237585 5.5173588 0.98897886 19 12
-3.4644225 6.5431519 -0.64774144 51 5
-2.8946431 5.4716444 1.2032416 21 13
-3.5003757 6.6250291 1.7298737 8 14
-2.8781588 5.4519892 -0.10761154 12 7
-2.6715941 5.0951176 -1.5415263 13 0
-3.3667736 6.4263787 0.12663467 12 8
-2.7609658 5.2722726 -1.374001 27 1
-3.3306062 6.3654494 0.3765049 7 9
-2.9160752 5.5779371 -1.2234674 8 2
-2.7369003 5.237433 0.51700783 18 10
-3.1789086 6.0884528 -1.0878454 13 3
-2.6920159 5.1603141 0.71464187 9 11
-2.9040546 5.5691395 -0.77118921 6 4
-2.9591007 5.6795363 1.0143212 13 12
-3.40784 6.5436096 -0.64547539 42 5
-2.8745499 5.5243111 1.2104924 15 13
-2.9619927 5.6972141 -0.33652022 11 6
-3.4794621 6.6953902 1.742021 13 14
-2.9036434 5.5921345 -0.10998507 4 7
-3.3904023 6.5351691 1.9727188 15 15
-2.6492352 5.1394014 -1.5492908 12 0
-3.3586762 6.5184717 0.12799595 16 8
-2.7098193 5.2636971 -1.3668026 38 1
-2.9052045 5.645638 0.33275205 2 9
-2.9947414 5.824636 -1.2730777 16 2
-3.0170915 5.8731465 0.57766825 4 10
-3.3259785 6.4772148 -1.153235 11 3
-2.716634 5.2950878 0.73072863 8 11
-3.0697544 5.9885125 -0.82627422 5 4
-2.8275909 5.5184693 0.98209572 15 12
-3.3493633 6.5424128 -0.64303505 42 5
-2.8698864 5.6106634 1.2249938 16 13
-2.9286001 5.7279143 -0.33714828 11 6
-3.392741 6.6414242 1.7217753 8 14
-2.5918062 5.0779371 -0.09951362 3 7
-3.3151155 6.4978652 1.9546015 18 15
-2.5975983 5.1245747 -1.5394558 14 0
-2.6571529 5.2466111 0.10265506 4 8
-2.6792114 5.2924514 -1.3695021 35 1
-2.847688 5.6301389 0.33065861 7 9
-2.9442668 5.8261251 -1.2688799 26 2
-2.7201238 5.3849311 0.52781516 18 10
-3.3144991 6.5672894 -1.1651241 16 3
-4.0372782 8.0063362 1.1009678 9 11
-2.8957913 5.7451448 -0.78995717 4 4
-2.6957035 5.3528261 0.94924444 16 12
-2.8074839 5.5796342 -0.54646653 6 5
-2.8616216 5.6897016 1.2379688 21 13
-2.856256 5.6839743 -0.33338007 11 6
-2.8767447 5.7297311 1.480178 7 14
-2.5006742 4.9828644 -0.097314619 24 7
-3.289587 6.5605698 1.9665072 16 15
-2.6151645 5.2497935 -1.5715494 7 0
-3.1835811 6.396451 0.1247149 3 8
-2.7012219 5.4296699 -1.4000953 24 1
-2.7940917 5.6212645 0.32898384 19 9
-3.0414903 6.124361 -1.3291756 9 2
-4.1450658 8.350173 0.81560344 2 10
-3.213275 6.4787803 -1.1454133 33 3
-2.587791 5.2222238 0.71561682 16 11
-2.8441577 5.7420964 -0.78678852 3 4
-2.6766675 5.4086943 0.95581466 10 12
-2.663378 5.3865628 -0.5257234 14 5
-2.7765975 5.6180186 1.2181247 9 13
-2.8616776 5.8003559 1.4932251 11 14
-2.5003195 5.0701466 -0.098675907 11 7
-2.5826969 5.2765989 -1.5741374 9 0
-3.8521826 7.8771935 0.15305761 7 8
-2.6444221 5.4098787 -1.3901975 10 1
-2.9896741 6.1216068 0.35703593 7 9
-2.9151514 5.9742956 -1.2921586 14 2
-2.7669494 5.6730895 0.55221879 4 10
-2.5608308 5.2597938 0.71829796 6 11
-2.6398287 5.4244556 -0.74072188 18 4
-2.6526654 5.4556718 0.96082056 10 12
-2.6448584 5.4444537 -0.5295583 14 5
-2.7544625 5.672586 1.225757 15 13
-2.7121046 5.5903254 -0.32563433 11 6
-2.8092136 5.7956419 1.4869264 9 14
-2.442193 5.040689 -0.097768381 13 7
-3.1320124 6.4702306 1.9261314 15 15
-2.5156586 5.2318234 -1.5555025 14 0
-2.4497111 5.0992289 0.098745719 28 8
-2.5576634 5.3263197 -1.3641032 28 1
-2.9451392 6.1387258 0.35682657 4 9
-2.8360333 5.9166045 -1.2753674 14 2
-2.7384708 5.7156258 0.55448484 9 10
-3.1267705 6.53192 -1.1469777 23 3
-2.5257614 5.2811251 0.71878546 4 11
-2.6429906 5.5287194 -0.75242138 10 4
-2.5676858 5.3760223 0.94361275 5 12
-3.1104684 6.5182991 -0.63187915 32 5
-2.9091871 6.0992398 1.3135291 12 13
-3.047647 6.4010234 1.6367439 5 14
-2.6252117 5.5162487 -0.1066342 8 7
-2.493922 5.2807016 -1.5648201 9 0
-2.4259987 5.1415253 0.099234387 20 8
-2.5702927 5.4497991 -1.3910973 37 1
-2.9856422 6.3361969 0.36708444 2 9
-2.6959844 5.7266617 -1.2303365 16 2
-2.6297872 5.5885801 0.54036558 16 10
-3.0659649 6.5214119 -1.141346 23 3
-2.5816658 5.496273 0.74559671 2 11
-2.6380744 5.6189122 -0.76217091 10 4
-2.4881496 5.3043952 0.92796934 21 12
-2.7807589 5.9362803 1.2742226 21 13
-3.7089739 7.925015 -0.45856768 12 6
-2.8083107 6.0032773 1.5301172 10 14
-3.0294526 6.4819102 -0.12488942 25 7
-2.4553695 5.2944784 -1.5637847 9 0
-2.3657153 5.1034923 0.098187245 40 8
-2.5927854 5.5984645 -1.4243901 28 1
-2.3115005 4.9933867 0.28837115 23 9
-2.7772622 6.0050387 -1.2860527 14 2
-2.4302511 5.2595434 0.50689781 9 10
-2.5608282 5.5497675 0.75047147 3 11
-2.5937963 5.6263762 -0.76070851 1 4
-2.4619064 5.3427382 0.93172377 10 12
-2.8262084 6.1446137 1.314674 18 13
-2.7255683 5.9285326 -0.34196317 11 6
-2.8720689 6.2529511 1.5886043 10 14
-2.9866316 6.5083528 -0.12499414 14 7
-2.4216764 5.3163433 -1.5653377 19 0
-2.3316851 5.1235237 0.09825705 18 8
-2.5433211 5.5911498 -1.4180914 35 1
-2.2939372 5.047586 0.29056925 21 9
-2.6654692 5.8705459 -1.2532336 14 2
-2.4067445 5.3031778 0.50951248 6 10
-2.9594433 6.5270834 -1.1350887 19 3
-2.8504817 6.2926068 0.84821075 16 11
-2.5104051 5.5444417 -0.74730289 12 4
-2.908154 6.4288745 1.117568 10 12
-2.556941 5.655098 -0.54298031 24 5
-2.7778518 6.1493955 1.3116212 18 13
-2.6101704 5.7835751 -0.33254269 11 6
-2.8206284 6.2528148 1.5836555 12 14
-2.3194649 5.1466198 -0.09853629 9 7
-2.3695228 5.2996111 -1.5555025 13 0
-2.1384716 4.7850952 0.091485515 35 8
-2.5153511 5.6336799 -1.4243901 22 1
-2.2587121 5.0612597 0.29046458 27 9
-2.72698 6.1162777 -1.301699 11 2
-2.4653249 5.5346107 0.53008121 7 10
-2.7590754 6.1969848 -1.0743921 21 3
-2.8567965 6.422502 0.86307877 7 11
-2.4571259 5.5291796 -0.74291557 6 4
-2.428102 5.4664392 0.94736725 10 12
-2.5044682 5.6436729 -0.54019129 6 5
-2.9154797 6.5760531 1.3982484 35 13
-2.6743505 6.0407047 1.5251682 18 14
-2.3093624 5.2212081 -0.099653237 9 7
-2.3574662 5.3704538 -1.5715494 10 0
-2.0969844 4.7815933 0.091136463 26 8
-2.480072 5.6578112 -1.4261897 17 1
-2.2449574 5.1263008 0.2932907 21 9
-2.5913563 5.9229264 -1.2566681 22 2
-2.4044471 5.4983234 0.5250262 3 10
-2.792037 6.3968067 0.85698533 9 11
-2.4218142 5.5512347 -0.7436468 15 4
-2.6874311 6.1659484 1.0653188 12 12
-2.8316956 6.50314 -0.6205489 46 5
-2.8604648 6.5723438 1.3932874 19 13
-2.3565633 5.419724 -0.30972421 10 6
-2.7524607 6.3362722 1.594903 14 14
-2.3820817 5.4862657 -0.1044003 8 7
-2.308454 5.3601665 -1.5637847 13 0
-2.0856783 4.8475509 0.0921138 24 8
-2.4335866 5.6588745 -1.4221406 42 1
-2.278492 5.3033361 0.30250186 11 9
-2.6444173 6.1609712 -1.3032255 11 2
-2.4217727 5.644978 0.53740233 7 10
-2.7921255 6.5145102 -1.1225739 22 3
-2.7762218 6.4836621 0.86600363 5 11
-2.7063572 6.3235478 -0.8445546 16 4
-2.6435425 6.1827431 1.0650059 37 12
-2.7541375 6.4476285 -0.61340207 27 5
-2.3959193 5.6117263 1.1860688 13 13
-2.2230699 5.2119145 -0.29695424 18 6
-2.5782888 6.0505648 1.5184196 4 14
-2.3170805 5.4402103 -0.10321353 4 7
-2.2461696 5.3174248 -1.5467027 17 0
-2.0828872 4.9356871 0.093509994 24 8
-2.4084108 5.7098413 -1.4306886 25 1
-2.1661837 5.1405816 0.29234868 23 9
-2.493933 5.9241505 -1.2494174 16 2
-2.3823071 5.6617465 0.53740233 7 10
-2.7373886 6.5119934 -1.1188195 13 3
-2.466486 5.8732791 0.78215748 3 11
-2.2933626 5.4637027 -0.72756004 16 4
-3.1808779 7.5855355 1.3027864 17 12
-2.6878514 6.4129386 -0.60834706 22 5
-2.3612332 5.6391811 1.1883584 7 13
-2.4881825 5.9511099 1.489176 13 14
-2.245132 5.3750648 -0.10167772 4 7
-2.2208209 5.3615341 -1.5549849 10 0
-1.9023763 4.5950089 0.086808272 26 8
-2.3193324 5.6076641 -1.4009951 21 1
-2.1784503 5.2696443 0.29883832 6 9
-2.4632959 5.9645777 -1.2543784 14 2
-2.3913522 5.7961154 0.54855824 9 10
-2.6493242 6.4245548 -1.100673 21 3
-2.4060349 5.8403745 0.77557659 8 11
-2.1864152 5.31253 -0.70537978 12 4
-2.6249268 6.3811941 1.0928513 19 12
-2.391151 5.8244309 1.2238491 9 13
-2.4916658 6.0783243 1.5166199 4 14
-2.1643562 5.2851276 -0.09968815 16 7
-2.1791847 5.3639979 -1.5513614 8 0
-1.9191314 4.7286172 0.089077078 17 8
-2.3118749 5.6991658 -1.419891 22 1
-2.1206048 5.2328954 0.29590753 24 9
-2.5291562 6.2473178 -1.3100946 9 2
-2.6111701 6.4531393 0.60904431 2 10
-2.622175 6.4868474 -1.1081818 28 3
-2.9412692 7.2835517 0.96447408 9 11
-2.1776938 5.3953991 -0.71439815 16 4
-2.518265 6.24547 1.0665703 16 12
-2.6103499 6.4771061 -0.61096174 34 5
-2.2407329 5.5655713 1.1662247 11 13
-2.484009 6.1760464 -0.34887153 11 6
-2.5040219 6.2289443 1.5499128 10 14
-2.0620072 5.1345849 -0.096581623 15 7
-2.1524029 5.4060025 -1.559126 10 0
-1.9068638 4.7917366 0.090019517 12 8
-2.2626722 5.6916251 -1.4140424 14 1
-3.2088995 8.0759125 0.45542756 4 9
-2.4684656 6.2187696 -1.3005542 15 2
-2.4804308 6.2584677 -1.0662575 26 3
-2.738894 6.9176536 0.91353267 4 11
-2.2107949 5.5895276 -0.7380408 3 4
-2.6790376 6.7768383 1.1541736 13 12
-2.5672631 6.5007315 -0.61148465 42 5
-2.1910157 5.5536852 1.1605004 7 13
-2.442616 6.2009468 1.5386652 12 14
-2.3746605 6.0345984 -0.11319631 11 7
-2.0954177 5.3744693 -1.5456674 10 0
-1.8426574 4.731051 0.088623315 26 8
-2.1766422 5.5914474 -1.3852487 42 1
-2.2577903 5.8058972 0.32647175 7 9
-2.4242351 6.2403574 -1.3013173 5 2
-2.2889156 5.895072 0.55326468 10 10
-2.5187805 6.4938016 -1.103176 30 3
-2.5604479 6.608067 0.87014717 17 11
-2.1743252 5.6144605 -0.73925954 10 4
-2.3855329 6.166223 1.0471724 12 12
-2.5084639 6.4873447 -0.6085214 37 5
-2.1299963 5.5142803 1.1490518 7 13
-2.3974824 6.2164474 1.5382153 19 14
-2.3040986 5.9805284 -0.11186992 11 7
-2.0426846 5.3492627 -1.5342795 18 0
-1.8638897 4.8836026 0.091241181 19 8
-2.1882329 5.7394314 -1.4180914 16 1
-2.2751141 5.9704385 0.33484548 9 9
-2.3754163 6.240201 -1.2978829 11 2
-2.5486732 6.7023811 0.62734705 5 10
-2.4689057 6.4960237 -1.100673 36 3
-2.545002 6.7032881 0.88038421 5 11
-2.1857603 5.7631412 -0.7568087 10 4
-2.1698606 5.7242317 0.96958095 20 12
-2.4567626 6.4879298 -0.60695255 45 5
-2.0893638 5.5235071 1.147907 14 13
-2.0345552 5.3871346 1.3294607 5 14
-2.4204037 6.4155664 -0.1196886 21 7
-2.0251806 5.4137053 -1.5487732 7 0
-1.7926512 4.7972178 0.089391224 22 8
-2.096617 5.6136231 -1.383449 42 1
-1.8158842 4.8671603 0.27225167 24 9
-2.3167098 6.2161598 -1.2894872 14 2
-2.422117 6.5093994 -1.1000473 25 3
-2.4704771 6.6464639 0.87063468 6 11
-2.5875292 6.9650974 -0.912314 8 4
-2.2329352 6.0170355 1.0165112 13 12
-2.3996351 6.4731646 -0.6039893 48 5
-2.0278447 5.4731669 1.1345503 21 13
-1.8974183 5.126637 -0.28648707 16 6
-2.6632042 7.2034373 1.7730643 7 14
-2.082799 5.6365814 -0.10488896 12 7
-1.9680713 5.3751044 -1.5337617 8 0
-1.8525355 5.0650258 0.09413828 13 8
-2.0138838 5.5091567 -1.3542054 37 1
-1.8044704 4.9416289 0.27570584 16 9
-2.2268391 6.1049185 -1.2631556 16 2
-2.8989089 7.9517326 0.74047518 13 10
-2.3536348 6.4630404 -1.0894097 25 3
-2.3575115 6.4807305 0.84674829 15 11
-2.133904 5.8692193 -0.76680195 12 4
-2.0526378 5.6518502 0.95237315 10 12
-2.2911942 6.3155751 -0.58777833 21 5
-2.0531611 5.6625299 1.170804 15 13
-2.6410377 7.2918096 -0.40644106 13 6
-2.6135128 7.2236872 1.7735142 12 14
-2.3221972 6.4220014 -0.11919994 21 7
-1.9220307 5.3650694 -1.5270324 9 0
-1.8528394 5.1776228 0.095988236 13 8
-2.0173774 5.6405149 -1.3829991 33 1
-2.7314939 7.6455741 0.42549136 6 9
-2.201318 6.1683922 -1.2730777 14 2
-2.8714406 8.0505934 0.7477963 3 10
-2.2951944 6.4420996 -1.0831524 25 3
-2.3601348 6.6316833 0.86429745 8 11
-2.0323365 5.7137771 -0.74462175 4 4
-2.8365071 7.9834599 1.341895 4 12
-2.2836983 6.4346867 -0.59736544 32 5
-2.2925138 6.4631042 1.3329917 32 13
-1.9290905 5.4506073 1.3348596 13 14
-1.7671632 4.9958563 -0.092497751 17 7
-1.8832511 5.3747106 -1.5259972 10 0
-1.7571936 5.0205631 0.092846803 14 8
-1.9650811 5.6176724 -1.374001 35 1
-2.2274268 6.3747921 0.35389575 4 9
-2.0941565 6.0001025 -1.2352976 24 2
-2.4699972 7.0809202 0.65610844 1 10
-2.2573168 6.4784842 -1.0865939 31 3
-2.311166 6.6405001 0.8633225 9 11
-2.604142 7.4864836 -0.97324866 6 4
-1.996865 5.7471333 0.9636364 20 12
-2.2543986 6.4956474 -0.60154891 37 5
-1.9320793 5.5700803 1.145999 7 13
-1.839331 5.3086762 -0.29444212 8 6
-2.1542161 6.2245097 1.5206691 6 14
-1.747277 5.0515385 -0.093300566 10 7
-2.0635517 5.9726553 1.6931943 15 15
-1.825022 5.3274169 -1.5089152 12 0
-1.7318116 5.0610881 0.093370378 20 8
-1.9283369 5.6386304 -1.3758006 38 1
-1.6831521 4.9273047 0.27287969 1 9
-2.0114019 5.891593 -1.2101108 27 2
-2.2113965 6.4922152 -1.0862811 24 3
-2.0522463 6.028429 0.78191376 16 11
-2.5479751 7.493206 -0.97178626 10 4
-2.1426663 6.3048549 1.0546813 8 12
-2.1806717 6.4240561 -0.5935306 29 5
-1.8238022 5.378911 1.104021 7 13
-2.1499093 6.3516269 1.5481132 4 14
-1.7333572 5.1239305 -0.09441752 8 7
-1.7862628 5.3323889 -1.5068446 13 0
-1.690589 5.0497079 0.092951514 17 8
-1.8973274 5.6738029 -1.3811995 30 1
-2.4987612 7.4766808 0.41314009 7 9
-2.0458503 6.1286154 -1.2559049 14 2
-2.3280172 6.9819965 0.64390665 1 10
-2.1632936 6.4917469 -1.0837781 24 3
-2.0813794 6.2532101 0.80921251 18 11
-1.9681281 5.9164076 -0.76558328 3 4
-1.8393406 5.5357089 0.92390203 15 12
-2.1368971 6.4387498 -0.5935306 29 5
-1.797359 5.4188399 1.1097453 15 13
-1.661999 5.0166044 -0.27696192 14 6
-2.0673089 6.2436481 1.5184196 4 14
-1.6494665 4.9875216 -0.091694944 3 7
-1.9826561 6.0020289 1.6937119 19 15
-1.7640896 5.3845067 -1.5182326 12 0
-1.6487143 5.0382919 0.092532657 22 8
-1.8354255 5.612174 -1.3632034 30 1
-1.6273261 4.9817543 0.27465913 11 9
-1.9888626 6.0957384 -1.2463645 16 2
-2.2303929 6.8400617 0.62943876 5 10
-2.1123261 6.4856601 -1.0803366 28 3
-2.0768404 6.3842716 0.82432431 12 11
-2.3242769 7.1533861 -0.92352599 13 4
-1.7644016 5.4334941 0.90481704 40 12
-1.8373092 5.6647439 -0.52101701 5 5
-1.8260399 5.6367021 1.1517231 12 13
-1.5988991 4.9384937 -0.27204233 13 6
-2.0338631 6.2894497 1.526068 6 14
-1.5789589 4.8885474 -0.089670464 11 7
-1.976769 6.1238537 1.7242525 24 15
-1.7231631 5.3896317 -1.516162 12 0
-1.6110656 5.0420599 0.092393041 12 8
-1.8070709 5.662293 -1.3722014 26 1
-1.5637337 4.9057369 0.2698442 18 9
-1.9480455 6.1150866 -1.2475092 14 2
-2.1699116 6.8197742 0.62612689 3 10
-2.0634689 6.4930797 -1.0790851 34 3
-1.7227594 5.4242549 0.69879889 1 11
-1.8973343 5.981154 -0.7704581 4 4
-1.7445674 5.5062399 0.91482884 5 12
-1.8097459 5.7154217 -0.52450323 8 5
-1.7392842 5.4995632 1.1211938 15 13
-1.5532922 4.9174318 -0.2702629 26 6
-1.9488397 6.1734118 1.4945749 6 14
-1.5375763 4.8765659 -0.089251608 17 7
-1.9154916 6.082562 1.7087234 24 15
-1.6929728 5.4255052 -1.5228913 9 0
-1.5547171 4.9885483 0.091206275 22 8
-1.8005257 5.7808247 -1.3978459 14 1
-1.8154026 5.8357625 0.32029608 9 9
-1.8949171 6.0988731 -1.2414035 20 2
-1.8161999 5.8491201 0.53583348 1 10
-2.0139925 6.4941196 -1.076895 37 3
-1.6351511 5.279058 0.67856854 5 11
-2.3110499 7.4657955 -0.95959932 6 4
-1.7708499 5.7277684 0.9495573 16 12
-1.6641661 5.3893676 -0.49347579 10 5
-1.7546864 5.6860356 1.1566842 9 13
-1.5512794 5.0331326 -0.27601984 14 6
-1.9074805 6.1965113 1.4968243 11 14
-1.7774979 5.7778444 -0.10551725 14 7
-1.8667394 6.0754733 1.7030294 15 15
-1.6449306 5.4039245 -1.5135738 10 0
-1.5117071 4.9724965 0.090717614 21 8
-1.7589939 5.7895241 -1.3969461 41 1
-2.5070817 8.2621489 0.45249674 6 9
-1.8386267 6.0668602 -1.2322445 22 2
-1.8619503 6.1476851 0.56198025 4 10
-1.9554514 6.4645343 -1.069699 29 3
-1.6172038 5.3530526 0.68661195 1 11
-1.845769 6.113483 -0.78410745 10 4
-1.7057269 5.6567764 0.93579108 10 12
-1.6420131 5.4523635 -0.49818221 15 5
-1.7160792 5.7019076 1.1574475 30 13
-1.5057548 5.0094109 -0.27413577 21 6
-1.8412013 6.133153 1.4783784 14 14
-1.6773556 5.5909162 -0.10188715 4 7
-1.8237246 6.0865068 1.7025118 15 15
-1.6121083 5.4319458 -1.5182326 8 0
-1.5065085 5.0826249 0.092532657 17 8
-1.7024791 5.7474775 -1.383899 24 1
-2.4941041 8.4307508 0.46076584 9 9
-1.7661911 5.9778767 -1.2116373 14 2
-1.9910706 6.7433376 0.61514527 7 10
-1.7543919 5.9494023 -0.98240852 9 3
-1.7014854 5.777431 0.73950326 11 11
-1.8008049 6.1186013 -0.78313243 19 4
-1.6138293 5.4903979 0.90638137 10 12
-1.4785193 5.0332985 -0.45896214 7 5
-1.6590979 5.6553493 1.1456172 9 13
-1.4864697 5.0734677 -0.27706659 14 6
-1.8908604 6.45787 1.553512 10 14
-1.4048035 4.8040538 -0.087366745 32 7
-1.8131402 6.2084994 1.7330524 4 15
-1.5720028 5.4356441 -1.516162 7 0
-1.5296196 5.2925529 0.096162759 20 8
-1.6547494 5.7330093 -1.3776002 29 1
-2.0054562 6.9526143 0.37922639 2 9
-1.770023 6.1444559 -1.2429299 12 2
-2.0072923 6.9772677 0.63519108 13 10
-1.7040303 5.9270339 -0.97677696 15 3
-1.5733743 5.4797821 0.70001757 5 11
-2.1552842 7.5163736 -0.96008676 12 4
-1.5339782 5.353137 0.88197768 23 12
-1.4499198 5.0664845 -0.46105388 4 5
-1.5553781 5.4421601 1.1002047 8 13
-1.5177224 5.3139248 -0.28962722 8 6
-1.8029674 6.3209934 1.5175198 11 14
-1.3854744 4.8637471 -0.08827427 9 7
-1.7301111 6.0776291 1.6931943 0 15
-1.5302504 5.4294834 -1.5115032 9 0
-1.4536245 5.1645098 0.093649611 30 8
-1.5856113 5.6372113 -1.3519558 45 1
-1.5355725 5.4666319 0.29758227 6 9
-1.7366282 6.1906881 -1.249799 10 2
-1.9269471 6.873745 0.62455803 6 10
-1.7249181 6.1613474 -1.0133826 15 3
-1.4987338 5.360631 0.68344331 9 11
-1.8188313 6.5099292 -0.82993031 8 4
-1.4848893 5.321856 0.87509453 9 12
-1.425212 5.1148682 -0.46454012 4 5
-1.5109254 5.4261432 1.0948621 21 13
-1.7040443 6.13627 1.4702801 19 14
-1.3362963 4.815258 -0.087227128 8 7
-1.4938414 5.4456234 -1.5130562 8 0
-1.430214 5.2208195 0.094487324 24 8
-1.5662849 5.7214479 -1.3695021 20 1
-1.4647161 5.3577714 0.2910926 8 9
-1.6478657 6.0359945 -1.2162166 27 2
-1.5836771 5.8048644 0.52642071 16 10
-1.6195515 5.944531 -0.9758383 16 3
-1.3987362 5.141108 0.65419465 12 11
-1.9743698 7.2618723 -0.92401344 19 4
-1.5641572 5.7610245 0.94549 16 12
-1.744523 6.4342313 -0.58324623 42 5
-1.5007317 5.5388851 1.1154695 18 13
-1.4021702 5.182291 -0.28135812 15 6
-1.790278 6.6258607 1.5845551 12 14
-1.3433033 4.9750543 -0.089949705 3 7
-1.4493127 5.4316549 -1.5063269 9 0
-1.4117513 5.2983069 0.095708996 20 8
-1.5403429 5.7849703 -1.3820993 19 1
-1.9112464 7.1880393 0.38979825 16 9
-1.5462352 5.8234463 -1.1711857 31 2
-1.5599749 5.8793297 0.53217298 3 10
-1.5931895 6.0129766 -0.98522437 17 3
-1.6644162 6.2906671 0.79897547 10 11
-1.9352947 7.3196197 -0.92961943 7 4
-1.4255673 5.3993678 0.8844806 14 12
-1.5354998 5.8198543 -0.526595 5 5
-1.4395183 5.4637961 1.0982966 16 13
-1.3390262 5.0895815 -0.27581054 21 6
-1.7381988 6.6115079 1.5782566 6 14
-1.3999404 5.332458 -0.096232571 11 7
-1.4113573 5.4416404 -1.5063269 11 0
-1.4012407 5.406517 0.097489148 12 8
-1.5043131 5.8125625 -1.3861483 41 1
-1.9067811 7.3729758 0.39911404 2 9
-1.5104876 5.8490434 -1.1742386 19 2
-1.5263538 5.9190159 0.5347876 9 10
-1.6695398 6.4789495 -1.0596871 39 3
-1.686856 6.5556169 0.83114898 19 11
-1.9073654 7.4233165 -0.94107521 1 4
-1.3720793 5.343894 0.87384307 13 12
-1.5185833 5.9230709 -0.53496194 12 5
-1.359464 5.3101478 1.0654775 9 13
-1.8171819 7.1031799 -0.38425064 12 6
-1.4325079 5.6076794 1.3362092 15 14
-1.3720696 5.3789167 -0.096895754 26 7
-1.3804266 5.4754725 -1.5130562 8 0
-1.326849 5.2707276 0.094871283 15 8
-1.4632899 5.8169971 -1.3847986 32 1
-1.4710494 5.8651586 -1.1753834 14 2
-1.5727301 6.2752066 0.56598938 6 10
-1.5537722 6.2087536 -1.0136955 29 3
-1.3888754 5.5580754 0.70342994 11 11
-1.6028719 6.4192209 -0.81238109 16 4
-1.3309152 5.3380084 0.87134004 13 12
-1.4575223 5.8501387 -0.5274666 14 5
-1.3228136 5.3173738 1.0650959 4 13
-1.6043231 6.4585919 -0.34876686 23 6
-1.3905487 5.6021695 1.33261 7 14
-1.3570722 5.4754748 -0.098466478 5 7
-1.4873902 6.0102735 1.6590302 21 15
-1.3444604 5.49436 -1.5156444 10 0
-1.3047179 5.335968 0.095883526 7 8
-1.3921361 5.7021246 -1.3551052 38 1
-1.5786742 6.471077 0.34908086 9 9
-1.4352744 5.8922038 -1.1788181 27 2
-1.9823246 8.1503525 0.73385131 15 10
-1.565589 6.4418478 -1.0499883 26 3
-1.443234 5.9474335 0.75144643 7 11
-1.5645624 6.4572644 -0.81579345 16 4
-1.3805457 5.7021265 0.9292208 16 12
-1.4161738 5.8582349 -0.52729225 28 5
-1.2713792 5.2673173 1.0532657 10 13
-1.5401874 6.3858747 -0.34426597 23 6
-1.3418231 5.5719547 1.3231622 10 14
-1.5006732 6.2411404 -0.11204445 23 7
-1.3012296 5.4789486 -1.5089152 13 0
-1.2471303 5.2593346 0.094347708 11 8
-1.3479018 5.6887136 -1.3497064 28 1
-1.5541503 6.5694027 0.35379109 11 9
-1.4699273 6.2230725 -1.2429299 10 2
-1.5556256 6.5910392 0.59248471 11 10
-1.5196753 6.4487748 -1.0493625 26 3
-1.5139759 6.434649 0.81164992 6 11
-1.5210303 6.469696 -0.81603718 22 4
-1.3095534 5.5789318 0.90763283 15 12
-1.374332 5.8640995 -0.52694362 25 5
-1.8192232 7.7684965 1.5508956 15 13
-1.2313768 5.2665381 -0.28345159 31 6
-1.324158 5.6722765 1.3447573 10 14
-1.2841741 5.5053501 -0.098675907 3 7
-1.3653877 5.8627553 1.6129603 15 15
-1.2542799 5.4502473 -1.4985623 13 0
-1.2703897 5.5290675 0.099024951 2 8
-1.321233 5.7549653 -1.3632034 27 1
-1.3204591 5.7700481 -1.1505783 12 2
-1.4682733 6.4211087 0.5762738 9 10
-1.4711 6.4438205 -1.0468596 27 3
-1.3132893 5.761847 0.72561014 2 11
-1.5410659 6.7666159 -0.85211051 12 4
-1.3016697 5.7246995 0.92984658 5 12
-1.3761461 6.062017 -0.54385179 18 5
-1.3193655 5.8166094 1.1593555 6 13
-1.2232555 5.4016218 -0.29025525 8 6
-1.272063 5.6262603 1.3317102 21 14
-1.4475275 6.4075289 -0.11466231 45 7
-1.3648006 6.0511746 1.662136 8 15
-1.2153618 5.4550991 -1.497527 13 0
-1.2617168 5.6724887 0.10143339 17 8
-1.2962465 5.8325324 -1.3793999 25 1
-1.7750671 8.0001955 0.4294689 4 9
-1.3603925 6.1414003 -1.2227042 14 2
-1.2374105 5.5908275 0.5009712 1 10
-1.3936832 6.3073416 -1.0230815 19 3
-1.3906311 6.3039579 0.79263824 9 11
-1.4275563 6.4767332 -0.814331 15 4
-1.2739859 5.7895942 0.93891978 26 12
-1.396634 6.3575368 -0.56947559 27 5
-1.2900932 5.8774529 1.1696591 19 13
-1.1504585 5.2500505 -0.28167215 23 6
-1.2506589 5.7168646 1.3510561 13 14
-1.2293894 5.6243286 -0.10049096 16 7
-1.27145 5.8265133 1.5979488 15 15
-1.1805037 5.478559 -1.5016681 13 0
-1.257953 5.8528705 -1.3820993 24 1
-1.2817322 5.9736562 0.32019141 2 9
-1.3573705 6.3369594 -1.259721 24 2
-1.3718053 6.409811 0.57348478 15 10
-1.3669533 6.3980517 -1.0362221 13 3
-1.1697752 5.4845247 0.68856186 15 11
-1.4013405 6.57585 -0.82554299 4 4
-1.5459274 7.2667723 1.1767002 9 12
-1.3621495 6.4139061 -0.57365906 43 5
-1.131258 5.3312936 1.0593716 7 13
-1.1154312 5.2657704 -0.28209084 23 6
-1.2151519 5.746429 1.356005 7 14
-1.1756234 5.5642972 -0.099269286 24 7
-1.236324 5.861711 1.6051958 37 15
-1.1452041 5.5057802 -1.5068446 20 0
-1.3509263 6.5062175 0.11598869 3 8
-1.2120802 5.8426414 -1.3776002 28 1
-1.2575839 6.0726399 0.32500634 2 9
-1.3183488 6.3772721 -1.2658269 12 2
-1.3561283 6.5658031 0.58655816 5 10
-1.2473396 6.0497532 -0.97834122 16 3
-1.1393028 5.5355301 0.69392407 4 11
-1.3350537 6.4923782 -0.81384355 13 4
-1.1010522 5.3639035 0.86727273 32 12
-1.3165352 6.4193568 -0.57331049 43 5
-1.2064822 5.8931804 1.1692775 11 13
-1.1369091 5.5632257 -0.29758227 9 6
-1.2077547 5.9151564 1.3937967 15 14
-1.1178076 5.4843931 -0.097698569 15 7
-1.148514 5.6451325 1.5435969 28 15
-1.1074989 5.5174289 -1.5078799 8 0
-1.2358322 6.162344 0.10970583 2 8
-1.1437204 5.7133813 -1.3452073 35 1
-1.5679634 7.8397684 0.41900173 6 9
-1.2779841 6.4014997 -1.2688799 10 2
-1.2884552 6.4656882 0.57679671 2 10
-1.1949455 6.0019202 -0.96926802 24 3
-1.066389 5.3659778 0.67174387 9 11
-1.417935 7.147995 -0.89476484 21 4
-1.0802581 5.4507198 0.88010043 19 12
-1.1630421 5.8791733 -0.52432895 31 5
-1.1402092 5.7743392 1.1440908 15 13
-1.5984617 8.102499 -0.43281841 26 6
-1.2180117 6.1853909 1.4554334 11 14
-1.0756328 5.4724422 -0.097349517 22 7
-1.1811656 6.0148873 1.6424657 23 15
-1.0596331 5.4717345 -1.493386 12 0
-1.1417539 5.9123726 -1.3901975 19 1
-1.1918806 6.183538 0.33003056 7 9
-1.2325234 6.4064093 -1.2681167 12 2
-1.230121 6.3999591 0.57017285 6 10
-1.231176 6.4175153 -1.0349705 21 3
-1.0255388 5.3557458 0.66955024 13 11
-1.5811094 8.2649288 -1.0332084 19 4
-1.0344011 5.4173813 0.87353015 18 12
-1.1924655 6.2570534 -0.55727381 26 5
-1.1210744 5.8880405 1.1650798 9 13
-1.2078469 6.3679729 1.4963745 6 14
-1.1068649 5.8411469 -0.10377201 10 7
-1.0224694 5.4846964 -1.494939 10 0
-1.162111 6.2458401 0.11089259 5 8
-1.0947518 5.889545 -1.3829991 15 1
-1.1311983 6.0974479 0.32500634 9 9
-1.1881256 6.4167881 -1.2684983 8 2
-1.1267051 6.0910077 0.54193443 6 10
-1.1834712 6.4104147 -1.0324676 22 3
-1.2194173 6.6180582 0.82627422 10 11
-1.5168982 8.2406263 -1.0288211 19 4
-0.99834001 5.434185 0.87509453 9 12
-1.1767811 6.4180832 -0.5708701 33 5
-1.0399691 5.6775064 1.1219569 12 13
-1.4377658 7.8646874 -0.41900173 13 6
-1.1101943 6.0848522 1.4279894 7 14
-1.0553017 5.7897139 -0.10272487 24 7
-0.99369848 5.5449443 -1.5094327 10 0
-1.147347 6.415215 0.11375479 3 8
-1.0515547 5.8855333 -1.3802997 14 1
-1.0763316 6.0363774 0.3213428 16 9
-1.1395125 6.4036655 -1.2643005 12 2
-1.0426573 5.8652902 0.52119136 4 10
-1.1141902 6.2804246 -1.0102539 21 3
-1.0181445 5.7507076 0.71707928 16 11
-1.4634795 8.2744722 -1.0317459 16 4
-0.94149315 5.3340306 0.85788667 31 12
-1.1291838 6.4104447 -0.56947559 33 5
-0.96151996 5.4642043 1.0784526 12 13
-1.041449 5.9427342 1.392897 15 14
-1.1014104 6.2913446 -0.11148597 30 7
-0.95332581 5.5422268 -1.5068446 12 0
-1.0700552 6.2338653 0.11040393 28 8
-1.0084642 5.881207 -1.3776002 16 1
-1.0008113 5.8488488 0.31098029 2 9
-1.097095 6.4250112 -1.2669718 14 2
-1.0951494 6.4203887 0.56982422 6 10
-1.0888798 6.3971028 -1.0277746 21 3
-0.92013407 5.4171462 0.67466873 5 11
-1.0819033 6.376296 -0.7941007 11 4
-0.9263289 5.4709659 0.87884891 28 12
-1.0824082 6.4063854 -0.56842977 30 5
-0.97562921 5.7805228 1.1395113 17 13
-1.0790377 6.4068542 -0.34049776 11 6
-1.0067179 5.9902172 1.4023448 17 14
-0.93728048 5.5830092 -0.098815523 22 7
-0.91555297 5.5544653 -1.5083975 9 0
-0.98334539 5.9787502 0.10576159 18 8
-0.96832883 5.8938727 -1.3789499 13 1
-0.95413834 5.8202162 0.30909619 7 9
-1.0553826 6.4518886 -1.270788 8 2
-1.0695776 6.5458574 0.58028293 6 10
-1.0092306 6.1900887 -0.99335897 15 3
-0.87368673 5.3705359 0.66808778 6 11
-1.3255221 8.1569414 -1.0146842 3 4
-0.91118926 5.6196432 0.9016884 15 12
-1.0338384 6.3901834 -0.566338 22 5
-0.85757083 5.3065429 1.0448701 16 13
-1.1487511 7.1399536 1.6695868 3 14
-0.87543517 5.4472623 -0.096302375 22 7
-0.99652988 6.2145815 1.6864649 6 15
-0.87253833 5.5340061 -1.5011505 10 0
-0.94997209 6.038805 0.10670401 14 8
-0.9241305 5.8812389 -1.3744509 13 1
-0.91472256 5.8346276 0.30951488 7 9
-1.0081904 6.4455214 -1.2681167 10 2
-0.92328489 5.909462 0.52328306 12 10
-0.95868909 6.1501403 -0.98585016 15 3
-0.86240453 5.5451951 0.6890493 6 11
-1.2685435 8.1659966 -1.0146842 11 4
-0.90067625 5.8113146 0.93141097 21 12
-0.98859549 6.3933072 -0.56598938 29 5
-0.82529807 5.3434443 1.050976 5 13
-0.92446619 6.01332 1.4045944 20 14
-0.86106133 5.6074104 -0.099024951 7 7
-0.83474773 5.5456934 -1.5027034 8 0
-0.89116067 5.9345484 0.10474934 2 8
-0.87842709 5.8567114 -1.3672525 13 1
-0.89879388 6.006794 0.31830731 7 9
-0.92172217 6.1747336 -1.2135452 17 2
-0.89464015 6.0004997 0.53077847 6 10
-0.95089108 6.3931036 -1.0237073 22 3
-0.78375721 5.2820678 0.65565711 11 11
-0.96180755 6.4898462 -0.80555642 9 4
-0.79912633 5.4051375 0.86539555 13 12
-0.94505155 6.3998885 -0.56598938 32 5
-0.78339827 5.3179989 1.0448701 3 13
-0.79885381 5.4360762 -0.28795245 8 6
-1.0289731 7.0105076 1.6358441 11 14
-0.80972558 5.5301838 -0.097558953 11 7
-0.79381752 5.536088 -1.4985623 8 0
-0.81587589 5.6969991 0.10045605 14 8
-0.83724266 5.8607726 -1.3668026 25 1
-1.0779289 7.5550165 0.3999514 4 9
-0.88990289 6.2527814 -1.2276652 18 2
-0.86420876 6.0874767 0.53792524 10 10
-0.90375048 6.3740015 -1.01964 15 3
-0.73944539 5.2283139 0.64834493 6 11
-0.90400112 6.4079494 -0.79458821 6 4
-0.74329954 5.2754841 0.84380758 12 12
-0.90118384 6.4122491 -0.56651235 16 5
-0.7955848 5.6752462 1.113943 9 13
-0.75684822 5.4057841 -0.28606835 8 6
-1.0115403 7.2433314 1.6884826 3 14
-0.84282506 6.0506511 -0.1066342 12 7
-0.75637996 5.5432768 -1.4990799 10 0
-0.99531758 7.3134584 0.12883367 8 8
-0.79602069 5.8566804 -1.3645531 25 1
-0.80113167 5.9097619 0.31255037 11 9
-0.8617484 6.3736286 -1.2501806 16 2
-0.80222362 5.9411836 0.52450323 9 10
-0.86081147 6.391902 -1.0215172 19 3
-0.71561134 5.327786 0.66004443 11 11
-1.3467577 10.040003 -1.2437986 7 4
-0.69859344 5.2218065 0.83442152 24 12
-0.85382211 6.3905869 -0.56407195 16 5
-0.75538021 5.6688542 1.1116532 8 13
-0.77915406 5.8707428 1.3672525 5 14
-0.72841406 5.5031562 -0.096895754 18 7
-0.71691608 5.542675 -1.497527 8 0
-0.9439798 7.3081641 0.12862423 17 8
-0.75536007 5.864028 -1.365003 32 1
-0.83555126 6.495492 0.34321922 4 9
-0.81259906 6.3345594 -1.2414035 28 2
-0.74328244 5.8102756 0.51247573 18 10
-0.79575586 6.2291002 -0.99461043 21 3
-0.6903674 5.4191771 0.67076892 12 11
-1.2858936 10.122023 -1.252817 2 4
-0.67322636 5.3067875 0.84724921 17 12
-1.6566321 13.095209 -1.1548136 19 5
-0.7103799 5.6311374 1.1032577 21 13
-0.68923217 5.47119 -0.28899917 33 6
-0.71653217 5.7039542 1.3272111 7 14
-0.69519657 5.5497756 -0.097628765 11 7
-0.67095745 5.4803119 -1.4794097 10 0
-0.66515613 5.4487147 0.095813714 22 8
-0.70812023 5.8090663 -1.3510561 15 1
-0.77885461 6.4079823 0.33829966 9 9
-0.77496916 6.3946495 -1.2520887 14 2
-0.7094605 5.8626719 0.51665926 18 10
-0.76218778 6.3168726 -1.007751 19 3
-0.65370578 5.4337192 0.67198765 6 11
-0.84968895 7.0836434 -0.87599689 5 4
-0.62794197 5.2427106 0.83629876 21 12
-1.573675 13.177676 -1.1610888 19 5
-0.67151409 5.6398587 1.104021 11 13
-0.64276659 5.4064531 -0.28533566 32 6
-0.85125762 7.181499 1.6695868 3 14
-0.7169885 6.0668492 -0.1066342 17 7
-0.63725007 5.5329523 -1.4923507 8 0
-0.64309227 5.5922875 0.09825705 24 8
-0.67208225 5.8623862 -1.3623036 20 1
-0.73298329 6.4133911 0.33829966 14 9
-0.73164582 6.4116073 -1.2543784 12 2
-0.69744438 6.1308875 0.53984267 9 10
-0.72675967 6.4085274 -1.0215172 15 3
-0.63205665 5.5821424 0.68978053 11 11
-0.72295457 6.404923 -0.79141963 16 4
-0.58245826 5.1764021 0.82503545 16 12
-0.68087333 6.0605783 -0.53356743 23 5
-0.6745162 6.0229139 1.1780548 21 13
-0.59409082 5.3215933 -0.28062543 22 6
-0.80196744 7.1950135 1.6713864 12 14
-0.63486546 5.713964 -0.10035134 24 7
-0.59777665 5.5295835 -1.4902802 13 0
-0.59106141 5.4854078 0.096302375 5 8
-0.6278038 5.8359342 -1.3551052 21 1
-3.5314374 32.93576 1.7359838 12 9
-0.69033647 6.4596257 -1.262774 12 2
-0.64299726 6.0266442 0.5302555 12 10
-0.67949855 6.3898735 -1.0177628 19 3
-0.58184636 5.4897943 0.67783737 8 11
-1.0648574 10.063821 -1.2425799 9 4
-0.57013041 5.4062576 0.86101538 18 12
-0.63291645 6.0116849 -0.52886105 31 5
-0.58389622 5.5647254 1.0876113 6 13
-0.56128693 5.3673258 -0.28282353 31 6
-0.65993881 6.3427896 -0.11131145 38 7
-0.56071204 5.5489984 -1.4944212 8 0
-0.61311746 6.0782251 0.1066342 11 8
-0.58918989 5.8615041 -1.3600541 25 1
-0.71926516 7.1681175 0.37755162 7 9
-0.64205074 6.4211984 -1.2543784 12 2
-0.61947918 6.2173481 0.54664081 10 10
-0.63872224 6.4218702 -1.0221429 15 3
-0.54779321 5.5272093 0.68198091 9 11
-1.001596 10.142128 -1.2513546 9 4
-0.55637926 5.643949 0.89824677 15 12
-0.59151584 6.0219054 -0.52938396 28 5
-0.53298223 5.4455695 1.0635694 9 13
-0.53251034 5.4505334 -0.2870104 16 6
-0.71502125 7.3451586 1.7037793 12 14
-0.54344308 5.602849 -0.09825705 13 7
-0.5205735 5.5276833 -1.4876919 10 0
-0.56170219 5.9867916 0.10495877 6 8
-0.54945987 5.8673186 -1.360504 22 1
-0.66883373 7.1689873 0.37734228 9 9
-0.59212244 6.3707881 -1.2436931 10 2
-0.57696056 6.2194371 0.54646653 13 10
-0.5920589 6.4065032 -1.0190142 15 3
-0.51938379 5.6415958 0.69563025 11 11
-0.63737309 6.9364672 -0.85527909 12 4
-0.5117417 5.5906491 0.88917363 9 12
-0.53208929 5.8354092 -0.51265007 35 5
-0.49394834 5.4275637 1.0593716 17 13
-0.65181041 7.2179942 1.6731859 26 14
-0.49739239 5.5187874 -0.096721239 20 7
-0.47995788 5.5080881 -1.4814804 10 0
-0.50709867 5.8431439 0.10237581 4 8
-0.50781226 5.863246 -1.3587044 18 1
-0.61087292 7.0819483 0.37252739 9 9
-0.54914385 6.3923717 -1.2471277 16 2
-0.53250557 6.2114029 0.54542065 6 10
-0.54765463 6.4144158 -1.01964 17 3
-0.47124001 5.5422306 0.68295586 9 11
-0.59698796 7.0356913 -0.86697859 11 4
-0.46255323 5.4740148 0.87008858 18 12
-0.4871636 5.7893467 -0.50829226 41 5
-0.45718873 5.4673891 -0.28753379 66 6
-0.46067601 5.5440459 -0.09710519 16 7
-0.43825561 5.4708648 -1.4706099 13 0
-0.46804231 5.8684692 0.10275977 21 8
-0.46764246 5.8763609 -1.3609538 24 1
-0.55195194 6.9665785 0.36624706 7 9
-0.50496644 6.4019208 -1.2482725 12 2
-0.58026397 7.372951 0.64704424 10 10
-0.50100869 6.3944516 -1.0158856 21 3
-0.44395965 5.6918373 0.70099252 11 11
-0.54446656 6.9961476 -0.86161631 13 4
-0.42768294 5.5204396 0.87697172 19 12
-0.49212077 6.3666172 -0.55866832 29 5
-0.48273459 6.2736859 1.2230858 2 13
-0.4168725 5.4425669 -0.28606835 8 6
-0.41331458 5.4334726 -0.095115617 20 7
-0.39976689 5.4699383 -1.4695747 22 0
-0.43695882 5.9931769 0.10488896 18 8
-0.42589843 5.8697648 -1.3587044 19 1
-2.3922641 33.05006 1.736612 6 9
-0.46137816 6.40521 -1.2482725 12 2
-0.51966012 7.2496362 0.63588828 7 10
-0.43464705 6.0785174 -0.96520072 16 3
-0.40999648 5.7620502 0.7092796 11 11
-0.49701634 7.0195789 -0.86405367 15 4
-0.41138962 5.8247037 0.92484063 10 12
-0.44668669 6.3559847 -0.55744815 35 5
-0.44015682 6.294529 1.2265203 11 13
-0.37995797 5.4472713 -0.28617305 16 6
-0.3775757 5.4681449 -0.095674098 22 7
-0.36239973 5.4706044 -1.469057 14 0
-0.398132 6.041975 0.10569178 15 8
-0.38772619 5.8997512 -1.365003 21 1
-0.45376471 6.9416389 0.36457232 16 9
-0.41614062 6.4004383 -1.2467461 10 2
-0.46759394 7.2112527 0.63222772 7 10
-0.41330421 6.4086366 -1.0171371 15 3
-0.36544234 5.6974173 0.70099252 12 11
-0.44896722 7.0188379 -0.86356628 15 4
-0.38539153 6.0580869 0.96144634 21 12
-0.40242541 6.3609366 -0.55762243 26 5
-0.33954087 5.4119182 -0.28418428 24 6
-0.34208477 5.4985299 -0.096162759 22 7
-0.32694057 5.5192847 -1.4814804 14 0
-0.3612282 6.134438 0.10726249 19 8
-0.34492967 5.8750792 -1.3587044 22 1
-0.40528855 6.9446373 0.36457232 16 9
-0.37122265 6.3992672 -1.2459828 10 2
-0.42368054 7.3257289 0.64198917 6 10
-0.36900997 6.4192538 -1.0183885 17 3
-0.39110658 6.8453455 0.84187353 13 11
-0.33922559 5.9555492 -0.73243481 3 4
-0.32690004 5.7746582 0.91608036 15 12
-0.35453862 6.3019247 -0.55221879 15 5
-0.33442599 6.0004406 -0.3149578 10 6
-0.298729 5.4109349 -0.094592042 22 7
-0.28860223 5.525291 -1.4825156 13 0
-0.32243669 6.2146935 0.10862378 17 8
-0.3043052 5.8851285 -1.360504 22 1
-0.3711409 7.2265458 0.37922639 2 9
-0.3164371 6.2036715 -1.2074393 8 2
-0.34329852 6.7534499 0.59161317 17 10
-0.32378772 6.4137821 -1.0171371 17 3
-0.36129445 7.2067604 0.8859902 11 11
-0.30318648 6.0687995 -0.74608415 13 4
-0.30575785 6.1634979 0.97740263 20 12
-0.31337991 6.3619556 -0.55727381 32 5
-0.29087415 5.9687157 -0.31317839 21 6
-0.26133144 5.4208779 -0.094731666 17 7
-0.25063249 5.5406804 -1.4861389 12 0
-0.2809251 6.2587447 0.10935678 21 8
-0.26373693 5.8987899 -1.3632034 21 1
-0.26606879 5.9978623 0.3146438 9 9
-0.2813201 6.3920584 -1.2436931 10 2
-0.29544419 6.739759 0.59021866 15 10
-0.27831668 6.4000988 -1.0146341 21 3
-0.26623344 6.1718683 0.75851488 5 11
-0.28568742 6.6498809 -0.81725591 4 4
-0.25633252 6.0154896 0.95362461 21 12
-0.2690416 6.3659792 -0.55744815 35 5
-0.33090687 7.9282079 -0.41586155 13 6
-0.26020843 6.3136783 -0.11029921 29 7
-0.21239327 5.5287452 -1.4825156 9 0
-0.22394 5.8828435 0.10275977 23 8
