# .PCD v0.7 - Point Cloud Data file format
VERSION 0.7
FIELDS x y z intensity ring
SIZE 4 4 4 4 2
TYPE F F F F U
COUNT 1 1 1 1 1
WIDTH 1319
HEIGHT 1
VIEWPOINT 0 0 0 1 0 0 0
POINTS 1319
DATA ascii
-6.0792294 2.1217706 -1.7252878 7 0
-7.076787 2.4740951 -1.7307733 7 1
-15.239394 5.3337708 0.84616786 22 9
-8.383956 2.9376631 -1.7268214 10 2
-15.161847 5.3155417 1.4056478 12 10
-10.189976 3.576467 -1.7104547 8 3
-13.157795 4.6258483 -1.7125082 7 4
-25.46917 8.9891052 -1.4154785 11 6
-6.078824 2.1693547 -1.7294289 7 0
-15.316407 5.4689913 0.28388086 25 8
-7.0556722 2.5221283 -1.7298737 8 1
-15.214018 5.4414139 0.84679586 13 9
-8.3157101 2.9774537 -1.7168994 9 2
-15.188135 5.4441233 1.4115744 14 10
-10.144942 3.6384072 -1.7070131 9 3
-13.0187 4.6793184 -1.6986151 9 4
-15.011805 5.404582 -1.3958863 98 5
-6.0639172 2.2106814 -1.7294289 9 0
-15.255311 5.5675597 0.28346199 25 8
-7.0346799 2.5687594 -1.7289737 9 1
-15.186915 5.5516105 0.84742391 9 9
-8.283659 3.0313878 -1.7146096 7 2
-15.120793 5.5364156 1.4087855 6 10
-10.115585 3.7077844 -1.7063874 9 3
-12.963353 4.7618814 -1.6956902 9 4
-15.070941 5.5450273 -1.4049505 28 5
-14.743171 5.4331965 -0.82345402 26 6
-6.0370817 2.2499695 -1.7263231 7 0
-15.204829 5.6697345 0.28325257 25 8
-7.0069904 2.6156254 -1.7267244 11 1
-15.141188 5.658042 0.84710985 6 9
-8.1887369 3.0616429 -1.699345 9 2
-15.077056 5.643075 1.4084367 6 10
-10.088794 3.7800748 -1.7063874 9 3
-12.900058 4.841104 -1.6917903 9 4
-14.683354 5.5308132 -0.82230264 35 6
-6.0176158 2.2906854 -1.7252878 9 0
-15.160129 5.7769675 0.28318274 25 8
-6.9630671 2.6547585 -1.7204256 10 1
-15.10878 5.7664614 0.84752852 6 9
-8.1592836 3.1173573 -1.6978186 7 2
-15.070791 5.761004 1.4115744 12 10
-10.021569 3.8348839 -1.6995043 9 3
-12.834435 4.9189687 -1.6876467 10 4
-14.661161 5.6396375 -0.82324463 35 6
-5.9726677 2.3214426 -1.7170056 9 0
-6.8971477 2.6849251 -1.7087282 13 1
-15.089653 5.8771405 0.84867996 9 9
-8.1305571 3.1699727 -1.696292 9 2
-15.045053 5.8718691 1.4129688 19 10
-9.9308329 3.8778615 -1.6885538 8 3
-12.723989 4.9787927 -1.6776536 9 4
-22.605743 8.8727503 -1.2727059 21 6
-5.953136 2.3606179 -1.7159703 9 0
-6.8334346 2.7138269 -1.6974807 14 1
-15.033408 5.97644 0.84784257 9 9
-8.0753956 3.2135892 -1.6894228 7 2
-15.002887 5.9734049 1.4127946 7 10
-9.8484678 3.9251544 -1.6791677 8 3
-12.520189 4.9975801 -1.6552296 9 4
-11.906823 4.7599764 -1.1218687 17 5
-17.059006 6.8334789 -0.96308637 9 6
-26.218445 10.51849 -0.49310032 27 7
-5.9436741 2.4050212 -1.7180409 9 0
-15.075021 6.1029453 0.28388086 25 8
-6.7818112 2.7482944 -1.6893824 13 1
-15.038652 6.0973887 0.85045934 6 9
-8.0533342 3.2684822 -1.6894228 7 2
-14.968201 6.0809989 1.4134917 4 10
-9.8215218 3.9921 -1.6791677 8 3
-11.839695 4.8220491 -1.5696774 7 4
-11.83087 4.8256817 -1.1178595 52 5
-22.09099 9.01966 4.638185 3 13
-16.017366 6.5430908 -0.90677285 9 6
-5.9343095 2.4483685 -1.7201115 9 0
-15.124459 6.2462096 0.28562608 26 8
-6.7233243 2.7780211 -1.6794846 15 1
-14.951423 6.1839128 0.8479473 4 9
-8.0212517 3.3208692 -1.6875149 6 2
-14.944869 6.1903677 1.4152349 4 10
-9.7769918 4.0537586 -1.6763519 9 3
-11.788264 4.8949151 -1.5672399 11 4
-5.8778973 2.4732547 -1.7087234 9 0
-6.7037673 2.8248894 -1.6794846 14 1
-14.948374 6.3052163 0.85025001 6 9
-7.9490366 3.3561702 -1.677211 7 2
-14.936162 6.309279 1.4185469 3 10
-9.7193413 4.1096096 -1.6713461 9 3
-11.783051 4.9894776 -1.5711397 6 4
-21.14875 9.0076189 6.1593757 2 15
-5.8356328 2.5035667 -1.7014765 9 0
-6.6874628 2.8731604 -1.6803844 14 1
-14.880136 6.3991637 0.84888929 11 9
-7.8641019 3.3851893 -1.6642361 7 2
-14.875281 6.4063096 1.4169781 4 10
-9.6432505 4.1570292 -1.6632115 9 3
-12.159821 5.2494283 -1.6262246 6 4
-15.833757 6.8453135 -1.5091888 31 5
-5.8215528 2.5457942 -1.7025118 9 0
-6.6422505 2.9088333 -1.6740857 14 1
-14.88197 6.5203357 0.85150605 6 9
-7.8049183 3.4228704 -1.6566037 9 2
-14.826547 6.5083976 1.4166294 5 10
-9.5677061 4.20192 -1.6550769 9 3
-12.144681 5.3437862 -1.6291496 7 4
-15.60326 6.8753543 -1.4917578 31 5
-14.908703 6.5786309 -0.85401821 8 6
-5.7829127 2.5759273 -1.6963001 9 0
-6.6258569 2.9555645 -1.6749856 14 1
-14.861618 6.6354761 0.85297149 6 9
-7.7880011 3.4804797 -1.6581303 9 2
-14.816461 6.62462 1.4199414 3 10
-9.5092888 4.2557025 -1.6500709 9 3
-12.044622 5.3979139 -1.6206186 9 4
-15.374328 6.8998213 -1.4743265 30 5
-14.130131 6.3532948 -0.81194013 52 6
-21.277138 9.5801811 -0.40730426 35 7
-5.7683072 2.6178336 -1.6973354 9 0
-14.89962 6.7650375 0.28562608 26 8
-6.590868 2.9953012 -1.6713864 14 1
-14.783382 6.7215991 0.85108739 4 9
-7.7301793 3.5179596 -1.6508795 6 2
-14.782545 6.7336755 1.4211617 2 10
-9.4423532 4.3031292 -1.6435007 8 3
-11.903717 5.4348726 -1.6067256 7 4
-15.202568 6.9506516 -1.4624733 30 5
-14.289948 6.5424485 -0.82366335 52 6
-18.114424 8.3010788 4.6002488 4 14
-5.7258034 2.6456907 -1.6900884 9 0
-6.5738649 3.0417295 -1.6722862 14 1
-14.797714 6.8531799 0.85464621 4 9
-7.6894011 3.5644078 -1.6474451 7 2
-14.749021 6.8400083 1.4223818 2 10
-9.3923731 4.3597932 -1.6400591 9 3
-11.77284 5.4722629 -1.5940511 10 4
-14.9815 6.9732556 -1.4457395 29 5
-14.262027 6.6504922 -0.82471007 52 6
-5.7036972 2.6839561 -1.6890532 9 0
-6.548944 3.0858881 -1.6713864 14 1
-14.768792 6.9622593 0.85569292 6 9
-7.6756139 3.6216919 -1.6497347 7 2
-14.722526 6.9530191 1.4244734 9 10
-9.3339033 4.4101224 -1.6350533 9 3
-11.635664 5.5076108 -1.5806454 9 4
-14.74161 6.9872246 -1.4272624 29 5
-14.261536 6.768826 -0.82732689 61 6
-5.653934 2.7076972 -1.6797357 9 0
-6.4961591 3.1152253 -1.6632881 12 1
-14.754037 7.0816197 0.85768169 15 9
-7.6359854 3.6683862 -1.6466817 7 2
-14.685632 7.05825 1.4255193 9 10
-9.302887 4.4751778 -1.6350533 9 3
-11.528978 5.5559583 -1.5713835 9 4
-14.505855 6.9999137 -1.409134 28 5
-14.226523 6.8743048 -0.82805955 52 6
-18.893629 9.1457472 -0.36639583 38 7
-5.6448312 2.7531674 -1.6828415 9 0
-6.4701986 3.1599205 -1.6623883 14 1
-14.701192 7.1861353 0.85757709 4 9
-7.6031351 3.7181563 -1.6451553 7 2
-14.650854 7.1710396 1.4270881 2 10
-9.2635298 4.5381541 -1.6338017 9 3
-11.43288 5.6083317 -1.5635839 9 4
-14.35649 7.0518193 -1.3993727 28 5
-13.872316 6.826025 -0.81026536 26 6
-5.6116304 2.7856374 -1.6787004 9 0
-6.4095888 3.1859312 -1.6524904 14 1
-14.6757 7.3010483 0.85904253 2 9
-7.5728183 3.7707198 -1.6443919 7 2
-14.598653 7.2722559 1.4269139 2 10
-9.2104063 4.5921407 -1.6300472 9 3
-11.374696 5.6811299 -1.5611464 9 4
-14.049057 7.0260415 -1.3742718 27 5
-14.256504 7.1391206 -0.83559597 43 6
-5.5777593 2.8187509 -1.6745592 9 0
-6.3831496 3.2299559 -1.6515907 12 1
-14.651587 7.4203167 0.86071724 2 9
-7.5428081 3.8217196 -1.6436287 7 2
-14.581779 7.394557 1.4304 2 10
-9.145606 4.6418366 -1.6244158 9 3
-11.324137 5.7550082 -1.5596839 9 4
-13.715549 6.9793787 -1.3463819 26 5
-14.279789 7.2790518 -0.83999223 43 6
-15.161649 7.7452555 4.561945 2 15
-5.565815 2.8592131 -1.6766298 9 0
-6.3407917 3.2615232 -1.6461918 12 1
-7.5044026 3.8666785 -1.6409575 6 2
-17.808674 9.1799316 1.7528763 3 10
-9.0689754 4.6788425 -1.6162812 9 3
-5.5354462 2.8926306 -1.6735239 9 0
-6.2971487 3.294868 -1.640793 14 1
-17.645544 9.2405615 1.0438931 2 9
-7.4963536 3.9289985 -1.6451553 7 2
-17.391243 9.1189957 1.718014 2 10
-9.0081024 4.7273545 -1.6112752 9 3
-13.417024 7.0620275 -1.3265103 25 5
-16.462208 8.6758642 -0.97522831 55 6
-16.498962 8.706275 -0.325627 54 7
-5.5117059 2.9293902 -1.6724888 9 0
-6.2636709 3.3332574 -1.6380936 14 1
-17.199839 9.1607218 1.021284 2 9
-7.4306264 3.9609201 -1.6367596 9 2
-16.961489 9.0451784 1.6817572 1 10
-8.9504843 4.7771044 -1.606895 9 3
-9.2826195 4.9606199 -1.2923026 29 4
-16.269211 8.7198181 -0.9673779 18 6
-5.4911203 2.9677992 -1.6724888 9 0
-6.2333918 3.3731949 -1.6362939 14 1
-16.738556 9.0656099 0.99762809 2 9
-7.3872595 4.0042791 -1.6333251 6 2
-16.523119 8.9601212 1.6444545 2 10
-8.8943443 4.8272243 -1.6028277 8 3
-10.960568 5.9560561 -1.5316541 9 4
-15.864207 8.6458559 -0.94686222 18 6
-5.4634953 3.0023391 -1.6704183 9 0
-6.2233505 3.4241438 -1.6398932 13 1
-16.345947 9.0011263 0.9779498 2 9
-7.3488078 4.0500684 -1.6310353 6 2
-16.090271 8.8713179 1.6075004 1 10
-8.8500509 4.8834743 -1.6009505 8 3
-10.845743 5.9921117 -1.521417 10 4
-13.004699 7.1967564 -1.3003637 24 5
-15.480266 8.5773172 -0.92749786 27 6
-5.4187899 3.0272191 -1.6631712 9 0
-6.1856871 3.4598985 -1.6362939 14 1
-15.775563 8.8311195 0.94749022 12 9
-7.2963767 4.0878386 -1.6256927 6 2
-15.742913 8.8236713 1.5789135 1 10
-8.7554445 4.9113145 -1.5900002 9 3
-10.769032 6.0482388 -1.5165422 11 4
-15.078927 8.4930696 -0.90698218 18 6
-5.410964 3.0726061 -1.6673124 9 0
-6.1613822 3.5029967 -1.6362939 14 1
-15.576388 8.8630075 0.9392212 2 9
-7.2505994 4.1289616 -1.6218765 6 2
-15.372782 8.7578125 1.5478859 1 10
-8.6866217 4.9527526 -1.5837427 9 3
-10.666205 6.0888319 -1.5080113 9 4
-12.447571 7.1143727 -1.2543454 22 5
-13.967139 7.9958181 -0.84344637 8 6
-5.3860354 3.1083741 -1.6662771 9 0
-6.1232791 3.5381248 -1.6326947 14 1
-15.169869 8.7689209 0.9182868 2 9
-7.1917391 4.160522 -1.6150075 6 2
-15.059526 8.7191687 1.5224365 1 10
-8.6253567 4.9959245 -1.5787368 9 3
-10.532434 6.1103492 -1.4950932 10 4
-12.29423 7.1410542 -1.2438867 22 5
-5.3614192 3.1430094 -1.6652418 9 0
-6.1057763 3.5836685 -1.6344943 13 1
-14.836186 8.7147799 0.90174866 2 9
-7.1405149 4.1976953 -1.6100464 9 2
-14.749089 8.6740084 1.496987 1 10
-8.5698423 5.0439939 -1.5749824 9 3
-14.519701 8.5527563 2.0690978 1 11
-10.374302 6.1133695 -1.4785191 10 4
-12.185739 7.1922779 -1.2379601 22 5
-13.987965 8.265872 -0.85150605 61 6
-14.042 8.307725 -0.28478837 73 7
-5.3227496 3.1704769 -1.6600655 9 0
-6.0705662 3.620219 -1.6317949 14 1
-14.565746 8.6932688 0.8889786 2 9
-7.1042938 4.2434149 -1.6085199 9 2
-14.393997 8.6009884 1.4670054 2 10
-8.4835606 5.0732827 -1.5655963 9 3
-14.163256 8.4765329 2.0266874 2 11
-10.201931 6.1081443 -1.4599948 15 4
-11.96436 7.1747084 -1.220529 21 5
-5.2938738 3.2035584 -1.6579949 9 0
-6.0318112 3.6544328 -1.6281958 15 1
-14.214369 8.618701 0.87118435 2 9
-7.0610685 4.2847624 -1.605467 7 2
-14.108788 8.5647898 1.4439963 1 10
-8.3736515 5.0872583 -1.5518301 9 3
-13.886625 8.4431973 1.9954888 2 11
-9.9894381 6.0760622 -1.435621 18 4
-11.886758 7.2414737 -1.2177401 21 5
-5.2582145 3.2323453 -1.6538538 9 0
-5.9895554 3.6862397 -1.6236967 14 1
-13.902169 8.5627079 0.85569292 2 9
-7.0075865 4.3195295 -1.6001244 9 2
-13.804444 8.5124893 1.4188955 2 10
-8.3110361 5.128993 -1.5468242 9 3
-13.634802 8.4210224 1.9677025 3 11
-9.9417105 6.1425204 -1.4348897 10 4
-11.859631 7.3389621 -1.2201804 21 5
-5.225688 3.2628369 -1.6507479 9 0
-5.966979 3.7300305 -1.6245965 13 1
-13.625319 8.5239677 0.84229493 2 9
-6.9872456 4.3745956 -1.6024141 7 2
-13.531923 8.4754 1.3969321 2 10
-8.2181196 5.1512194 -1.5361867 9 3
-13.370523 8.3873119 1.9379665 2 11
-9.8212395 6.1632395 -1.4236778 10 4
-11.606955 7.2923241 -1.199263 20 5
-5.1995192 3.297169 -1.6497126 9 0
-5.9243422 3.7611511 -1.6200974 14 1
-13.341064 8.473032 0.82826895 2 9
-6.9208531 4.3988881 -1.5940183 7 2
-13.233708 8.4178152 1.37218 1 10
-8.1345348 5.1762848 -1.5271133 8 3
-13.138988 8.3672304 1.9126177 2 11
-9.7126856 6.1900463 -1.4141719 11 4
-11.478499 7.3238807 -1.1912446 20 5
-5.1639614 3.3241181 -1.6455716 9 0
-5.8953276 3.7992785 -1.6191977 14 1
-13.049962 8.4165735 0.81382424 2 9
-6.8635836 4.4300613 -1.5879126 7 2
-12.935078 8.3520718 1.3470792 2 10
-8.0849276 5.2243695 -1.5246104 8 3
-12.93023 8.3617411 1.8906811 1 11
-9.6036587 6.2128825 -1.4044224 10 4
-11.36355 7.362669 -1.1846209 20 5
-5.1179895 3.3452921 -1.6383246 9 0
-5.8621373 3.8360751 -1.6173981 14 1
-12.797067 8.3805447 0.80168223 2 9
-6.8193526 4.4692612 -1.5848596 7 2
-12.679841 8.3132668 1.3265103 1 10
-8.0350456 5.272016 -1.5221075 8 3
-12.708924 8.345026 1.8667948 1 11
-9.4638205 6.2165661 -1.3902856 11 4
-11.168727 7.3476496 -1.1696301 19 5
-5.094511 3.38094 -1.6383246 9 0
-5.8124905 3.8618073 -1.6110994 12 1
-12.495424 8.3082285 0.7864002 2 9
-6.766737 4.5026217 -1.5798986 6 2
-12.415837 8.2646885 1.3048958 2 10
-7.9717402 5.3104606 -1.5171016 8 3
-12.46206 8.3080215 1.8390086 1 11
-9.2913723 6.1965733 -1.371274 13 4
-11.012407 7.352694 -1.1584741 19 5
-11.670059 7.803575 -0.73573893 35 6
-11.686851 7.8236609 -0.24548556 44 7
-5.0803957 3.4229016 -1.6414305 9 0
-5.7789254 3.8979347 -1.6092998 13 1
-12.249845 8.2657318 0.77446753 2 9
-6.7115254 4.5320964 -1.5741742 7 2
-12.169647 8.2239876 1.2850242 2 10
-7.9255891 5.3579612 -1.5152245 8 3
-12.204635 8.2569466 1.8092724 2 11
-9.2051468 6.2323527 -1.3649368 13 4
-10.924525 7.4048028 -1.1546392 19 5
-5.026679 3.4366865 -1.6315954 10 0
-5.7361789 3.9261723 -1.6048008 13 1
-11.94797 8.1840076 0.7589761 2 9
-6.6554337 4.5621891 -1.56845 4 2
-11.919491 8.1736755 1.2644554 2 10
-7.8863626 5.4120421 -1.5149114 9 3
-11.933966 8.1958561 1.7775863 2 11
-9.103611 6.2543969 -1.3561622 11 4
-10.767514 7.4086113 -1.1434834 18 5
-4.9978027 3.4683912 -1.6300424 9 0
-5.6990266 3.959451 -1.6021013 13 1
-11.71672 8.1463642 0.74788088 2 9
-6.5799084 4.5782681 -1.5581464 9 2
-11.675721 8.1269302 1.244584 2 10
-7.8256927 5.4511623 -1.5105313 9 3
-11.645215 8.1177702 1.7429756 2 11
-9.0141325 6.2860079 -1.3493375 10 4
-10.552185 7.3695202 -1.1260523 18 5
-4.9766269 3.5054216 -1.6310778 9 0
-5.6489491 3.9834189 -1.5958028 11 1
-11.489852 8.1081982 0.73699504 2 9
-6.4996767 4.590116 -1.5466977 9 2
-11.436447 8.079484 1.2250611 2 10
-7.7487364 5.4782929 -1.5030226 9 3
-11.387317 8.0567017 1.7127519 2 11
-8.8954954 6.29603 -1.3381255 11 4
-10.454964 7.4107504 -1.1211715 17 5
-11.610291 8.2388115 -0.74610144 8 6
-4.952033 3.5400798 -1.6310778 9 0
-5.5988169 4.0068798 -1.5895041 14 1
-11.270588 8.0719242 0.72652781 2 9
-6.4914107 4.6525345 -1.5524222 6 2
-11.201649 8.0314274 1.2058868 2 10
-7.6749935 5.5069184 -1.4961394 9 3
-11.163096 8.0155907 1.6874031 2 11
-8.8094053 6.3278675 -1.3317883 10 4
-10.205655 7.3416114 -1.0999055 17 5
-4.9271979 3.5745654 -1.6310778 9 0
-5.5612464 4.0389981 -1.5868047 14 1
-10.984545 7.9836659 0.71166438 2 9
-6.4460692 4.6885028 -1.5493692 6 2
-10.929426 7.9523535 1.1825291 2 10
-7.6379561 5.5615301 -1.4964522 8 3
-10.92076 7.9577179 1.6591294 2 11
-8.7233067 6.3588128 -1.3254511 11 4
-10.163809 7.4197273 -1.1009513 17 5
-4.880342 3.5928416 -1.6238307 9 0
-5.5172262 4.0661631 -1.5823058 14 1
-10.783876 7.9534631 0.70224392 2 9
-6.3689518 4.7007446 -1.5386838 4 2
-10.745413 7.9337883 1.1685842 2 10
-7.5751133 5.5971079 -1.4917592 9 3
-10.721289 7.9275436 1.637193 2 11
-8.6260357 6.380599 -1.3174077 9 4
-10.528141 7.7932549 2.0746341 3 12
-10.086143 7.47153 -1.0981623 16 5
-4.8588691 3.6282897 -1.624866 9 0
-5.4862986 4.1012897 -1.5814059 14 1
-10.611145 7.9381466 0.69449818 2 9
-6.3258061 4.7357516 -1.5360124 7 2
-10.518929 7.8777571 1.1497585 2 10
-7.5052261 5.6248469 -1.4855019 9 3
-10.5178 7.8883772 1.6142814 2 11
-8.523654 6.3950877 -1.3083893 7 4
-10.37691 7.7912021 2.0552363 4 12
-9.9394827 7.4681988 -1.0877036 16 5
-4.8272624 3.6574552 -1.6227955 9 0
-5.4497709 4.1336021 -1.5791564 16 1
-10.421832 7.9106016 0.68570572 2 9
-6.3004069 4.7857366 -1.5379206 6 2
-10.336767 7.8545675 1.1358136 2 10
-7.3840084 5.6149306 -1.4692327 12 3
-10.310822 7.8462081 1.5908825 2 11
-8.3903475 6.3871036 -1.29474 11 4
-10.194985 7.7664924 2.0298939 3 12
-9.7603455 7.4407749 -1.0737587 16 5
-4.8199902 3.705195 -1.6290071 9 0
-5.396069 4.1525335 -1.5719579 16 1
-10.27774 7.9149222 0.67984414 2 9
-6.2637339 4.8272066 -1.5371574 6 2
-10.149137 7.8243532 1.1211715 2 10
-7.3070946 5.637383 -1.4617239 10 3
-10.092378 7.7918386 1.5655338 2 11
-8.2858534 6.3994131 -1.2854779 7 4
-9.9826546 7.7154722 1.998294 3 12
-9.6212053 7.4387908 -1.0639973 15 5
-4.7665849 3.71737 -1.6196897 9 0
-5.328547 4.1601219 -1.5607104 14 1
-10.059921 7.8568439 0.66895825 2 9
-6.1750441 4.8262076 -1.523419 4 2
-9.9498816 7.7820911 1.1051347 2 10
-6.465776 5.0588894 -1.3002834 9 3
-9.8859339 7.7404213 1.5416473 1 11
-9.7619982 7.6516337 1.9645042 13 12
-9.5126009 7.4615135 -1.0577221 15 5
-4.7290492 3.7401416 -1.6155485 9 0
-5.2695494 4.1721029 -1.5517124 14 1
-9.7543526 7.7284327 0.65221077 6 9
-6.1565852 4.8813963 -1.5272354 6 2
-9.7437029 7.7283025 1.0880523 11 10
-6.4132795 5.0903983 -1.2968419 14 3
-9.7026386 7.7067723 1.521417 3 11
-9.6062965 7.6384544 1.9438549 1 12
-9.2669573 7.3739095 -1.0361074 14 5
-9.1966887 7.3258629 -0.61620361 26 6
-9.2322092 7.362061 -0.20611292 22 7
-4.6907692 3.7633932 -1.6114074 9 0
-9.7971649 7.8658648 0.21930695 15 8
-5.2342181 4.203907 -1.5499128 13 1
-9.659687 7.7638092 0.64948928 2 9
-6.0672817 4.8799634 -1.513497 6 2
-9.5777473 7.7062092 1.0755018 1 10
-6.3914342 5.1461959 -1.2996577 10 3
-9.5450335 7.6908741 1.5050865 2 11
-9.4543343 7.6259604 1.9238312 3 12
-9.1423855 7.3796086 -1.0279148 36 5
-9.145319 7.3898916 -0.61620361 35 6
-9.1930227 7.4363985 -0.20639215 51 7
-4.6523948 3.786294 -1.6072664 9 0
-5.1896334 4.2280378 -1.5454137 15 1
-9.5123692 7.7553363 0.64320898 2 9
-6.0391517 4.9271655 -1.5150236 6 2
-9.4064026 7.6771455 1.0622542 1 10
-6.9183693 5.6505294 -1.4147935 10 3
-9.3681479 7.6568251 1.4855874 1 11
-7.8868718 6.4484334 -1.2508671 9 4
-9.2693834 7.5842004 1.8969245 3 12
-9.0749846 7.4277844 -1.0259974 14 5
-4.616909 3.8113024 -1.6041605 9 0
-5.1584878 4.2629242 -1.5449638 16 1
-9.2992678 7.6875558 0.63232309 2 9
-6.0145493 4.975667 -1.5173131 6 2
-9.2390108 7.6486058 1.0493551 2 10
-6.8721395 5.6911902 -1.4132291 13 3
-9.2057657 7.6292109 1.4680382 2 11
-7.8110995 6.4779949 -1.2459923 10 4
-9.1141672 7.5613513 1.8756495 2 12
-8.8972044 7.3866024 -1.0117038 14 5
-4.5790091 3.8327196 -1.6000193 9 0
-5.1323395 4.3004398 -1.5458636 16 1
-9.1076326 7.6367941 0.62290263 2 9
-5.9676347 5.0074396 -1.5142603 6 2
-9.0768585 7.6190882 1.0368047 2 10
-6.7550998 5.6742306 -1.3972728 11 3
-9.0428715 7.6013269 1.450489 2 11
-7.7109976 6.4863644 -1.2372177 13 4
-8.9810476 7.5573893 1.8590674 3 12
-8.7326441 7.3535666 -0.99880481 14 5
-4.5485206 3.8628874 -1.5989841 9 0
-5.0954967 4.3320069 -1.544064 17 1
-8.9919033 7.6500039 0.6187157 2 9
-5.9205704 5.0388002 -1.5112073 4 2
-8.9128933 7.5908337 1.0242543 2 10
-6.666213 5.6814208 -1.3872609 12 3
-8.9080114 7.5947256 1.4373271 2 11
-7.5960598 6.4807715 -1.2260057 12 4
-8.8305922 7.5393715 1.8390437 3 12
-8.6144323 7.3574185 -0.99113512 14 5
-8.4952497 7.2658896 -0.58584875 9 6
-4.5038772 3.8794181 -1.5927725 9 0
-5.063653 4.3662019 -1.5436141 15 1
-8.8626719 7.6473513 0.61348212 2 9
-5.8873329 5.0836039 -1.5119705 6 2
-8.7511253 7.5590982 1.0117038 1 10
-6.6502981 5.7484908 -1.392267 9 3
-8.7423382 7.5621743 1.4192905 2 11
-7.5236096 6.510263 -1.2216184 13 4
-8.6418495 7.4831643 1.8105727 3 12
-8.4243097 7.2973652 -0.97509843 13 5
-8.3839655 7.2726727 -0.58166188 19 6
-4.4621348 3.898057 -1.5875961 9 0
-5.0359817 4.4040122 -1.5445139 10 1
-8.7021799 7.6128178 0.60594577 2 9
-5.8466868 5.1183863 -1.510444 4 2
-8.6112156 7.5438619 1.0015938 2 10
-6.5619912 5.750659 -1.3819423 13 3
-8.5802174 7.5246496 1.4012538 2 11
-7.4421697 6.5312023 -1.2157687 10 4
-8.5120354 7.472744 1.7939906 3 12
-8.2863455 7.2797298 -0.96498835 20 5
-8.236784 7.2438364 -0.57485819 19 6
-4.4441752 3.9360244 -1.5907019 9 0
-4.9927645 4.4265542 -1.5404649 9 1
-8.5711317 7.6044579 0.60050285 2 9
-5.7755766 5.1277962 -1.5012853 4 2
-8.467309 7.5202703 0.99078649 2 10
-6.4965835 5.7740216 -1.3766234 11 3
-8.4414473 7.5078497 1.387117 2 11
-7.3130054 6.506496 -1.2018756 16 4
-8.3401566 7.4255857 1.7686483 3 12
-8.1639175 7.2737827 -0.95662141 20 5
-8.0757132 7.2027869 -0.56711245 20 6
-4.4065289 3.9579177 -1.5870785 10 0
-4.9646387 4.4639068 -1.5413646 10 1
-8.428751 7.5839553 0.59422249 2 9
-5.7454724 5.1732469 -1.5028118 6 2
-8.3405809 7.5125284 0.98207092 1 10
-6.441442 5.8060102 -1.3734949 9 3
-8.2885933 7.4761858 1.3705428 2 11
-7.2305579 6.5241461 -1.1957821 14 4
-8.206007 7.4094973 1.7511276 3 12
-7.9828472 7.2130547 -0.94128197 19 5
-7.9482098 7.1893196 -0.56166953 20 6
-4.3730764 3.983382 -1.5850078 10 0
-4.9160733 4.4827027 -1.5359658 10 1
-8.2575731 7.5349131 0.58584875 2 9
-5.688921 5.1946964 -1.4974691 6 2
-8.1761312 7.4684482 0.96882319 1 10
-6.3730507 5.8255143 -1.3675503 8 3
-8.1571007 7.4615202 1.3573809 2 11
-7.1657977 6.5570426 -1.1926135 10 4
-8.0783234 7.3972335 1.7348584 3 12
-7.8689227 7.2080088 -0.93361235 13 5
-7.7756643 7.1325755 -0.55298179 21 6
-4.3323903 4.0020161 -1.5803492 9 0
-4.8703513 4.5036826 -1.5314667 10 1
-8.1386499 7.5285587 0.58103383 2 9
-5.6390224 5.2199631 -1.4936529 6 2
-8.0682507 7.473896 0.96219939 1 10
-6.3028221 5.8405638 -1.36098 9 3
-8.0071449 7.4250846 1.3408067 1 11
-7.039814 6.5326467 -1.1792079 18 4
-7.9409199 7.3714147 1.7160863 3 12
-7.7279029 7.1786981 -0.92280495 13 5
-7.6830549 7.1445346 -0.54984158 21 6
-4.2994084 4.0261312 -1.5782787 9 0
-4.815413 4.5140724 -1.5238184 9 1
-8.0217991 7.5250697 0.57642829 2 9
-5.5809717 5.239048 -1.4879286 9 2
-7.9155235 7.4331703 0.9499976 1 10
-6.2359805 5.860075 -1.3553483 9 3
-7.8625607 7.3937707 1.3252074 2 11
-6.9951844 6.5804138 -1.1792079 14 4
-7.7770758 7.3210592 1.6916825 1 12
-7.6311917 7.1887546 -0.91722697 13 5
-7.7626882 7.3151841 2.0733306 1 13
-7.5225582 7.0938563 -0.54188651 21 6
-4.2683949 4.0533872 -1.5772433 9 0
-4.7781334 4.5422087 -1.5220188 9 1
-7.8388333 7.4569941 0.56700778 2 9
-5.5172429 5.2521634 -1.4806778 11 2
-7.7710972 7.4003119 0.93884164 1 10
-6.1720386 5.8816619 -1.3503424 10 3
-7.7389212 7.3799829 1.3130203 2 11
-6.9146028 6.5962019 -1.1733581 15 4
-7.6743379 7.3260708 1.6804192 3 12
-7.5808167 7.2418571 -0.91722697 13 5
-7.6433001 7.3040948 2.0550129 2 13
-7.4006748 7.0771842 -0.53665298 21 6
-4.2399931 4.083087 -1.5772433 9 0
-4.7406945 4.5700455 -1.5202192 8 1
-7.7290835 7.4560733 0.56282091 2 9
-5.4719677 5.282371 -1.4783882 6 2
-7.624651 7.36304 0.92733705 2 10
-6.1081004 5.9026432 -1.3453366 10 3
-7.6044459 7.3537946 1.2988837 2 11
-6.8198767 6.5973864 -1.165071 11 4
-7.4952688 7.2558141 1.652261 3 12
-7.5526452 7.3190212 2.0443277 2 13
-7.3037729 7.0827923 -0.53319877 21 6
-4.2003269 4.1017904 -1.5731021 9 0
-4.6975255 4.5921326 -1.5166199 7 1
-7.5696268 7.4023829 0.55486584 2 9
-5.4064188 5.290659 -1.4703742 11 2
-7.5218167 7.3659048 0.92106187 1 10
-6.0395579 5.9164357 -1.3390791 9 3
-7.4861717 7.3386807 1.2871841 2 11
-6.7368059 6.6086946 -1.1587338 15 4
-7.3752131 7.2374849 1.6366177 3 12
-7.4075456 7.2793746 2.0187593 2 13
-7.1756315 7.0539351 -0.52733713 22 6
-4.1558361 4.1139765 -1.5668906 9 0
-4.6813869 4.6390891 -1.5215689 10 1
-7.4496932 7.3875422 0.54984158 2 9
-5.3609896 5.3199768 -1.4680845 11 2
-7.3527298 7.2990265 0.90641969 2 10
-5.9756837 5.9361815 -1.3340733 9 3
-7.3474689 7.303998 1.2720723 2 11
-6.7155967 6.6781921 -1.1628774 10 4
-7.2572937 7.2219152 1.6215998 1 12
-7.2938437 7.2658916 2.001205 2 13
-7.0144677 6.9924626 -0.51906806 22 6
-4.1161056 4.1319408 -1.5627494 9 0
-4.6488848 4.671659 -1.5215689 10 1
-7.3259897 7.36445 0.54439867 2 9
-5.3246536 5.3563447 -1.4680845 8 2
-7.2426195 7.2908139 0.89909863 1 10
-5.8989491 5.9402752 -1.3259387 9 3
-7.241653 7.2974787 1.2623228 2 11
-6.6338654 6.6896749 -1.1567839 10 4
-7.1551232 7.2178359 1.6097109 1 12
-6.8608561 6.9258227 -0.85290605 36 5
-7.1448779 7.2175713 1.97411 1 13
-6.8627496 6.9349933 -0.51132232 34 6
-6.891571 6.9738522 -0.1711383 43 7
-4.0770535 4.1488385 -1.5586084 9 0
-4.5855789 4.6712098 -1.5112212 9 1
-7.2128582 7.3526788 0.53979307 2 9
-5.2637668 5.3695521 -1.461597 4 2
-7.137044 7.2830224 0.89212614 1 10
-5.7854671 5.9079218 -1.3096695 9 3
-7.1016722 7.2570543 1.2467235 2 11
-6.5493107 6.694941 -1.1499593 12 4
-7.0189447 7.1800337 1.590313 1 12
-6.8609004 7.0208097 -0.85883266 30 5
-7.0516911 7.2210903 1.9618982 1 13
-6.8225365 6.991312 -0.51195037 34 6
-6.8579021 7.0349169 -0.17148735 32 7
-4.0372348 4.1661024 -1.5544673 9 0
-4.5569234 4.7073092 -1.512571 10 1
-7.0793071 7.3154922 0.53351277 2 9
-5.1711402 5.3473945 -1.4459506 8 2
-7.0361834 7.2810917 0.88585097 1 10
-5.7286496 5.9301162 -1.3059151 9 3
-6.972147 7.2223892 1.2325866 1 11
-6.4762235 6.7133574 -1.1453282 16 4
-6.9123206 7.167922 1.5771725 3 12
-6.8935227 7.1584268 1.9317504 4 13
-6.7055316 6.9656444 -0.50671679 23 6
-4.0046506 4.1920919 -1.553432 9 0
-4.5163951 4.732748 -1.5103214 8 1
-6.929008 7.2660103 0.52618575 4 9
-5.0911703 5.3425193 -1.434502 8 2
-6.8849564 7.2273884 0.87330055 1 10
-5.6795769 5.9662266 -1.3046635 9 3
-6.8588152 7.2100186 1.2218621 1 11
-6.3883467 6.7178111 -1.1382598 14 4
-6.7670588 7.1210265 1.5558974 1 12
-6.7975183 7.160583 1.919157 1 13
-6.5608206 6.9160795 -0.4995991 23 6
-3.9673395 4.2115088 -1.5503261 8 0
-4.4872518 4.7684193 -1.5116711 10 1
-6.8671665 7.3025665 0.52534837 2 9
-5.0362711 5.3593335 -1.4295411 7 2
-6.7743096 7.2113833 0.86563081 2 10
-5.6080432 5.9740477 -1.2977805 9 3
-6.7404051 7.1853404 1.2096752 1 11
-6.3440104 6.765142 -1.1387473 12 4
-6.679358 7.1277385 1.547137 1 12
-6.664175 7.1190033 1.8954966 1 13
-6.4741755 6.9208732 -0.49666828 23 6
-3.945729 4.2475972 -1.553432 9 0
-4.4538517 4.7996311 -1.5116711 10 1
-6.7589817 7.2888193 0.52095217 2 9
-4.9773836 5.3713212 -1.4234352 7 2
-6.6588092 7.1883426 0.85726386 2 10
-5.5071573 5.9492683 -1.2840142 10 3
-6.6199837 7.1564445 1.1970007 1 11
-6.2157626 6.7218165 -1.1241229 14 4
-6.5811734 7.1219659 1.5358738 1 12
-6.7758474 7.3352041 -0.87364912 12 5
-6.571702 7.1191907 1.8832849 2 13
-6.3552823 6.889564 -0.49122533 24 6
-3.902931 4.2607937 -1.5482556 8 0
-4.4031343 4.8119168 -1.5058223 9 1
-6.6013684 7.2167606 0.51257843 2 9
-4.9155397 5.3775439 -1.4161844 10 2
-6.5466523 7.1669846 0.84924555 2 10
-5.4585419 5.9778643 -1.282137 9 3
-6.5336533 7.1602817 1.1901761 1 11
-6.1793838 6.7767839 -1.1260729 15 4
-6.4899597 7.1198807 1.525862 1 12
-6.4663358 7.1039181 1.8672569 1 13
-6.2544723 6.8735743 -0.48703846 24 6
-3.8764281 4.2901282 -1.5492908 8 0
-4.3741961 4.8461165 -1.5071721 14 1
-6.5240707 7.2330098 0.51048499 2 9
-4.8699913 5.4029799 -1.4138948 10 2
-6.4230304 7.1284914 0.83948416 1 10
-5.3836303 5.9791284 -1.2743154 8 3
-6.4277406 7.1437397 1.179939 2 11
-6.0786834 6.7581758 -1.1160794 10 4
-6.3978405 7.1180015 1.5158502 1 12
-6.3496256 7.071806 1.8474127 1 13
-6.1476455 6.8516598 -0.4824329 24 6
-3.8309629 4.2997766 -1.5430793 8 0
-4.3285966 4.8634348 -1.5031229 12 1
-6.4401689 7.2384548 0.5077635 2 9
-4.8239698 5.4257331 -1.4112234 5 2
-6.3545828 7.1523046 0.8370437 1 10
-5.334938 6.0067725 -1.2724382 8 3
-6.3262596 7.1279378 1.1701895 1 11
-6.00633 6.7722297 -1.1114485 10 4
-6.2758532 7.0786133 1.4983294 1 12
-6.2610602 7.0718637 1.8359643 1 13
-6.0532131 6.8395052 -0.47866473 24 6
-3.7990546 4.3228521 -1.5420439 8 0
-4.3031058 4.9015727 -1.5058223 13 1
-6.2920103 7.1721344 0.50001782 2 9
-4.7342067 5.4002266 -1.3959587 7 2
-6.2112041 7.0875068 0.82449329 1 10
-5.2785568 6.027524 -1.2689966 9 3
-6.2109766 7.0972404 1.1580026 1 11
-5.9496374 6.8010039 -1.1094985 10 4
-6.1430769 7.0270715 1.4783059 1 12
-6.1611238 7.0551667 1.8206996 1 13
-5.9554143 6.8244133 -0.47468719 24 6
-3.761193 4.3405085 -1.538938 8 0
-4.2585793 4.9197063 -1.5022231 14 1
-6.2417841 7.2158875 0.50001782 2 9
-4.6732807 5.4064107 -1.3890896 7 2
-6.1250968 7.0884876 0.81961256 1 10
-5.2156911 6.0403056 -1.2639905 9 3
-6.1094031 7.0803103 1.1482531 1 11
-5.8734875 6.8093052 -1.1041363 10 4
-6.065495 7.036869 1.4714227 1 12
-6.0681643 7.0474238 1.8077245 2 13
-5.8633351 6.8143492 -0.47112834 12 6
-5.9633713 6.9379549 -0.15968952 9 7
-3.7358201 4.3725352 -1.5410087 8 0
-4.2089496 4.931529 -1.4968243 14 1
-6.1264563 7.1833029 0.49478418 2 9
-4.6226873 5.423964 -1.3852733 5 2
-6.0496216 7.1007404 0.81612635 1 10
-5.1631508 6.0645385 -1.2614876 11 3
-6.0224733 7.0763774 1.1409409 1 11
-5.841239 6.8682895 -1.1070613 10 4
-5.9829607 7.039907 1.4632881 1 12
-5.9654517 7.0267572 1.7916965 1 13
-5.7432632 6.7698274 -0.4652667 25 6
-5.9681134 7.0373573 2.1302865 2 14
-5.8113618 6.8573732 -0.15689714 9 7
-3.7034805 4.394908 -1.5399734 8 0
-4.1652446 4.9481373 -1.4932251 14 1
-5.9874215 7.1178479 0.48745713 2 9
-4.5603976 5.4252448 -1.377641 5 2
-5.9575691 7.0898924 0.8101998 1 10
-5.1039701 6.078361 -1.2571075 9 3
-5.9052491 7.0351028 1.127779 1 11
-5.7522535 6.8577018 -1.0990179 9 4
-5.8866825 7.0229416 1.4513992 2 12
-5.8821931 7.025053 1.7810113 1 13
-5.6867957 6.7965102 -0.46442932 12 6
-5.8375554 6.9791627 2.1005929 2 14
-5.7389021 6.8660851 -0.15619904 17 7
-3.6734793 4.4200149 -1.5399734 8 0
-4.1127954 4.9538846 -1.4864765 17 1
-5.9005756 7.1123252 0.484317 2 9
-4.4744959 5.3972163 -1.3627579 11 2
-5.8494582 7.0607347 0.80218142 1 10
-4.9818411 6.0155926 -1.2370839 10 3
-5.8129568 7.0241647 1.1194919 1 11
-5.7662296 6.9726477 -1.110961 11 4
-5.7758117 6.9867234 1.4357557 2 12
-5.7830153 7.0053835 1.7657466 1 13
-5.5680342 6.7497659 -0.45856768 12 6
-5.7291818 6.947577 2.0789976 2 14
-5.6094389 6.8072152 -0.15396513 21 7
-3.6319637 4.4342327 -1.5358323 8 0
-4.0760069 4.9816799 -1.4860266 14 1
-5.7863188 7.077055 0.47908339 2 9
-4.4307914 5.4230156 -1.3612314 9 2
-5.7685413 7.065371 0.79799795 1 10
-4.9286742 6.0388446 -1.2345809 11 3
-5.7249084 7.0194283 1.1121798 1 11
-5.6108422 6.8844743 -1.0904869 19 4
-5.6707687 6.9604907 1.4219894 2 12
-5.6807008 6.9826231 1.7497185 2 13
-5.6498222 6.9521003 2.0681999 2 14
-5.5252872 6.8037171 -0.15298781 29 7
-3.60742 4.4691281 -1.538938 8 0
-4.0096745 4.9727936 -1.4747791 17 1
-5.7355285 7.1182795 0.47908339 2 9
-4.3844843 5.4454079 -1.3589417 9 2
-5.6691055 7.0433879 0.79102546 1 10
-4.6723914 5.8092046 -1.1807675 11 3
-5.6148391 6.9859452 1.1004803 1 11
-5.4109573 6.734684 -1.0607508 13 4
-5.6010318 6.9762435 1.4169836 2 12
-5.5851383 6.9639134 1.7352172 1 13
-5.5536385 6.9345503 2.0511036 2 14
-5.4126701 6.7609472 -0.15117276 24 7
-3.5713205 4.4881573 -1.5368675 8 0
-5.7063379 7.1764202 0.16003856 7 8
-3.9651594 4.9884615 -1.47118 21 1
-5.5962529 7.0455446 0.47154701 2 9
-4.3488021 5.47896 -1.359705 9 2
-5.562829 7.0109982 0.78300714 1 10
-4.7789941 6.0274277 -1.2183118 10 3
-5.5437412 6.9969673 1.0960929 1 11
-5.3182058 6.7147179 -1.0517325 20 4
-5.5105114 6.9625125 1.4063461 2 12
-5.5071626 6.9657736 1.7260582 1 13
-5.4881859 6.9517403 2.044805 2 14
-5.3405581 6.7671776 -0.15047465 28 7
-3.5327461 4.50386 -1.5337617 8 0
-3.911006 4.9914784 -1.4639815 17 1
-4.2668939 5.4535227 -1.3459667 11 2
-5.4867435 7.0151367 0.77917236 2 10
-4.7234173 6.0435238 -1.2148702 9 3
-5.460546 6.9916945 1.0892683 1 11
-5.219892 6.685966 -1.0414956 20 4
-5.4253159 6.9540887 1.3969599 2 12
-5.402885 6.9328179 1.7085038 1 13
-5.3964353 6.9345202 2.0286086 2 14
-5.2367067 6.7316904 -0.14886904 28 7
-3.510673 4.5406384 -1.5379028 8 0
-3.8712993 5.0124922 -1.4621819 16 1
-4.2167277 5.4676323 -1.3421506 11 2
-5.3646464 6.9585958 0.76871365 1 10
-4.6606169 6.0497499 -1.2095515 10 3
-5.3437901 6.9415588 1.0756189 1 11
-5.1391907 6.6781955 -1.0346708 20 4
-5.3092017 6.9041042 1.3794394 2 12
-5.3304343 6.93923 1.7008715 1 13
-5.3217978 6.9380074 2.0187106 2 14
-5.1579466 6.7268257 -0.14796151 31 7
-3.4531264 4.5312333 -1.5265148 8 0
-3.8196855 5.0176878 -1.4558831 19 1
-5.3410668 7.0213108 0.46233588 2 9
-4.1570683 5.4688039 -1.3352814 9 2
-5.2749543 6.9419398 0.7627871 1 10
-4.6111002 6.0727 -1.2076741 10 3
-5.2568016 6.928091 1.0678192 1 11
-5.0516543 6.6601357 -1.0263836 20 4
-5.237009 6.9095163 1.3731819 2 12
-5.2391963 6.9199252 1.6871332 2 13
-5.2332745 6.9221392 2.0034139 2 14
-5.0795112 6.7211919 -0.14705399 27 7
-3.4306903 4.5675874 -1.530656 8 0
-3.775209 5.0317602 -1.452284 22 1
-5.2439923 6.9945097 0.45814902 2 9
-4.0881844 5.4568386 -1.3253593 11 2
-5.1857514 6.9243779 0.75686044 1 10
-4.5567594 6.0889258 -1.2045455 11 3
-5.1678886 6.9105682 1.0595322 1 11
-4.967001 6.6443624 -1.0185841 20 4
-5.1744609 6.9269156 1.3694276 2 12
-5.1719766 6.9311557 1.6810273 1 13
-5.1848211 6.9585056 2.0034139 2 14
-4.9751282 6.6795111 -0.14537854 30 7
-3.3964202 4.5883217 -1.5296206 8 0
-3.7284024 5.0423245 -1.447785 21 1
-5.1950374 7.0309472 0.45814902 2 9
-4.0220013 5.4473414 -1.3162005 13 2
-5.1159906 6.9315553 0.75372285 1 10
-4.4742746 6.0665379 -1.193908 11 3
-5.079473 6.8921494 1.0512451 1 11
-4.8839965 6.6293306 -1.0110282 15 4
-5.0486789 6.857882 1.3487781 2 12
-5.0699558 6.8943405 1.6634729 1 13
-5.078445 6.9159961 1.980919 2 14
-4.9047093 6.6818409 -0.14468044 30 7
-3.3665819 4.6150427 -1.530656 8 0
-3.6793375 5.0493312 -1.4423862 20 1
-3.9908042 5.4848123 -1.3184903 13 2
-5.0370045 6.92521 0.74919075 1 10
-4.4167156 6.0768538 -1.1898407 10 3
-5.007905 6.8953166 1.0463703 1 11
-4.7979431 6.6086488 -1.0027411 19 4
-4.9821219 6.8673754 1.3437722 2 12
-4.9756222 6.8659768 1.6482083 1 13
-4.972918 6.872344 1.9584239 2 14
-4.8227825 6.6673126 -0.14363331 25 7
-3.3297703 4.6321588 -1.5285853 8 0
-3.6349041 5.0622311 -1.438787 17 1
-4.9799275 6.9405203 0.44768184 2 9
-3.9249609 5.4742475 -1.3093314 11 2
-4.9653206 6.9278178 0.74570453 1 10
-4.3707328 6.1027222 -1.1889021 11 3
-4.9180541 6.8719964 1.0375956 1 11
-4.707799 6.5806327 -0.99347895 16 4
-4.9202719 6.8827062 1.3400177 2 12
-4.8956194 6.8558125 1.6375229 1 13
-4.9147077 6.8901691 1.9539249 2 14
-4.7296948 6.6356816 -0.14223711 29 7
-3.2995839 4.6584449 -1.5296206 8 0
-3.5758381 5.0540762 -1.4293389 14 1
-3.875144 5.4832006 -1.3051336 15 2
-4.8501735 6.8679204 0.73559445 1 10
-4.3006105 6.0919871 -1.1810803 10 3
-4.827682 6.8436737 1.0283337 1 11
-4.6342945 6.5743995 -0.98762923 16 4
-4.8391738 6.8675952 1.3306317 2 12
-4.8227868 6.8544965 1.6291273 1 13
-4.8127031 6.8477798 1.9323295 2 14
-4.6407304 6.6079903 -0.14094563 31 7
-3.2589514 4.6681242 -1.5254794 8 0
-3.5268624 5.0575194 -1.4234902 15 1
-4.8266664 6.92659 0.44244823 2 9
-3.8132105 5.4762864 -1.2971196 14 2
-4.7600603 6.8386359 0.72897059 1 10
-4.2252655 6.0748339 -1.1720072 12 3
-4.7707229 6.8641691 1.0263836 2 11
-4.562253 6.5666661 -0.98177958 18 4
-4.7392912 6.8265686 1.3162397 2 12
-4.7402172 6.8355398 1.6169155 1 13
-4.7171555 6.809895 1.912534 2 14
-4.5626397 6.5917435 -0.13993341 24 7
-3.2164295 4.6764369 -1.5208209 9 0
-3.480433 5.0659566 -1.4189912 14 1
-4.759058 6.9296465 0.44056413 2 9
-3.7736242 5.498878 -1.2963563 12 2
-4.70544 6.8618412 0.72792476 1 10
-4.1838174 6.1034536 -1.1720072 11 3
-4.6722865 6.8211479 1.0151716 0 11
-4.4479032 6.4984307 -0.96691149 20 4
-4.6458645 6.7901969 1.3030992 2 12
-4.4214807 6.4670897 -0.68539274 9 5
-4.6458664 6.8003812 1.6008875 1 13
-4.3984804 6.4406829 -0.40874386 13 6
-4.65412 6.8201256 1.9062351 2 14
-4.4646859 6.5474372 -0.13832778 27 7
-3.1817999 4.6977339 -1.5203031 8 0
-3.4375412 5.0810485 -1.4162918 15 1
-4.6723385 6.9113979 0.43721461 2 9
-3.7156305 5.5003624 -1.2902504 14 2
-4.6071582 6.8226852 0.72025502 1 10
-4.1345448 6.127408 -1.1707556 12 3
-4.5955253 6.8157129 1.009322 1 11
-4.3369379 6.4346189 -0.95277458 25 4
-4.5959654 6.8240705 1.3030992 2 12
-4.3450475 6.4539394 -0.68068635 50 5
-4.5773602 6.8041315 1.5940183 1 13
-4.3132653 6.4163961 -0.40518501 26 6
-4.5747638 6.8079662 1.8936379 2 14
-4.3441463 6.4696469 -0.13602406 39 7
-3.1328461 4.6957259 -1.5125386 10 0
-4.643343 6.9623942 0.14607665 6 8
-3.3911808 5.0887051 -1.4117929 15 1
-3.6628768 5.502645 -1.2849078 14 2
-4.5395522 6.8248224 0.71711749 1 10
-4.0664945 6.1159282 -1.1632469 12 3
-4.5138731 6.7939262 1.0015223 0 11
-4.3149672 6.4994693 -0.95789313 25 4
-4.501348 6.7827764 1.289333 2 12
-4.3164015 6.5090232 -0.68330097 46 5
-4.5037198 6.7966437 1.5848596 1 13
-4.2827258 6.4655876 -0.40644106 26 6
-4.4841008 6.7747369 1.8756418 2 14
-4.3132138 6.5215001 -0.13647781 47 7
-3.0859537 4.6943421 -1.5052917 11 0
-3.3436289 5.0921226 -1.406394 15 1
-3.62114 5.5231586 -1.2837629 16 2
-4.4580479 6.8022375 0.71153951 1 10
-4.0150375 6.1309509 -1.160744 13 3
-4.4402485 6.7854061 0.99567258 0 11
-4.2597594 6.5120773 -0.95545572 21 4
-4.408493 6.7445898 1.2761924 2 12
-4.4165668 6.7646737 1.5703582 1 13
-4.4473372 6.8222017 1.880141 2 14
-4.2567148 6.5322795 -0.13609387 35 7
-3.0531061 4.7157717 -1.5052917 10 0
-3.2952991 5.0957046 -1.4009951 15 1
-4.4215631 6.8425465 0.42695674 2 9
-3.5654562 5.5219135 -1.277657 14 2
-4.3866801 6.7963672 0.70770466 1 10
-3.9592924 6.1389089 -1.1569895 12 3
-4.369112 6.7795305 0.99031037 1 11
-4.1840949 6.4949293 -0.94863105 15 4
-4.3420577 6.7453032 1.270561 2 12
-4.3352561 6.7424984 1.5581464 1 13
-4.3427534 6.7645278 1.8558462 2 14
-4.2012863 6.5466909 -0.13577972 32 7
-3.0097239 4.7206817 -1.5001153 10 0
-3.2408023 5.0889988 -1.392897 16 1
-3.4741488 5.4638352 -1.2585762 8 2
-4.3220258 6.799922 0.70491564 1 10
-3.907866 6.15306 -1.1544864 12 3
-4.2727466 6.7327681 0.97909838 1 11
-4.1109991 6.480401 -0.94229382 14 4
-4.2800541 6.7520943 1.2661808 2 12
-4.2754798 6.7526937 1.5535669 1 13
-4.2820249 6.7708726 1.8495475 2 14
-4.1095481 6.5031705 -0.13427882 35 7
-2.9808023 4.7481232 -1.5021858 9 0
-3.1886308 5.085084 -1.3856986 14 1
-3.4233296 5.4657264 -1.2536151 10 2
-4.2490797 6.7893958 0.70073211 1 10
-3.8637974 6.1761684 -1.1538608 12 3
-4.2036695 6.7246637 0.97373611 0 11
-4.0362144 6.4618001 -0.93546921 16 4
-4.1816845 6.6972919 1.2505373 2 12
-4.1991515 6.7357287 1.5428816 1 13
-4.1975689 6.7410498 1.8333511 2 14
-4.043972 6.499444 -0.13361563 29 7
-2.9413021 4.7568011 -1.4985623 12 0
-4.1896057 6.7809029 0.13913059 5 8
-3.1518958 5.1033545 -1.3847986 14 1
-4.1736126 6.7629328 0.41648957 2 9
-3.393332 5.5028615 -1.2566681 12 2
-4.1567669 6.7435346 0.69306242 1 10
-3.7998667 6.1693535 -1.1476034 9 3
-4.1358113 6.7200356 0.96886134 0 11
-3.9650924 6.4451642 -0.92913198 13 4
-4.1058607 6.6792026 1.2417769 2 12
-4.1203332 6.710618 1.5306698 1 13
-4.1055908 6.6970878 1.8135554 2 14
-3.9703858 6.4790778 -0.13263829 31 7
-4.1048689 6.7037849 2.1062696 0 15
-2.9040034 4.7706184 -1.4964917 8 0
-4.1421676 6.8099842 0.13913059 5 8
-3.1060669 5.108583 -1.3802997 14 1
-3.3201933 5.469357 -1.2436931 12 2
-4.0971842 6.7519507 0.69097072 1 10
-3.7464619 6.1788397 -1.1444747 12 3
-4.0702806 6.7181849 0.96447408 0 11
-3.8953199 6.4319372 -0.92328221 13 4
-4.0489039 6.6908035 1.2386482 2 12
-4.0449481 6.6921749 1.5199846 2 13
-4.0587358 6.7255874 1.8135554 2 14
-3.91576 6.4912276 -0.13232414 37 7
-4.019073 6.6677518 2.0860815 1 15
-2.866658 4.7841458 -1.4944212 8 0
-3.0613222 5.1150923 -1.3762506 14 1
-4.0787797 6.8205471 0.41648957 2 9
-3.2779012 5.485662 -1.2421666 12 2
-4.0090799 6.7119703 0.68399829 1 10
-3.6181955 6.0623603 -1.1181936 9 3
-3.9937968 6.6969919 0.95740563 0 11
-3.82796 6.4214625 -0.91791999 6 4
-3.9899642 6.6985421 1.2348938 2 12
-3.9820685 6.6932549 1.5138787 2 13
-3.8417616 6.4702625 -0.13134682 37 7
-3.9497538 6.6574345 2.0741758 3 15
-2.8253353 4.7907319 -1.4902802 8 0
-4.019444 6.8182144 0.13815325 5 8
-3.010699 5.111155 -1.3695021 15 1
-3.2534277 5.5298443 -1.2471277 14 2
-3.9318354 6.6882663 0.67876893 1 10
-3.5508258 6.0425677 -1.110059 13 3
-3.9300239 6.6932106 0.95301831 0 11
-3.8061404 6.4874101 -0.92352599 5 4
-3.8943105 6.6403475 1.2192503 2 12
-3.9034998 6.666677 1.5016669 2 13
-3.9459436 6.7472653 1.8045573 2 14
-3.7621946 6.4382234 -0.13016005 37 7
-3.8916795 6.6624799 2.0674467 2 15
-2.7829626 4.7931447 -1.4851037 8 0
-2.971931 5.1247849 -1.3677025 14 1
-3.1901526 5.5099459 -1.2375872 12 2
-3.8662581 6.6803851 0.67528266 1 10
-3.5560234 6.1492906 -1.1250768 12 3
-3.8345368 6.6362638 0.94107521 3 11
-3.8143542 6.606657 -0.93668783 5 4
-3.8211977 6.6211791 1.2108029 13 12
-3.8245213 6.637629 1.4890735 17 13
-3.8005695 6.6040578 1.7591172 9 14
-3.7032001 6.440062 -0.12967138 33 7
-3.8094518 6.6275158 2.0482941 15 15
-2.7418861 4.8011932 -1.4814804 10 0
-3.8048897 6.6652722 0.13396467 23 8
-2.9255276 5.1289935 -1.3632034 17 1
-3.7807715 6.6337738 0.40016076 7 9
-3.1399438 5.5116143 -1.2330078 10 2
-3.7769587 6.6351576 0.6679616 7 10
-3.4484489 6.0629697 -1.1047403 12 3
-3.7773242 6.6438875 0.93839401 5 11
-3.7632389 6.6244936 -0.93546921 13 4
-3.7610433 6.62602 1.2067356 5 12
-3.7735908 6.6508222 -0.66900748 36 5
-3.7684031 6.6470904 1.4852573 3 13
-3.7653582 6.6471267 -0.40037012 13 6
-3.8033421 6.7169142 1.7820623 3 14
-3.6286087 6.4135451 -0.12862423 36 7
-3.7571752 6.6461973 2.0457058 2 15
-2.7007301 4.8067441 -1.4773391 10 0
-3.7590547 6.6958156 0.13403448 4 8
-2.8839269 5.1390953 -1.360504 14 1
-3.7890687 6.7575641 0.4060224 2 9
-3.0985065 5.5305147 -1.2322445 12 2
-3.7422268 6.6822238 0.6700533 1 10
-3.418577 6.1093068 -1.1088076 13 3
-3.7122476 6.6395597 0.93400675 0 11
-3.356637 6.005991 -0.84479833 2 4
-3.7050655 6.6348672 1.2036068 2 12
-3.7523124 6.7222381 -0.67353958 9 5
-3.7018268 6.6372285 1.4772433 2 13
-3.7089427 6.6581798 1.7595671 3 14
-3.5652673 6.4055228 -0.12796104 39 7
-3.6984782 6.6503172 2.0389764 1 15
-2.6558928 4.8051925 -1.4711276 10 0
-3.6979179 6.6932425 0.133476 4 8
-2.8310266 5.1283951 -1.3524057 18 1
-3.0475192 5.5274081 -1.2269019 10 2
-3.6531851 6.631402 0.66238362 1 10
-3.3826301 6.1428165 -1.1106849 13 3
-3.6516566 6.636847 0.93010694 0 11
-3.1960413 5.8135748 -0.81457478 2 4
-3.6598177 6.6599331 1.2036068 2 12
-3.6365104 6.6284871 1.4696109 2 13
-3.6623664 6.6839123 1.7595671 3 14
-3.5012584 6.395175 -0.12726295 39 7
-3.6178834 6.6109405 2.0193064 1 15
-2.6231234 4.8231592 -1.4711276 10 0
-3.6148186 6.6521287 0.13214962 4 8
-2.7811706 5.1201477 -1.3452073 15 1
-3.0069845 5.5450974 -1.2261386 12 2
-3.6022651 6.6456056 0.66133773 1 10
-3.2907438 6.0759597 -1.0944157 13 3
-3.5901172 6.6342449 0.92620707 0 11
-3.3726771 6.2350326 -0.87039089 5 4
-3.5794208 6.6227603 1.1923436 2 12
-3.567064 6.6081672 1.4596889 2 13
-3.5834968 6.6469326 1.7433707 3 14
-3.4500601 6.4047747 -0.12698372 39 7
-3.5478401 6.5918064 2.0058477 1 15
-2.578454 4.8209124 -1.4649159 10 0
-2.7325029 5.1153746 -1.3389087 15 1
-2.9377506 5.5065436 -1.2131636 12 2
-3.5314147 6.6248789 0.65680563 1 10
-3.2585988 6.1156511 -1.0975443 13 3
-3.5224872 6.6164746 0.92035741 0 11
-4.8756695 9.1659393 -1.2747533 2 4
-3.5342581 6.6469712 1.1923436 2 12
-3.5097976 6.6120992 1.4551095 2 13
-3.3921578 6.4039655 -0.12649503 37 7
-3.4911375 6.5936079 1.9991184 1 15
-2.5347853 4.8178358 -1.4587041 10 0
-2.6903687 5.1200552 -1.3353095 15 1
-2.9047081 5.5373502 -1.2154534 12 2
-3.4825377 6.641705 0.65610844 1 10
-3.2213242 6.1487503 -1.0994215 10 3
-3.4614801 6.6127653 0.91645753 0 11
-4.8435359 9.256958 -1.2827969 2 4
-3.4291956 6.5594459 1.17232 3 12
-3.4501705 6.6079912 1.4490036 2 13
-3.3161497 6.3648372 -0.12527338 43 7
-3.4343157 6.5972571 1.9929067 1 15
-2.4886653 4.8113909 -1.4514573 9 0
-2.6474056 5.1248603 -1.3317102 15 1
-2.8597505 5.5430336 -1.2124004 10 2
-3.3995697 6.5950179 0.64913595 1 10
-3.1404939 6.0950265 -1.0859681 12 3
-3.3963985 6.5973454 0.91109526 1 11
-3.3804758 6.5720515 -0.90743923 2 4
-3.4079518 6.6283116 1.1804546 2 12
-3.3842313 6.5934916 1.4406079 2 13
-9.1744642 17.882273 -1.0533136 9 6
-3.3877869 6.6089339 1.714577 3 14
-3.2597835 6.3646951 -0.12481961 40 7
-3.366441 6.5757709 1.9794481 1 15
-2.4558575 4.8282189 -1.4514573 9 0
-2.6018693 5.121913 -1.3263115 17 1
-2.816541 5.5541105 -1.2104924 8 2
-3.3437936 6.5966783 0.64704424 1 10
-3.1246381 6.169672 -1.0953542 12 3
-3.3377132 6.596097 0.90768296 1 11
-4.7450099 9.3813171 -1.2908403 2 4
-3.3206131 6.5708408 1.1660627 3 12
-3.3801217 6.6944079 -0.65610844 8 5
-3.3145041 6.5672994 1.4299227 2 13
-3.3415654 6.6324244 1.714577 3 14
-3.1956978 6.3456588 -0.12401681 43 7
-3.3013487 6.5611482 1.9680601 1 15
-2.4099972 4.8210549 -1.4442104 10 0
-3.3381505 6.6836019 0.13040438 4 8
-2.5503805 5.1085691 -1.3182131 21 1
-2.7698188 5.5578227 -1.2070577 10 2
-3.2905517 6.6055942 0.64564973 1 10
-3.0577276 6.1435862 -1.0869068 13 3
-3.2756693 6.587245 0.90329564 1 11
-4.6334586 9.3217754 -1.2781658 2 4
-3.2922289 6.6292491 1.17232 3 12
-3.2581072 6.5691733 1.4253433 2 13
-3.1353536 6.3355536 -0.12338851 41 7
-3.2434781 6.5597897 1.9608132 1 15
-2.371171 4.8273587 -1.4411045 10 0
-3.2790749 6.6816115 0.12991571 4 8
-2.5060713 5.1087537 -1.3137141 20 1
-2.7205896 5.5558658 -1.2024784 14 2
-3.2303412 6.5997739 0.64286077 1 10
-3.0199697 6.1754303 -1.088784 13 3
-3.210433 6.5707126 0.89793342 1 11
-4.6118197 9.4430857 -1.2903527 2 4
-3.1448848 6.4508219 -0.62786996 8 5
-3.2001293 6.5670495 1.4200007 2 13
-3.0665662 6.306932 -0.12241118 41 7
-3.1798732 6.5457845 1.9499428 1 15
-2.329016 4.8263965 -1.4359281 10 0
-3.2010846 6.6394949 0.12865914 4 8
-2.4652684 5.115592 -1.3110147 22 1
-2.6664166 5.5428782 -1.1956092 12 2
-3.1669197 6.5862532 0.63937455 1 10
-2.9425673 6.1251407 -1.0762693 18 3
-3.1490209 6.5607519 0.8935461 1 11
-4.5663953 9.5180044 -1.2962024 2 4
-3.1566596 6.5855031 1.1566767 3 12
-3.017158 6.3001127 -0.61113608 11 5
-3.1525092 6.5856886 1.4192374 2 13
-3.015563 6.3137527 -0.12213194 41 7
-3.1257808 6.5503879 1.9447664 1 15
-2.2919548 4.8355556 -1.4338576 9 0
-3.1546543 6.6616812 0.12865914 4 8
-2.4186561 5.1097798 -1.305166 26 1
-2.627655 5.5613585 -1.1956092 10 2
-3.1208618 6.6082015 0.63937455 1 10
-2.9342952 6.2187805 -1.0890969 12 3
-3.1031415 6.5825763 0.8935461 1 11
-4.4702201 9.4868021 -1.2876717 2 4
-2.9663174 6.3065996 -0.60974157 15 5
-3.0747147 6.5400229 1.4047359 2 13
-2.9535806 6.2966309 -0.12139894 38 7
-3.0561969 6.5213227 1.9297549 1 15
-2.2450972 4.8234158 -1.4255754 10 0
-2.3755317 5.1106367 -1.3011169 22 1
-2.5970283 5.5973759 -1.1994255 12 2
-3.0377691 6.5502987 0.63170481 1 10
-2.8650641 6.1835518 -1.0793979 13 3
-3.038765 6.5644488 0.88818389 1 11
-4.4172187 9.5466032 -1.2915714 2 4
-3.0544562 6.6074181 1.1529222 3 12
-2.892978 6.2638469 -0.60364062 22 5
-3.015816 6.5328088 1.39863 2 13
-3.0265076 6.5680151 1.6695868 3 14
-2.8911457 6.2771387 -0.12063103 38 7
-3.0081754 6.5372334 1.9282019 1 15
-2.2113709 4.8389711 -1.4255754 9 0
-3.0314384 6.6395903 0.12740256 4 8
-2.3276587 5.100503 -1.2943684 24 1
-2.5595157 5.6189437 -1.2001886 14 2
-2.9738021 6.531455 0.62786996 1 10
-2.7931979 6.14047 -1.0684476 13 3
-2.965759 6.5258651 0.88014042 1 11
-4.3562098 9.58986 -1.2932776 2 4
-2.9609048 6.5242505 1.1347758 3 12
-2.8401272 6.2639303 -0.60172325 33 5
-2.9636512 6.5393982 1.3955771 2 13
-2.9805808 6.5889835 1.6695868 3 14
-2.8390141 6.2789493 -0.12028199 36 7
-2.9409907 6.51054 1.9142257 2 15
-2.1838577 4.8683934 -1.4297165 10 0
-2.2935872 5.1201859 -1.2952682 24 1
-2.4969893 5.5846987 -1.1891217 14 2
-2.9118731 6.5156765 0.62438375 1 10
-2.7486534 6.1562114 -1.0678217 13 3
-2.9071889 6.5174046 0.87624067 1 11
-4.2657118 9.567461 -1.2862092 2 4
-2.7914672 6.2726841 -0.60067737 37 5
-2.906755 6.5348163 1.3902344 2 13
-2.9345081 6.6096315 1.6695868 3 14
-2.7837539 6.2730269 -0.11979332 36 7
-2.889986 6.5185509 1.9106023 1 15
-2.1311386 4.8410854 -1.4172932 10 0
-2.2530828 5.1253686 -1.2925688 24 1
-2.4603038 5.6073899 -1.1902666 12 2
-2.8487132 6.4957037 0.6205489 1 10
-2.7079833 6.1806803 -1.0687604 14 3
-2.8584337 6.5302672 0.87526566 1 11
-4.2115445 9.6261053 -1.2901089 2 4
-2.7199905 6.2258129 -0.59440213 32 5
-2.8437846 6.5153646 1.3818389 2 13
-2.7215304 6.2501397 -0.11899051 39 7
-2.8251417 6.4942808 1.8976613 1 15
-2.0911615 4.8416572 -1.413152 10 0
-2.2180178 5.1427627 -1.2930186 15 1
-2.4158685 5.60958 -1.1872137 10 2
-2.803292 6.5154343 0.6205489 1 10
-2.6611705 6.1880803 -1.0668832 16 3
-2.7998126 6.5167437 0.8708784 1 11
-4.1458097 9.6589193 -1.2905964 2 4
-2.7780411 6.4754143 1.1160036 3 12
-2.6701834 6.2299986 -0.59300768 36 5
-2.7843194 6.5025735 1.3749697 2 13
-2.6691895 6.2487593 -0.11860656 36 7
-2.7672172 6.4813805 1.8883438 1 15
-2.0430789 4.8202057 -1.4027992 11 0
-2.7961366 6.6032982 0.12516867 4 8
-2.175365 5.1397948 -1.2885196 15 1
-2.385051 5.646203 -1.1914115 8 2
-2.7309821 6.4682851 0.61427367 1 10
-2.6132982 6.1955872 -1.0650059 19 3
-2.7342098 6.4885669 0.86454117 1 11
-4.074574 9.6741095 -1.2888902 2 4
-2.6158128 6.2227759 -0.59056729 36 5
-2.7308705 6.4996538 1.3703903 2 13
-2.6142254 6.2372746 -0.11804808 36 7
-2.7136934 6.4809389 1.8826498 1 15
-2.0019629 4.8165126 -1.3976228 18 0
-2.7499688 6.6226573 0.12516867 4 8
-2.1409237 5.1584563 -1.2894194 15 1
-2.7377999 6.6031113 0.37462083 2 9
-2.3373103 5.6427641 -1.1872137 10 2
-2.6933796 6.5056024 0.61601681 1 10
-2.5533717 6.173522 -1.0581229 16 3
-2.6736834 6.4708047 0.85966641 1 11
-4.0039053 9.6949806 -1.2879153 3 4
