# .PCD v0.7 - Point Cloud Data file format
VERSION 0.7
FIELDS x y z intensity ring
SIZE 4 4 4 4 2
TYPE F F F F U
COUNT 1 1 1 1 1
WIDTH 1319
HEIGHT 1
VIEWPOINT 0 0 0 1 0 0 0
POINTS 1319
DATA ascii
-3.4300263 8.3632717 -1.4316884 16 3
-2.5946605 6.335885 -0.84065479 31 4
-3.4387066 8.4136992 -0.79520899 11 5
-2.5082912 6.2082353 -1.7941337 10 0
-2.5546443 6.3325071 -1.576457 43 1
-22.197784 55.079742 3.1122103 0 9
-3.2936423 8.1808062 -1.714228 12 2
-3.3980844 8.4529924 -1.4429516 17 3
-2.5414944 6.3317375 -0.83772999 35 4
-4.3133903 10.767893 -1.0148414 14 5
-3.3102863 8.2763071 -0.46715081 37 6
-2.4670219 6.2309837 -1.7956866 9 0
-2.5060744 6.339314 -1.5737575 40 1
-3.23717 8.2054281 -1.7146096 19 2
-3.2810664 8.3294783 -1.4179221 19 3
-2.4899595 6.330853 -0.83529252 37 4
-3.2648401 8.3138046 -0.78143841 27 5
-3.2772074 8.3624382 -0.47070965 12 6
-2.4045992 6.1994247 -1.7817104 11 0
-2.4519038 6.331214 -1.567459 43 1
-20.715286 53.517967 3.0075383 0 9
-3.1769938 8.2162857 -1.71232 16 2
-3.3808167 8.7570362 -1.4867533 16 3
-2.4371405 6.3258529 -0.83236772 37 4
-3.2231753 8.3791628 -0.78544754 16 5
-3.1944315 8.3174324 -0.46694148 12 6
-2.3712676 6.2391248 -1.7884396 9 0
-2.4018381 6.3295374 -1.5629599 47 1
-20.113201 53.059921 2.973834 0 9
-3.1042609 8.1978722 -1.7039244 22 2
-21.70997 57.362904 5.3660049 3 10
-3.1924591 8.4441376 -1.4298111 13 3
-2.3856127 6.3200088 -0.8294428 37 4
-3.123163 8.2914543 -0.77516311 26 5
-3.1215227 8.300272 -0.46474332 25 6
-2.3236103 6.2446642 -1.7853339 9 0
-2.3494473 6.3242297 -1.557561 43 1
-3.0496829 8.2267084 -1.7054509 15 2
-21.275747 57.423389 5.3576379 3 10
-3.1300018 8.4569569 -1.4282467 3 3
-2.3318 6.310441 -0.82603049 45 4
-4.9765582 13.496799 -1.2585289 22 5
-3.0648797 8.3256111 -0.46495271 25 6
-2.3473876 6.4458857 -1.8381329 9 0
-2.298583 6.3221622 -1.5530621 43 1
-19.637665 54.071468 3.0148654 0 9
-2.994184 8.253335 -1.7065957 4 2
-20.957195 57.799038 5.3789039 4 10
-3.0466676 8.4117384 -1.4169836 12 3
-2.2822876 6.3116317 -0.82408053 34 4
-3.0172338 8.3623648 -0.77777785 10 5
-2.9768989 8.2641258 -0.46034712 25 6
-2.3237224 6.5221715 -1.855215 18 0
-2.2478561 6.3196959 -1.548563 45 1
-2.8787076 8.1112213 -1.6730134 10 2
-20.64908 58.214333 5.4040046 4 10
-2.9496047 8.32481 -1.3988371 9 3
-2.2368448 6.323669 -0.82359308 35 4
-2.9091759 8.2564516 -0.45877704 38 6
-2.3118246 6.6349211 -1.8826498 12 0
-2.2036846 6.3352337 -1.548563 49 1
-2.8052742 8.0828972 -1.6630913 12 2
-2.8784804 8.307869 -1.3925798 10 3
-2.1848557 6.3166184 -0.82066822 38 4
-2.8410342 8.2322884 -0.7619155 26 5
-4.6210241 13.412823 -0.74348468 8 6
-2.2710538 6.667357 -1.8873086 7 0
-2.1481073 6.3172555 -1.5404649 45 1
-18.513836 54.50869 3.016959 0 9
-2.7267044 8.0372124 -1.6497347 21 2
-19.575823 57.734661 5.3335829 2 10
-2.8090086 8.2940836 -1.3869481 28 3
-21.905359 64.753838 8.3933859 14 11
-2.1330779 6.3091502 -0.81774336 34 4
-2.7924085 8.2783537 -0.76435584 32 5
-2.7834151 8.2659798 -0.45710227 38 6
-2.2244513 6.6830492 -1.8873086 11 0
-2.0990393 6.3173022 -1.5368656 52 1
-2.6890597 8.1119576 -1.6611832 15 2
-19.348978 58.403263 5.3827386 4 10
-2.7293162 8.2478533 -1.3759978 20 3
-2.0839953 6.3088098 -0.81579345 38 4
-2.710413 8.2195902 -0.75720912 42 5
-2.7200229 8.2681351 -0.45616025 51 6
-2.190284 6.7369971 -1.8981789 4 0
-2.0500727 6.3169742 -1.5332664 52 1
-2.6458824 8.167428 -1.6688155 19 2
-17.673559 54.62056 5.0226111 0 10
-2.6524463 8.2023363 -1.3653603 31 3
-2.0368567 6.3137589 -0.81457478 42 4
-2.6688459 8.2876186 -0.76174122 15 5
-2.6636841 8.2864571 -0.45616025 25 6
-2.1116283 6.6486416 -1.8691912 13 0
-1.9999598 6.3084908 -1.5278676 52 1
-17.167986 54.218811 2.9805331 0 9
-2.5331507 8.0097446 -1.6329435 16 2
-17.433458 55.157543 5.0609598 0 10
-2.5368416 8.0360479 -1.334699 17 3
-1.986077 6.3028636 -0.8114062 38 4
-2.6075892 8.2903872 -0.76034665 15 5
-2.5872293 8.2457771 -0.4529154 38 6
-2.0634449 6.6576862 -1.8676383 11 0
-1.9512621 6.3074055 -1.5242684 59 1
-16.668743 53.914619 2.9575052 0 9
-2.4472923 7.9255056 -1.6123362 18 2
-17.067926 55.34264 5.0668859 0 10
-2.5617936 8.3117495 -1.3775622 18 3
-1.9361928 6.2976012 -0.80896878 35 4
-2.5145774 8.1941071 -0.74988794 15 5
-2.5134976 8.205905 -0.44977528 39 6
-2.1025391 6.9507918 -1.9458016 9 0
-1.9015245 6.2981544 -1.5188695 45 1
-2.3341568 7.7506518 -1.573411 15 2
-16.829779 55.919239 5.1090693 1 10
-3.1536551 10.491717 -1.7351713 5 3
-1.8841544 6.2802124 -0.80506897 35 4
-2.4844623 8.2969236 -0.75773197 26 5
-2.4784408 8.2978878 -0.45385748 25 6
-1.9796534 6.7132969 -1.8754028 13 0
-1.8531102 6.29632 -1.5152704 43 1
-2.3571548 8.0244226 -1.6256927 12 2
-16.454683 56.088898 5.1139503 0 10
-2.4530663 8.3671303 -1.3810036 13 3
-1.8402643 6.2932134 -0.80506897 34 4
-2.4108491 8.2605133 -0.75285131 26 5
-2.4246936 8.3241529 -0.45438081 25 6
-1.9178977 6.670917 -1.8598738 22 0
-1.8069847 6.2975483 -1.512571 42 1
-2.2162676 7.744349 -1.5657787 13 2
-16.101004 56.29921 5.1230145 0 10
-18.671469 65.459991 8.3580437 13 11
-1.7897668 6.2788677 -0.80165666 30 4
-2.9890888 10.535138 -0.57391614 20 6
-1.8697168 6.6785631 -1.8583208 10 0
-1.7587802 6.2949953 -1.5089717 49 1
-2.1645565 7.7630367 -1.5665419 22 2
-15.776007 56.655918 5.1453261 0 10
-2.1817753 7.8406563 -1.2890202 13 3
-17.479246 62.900249 8.0158348 9 11
-1.7437681 6.2835569 -0.80068165 30 4
-3.7096517 13.394707 -1.2159969 21 5
-2.2852206 8.2682381 -0.44956589 13 6
-1.8043965 6.6184459 -1.8381329 13 0
-1.7138444 6.2992997 -1.5071721 43 1
-1.9314104 7.1185846 -1.4337388 5 2
-1.9344231 7.1444888 -1.17232 3 3
-15.117464 55.911335 7.1115646 0 11
-1.6978499 6.283782 -0.79921919 28 4
-16.352291 60.60421 9.9420376 11 12
-2.2952743 8.5184908 -0.77185118 10 5
-2.1703906 8.0718288 -0.43805203 26 6
-1.8056779 6.8101449 -1.8878261 4 0
-1.6668345 6.2998071 -1.5044726 35 1
-2.1355934 8.0943308 -1.6272193 10 2
-15.069538 57.157032 5.171473 0 10
-2.1158483 8.0365486 -1.3162397 24 3
-14.625813 55.631546 7.0628166 0 11
-1.6499043 6.2801228 -0.79726928 35 4
-15.888694 60.564037 9.9170084 11 12
-1.733987 6.7290487 -1.8619443 4 0
-1.6184454 6.2943044 -1.5004236 27 1
-14.268653 55.572716 3.0069103 0 9
-2.0843956 8.129962 -1.6314169 21 2
-2.0308053 7.9382124 -1.2977805 18 3
-14.359906 56.213127 7.1237512 0 11
-1.6019785 6.2802277 -0.79580688 37 4
-15.405963 60.439949 9.8788376 5 12
-2.7334156 10.739267 -0.96952045 13 5
-2.1046743 8.2871828 -0.44810051 13 6
-1.6857905 6.7412839 -1.8619443 4 0
-1.5705323 6.2943797 -1.4977242 15 1
-13.870646 55.673386 3.0069103 0 9
-1.9896439 7.9919071 -1.6008875 15 2
-13.729373 55.229721 4.979033 0 10
-2.0710282 8.3436499 -1.3616058 14 3
-1.5523688 6.268136 -0.79288203 31 4
-15.151373 61.269672 9.9964762 12 12
-2.0647569 8.3557968 -0.75302559 21 5
-2.6004834 10.555468 -0.56972927 20 6
-1.6236558 6.6909351 -1.8448622 10 0
-1.5251783 6.2995081 -1.4963745 8 1
-13.46565 55.702866 3.0033514 0 9
-1.9222702 7.9639549 -1.592492 13 2
-13.329449 55.266125 4.973804 1 10
-1.9165316 7.958447 -1.2965289 17 3
-13.679846 56.893028 7.1846857 0 11
-1.5057887 6.26724 -0.79141963 34 4
-14.973969 62.418907 10.166677 8 12
-2.0370252 8.4978838 -0.76453012 10 5
-2.5146646 10.522858 -0.56700778 20 6
-1.5977 6.7904911 -1.8691912 4 0
-1.4838313 6.3213863 -1.4990739 6 1
-13.113572 55.909897 3.0096319 0 9
-1.9029326 8.1259546 -1.6222582 15 2
-13.252655 56.680954 5.0926843 0 10
-1.8793929 8.0444031 -1.308418 20 3
-13.321102 57.108559 7.2002854 0 11
-1.4602003 6.2698655 -0.79044467 31 4
-14.428731 62.003765 10.082829 14 12
-2.4312596 10.464237 -0.93988752 13 5
-1.9450971 8.3917027 -0.45144999 25 6
-1.5411302 6.7560053 -1.8567679 9 0
-1.4334204 6.299036 -1.4914254 1 1
-1.8839394 8.3056126 -1.6554589 10 2
-12.830447 56.610512 5.0783906 1 10
-1.8563197 8.2037554 -1.3321961 17 3
-13.029719 57.676483 7.2602448 0 11
-1.4139889 6.2641692 -0.78849471 37 4
-2.3687243 10.519419 -0.94337374 13 5
-2.9681244 13.224405 -0.71030366 17 6
-1.4789333 6.698689 -1.8381329 2 0
-1.6743995 7.5903268 0.135675 4 8
-1.7284847 7.8485255 -1.8553963 2 1
-11.967169 54.384472 2.9183578 0 9
-1.3686283 6.2300534 -1.2398769 12 2
-12.527084 57.119076 5.1160421 0 10
-1.7995934 8.2123404 -1.3315703 19 3
-12.511223 57.189835 7.188098 0 11
-1.3681046 6.2641912 -0.78727603 27 4
-2.3138876 10.621356 -0.95104349 13 5
-2.8708303 13.211123 -0.70852429 26 6
-1.4890038 6.9693117 -1.909567 2 0
-1.6697412 7.8353314 -1.8495475 1 1
-11.368599 53.439133 2.8633006 0 9
-1.3295872 6.260581 -1.2440747 16 2
-12.300967 57.970921 5.1847205 0 10
-1.7389379 8.2092438 -1.3290673 18 3
-12.143692 57.427273 7.2071099 0 11
-1.3200992 6.2481103 -0.78410745 36 4
-2.7955012 13.277066 -1.1870612 20 5
-2.7699151 13.189795 -0.70632613 17 6
-1.3778431 6.6768193 -1.8267449 21 0
-1.6146067 7.8448892 -1.8490976 2 1
-1.5816594 7.6984162 0.41188401 2 9
-1.2807171 6.24471 -1.2391137 20 2
-11.948747 58.313026 5.2077298 0 10
-1.7132525 8.3760099 -1.3540969 19 3
-11.670229 57.156662 7.1627493 0 11
-1.2732729 6.2416134 -0.78215748 34 4
-2.7106795 13.335308 -1.1905475 20 5
-2.1349058 10.531033 -0.56313491 20 6
-1.550312 7.8081846 -1.8378501 15 1
-10.504849 53.004913 2.8318989 0 9
-1.2348065 6.2419424 -1.236824 32 2
-1.602742 8.1241941 -1.3115468 24 3
-11.461916 58.206692 7.2841315 0 11
-1.2266046 6.2347679 -0.78020763 40 4
-2.0641146 10.530622 -0.93884164 13 5
-2.0241683 10.355546 -0.55298179 21 6
-1.383491 7.2114592 -1.9675424 2 0
-1.5063852 7.8743238 -1.8508973 6 1
-10.097116 52.880772 2.8214316 0 9
-1.1911995 6.250411 -1.236824 36 2
-1.5618433 8.2186327 -1.325 20 3
-10.942079 57.688492 7.209547 1 11
-1.180091 6.2275753 -0.77825767 30 4
-1.963203 10.399897 -0.9259426 13 5
-1.9544146 10.383163 -0.55371451 21 6
-1.2580532 6.8143964 -1.8567679 3 0
-1.4460796 7.8559008 -1.8441486 15 1
-9.7543974 53.095337 2.8291774 0 9
-1.1439939 6.239264 -1.2330078 38 2
-10.515973 57.409882 5.1062803 0 10
-1.5445701 8.4489145 -1.3603542 16 3
-10.708672 58.693039 7.3255672 0 11
-1.1344497 6.2239447 -0.77679521 33 4
-1.9009174 10.460066 -0.93012613 13 5
-1.8744081 10.355282 -0.55151635 21 6
-1.2063997 6.8001876 -1.8505563 7 0
-1.3878059 7.8466153 -1.8396497 14 1
-9.3879223 53.132965 2.8277121 0 9
-1.0994524 6.2353058 -1.2307181 40 2
-9.8987694 56.253532 4.9971614 0 10
-1.4398279 8.1907473 -1.3171782 17 3
-10.343898 58.964001 7.3504281 0 11
-1.0875477 6.2121596 -0.77435786 31 4
-1.439737 8.2493181 -0.73263115 25 5
-1.2360203 7.253871 -1.9716836 2 0
-1.0545853 6.2350869 -1.2291917 38 2
-9.5242634 56.370693 5.0016937 1 10
-1.387537 8.2298183 -1.3218714 18 3
-1.3983947 8.3118906 1.0349146 3 11
-1.0415229 6.2039394 -0.77240795 28 4
-1.3692861 8.1825304 -0.725833 35 5
-1.1809726 7.2434635 -1.9665072 2 0
-1.2809309 7.8825383 -1.8436987 1 1
-8.5910759 52.98436 2.8130579 0 9
-1.0110335 6.2422967 -1.2291917 50 2
-9.1734037 56.763897 5.0306292 1 10
-1.3314403 8.2570887 -1.3246872 9 3
-9.5865393 59.518166 7.4021006 1 11
-0.99755579 6.2071395 -0.77192044 30 4
-1.312443 8.1938581 -0.72600728 30 5
-1.3036263 8.175354 -0.4338651 26 6
-1.0988351 7.0491991 -1.9116375 3 0
-1.2270657 7.8989916 -1.8454984 2 1
-8.2913208 53.496998 2.8371325 0 9
-0.96453869 6.2377305 -1.2269019 38 2
-8.8036575 56.999832 5.045969 1 10
-1.2424788 8.063139 -1.2921488 14 3
-9.1948061 59.80891 7.4298873 1 11
-0.95420051 6.2139521 -0.77192044 28 4
-1.2531013 8.1890345 -0.72478712 15 5
-1.2522335 8.2217712 -0.43585387 26 6
-0.98450792 6.6191187 -1.7930984 10 0
-1.1718867 7.9073663 -1.8454984 1 1
-0.91918641 6.22473 -1.2230858 36 2
-8.5129719 57.789215 5.1104641 0 10
-1.161683 7.8955188 -1.2639905 18 3
-8.890111 60.569309 7.5166578 2 11
-0.90964532 6.2126055 -0.77094555 27 4
-1.2988603 8.8816414 1.4216765 2 12
-1.2039539 8.2527866 -0.7296679 10 5
-1.1953828 8.2241755 -0.43553987 13 6
-0.88383746 6.2335582 -1.6869825 9 0
-0.86423439 6.1493402 -1.2070577 40 2
-8.2141294 58.520603 5.1700788 0 10
-0.85784036 6.1271195 -0.97990561 37 3
-8.7520313 62.670624 7.7696586 6 11
-0.85252881 6.1124864 -0.75778365 31 4
-1.153699 8.3142748 -0.73437428 30 5
-1.4393048 10.41257 -0.55088836 10 6
-0.82154876 6.1245999 -1.4266397 42 1
-0.81972492 6.143548 -1.2047681 38 2
-7.7574825 58.217087 5.1383538 0 10
-0.81400323 6.1251268 -0.97865415 37 3
-0.80879289 6.1104174 -0.7568087 31 4
-1.3691778 10.442166 -0.55193508 31 6
-0.78694087 6.1686378 -1.6662771 34 0
-0.78270334 6.1611171 -1.433838 40 1
-0.78419673 6.2075543 -1.2162166 36 2
-7.2211909 57.241932 5.0477118 0 10
-1.0227073 8.1297884 -1.2977805 16 3
-0.77746427 6.206521 -0.76802069 34 4
-1.0165166 8.149477 -0.71851194 10 5
-1.0130521 8.1681232 -0.431353 13 6
-2.5875068 20.892622 4.8602924 5 14
-0.74332172 6.2244444 -1.2185063 36 2
-7.1163135 59.767921 5.2659497 1 10
-0.96827871 8.1444082 -1.299032 16 3
-0.73272067 6.1999688 -0.76655823 33 4
-0.96611613 8.2117796 -0.72339261 35 5
-1.2218207 10.432281 -0.55046964 21 6
-0.96537 8.2927284 -0.14572759 18 7
-0.82565087 7.2691827 -1.9602956 2 0
-0.89142013 7.8850412 -1.8320013 2 1
-0.6994105 6.2255812 -1.2177432 36 2
-0.90788418 8.1195583 -1.294026 19 3
-0.69049883 6.204813 -0.76655823 33 4
-0.90756589 8.1944027 -0.7213009 20 5
-0.90688962 8.2408724 -0.43449312 26 6
-0.7073589 6.6408448 -1.789475 9 0
-0.83347499 7.8639421 -1.8257027 4 1
-0.65743273 6.2341013 -1.2185063 36 2
-6.3140621 60.07436 5.2847753 1 10
-0.85589713 8.1569843 -1.299032 17 3
-0.6467557 6.205533 -0.76607072 34 4
-1.1699276 11.244382 1.790549 3 12
-0.84417516 8.1410856 -0.71607161 10 5
-0.85344303 8.2726803 -0.43585387 26 6
-0.66785985 6.7148271 -1.80811 3 0
-0.77816665 7.8656912 -1.824803 13 1
-5.9277606 60.131607 3.1666398 1 9
-0.61011881 6.2112927 -1.2131636 36 2
-5.8677082 59.843338 5.2607207 0 10
-0.78598052 8.0449381 -1.2802597 8 3
-0.6034171 6.209897 -0.76607072 34 4
-0.78885227 8.1626453 -0.71746606 20 5
-0.79117149 8.2467661 -0.43417913 26 6
-0.67234546 7.2752614 -1.9577073 2 0
-0.72466499 7.8864565 -1.8284022 3 1
-0.56854016 6.2231221 -1.2146901 36 2
-1.1721179 12.879375 1.1314558 4 10
-0.73566937 8.0992842 -1.2880815 18 3
-0.55862069 6.1981425 -0.76412088 33 4
-0.93062854 10.386559 -0.9123463 13 5
-1.1687946 13.12197 -0.69041598 35 6
-0.62396139 7.2931437 -1.9613309 2 0
-0.67047143 7.8853812 -1.8270525 7 1
-0.52541065 6.2308526 -1.2154534 36 2
-0.66310734 7.9132795 -1.2577332 18 3
-0.5164212 6.2018008 -0.76412088 31 4
-0.67742544 8.2046347 -0.72025502 10 5
-0.86192203 10.506237 -0.55245841 21 6
-1.4988567 18.467667 4.9646673 1 15
-0.51949626 6.6155448 -1.7780869 4 0
-0.61282855 7.8568416 -1.8194041 10 1
-0.4815957 6.2304535 -1.2146901 36 2
-0.61207986 7.9728656 -1.2664937 16 3
-0.47220641 6.1933789 -0.76265842 33 4
-0.78912467 10.446221 -0.91652977 19 5
-0.61719126 8.22756 -0.43239969 13 6
-0.61630499 8.2738142 -0.14482006 7 7
-0.47219297 6.6035953 -1.7739457 7 0
-0.55713469 7.8492651 -1.8167046 11 1
-0.43781492 6.2297468 -1.2139269 36 2
-0.55750728 7.9927087 -1.2689966 16 3
-0.42840567 6.1886034 -0.76168346 33 4
-0.56389749 8.2291956 -0.72164959 10 5
-0.55296224 8.1320362 -0.42716613 27 6
-0.46188676 7.1619506 -1.9230256 2 0
-0.50344253 7.8704667 -1.8207539 7 1
-0.39331779 6.2169771 -1.210874 36 2
-0.50515366 8.0516081 -1.2777568 18 3
-0.38494703 6.1874804 -0.76119596 36 4
-0.50056529 8.1374769 -0.71328253 34 5
-0.49496058 8.1157618 -0.42611939 27 6
-0.49758169 8.2297153 -0.14391254 18 7
-0.37462705 6.5169683 -1.7490991 9 0
-0.44804448 7.8660064 -1.8189542 8 1
-3.1330659 55.345314 2.9051692 0 9
-0.35012609 6.2234917 -1.2116373 38 2
-0.45376718 8.1417208 -1.2915231 18 3
-0.34152204 6.1860528 -0.76070851 40 4
-0.44590771 8.1805611 -0.7167688 10 5
-0.44345754 8.2147484 -0.43114361 13 6
-0.33399099 6.6158943 -1.774981 2 0
-0.39409083 7.8884063 -1.8234532 7 1
-2.8888817 58.234371 3.0556874 0 9
-0.30570644 6.2061758 -1.207821 36 2
-0.3963393 8.1328516 -1.2896459 21 3
-0.29851809 6.1922517 -0.76119596 36 4
-0.39408052 8.2949238 -0.72653025 15 5
-0.38797176 8.2575464 -0.43323711 26 6
-0.31700277 7.2897148 -1.9551191 2 0
-0.33967516 7.9065413 -1.8270525 7 1
-2.4958913 58.572392 3.0724349 0 9
-0.26286912 6.2199278 -1.2101108 38 2
-0.33840221 8.107789 -1.2852658 28 3
-0.25479326 6.1822848 -0.75973356 36 4
-0.33583146 8.2536182 -0.72269541 20 5
-0.32903686 8.2281227 -0.43156233 26 6
-0.26638505 7.2994723 -1.9571897 2 0
-0.27970549 7.7762909 -1.7964592 18 1
-0.22024406 6.2137246 -1.2085842 36 2
-0.27465394 7.8651071 -1.24647 19 3
-0.21108048 6.1680417 -0.75778365 33 4
-0.27537999 8.1721277 -0.71537429 20 5
-0.27434641 8.2700949 -0.43365577 13 6
-0.19342458 6.5171299 -1.7470287 9 0
-0.22909956 7.8578796 -1.8149052 16 1
-0.17641492 6.1994109 -1.2055314 36 2
-0.22663672 8.1136589 -1.2855786 22 3
-0.16920269 6.1733036 -0.7582711 40 4
-0.21878767 8.1379633 -0.7122367 19 5
-0.21419865 8.1799669 -0.42884085 27 6
-0.165369 7.2870007 -1.9530486 2 0
-0.17337553 7.820322 -1.8059071 17 1
-0.13430065 6.2043939 -1.2062945 36 2
-0.17377722 8.2275848 -1.3034122 16 3
-0.12634398 6.1862431 -0.75973356 34 4
-0.20636535 10.370327 -0.90746558 12 5
-0.15967895 8.2411413 -0.43198103 26 6
-0.11637419 7.3265896 -1.9634014 3 0
-0.12064523 7.854445 -1.8135554 13 1
-0.82605547 55.028278 2.8842349 0 9
-0.090922005 6.2012539 -1.2055314 36 2
-0.11502504 8.1357632 -1.2887073 19 3
-0.084070399 6.1750498 -0.7582711 40 4
-0.13437349 10.40339 -0.91025454 12 5
-0.065260008 7.3310866 -1.9644365 3 0
-0.065579362 7.8278146 -1.8072568 14 1
-0.047657028 6.2056642 -1.2062945 38 2
-0.05806841 8.1146402 -1.2852658 17 3
-0.040984713 6.1794567 -0.7587586 36 4
-0.048581619 8.1865845 -0.71624589 25 5
-0.044122677 8.1546898 -0.42737547 13 6
-0.01402585 7.304318 -1.9571897 4 0
-0.010922165 7.8202868 -1.8054571 14 1
-0.058359805 55.733482 2.9208698 0 9
-0.0043266811 6.1979928 -1.2047681 36 2
-0.0014271572 8.1780605 -1.2952776 16 3
0.0021487132 6.1557708 -0.75583369 40 4
0.0085622696 8.1767616 -0.71537429 40 5
0.012796314 8.1468086 -0.42695674 40 6
0.037137955 7.3370786 -1.9659895 2 0
0.043732144 7.829916 -1.8077066 16 1
0.038915947 6.1939459 -1.2040049 36 2
0.05571638 8.1857719 -1.2965289 17 3
0.045121111 6.1556058 -0.75583369 36 4
0.065422684 8.1486101 -0.71293396 39 5
0.07004723 8.1904602 -0.42925957 26 6
0.08870849 7.3656163 -1.9737542 3 0
0.098320737 7.8235741 -1.806357 15 1
0.082000643 6.1817441 -1.2017151 36 2
0.84772927 63.077339 5.5190501 7 10
0.1119676 8.1200018 -1.2862043 8 3
0.08809717 6.1551409 -0.75583369 34 4
0.12161745 8.1021357 -0.70892483 29 5
0.12632217 8.1318579 -0.42622405 27 6
0.13997751 7.3570914 -1.9716836 3 0
0.15354289 7.8538709 -1.8135554 14 1
1.0861803 54.58427 2.861207 0 9
0.12531729 6.1888728 -1.2032416 36 2
1.2739958 62.380665 5.4587383 6 10
0.16569938 7.9768257 -1.2636777 10 3
0.13140415 6.1702533 -0.75778365 39 4
0.1775647 8.0732012 -0.70648438 29 5
0.18255447 8.1068172 -0.42496803 27 6
0.19093443 7.3404856 -1.9675424 3 0
0.20805936 7.840919 -1.810856 11 1
0.16786267 6.2035766 -1.2062945 38 2
0.29838926 10.74981 -1.7032586 4 3
0.17425001 6.1612482 -0.7568087 34 4
0.23549639 8.1753674 -0.71554857 30 5
0.23790349 8.1113758 -0.42528203 27 6
0.2406417 7.3312922 -1.9654719 7 0
0.26181579 7.8510075 -1.8135554 12 1
1.8371807 54.803967 2.8737676 0 9
0.21008529 6.2022905 -1.2062945 36 2
2.1752603 63.56385 5.5643711 9 10
0.3702217 10.763389 -1.7057616 5 3
0.21427794 6.1361504 -0.75388384 31 4
0.29071736 8.1616287 -0.71450275 15 5
0.29491794 8.1594677 -0.42789882 27 6
0.28917992 7.3276052 -1.9649543 6 0
0.31356865 7.8413095 -1.8117559 14 1
2.2850442 56.64613 2.9711127 0 9
0.25134036 6.177177 -1.2017151 36 2
2.5768323 62.7911 5.4981327 7 10
0.33667514 8.1691504 -1.2949647 9 3
2.6121845 62.849346 7.7235923 5 11
0.25727737 6.1384716 -0.75437129 33 4
0.34626129 8.1594601 -0.71450275 10 5
0.35092381 8.1352596 -0.42674741 13 6
0.34133765 7.3195591 -1.9634014 4 0
0.37021878 7.8505449 -1.8144552 14 1
2.6685367 56.169476 2.9470379 0 9
0.29591218 6.183064 -1.2032416 38 2
3.1003146 64.311378 5.63305 11 10
0.39474171 8.158639 -1.2937132 11 3
0.3023645 6.1602659 -0.75729614 36 4
0.39792743 8.0214586 -0.70264959 9 5
0.41284633 8.2063456 -0.43062031 26 6
0.39412168 7.324645 -1.9654719 4 0
0.42797241 7.8768826 -1.8212038 7 1
3.0667 56.081139 2.9434793 0 9
0.33993384 6.176868 -1.2024784 36 2
3.4520237 62.330032 5.4615273 6 10
0.44971645 8.0944624 -1.2840142 14 3
3.4947214 62.508228 7.6870313 4 11
0.34510055 6.134161 -0.75437129 31 4
0.4629983 8.1536694 -0.71450275 20 5
0.46789107 8.1393747 -0.4272708 27 6
0.40042651 6.5657563 -1.7625577 3 0
0.48205379 7.8366623 -1.8126557 9 1
3.4659557 56.025864 2.9418044 0 9
0.38436955 6.178196 -1.2032416 40 2
3.7521524 59.973209 5.2572346 0 10
0.5044117 8.0397797 -1.2758796 13 3
3.7671947 59.711967 7.3462844 0 11
0.39049497 6.1553078 -0.75729614 39 4
0.66250855 10.35719 -0.90798849 12 5
0.67343283 10.413928 -0.54691082 10 6
0.4417778 6.5476131 -1.7584167 3 0
0.5342375 7.8567171 -1.8180546 8 1
3.8385804 56.16172 2.9501781 0 9
0.42398685 6.1716681 -1.2024784 38 2
4.1678128 60.512951 5.3067389 2 10
0.55699831 8.0462074 -1.277444 21 3
0.42940548 6.1407757 -0.75583369 40 4
0.57815433 8.2062359 -0.71973211 35 5
0.73037314 10.289956 -0.54063052 32 6
0.54500496 7.299469 -1.9613309 4 0
0.58971465 7.8429766 -1.815805 10 1
0.46735927 6.172473 -1.2032416 36 2
4.2894173 56.389072 4.9476571 0 10
0.79743975 10.435121 -1.6575798 8 3
4.6599975 60.839561 7.4920402 2 11
0.4722628 6.137629 -0.75583369 36 4
0.63835061 8.2397423 -0.72304404 30 5
0.63774204 8.1578808 -0.42884085 27 6
0.59595156 7.295486 -1.9613309 4 0
0.64605123 7.8580899 -1.8203038 10 1
4.5367956 54.947365 2.8894684 0 9
0.51151651 6.1689706 -1.2032416 36 2
4.6832862 56.361729 4.9480057 0 10
0.672333 8.0572147 -1.2805728 12 3
5.08529 60.685966 7.477416 2 11
0.51576447 6.1420951 -0.7568087 39 4
0.68998784 8.1655989 -0.71694314 10 5
0.70044416 8.220891 -0.43239969 13 6
0.64584476 7.2796016 -1.958225 3 0
0.69933629 7.8359189 -1.8162549 15 1
4.9758143 55.643299 2.9277782 0 9
0.55489999 6.1809893 -1.2062945 38 2
5.061986 56.164944 4.933712 0 10
0.72094309 7.983593 -1.2696222 13 3
0.55899161 6.1422987 -0.75729614 39 4
0.74861205 8.1784391 -0.71851194 30 5
0.75052279 8.1522903 -0.42905018 13 6
0.63802963 6.675034 -1.7967219 4 0
0.75135249 7.8173985 -1.8131055 17 1
5.2843523 54.78019 2.8842349 0 9
0.59728116 6.169148 -1.2047681 36 2
5.4295802 55.978466 4.9204645 1 10
0.78833634 8.0982962 -1.2887073 20 3
5.8859868 60.246563 7.4325681 1 11
0.60078806 6.1383514 -0.75729614 40 4
0.80192232 8.1493597 -0.71642017 25 5
1.2959332 13.075906 -0.6886366 8 6
0.68382245 6.6627302 -1.7946514 4 0
0.80670613 7.8197174 -1.8149052 16 1
5.6366034 54.544281 2.8737676 0 9
0.6404714 6.1766562 -1.2070577 36 2
6.0086789 57.750469 5.0797853 0 10
0.85060459 8.1615095 -1.2996577 8 3
6.331449 60.544689 7.4744916 2 11
0.6427986 6.1261106 -0.75632119 34 4
0.86046761 8.1594143 -0.71781468 25 5
0.86411655 8.1530838 -0.42967823 13 6
0.72369349 6.6079917 -1.7811928 7 0
0.86077106 7.8217921 -1.8167046 16 1
5.9953141 54.305084 2.8633006 0 9
0.68185103 6.156424 -1.2040049 36 2
0.90341473 8.1180706 -1.2937132 12 3
6.6879034 59.907162 7.4013696 1 11
0.68731564 6.1372552 -0.7582711 36 4
0.93133551 8.2381458 -0.43449312 13 6
0.84198487 7.2109079 -1.945284 2 0
0.91967177 7.8405943 -1.8225534 13 1
1.5787288 13.418909 0.70810556 4 9
0.7271117 6.1710114 -1.207821 34 2
6.6572585 56.331318 4.9626479 1 10
0.96147925 8.1113977 -1.2937132 9 3
7.1092477 59.886608 7.4047818 1 11
0.73108679 6.140192 -0.75924611 39 4
0.98069608 8.2000179 -0.72252107 15 5
1.5671004 13.026069 -0.68758982 17 6
0.82653147 6.6737885 -1.8018982 14 0
0.97438329 7.8339829 -1.8225534 11 1
0.7712518 6.1656504 -1.207821 36 2
7.3098917 58.355301 5.1453261 0 10
1.2938457 10.299656 -1.6441264 9 3
7.5738282 60.121746 7.4403677 1 11
0.77443248 6.1388774 -0.75973356 39 4
1.0426515 8.1845312 -0.43239969 13 6
0.95085722 7.2616611 -1.9623661 3 0
1.0290511 7.8269897 -1.8225534 13 1
0.81268543 6.1563649 -1.2070577 36 2
7.7432814 58.500355 5.1627574 0 10
1.0919135 8.2383642 -1.3162397 2 3
1.6318295 12.279019 1.5209296 0 11
0.81779552 6.1372566 -0.76022106 36 4
1.0913929 8.1578798 -0.72008073 10 5
1.7625047 13.121992 -0.69387019 8 6
0.92322218 6.6962051 -1.8112158 9 0
1.0857809 7.8448973 -1.8284022 9 1
0.85672718 6.1583195 -1.2085842 36 2
8.2561731 59.271152 5.2356195 0 10
1.1346481 8.1248951 -1.2993449 11 3
8.3437023 59.594837 7.3886952 1 11
0.85844636 6.1236849 -0.75924611 34 4
1.1374533 8.0831814 -0.71415412 35 5
1.1402957 8.0625877 -0.42674741 13 6
1.0192876 7.0299082 -1.9033554 7 0
1.1363088 7.8082004 -1.8216537 13 1
8.1798573 56.139347 2.9732058 0 9
0.8980583 6.1484599 -1.207821 36 2
9.0911856 62.090275 5.4901147 7 10
1.2019602 8.1990719 -1.3124853 9 3
0.90117973 6.1175423 -0.75924611 40 4
1.1947349 8.0809565 -0.7146771 35 5
1.1972055 8.0684681 -0.42748013 27 6
1.0067476 6.6255426 -1.7956866 21 0
1.0728055 7.0354757 -1.6430426 5 1
0.94155538 6.1459217 -1.2085842 36 2
8.3126278 54.196774 4.7970519 0 10
1.2537682 8.1553364 -1.3068537 9 3
9.0635872 58.818848 7.3072863 0 11
0.94461274 6.1230378 -0.76070851 40 4
1.2517278 8.0763569 -0.71502572 35 5
1.9978057 12.845736 -0.68130952 17 6
1.2463162 7.8071856 -1.8252529 15 1
9.0947638 56.84404 3.016959 0 9
0.98754746 6.1585832 -1.2124004 34 2
8.7002649 54.196438 4.8022814 1 10
1.1374644 7.0698223 -1.13415 4 3
9.4556704 58.640469 7.2931495 0 11
0.98986745 6.1319723 -0.76265842 40 4
1.3080809 8.067421 -0.71502572 35 5
1.6730928 10.2845 -0.54607344 10 6
1.2011868 7.224472 -1.9623661 4 0
1.2985458 7.7848392 -1.8221035 16 1
1.0311643 6.1554122 -1.2131636 36 2
9.1766129 54.719933 4.8542261 0 10
1.3668585 8.1331406 -1.3062279 20 3
9.9037304 58.804016 7.3219109 0 11
1.0346327 6.1366568 -0.76412088 34 4
1.3715996 8.0751009 -0.42925957 13 6
1.2509335 7.2121038 -1.9613309 4 0
1.3552009 7.7890234 -1.8252529 11 1
1.0734391 6.1441946 -1.2124004 38 2
9.5920181 54.846874 4.8713088 0 10
1.4062151 8.024168 -1.2902716 17 3
1.0767622 6.1253743 -0.76363337 36 4
1.601691 9.0929222 1.4623495 1 12
1.428901 8.0954609 -0.71920919 10 5
1.30331 7.2146015 -1.9644365 4 0
1.406415 7.7621155 -1.8212038 25 1
1.1170104 6.1404142 -1.2131636 38 2
10.272391 56.413338 5.0166845 0 10
1.4423449 7.9053311 -1.272751 8 3
1.5400256 8.424077 1.0514888 0 11
1.1202137 6.121613 -0.76412088 34 4
1.4803467 8.0578527 -0.7167688 10 5
1.4845746 8.057127 -0.42936423 26 6
1.3647033 7.264185 -1.9804834 2 0
1.4695908 7.799984 -1.8324513 7 1
10.067854 53.333572 2.8444595 0 9
1.1605781 6.1363254 -1.2139269 36 2
1.5221592 8.0251007 -1.2937132 12 3
10.861753 57.156174 7.1434937 0 11
1.1629204 6.1136436 -0.76412088 33 4
1.5399282 8.0649357 -0.71833766 25 5
1.5516807 8.1034536 -0.43239969 40 6
1.4083581 7.2184534 -1.9706483 3 0
1.5255095 7.7971835 -1.8342509 7 1
10.45913 53.359985 2.8496931 0 9
1.204146 6.1319261 -1.2146901 36 2
10.883801 55.372948 4.9371986 0 10
1.5808195 8.0278454 -1.2959032 13 3
11.322784 57.394451 7.1829796 0 11
1.2071115 6.1131659 -0.76509583 33 4
1.5927047 8.0363989 -0.7167688 20 5
1.6062653 8.0826302 -0.43187636 26 6
1.4610138 7.2198071 -1.9737542 3 0
1.5791281 7.7825241 -1.8333511 8 1
10.853679 53.395279 2.8555548 0 9
1.2484926 6.1310654 -1.2162166 36 2
10.77592 52.870918 4.7207036 0 10
1.6779283 8.2178993 -1.3284416 5 3
11.756585 57.477379 7.2034535 0 11
1.2521518 6.1162577 -0.76655823 34 4
1.6519783 8.0406971 -0.71816331 10 5
1.6469378 7.9949274 -0.42779416 27 6
1.5145528 7.2245574 -1.9778951 3 0
1.6334219 7.7713103 -1.8333511 7 1
1.291265 6.1221995 -1.2162166 36 2
11.209785 53.102406 4.7482448 0 10
1.6968395 8.0243187 -1.299032 14 3
12.204462 57.615284 7.2312398 0 11
1.2948179 6.107367 -0.76655823 36 4
2.181524 10.254474 -0.91722697 13 5
1.6935511 7.9402614 -0.42549136 27 6
1.553485 7.1609454 -1.9634014 4 0
1.6868079 7.7559094 -1.8324513 7 1
1.3356489 6.1207089 -1.2177432 36 2
11.479909 52.563477 4.7071075 0 10
1.7878578 8.1724443 -1.325 27 3
12.530761 57.183525 7.1878548 0 11
1.3382744 6.102057 -0.76704568 31 4
1.7760767 8.071331 -0.72304404 20 5
1.7773393 8.0569687 -0.43239969 13 6
1.6114686 7.1857419 -1.9732366 2 0
1.7332158 7.7097211 -1.8243531 9 1
1.3792107 6.1150646 -1.2185063 36 2
12.078224 53.508217 4.7991438 0 10
1.8069693 7.992137 -1.2977805 18 3
13.017332 57.481865 7.2366018 0 11
1.3808421 6.0925655 -0.76704568 33 4
1.8178003 7.9946232 -0.71729177 30 5
1.8184496 7.9781561 -0.42884085 27 6
1.6637781 7.1837263 -1.9758247 4 0
1.7878824 7.7012291 -1.8252529 15 1
1.4245373 6.1167603 -1.220796 38 2
12.644149 54.249195 4.8734007 0 10
1.8806796 8.0562735 -1.3102952 19 3
13.334279 57.030052 7.191267 0 11
1.426958 6.0982409 -0.76899564 34 4
1.8854069 8.0321693 -0.72182387 25 5
1.841168 7.8252864 -0.42130449 27 6
1.588797 6.6536245 -1.8329566 7 0
1.8443406 7.7059383 -1.8293018 7 1
1.4730175 6.1355567 -1.2265203 20 2
12.992613 54.076637 4.8657308 0 10
1.4687076 6.1035247 -0.99429762 14 3
13.816549 57.329731 7.2407455 0 11
1.4637829 6.069088 -0.76655823 19 4
1.9390997 8.0152779 -0.72147524 30 5
3.1077418 12.816501 -0.6911487 8 6
12.948252 52.399845 2.8287587 0 9
1.4889302 6.0164957 -1.2047681 36 2
13.006792 52.518665 4.7336025 0 10
1.4927332 6.0183492 -0.98209572 45 3
14.251864 57.374443 7.2587824 0 11
1.4927057 6.0047808 -0.75973356 42 4
2.0075412 8.0518064 -0.72600728 25 5
1.9982743 7.9967995 -0.43198103 13 6
1.5362294 6.0577846 -1.6745592 42 0
1.5269375 6.0079408 -1.4311386 42 1
1.5318667 6.0097589 -1.2055314 34 2
13.679406 53.627403 4.8420243 0 10
1.533246 6.0020394 -0.98115706 37 3
14.948273 58.431278 7.4055133 1 11
1.5414832 6.0211363 -0.76314586 39 4
2.051405 7.9954991 -0.72217244 30 5
2.0510678 7.9710498 -0.431353 26 6
1.9974275 7.6354585 -1.8221035 11 1
13.651265 52.14679 2.8249905 0 9
1.6006187 6.1055412 -1.2269019 38 2
14.226487 54.189659 4.901639 0 10
2.1071231 8.0204601 -1.313424 24 3
1.6037108 6.0870118 -0.77289546 39 4
2.1275222 8.0580378 -0.72914493 30 5
2.7111642 10.246854 -0.55549389 10 6
1.757286 6.5491371 -1.8169098 12 0
2.0448 7.6047487 -1.8180546 14 1
14.113673 52.41663 2.8448782 0 9
1.6442266 6.0980096 -1.2276652 34 2
14.828605 54.957176 4.9800792 0 10
2.1914005 8.1104393 -1.3306317 6 3
1.6513613 6.0948267 -0.77533287 39 4
2.1774614 8.0199137 -0.72705317 30 5
2.1922357 8.0576439 -0.43763331 26 6
1.8061613 6.5438428 -1.8189803 18 0
2.0950103 7.5748959 -1.8144552 15 1
14.41265 52.040985 2.8300147 0 9
1.6899046 6.0977335 -1.2299548 32 2
15.905521 57.314739 5.2038951 0 10
2.22611 8.010807 -1.3168654 18 3
1.6949329 6.0869746 -0.77582031 34 4
2.2280397 7.9853272 -0.72531009 30 5
2.2530675 8.0532913 -0.43826136 13 6
2.0114729 7.0942268 -1.9758247 4 0
2.1552942 7.5863304 -1.8207539 14 1
15.178953 53.356815 2.9072626 0 9
1.7334957 6.0854845 -1.2299548 32 2
16.067165 56.366886 5.1278954 0 10
2.2836084 8.0007696 -1.3178041 14 3
1.7384787 6.0788112 -0.77630776 39 4
2.3205061 8.0979042 -0.73698896 15 5
2.2717276 7.9068322 -0.43114361 13 6
2.0652707 7.0948501 -1.9799658 4 0
2.2223911 7.6197391 -1.8324513 13 1
15.58653 53.405647 2.9156365 0 9
1.7781823 6.0848503 -1.2322445 34 2
16.656124 56.922623 5.1889043 0 10
2.3202524 7.9243751 -1.3077923 19 3
1.7831107 6.0741448 -0.77728271 33 4
2.3775458 8.0834179 -0.73716325 25 5
2.3328345 7.9160919 -0.43250436 26 6
2.1124108 7.0769253 -1.9789305 4 0
2.2814677 7.628705 -1.8382999 16 1
1.8262575 6.091094 -1.2360607 32 2
16.777517 55.922459 5.1080236 0 10
2.3743818 7.9041996 -1.3071665 21 3
1.8347127 6.0960822 -0.78167003 39 4
2.4310427 8.0570841 -0.73629165 15 5
2.3839967 7.8862305 -0.43177167 13 6
2.1628966 7.0657005 -1.9799658 3 0
2.3415236 7.6349497 -1.8436987 25 1
16.770409 54.614765 2.9941404 0 9
1.8733525 6.0932083 -1.2391137 24 2
17.332754 56.340973 5.1571798 0 10
2.4399726 7.921412 -1.3127981 19 3
1.8795681 6.0907125 -0.78264499 39 4
2.471334 7.9885249 -0.73158526 30 5
2.4602811 7.9380741 -0.43553987 13 6
2.2052317 7.0283093 -1.9737542 4 0
2.3597059 7.5068736 -1.8167046 22 1
1.9164326 6.0818548 -1.2394953 16 2
17.700502 56.138786 5.1498585 0 10
2.4964006 7.9079537 -1.313424 20 3
1.9280263 6.0963697 -0.7850824 39 4
2.5479152 8.0417948 -0.73803484 46 5
3.2495944 10.231625 -0.56261158 20 6
2.26016 7.0311332 -1.9789305 3 0
2.3905559 7.4234385 -1.8005083 15 1
1.9577891 6.0686684 -1.2394953 14 2
18.596563 57.576115 5.2934914 1 10
2.5696135 7.9509249 -1.3234357 19 3
1.9729871 6.0903149 -0.78605735 36 4
2.59108 7.9840145 -0.73437428 25 5
3.3228633 10.220664 -0.56323957 20 6
2.3043416 7.0045762 -1.9758247 4 0
2.5288596 7.6735144 -1.8652942 12 1
2.600507 7.872427 -1.6115729 10 2
19.24818 58.235153 5.3660049 3 10
2.6585667 8.0340643 -1.3403307 14 3
2.0156465 6.080513 -0.7865448 39 4
2.6775429 8.0583754 -0.74291551 10 5
2.6851623 8.0671892 -0.44558835 13 6
2.3470216 6.9700093 -1.9706483 4 0
2.051131 6.0667801 -1.2448379 4 2
2.6841743 7.9254994 -1.3253129 19 3
2.0669758 6.0926108 -0.78995717 36 4
3.4777792 10.227618 -0.94511688 13 5
2.7182295 7.9801869 -0.44182017 39 6
2.407577 6.9881592 -1.9804834 6 0
2.1087296 6.1103339 -1.4923253 3 1
2.6280248 7.5978603 -1.5627258 16 2
3.5271254 10.179986 -1.7063874 16 3
2.1120634 6.0855331 -0.79093212 36 4
3.549933 10.211235 -0.94581407 13 5
2.775847 7.9666739 -0.44213417 26 6
2.4569504 6.9730015 -1.981001 4 0
2.1552279 6.1064897 -1.4950247 7 1
2.7968147 7.9111223 -1.6310353 12 2
3.744041 10.572846 -1.7764701 8 3
2.1544969 6.0706401 -0.79093212 33 4
2.8549969 8.0310678 -0.74570453 10 5
2.8239806 7.9306617 -0.44119215 39 6
2.5069711 6.963388 -1.9830716 3 0
2.200707 6.1026778 -1.4977242 15 1
2.7618933 7.6421442 -1.579517 13 2
2.8286941 7.8141804 -1.3162397 22 3
4.2859383 11.82689 1.5445722 0 11
2.1984751 6.0632992 -0.79190701 33 4
2.9511418 8.1214247 -0.75598896 26 5
2.890208 7.9407825 -0.44286692 39 6
2.5515215 6.9348383 -1.9799658 3 0
2.243932 6.088994 -1.4981741 27 1
2.9076762 7.8731446 -1.6314169 21 2
2.9345741 7.9331932 -1.3397049 11 3
2.2435074 6.0552502 -0.79288203 28 4
2.9876559 8.0464573 -0.75093383 10 5
2.9427896 7.9129229 -0.44244823 26 6
2.5978377 6.9114294 -1.9784129 2 0
2.2925687 6.0895929 -1.5022231 23 1
2.9500959 7.8195887 -1.6245478 19 2
22.878531 60.610306 5.6679125 12 10
3.0234029 8.0012112 -1.3547227 20 3
2.2913475 6.0542922 -0.79483193 28 4
3.8788791 10.227361 -0.95697004 13 5
3.0149786 7.9369974 -0.44496036 13 6
2.6633298 6.9382143 -1.9913538 3 0
2.336422 6.0770779 -1.5031229 24 1
21.272474 55.272507 3.1038365 0 9
3.0667298 7.9600172 -1.6581303 19 2
3.0806139 7.9835925 -1.3553483 9 3
2.3392861 6.0529599 -0.79678184 28 4
3.1076226 8.0243969 -0.75285131 26 5
3.0963173 7.9827909 -0.44872853 26 6
2.7011294 6.8924723 -1.9835893 2 0
2.3787909 6.0606189 -1.5031229 30 1
23.117121 58.836777 3.3129709 8 9
3.1107254 7.9091825 -1.6520243 18 2
24.837336 63.117889 5.9342604 19 10
3.1681261 8.0427618 -1.3691146 14 3
2.3887689 6.0549479 -0.79921919 33 4
4.2330403 10.718767 1.8252774 4 12
4.0956669 10.365619 -0.97509843 13 5
3.1306539 7.9071255 -0.44569308 26 6
2.7448776 6.8626852 -1.9804834 2 0
2.4319139 6.0709991 -1.5098715 33 1
23.591377 58.863449 3.3234382 8 9
3.1535246 7.8604941 -1.6463001 12 2
25.2551 62.887482 5.9290304 19 10
3.2522573 8.0943298 -1.3816295 13 3
2.4354305 6.0491729 -0.80068165 33 4
4.1858144 10.381121 -0.97928184 21 5
4.1095061 10.176505 -0.57517225 29 6
4.1066341 10.148968 -0.19110386 13 7
2.7959046 6.8545747 -1.9835893 2 0
2.4776034 6.0651293 -1.512571 35 1
3.2075768 7.8364706 -1.6459185 16 2
4.1485958 10.120356 -1.7323555 7 3
2.4840913 6.0508175 -0.803119 30 4
3.2964633 8.017664 -0.75842929 31 5
3.2568717 7.905684 -0.44810051 13 6
4.2045975 10.191027 -0.19243024 13 7
2.8310752 6.8045669 -1.9747895 2 0
2.5296292 6.0710692 -1.5184196 42 1
22.222795 53.30814 3.026798 0 9
3.2895775 7.8833046 -1.6604201 16 2
3.3597424 8.0396051 -1.3800651 22 3
2.5370045 6.0589638 -0.80653143 31 4
3.3253858 7.9301467 -0.75232834 21 5
3.3106089 7.8833323 -0.44810051 13 6
2.8898253 6.8113136 -1.982554 2 0
2.5765209 6.0640235 -1.521119 42 1
22.695927 53.364628 3.0391493 0 9
3.3689747 7.913754 -1.6718684 18 2
23.111132 54.261997 5.1599684 0 10
4.3026648 10.092336 -1.7376742 13 3
2.5901549 6.0666637 -0.80994374 37 4
3.3843985 7.911644 -0.75285131 31 5
3.4149115 7.9714293 -0.45448548 25 6
4.4111271 10.28202 -0.19529243 13 7
2.5760872 5.9558425 -1.7387464 2 0
2.626539 6.0637703 -1.5256181 48 1
3.3811505 7.7909908 -1.6508795 12 2
23.405279 53.905609 5.1414914 0 10
4.3808866 10.080171 -1.7408029 9 3
2.6387794 6.0629959 -0.81189364 35 4
3.4395497 7.8878241 -0.75285131 26 5
3.4664831 7.9382429 -0.45396215 25 6
2.6518953 6.015491 -1.7615224 1 0
2.675107 6.0595465 -1.5292172 48 1
22.297316 50.459389 2.8911433 0 9
3.4942253 7.9000597 -1.6791192 12 2
22.818359 51.565472 4.9333639 0 10
3.4687631 7.8314056 -1.3565999 13 3
25.067688 56.541794 7.5941668 3 11
2.6842623 6.0516844 -0.8128686 33 4
3.5238912 7.9334226 -0.75947517 26 5
4.4913936 10.092574 -0.57894039 9 6
2.679575 5.9651122 -1.752205 3 0
2.725337 6.0584965 -1.5337163 48 1
3.5987225 7.9888625 -1.7031612 10 2
23.339949 51.764542 4.9678774 0 10
3.5869749 7.9516635 -1.3816295 13 3
25.716623 56.956051 7.6731381 4 11
2.7346239 6.0508857 -0.81530601 33 4
3.5956244 7.9449291 -0.76296139 26 5
4.5764766 10.098152 -0.58103383 9 6
2.7265449 5.9607882 -1.7563461 1 0
2.7778742 6.0646091 -1.5400149 48 1
3.6707802 7.9992323 -1.7107936 13 2
23.340977 50.840351 4.8943176 0 10
3.626725 7.8923259 -1.3756849 24 3
2.7823834 6.0465593 -0.81725591 35 4
3.6487832 7.9184628 -0.7627871 36 5
3.6523628 7.9116855 -0.45668361 25 6
2.779511 5.9661255 -1.763593 2 0
2.8267338 6.0591979 -1.5436141 48 1
23.367207 50.065514 2.8955395 0 9
3.7168386 7.9562716 -1.7069772 18 2
3.6000125 7.695684 -1.3456494 3 3
25.743578 54.981655 7.4542608 1 11
2.827898 6.0341768 -0.81823081 30 4
3.7276757 7.9432993 -0.76766777 21 5
3.6942351 7.8613358 -0.45521817 12 6
2.8498578 6.0099058 -1.782228 5 0
2.8712585 6.0468564 -1.5454137 45 1
23.858452 50.200619 2.9129148 0 9
3.7756624 7.9372225 -1.7085038 18 2
25.627035 53.849159 5.2174911 0 10
3.6944225 7.7559681 -1.3606671 24 3
2.8819244 6.0393691 -0.82164317 33 4
4.1760712 8.7474594 1.5352479 3 12
3.7572727 7.8631477 -0.76243842 21 5
4.9093432 10.260366 -0.59610659 9 6
2.8978322 5.9997969 -1.7853339 9 0
2.9229398 6.0436988 -1.5499128 42 1
24.326715 50.255119 2.9261036 0 9
3.8241377 7.8965349 -1.7054509 21 2
25.973503 53.585499 5.2098212 0 10
3.8196688 7.8732915 -1.3860096 19 3
2.9274864 6.0262446 -0.82261819 35 4
3.8661079 7.9478111 -0.77324575 10 5
3.8697441 7.9411883 -0.46296394 25 6
2.9353836 5.9707527 -1.7827457 12 0
2.9736683 6.0406294 -1.5544118 48 1
25.061844 50.865196 2.9717405 0 9
3.7911081 7.6876059 -1.6661443 10 2
26.805332 54.331993 5.3004637 1 10
3.9357646 7.970417 -1.4079103 18 3
29.338724 59.3624 8.1303921 10 11
2.9782846 6.0234547 -0.82505554 37 4
3.9082389 7.8938432 -0.77063102 26 5
3.9623613 7.9891281 -0.46736014 12 6
2.9700804 5.9362926 -1.7786045 11 0
3.0262392 6.0406313 -1.5598106 48 1
3.9225712 7.8195605 -1.7004899 10 2
27.310959 54.396358 5.3252158 2 10
3.9952426 7.9540362 -1.4097875 20 3
29.679699 59.037174 8.1133308 10 11
3.0443544 6.0503941 -0.83163649 56 4
3.9722185 7.88416 -0.77237415 26 5
4.0049553 7.9387903 -0.46599939 25 6
4.0361333 7.9867234 -0.15619904 8 7
3.0191829 5.9331546 -1.7837809 11 0
3.0761361 6.0372543 -1.5643097 58 1
3.9788547 7.7954803 -1.7012531 10 2
4.0704556 7.9646459 -1.4166707 18 3
3.0999367 6.057806 -0.8355363 48 4
3.99581 7.7984242 -0.76662189 21 5
4.0684857 7.9266315 -0.46694148 12 6
3.0694094 5.92909 -1.7889572 11 0
3.1262777 6.0312042 -1.5683587 47 1
3.998358 7.7037444 -1.6871332 19 2
4.1537204 7.9928474 -1.4266826 9 3
4.1971049 8.0694456 1.1168108 3 11
3.1494853 6.0501027 -0.83748621 44 4
4.1348796 7.9328833 -0.78265858 11 5
5.2774582 10.112032 -0.59778136 18 6
3.1231904 5.9337039 -1.7967219 9 0
3.1854329 6.0442629 -1.5773568 63 1
4.0575423 7.68606 -1.6894228 16 2
30.135534 57.060558 5.6456003 11 10
4.1706486 7.8903041 -1.4135419 14 3
3.1961629 6.0390534 -0.83894861 42 4
30.711081 57.978642 10.391629 21 12
4.1994886 7.9214277 -0.78440166 22 5
4.2111006 7.9332905 -0.47070965 12 6
3.1508665 5.8862057 -1.7889572 11 0
3.2422783 6.0493598 -1.5845551 59 1
4.1519628 7.7336545 -1.7062141 18 2
4.3041959 8.0071487 -1.439823 8 3
3.2448339 6.0288272 -0.84065479 37 4
32.396622 60.141941 10.819634 14 12
6.7507725 12.521841 -1.244584 22 5
6.8108435 12.617446 -0.75143975 17 6
3.1752589 5.8335233 -1.7796398 10 0
3.2900271 6.0368438 -1.5872546 66 1
4.2152596 7.7217121 -1.7100304 15 2
4.228569 7.7428789 0.77185118 1 10
5.3614063 9.809063 -1.7705256 9 3
3.301136 6.0321498 -0.84431088 26 4
31.077274 56.740314 10.246458 9 12
8.2421923 15.017323 -0.89777112 9 6
3.2542586 5.8805151 -1.8008629 9 0
3.3453147 6.0375919 -1.5935532 59 1
4.2886753 7.7306099 -1.7184259 21 2
31.26976 56.319382 5.6358385 11 10
4.4343305 7.9833064 -1.4463933 10 3
3.3605399 6.0401807 -0.84869814 24 4
33.753078 60.642323 10.992338 16 12
6.9899993 12.532805 -0.75206774 17 6
3.2800076 5.8329701 -1.7930984 10 0
3.3958945 6.0316629 -1.5980524 56 1
4.2091236 7.4699903 0.44935656 2 9
4.3473587 7.709033 -1.7203341 12 2
31.695469 56.181587 5.6435089 11 10
4.4511037 7.8833518 -1.4338784 19 3
3.4113426 6.0344486 -0.85113555 11 4
32.389694 57.2486 10.417911 10 12
4.4653759 7.8893218 -0.79311723 22 5
5.7514958 10.14507 -0.61117935 9 6
3.3168149 5.8032203 -1.7910279 11 0
3.4475994 6.0247216 -1.6025513 52 1
32.49828 56.76815 3.4281104 13 9
4.3265362 7.5514998 -1.6917126 24 2
31.92832 55.682415 5.6156192 10 10
5.5701365 9.7102795 -1.7730285 3 3
4.4106879 7.6766205 -1.0870746 9 4
34.184326 59.472446 10.864688 15 12
4.5700231 7.9443045 -0.80183285 11 5
5.8303862 10.122993 -0.61222607 18 6
3.3494465 5.7688155 -1.7874043 13 0
3.5002782 6.0213332 -1.6079501 73 1
4.4641018 7.6670222 -1.7245318 13 2
3.516777 6.0327415 -1.1059917 9 3
31.987762 54.828377 7.7940326 6 11
4.5759072 7.8401546 -1.1146171 19 4
34.706322 59.416546 10.898479 15 12
4.4896283 7.6799998 -0.77830076 26 5
5.919076 10.11307 -0.61411017 9 6
3.3925836 5.7502828 -1.7889572 11 0
3.5620546 6.0303059 -1.6169481 66 1
4.5894952 7.7573271 -1.7520082 7 2
3.5729022 6.031837 -1.1103719 16 3
4.6659708 7.8677773 -1.123148 9 4
35.38242 59.614464 10.979823 16 12
4.6163917 7.7718062 -0.79085118 27 5
5.9976969 10.085237 -0.61494756 9 6
3.3462336 5.5823026 -1.7439228 4 0
3.3583786 5.5959172 -1.5067222 22 1
3.3640633 5.5965309 -1.2692615 14 2
32.38171 53.849659 5.4974356 7 10
3.3989868 5.6479321 -1.0440438 17 3
3.4207273 5.677321 -0.81384355 13 4
34.987793 58.022858 10.731406 14 12
3.463012 5.73844 -0.58638382 7 5
3.46106 5.7284236 -0.3507556 35 6
3.3690472 5.5324059 -1.7356406 9 0
3.5372326 5.8040261 0.11864146 16 8
3.3740313 5.5340662 -1.4963745 37 1
3.5526023 5.8223834 0.35745463 7 9
3.3866816 5.5461001 -1.2631556 16 2
3.5604832 5.828434 0.59753978 8 10
3.4094841 5.5768752 -1.0352834 29 3
3.5691085 5.8333955 0.83967984 6 11
3.4250414 5.5957365 -0.80555642 23 4
3.6031752 5.8821549 1.0925384 11 12
3.4530063 5.6325903 -0.57801688 35 5
3.656997 5.9630075 1.359705 2 13
3.494621 5.6870933 -0.11651226 25 7
3.4014907 5.4988928 -1.7325348 4 0
3.5439811 5.7247829 0.1175245 35 8
3.4002717 5.4904947 -1.4909756 37 1
3.5573869 5.7397213 0.35389575 16 9
3.4139349 5.5039697 -1.2589579 20 2
3.5653696 5.7458749 0.59161317 17 10
3.4264507 5.5176959 -1.0287131 27 3
3.5856462 5.769558 0.83407384 19 11
3.4441094 5.5396585 -0.80092543 24 4
3.5919743 5.7729955 1.076895 28 12
3.4838226 5.5948143 -0.57662237 33 5
3.6505511 5.8511925 1.5922036 18 14
3.5120046 5.6269331 -0.11577927 30 7
3.4274621 5.4553843 -1.7263231 7 0
3.5625758 5.6660428 0.11682641 39 8
3.4302168 5.4534278 -1.4873765 28 1
3.5760937 5.6809392 0.35180232 19 9
3.4439051 5.4667125 -1.2559049 22 2
3.5862758 5.6905036 0.58847558 17 10
3.4627802 5.4902987 -1.0280875 24 3
3.6035845 5.7091351 0.82895535 23 11
3.4752805 5.5037293 -0.79921919 15 4
3.6174135 5.7244015 1.0725149 36 12
3.50895 5.5484672 -0.57435632 40 5
3.6517301 5.7719998 1.327649 28 13
3.6704504 5.7926416 1.5832055 26 14
3.5501294 5.6005907 -0.11574436 32 7
3.699599 5.8318877 1.8505563 48 15
3.4728301 5.4449563 -1.7304642 9 0
3.6010585 5.6416636 0.11682641 35 8
3.4798453 5.4496603 -1.4927752 35 1
3.6189795 5.6631999 0.35222104 16 9
3.4937291 5.4629917 -1.2604843 20 2
3.6184816 5.6558924 0.5874297 16 10
3.4958107 5.4599466 -1.0268359 29 3
3.6423647 5.6844721 0.82895535 19 11
3.5148058 5.4832892 -0.7997067 22 4
3.6402981 5.6747041 1.0678217 24 12
3.5456715 5.5250726 -0.57435632 37 5
3.6898706 5.7453594 1.3272674 23 13
3.5657623 5.5478549 -0.34562668 154 6
3.710896 5.7714491 1.5841054 22 14
3.5924971 5.5830221 -0.11588398 22 7
3.7318878 5.7951999 1.8469328 43 15
3.5254581 5.4432807 -1.7377111 9 0
3.6459033 5.627089 0.11703584 29 8
3.5284061 5.441586 -1.4972742 27 1
3.6628809 5.646811 0.35274437 16 9
3.5276239 5.4341455 -1.2593395 14 2
3.6719897 5.6522131 0.58969575 13 10
3.5608795 5.4790907 -1.0349705 9 3
3.6993701 5.6878386 0.83309889 15 11
3.5746584 5.4918914 -0.80458146 23 4
3.7003984 5.6829014 1.0740792 24 12
3.5874207 5.5051928 -0.57487923 33 5
3.7288187 5.7178149 1.3268858 18 13
3.6056254 5.5268006 -0.34583604 138 6
3.7681434 5.7715096 1.5913037 14 14
3.6313865 5.5578055 -0.11588398 22 7
3.7733624 5.7728987 1.8479681 24 15
3.653693 5.5579839 -1.782228 9 0
3.7147706 5.6466064 0.11797827 27 8
3.6028631 5.4744153 -1.5130208 3 1
3.7285767 5.6611352 0.3552565 16 9
5.0554123 7.6698532 -1.7855908 7 2
3.7410879 5.6736617 0.59457648 13 10
3.9395826 5.9701595 -1.1328986 33 3
3.7466488 5.6734672 0.83480507 15 11
5.1788497 7.8392506 -1.1536154 19 4
3.7748437 5.7096596 1.0840909 23 12
3.6753662 5.5570912 -0.5828976 10 5
3.8023272 5.744689 1.3390976 18 13
3.8288703 5.7782164 1.6003017 14 14
3.7277067 5.6212864 -0.11773393 13 7
3.8445516 5.7930942 1.8629795 20 15
3.7277939 5.5853686 -1.79931 10 0
4.3165722 6.4602098 -1.7937597 15 1
5.1424327 7.6874819 -1.7978026 10 2
39.207024 58.566788 6.1660943 25 10
4.0186028 6.0006495 -1.1438489 26 3
5.2710509 7.8589549 -1.1619024 31 4
6.7884054 10.109832 -1.0653918 23 5
3.7733092 5.5710616 -1.8029336 9 0
4.3418531 6.4032593 -1.7861114 25 1
5.2070055 7.6676354 -1.8016186 10 2
4.0715008 5.9887857 -1.1469777 33 3
7.6188793 11.19823 1.6630292 2 11
5.3221855 7.8196139 -1.161415 19 4
6.8572216 10.04854 -0.63755667 17 6
3.8241475 5.5620961 -1.8086276 10 0
4.2273421 6.1416388 -1.7213255 7 1
5.290494 7.6747403 -1.8119223 6 2
4.1334071 5.98948 -1.1526093 37 3
5.3969574 7.8116651 -1.1658022 23 4
5.478951 7.918519 -0.8424474 29 5
8.5921869 12.404076 -0.7907964 8 6
3.8650985 5.5384288 -1.8096628 11 0
4.4129767 6.3164525 -1.7789129 4 1
5.2865396 7.555582 -1.7924597 24 2
4.1853175 5.9750409 -1.1554251 33 3
5.4741569 7.8063035 -1.1706771 20 4
5.6566215 8.0545368 -0.86109871 12 5
7.0680704 10.053122 -0.64404637 26 6
3.8947372 5.4986992 -1.8055217 11 0
4.4885283 6.3300004 -1.7915101 14 1
5.3664441 7.5569057 -1.8016186 19 2
41.917801 59.00589 6.3323879 30 10
4.2555466 5.9859238 -1.1632469 32 3
5.5941315 7.8600821 -1.1845701 9 4
5.6317658 7.9012785 -0.84889692 24 5
5.6195135 7.8753629 -0.50703079 23 6
3.9375384 5.4776511 -1.8075923 11 0
4.4438252 6.1751347 -1.7564179 4 1
5.4810543 7.6052637 -1.8222259 10 2
41.911552 58.13324 6.2699838 28 10
4.3145695 5.9800982 -1.1679399 30 3
5.6616545 7.8385382 -1.1872512 19 4
5.7171507 7.9037423 -0.85342902 18 5
7.2663164 10.034337 -0.64927989 17 6
3.9916229 5.4718785 -1.8148392 11 0
5.0074525 6.8568764 -1.9602236 3 1
5.5583534 7.6000915 -1.8302399 6 2
41.25526 56.388805 6.1127548 24 10
4.3772182 5.9785199 -1.1735715 26 3
5.6634312 7.7267728 -1.176283 23 4
5.7792635 7.8732729 -0.8544749 24 5
7.4591913 10.150746 -0.66016579 8 6
4.0147843 5.4236932 -1.80811 9 0
4.7500553 6.4099717 -1.8418993 10 1
5.6077642 7.5563745 -1.8290951 13 2
4.4376955 5.9731884 -1.1785774 23 3
5.7669888 7.7539482 -1.18652 11 4
5.9054966 7.928606 -0.86493361 12 5
5.9336424 7.9576926 -0.52021945 22 6
4.0618353 5.4078875 -1.812251 9 0
5.1202726 6.8096533 -1.966972 1 1
5.6769137 7.5389977 -1.8344377 13 2
43.486645 57.729721 6.3233232 30 10
4.491179 5.9578357 -1.1817061 25 3
7.6241937 10.102971 -1.554078 7 4
7.5800133 10.029858 -1.0999055 17 5
7.5664454 10.001016 -0.65723503 8 6
4.0643592 5.3333044 -1.7967219 13 0
4.9561076 6.4964104 -1.8864396 7 1
5.7615924 7.5412998 -1.8447415 12 2
4.551867 5.9514389 -1.186712 30 3
5.9917521 7.8255558 -1.2101626 19 4
7.7208371 10.072905 -1.1103642 17 5
9.4773026 12.346608 -0.81570828 26 6
