# .PCD v0.7 - Point Cloud Data file format
VERSION 0.7
FIELDS x y z intensity ring
SIZE 4 4 4 4 2
TYPE F F F F U
COUNT 1 1 1 1 1
WIDTH 1300
HEIGHT 1
VIEWPOINT 0 0 0 1 0 0 0
POINTS 1300
DATA ascii
-7.6790066 -11.085762 -2.6213341 10 2
-7.9367776 -11.453622 1.2191346 12 10
-7.9967971 -11.53163 -2.2226212 30 3
-7.7572236 -11.177831 1.670585 15 11
-8.0297413 -11.5662 -1.7288387 31 4
-8.0947695 -11.651184 2.2470248 7 12
-8.0878325 -11.632533 -1.239529 44 5
-8.1399479 -11.694421 -0.74672949 35 6
-5.064466 -7.2220702 -2.3635354 7 0
-7.8306398 -11.158424 0.23794611 18 8
-6.3173518 -8.9986954 -2.5383477 17 1
-7.4158955 -10.555669 0.67607594 8 9
-7.8160582 -11.117002 -2.6415598 10 2
-7.6772695 -10.91555 1.1675383 8 10
-8.1066666 -11.517522 -2.2307556 17 3
-7.8922276 -11.204548 1.682772 8 11
-11.349604 -16.106993 -2.4193504 5 4
-8.2487669 -11.697711 2.2670486 15 12
-8.2825527 -11.710866 -0.25037223 23 7
-5.1226025 -7.1975574 -2.3671591 8 0
-6.3890648 -8.9670706 -2.5419469 16 1
-7.3351893 -10.287354 0.66215456 12 9
-7.9014611 -11.073352 -2.6442313 9 2
-7.8667278 -11.020607 1.1846209 12 10
-10.117051 -14.162659 -2.7566886 13 3
-7.8201809 -10.939241 1.651086 8 11
-19.12105 -26.73757 -4.0360689 4 4
-8.3704681 -11.69606 2.2779989 21 12
-8.4711838 -11.814987 -0.76190692 8 6
-5.1659389 -7.1522231 -2.3640532 8 0
-7.9036732 -10.934557 0.23550276 18 8
-6.437809 -8.9032984 -2.5365481 20 1
-7.4243922 -10.260165 0.66372466 16 9
-7.9762726 -11.014739 -2.6434681 10 2
-7.7716532 -10.72823 1.1589971 10 10
-10.205242 -14.077289 -2.7538726 11 3
-19.206974 -26.465263 -4.0151081 7 4
-8.4321842 -11.610168 2.2726803 10 12
-8.5534582 -11.755561 -0.76190692 8 6
-5.1951876 -7.0879369 -2.3547359 8 0
-6.5159497 -8.8801336 -2.5428467 16 1
-7.5833182 -10.327212 0.6714704 6 9
-8.079711 -10.995175 -2.652245 12 2
-8.153182 -11.091094 1.204318 4 10
-10.270493 -13.961147 -2.7451122 10 3
-7.9368491 -10.78103 1.6437739 12 11
-19.314753 -26.226631 -3.9992647 5 4
-8.6114769 -11.684591 2.2989612 7 12
-8.5752001 -11.622622 2.8075638 1 13
-8.7397165 -11.836955 -0.7711181 8 6
-5.2237916 -7.0235929 -2.3454182 8 0
-7.9791584 -10.720475 0.23326886 18 8
-6.5731301 -8.8281746 -2.5410471 16 1
-8.3831615 -11.250974 0.73532021 2 9
-8.1938295 -10.988864 -2.6644568 10 2
-7.7860723 -10.438212 1.1392999 11 10
-8.3270178 -11.155293 -2.2047877 9 3
-7.767189 -10.397746 1.5935637 10 11
-13.042611 -17.453468 -2.675276 3 4
-8.4869947 -11.348927 2.2445219 7 12
-8.5267076 -11.389594 2.7655857 3 13
-5.2750258 -6.9900365 -2.3464534 8 0
-8.7768793 -11.621969 0.25421175 21 8
-6.5652962 -8.6903315 -2.5145028 25 1
-8.7674427 -11.596845 0.76190692 4 9
-8.2478409 -10.901646 -2.6572063 10 2
-7.7721829 -10.269217 1.1267494 1 10
-8.4070787 -11.100037 -2.2054133 9 3
-7.9283223 -10.460337 1.6116004 9 11
-8.4170856 -11.101169 -1.7105582 9 4
-8.7318888 -11.495507 2.8060372 7 13
-5.316649 -6.9438381 -2.3433478 8 0
-6.5131807 -8.4973545 -2.4717622 22 1
-8.7343674 -11.391085 0.75227708 6 9
-8.4031248 -10.951164 -2.6831563 16 2
-8.3958025 -10.933718 1.2060611 4 10
-8.4451361 -10.993992 -2.1957142 13 3
-8.1251612 -10.569806 1.6369492 11 11
-8.471385 -11.012241 -1.7059273 13 4
-7.8559804 -10.208569 2.0402186 4 12
-8.771184 -11.381395 2.7930622 3 13
-5.3483882 -6.8876519 -2.3366184 7 0
-6.6019659 -8.4928265 -2.4834597 20 1
-8.6885929 -11.169033 0.74160057 8 9
-8.5095205 -10.930964 -2.6926966 11 2
-9.8221569 -12.603495 -2.5307972 4 3
-7.8020015 -10.004088 1.557734 0 11
-13.463326 -17.25709 -2.687463 15 4
-7.9379978 -10.167487 2.0430343 3 12
-8.8992281 -11.386397 2.8090901 8 13
-5.3975387 -6.8516631 -2.337136 8 0
-6.7286725 -8.532218 -2.5086541 17 1
-8.8510122 -11.219395 0.74892759 6 9
-8.6129246 -10.909771 -2.7018557 11 2
-10.016726 -12.674279 -2.5586424 4 3
-13.583475 -17.162678 -2.687463 15 4
-7.9322219 -10.018749 2.0239494 12 12
-8.9297142 -11.262456 2.7938256 8 13
-5.4344029 -6.8026905 -2.3329952 10 0
-6.7403412 -8.4283876 -2.4915578 23 1
-8.9852781 -11.227502 0.75363785 8 9
-8.704834 -10.869296 -2.7068167 9 2
-8.7457733 -10.908706 -2.2144866 5 3
-8.8864727 -11.072318 -1.7432193 4 4
-8.9520416 -11.134091 2.7770343 7 13
-5.4659524 -6.7450724 -2.3262658 6 0
-6.8260303 -8.4144192 -2.5014558 16 1
-8.7297497 -10.745786 -2.6911702 13 2
-8.9428768 -11.004213 1.2405748 9 10
-11.063915 -13.60444 -2.777338 2 3
-8.9861155 -11.037719 -1.7476066 9 4
-8.9923258 -11.025682 2.7655857 7 13
-15.047057 -18.436367 -1.247166 21 6
-5.5153608 -6.7097344 -2.327301 6 0
-6.8425055 -8.3153982 -2.4861591 19 1
-8.8307734 -10.716398 -2.6991842 21 2
-9.0993271 -11.038364 1.2515564 1 10
-11.357233 -13.76763 -2.8267713 4 3
-9.0515776 -10.960938 -1.7454128 11 4
-8.0283051 -9.7149105 1.996104 4 12
-14.980528 -18.095486 -1.2311511 20 6
-5.5595946 -6.6680989 -2.3262658 6 0
-6.9078827 -8.2764025 -2.4888585 20 1
-9.1947498 -11.012413 0.75185847 6 9
-8.9161005 -10.671106 -2.7030003 19 2
-9.0803137 -10.859936 1.2384831 4 10
-11.412661 -13.644546 -2.817385 12 3
-9.1788626 -10.958353 -1.7551624 12 4
-14.922714 -17.79681 -2.031949 32 5
-15.338341 -18.273045 -1.2503061 10 6
-5.584898 -6.6064978 -2.3179834 6 0
-6.9766459 -8.2440672 -2.4933574 19 1
-9.2946396 -10.975388 0.75374252 2 9
-9.000536 -10.620583 -2.7060535 19 2
-9.1591778 -10.803954 1.2391803 10 10
-10.090427 -11.894016 -2.4704134 4 3
-9.3354807 -10.992457 -1.7707617 3 4
-14.852976 -17.46454 -2.0058024 32 5
-15.254497 -17.917633 -1.2332445 21 6
-5.6321425 -6.5688114 -2.318501 7 0
-7.0314941 -8.1922026 -2.4924579 22 1
-9.1090117 -10.597689 -2.716357 13 2
-9.1876183 -10.685363 1.2329051 4 10
-9.4323835 -10.962294 -2.2905138 3 3
-11.616976 -13.486932 -2.1856048 3 4
-14.958924 -17.342318 -2.0037105 32 5
-15.440559 -17.881752 -1.2381642 21 6
-5.6588483 -6.5074668 -2.3107367 6 0
-7.0731587 -8.1252766 -2.4870589 22 1
-9.2137403 -10.569352 -2.7255158 13 2
-9.3287735 -10.697545 1.2417951 3 10
-9.4995956 -10.885755 -2.2883236 4 3
-14.217057 -16.27437 -2.6533396 3 4
-15.003544 -17.150486 -1.9936004 32 5
-15.279485 -17.447472 -1.2154504 20 6
-5.6926408 -6.454762 -2.306078 5 0
-7.1451883 -8.0932293 -2.4924579 22 1
-9.2755985 -10.491536 -2.7220812 11 2
-9.3768301 -10.602308 1.2383088 6 10
-9.642127 -10.894613 -2.3042798 9 3
-15.696747 -17.717012 -2.9063404 9 4
-15.083243 -17.000614 -1.9883711 33 5
-15.200648 -17.114885 -1.1996449 20 6
-5.7337008 -6.4105434 -2.3045249 6 0
-7.211915 -8.0547638 -2.496057 20 1
-9.3119173 -10.385598 -2.711396 9 2
-9.7733717 -10.888774 -2.3174205 12 3
-19.590654 -21.803492 -3.5990458 6 4
-15.201558 -16.894901 -1.9883711 33 5
-15.508229 -17.217596 -1.2144036 20 6
-5.7510576 -6.3403101 -2.2936544 5 0
-7.3334699 -8.0763559 -2.5185518 17 1
-9.3868389 -10.323238 -2.7121592 11 2
-9.902338 -10.878713 -2.3299353 11 3
-12.731072 -13.97166 -2.3208799 5 4
-15.912278 -17.420057 -1.2364894 21 6
-5.7938733 -6.2985845 -2.2931368 6 0
-7.3606367 -7.993423 -2.5086541 20 1
-9.4506922 -10.248797 -2.7098694 11 2
-10.023598 -10.858669 -2.3405728 11 3
-12.835035 -13.889733 -2.3220987 4 4
-15.600821 -16.865061 -2.0099857 32 5
-15.877415 -17.140049 -1.2244521 20 6
-5.7704983 -6.1859369 -2.2667372 5 0
-7.4162593 -7.941843 -2.5086541 19 1
-9.5363235 -10.201441 -2.7144489 9 2
-10.156666 -10.853653 -2.3543391 11 3
-15.806611 -16.867691 -2.8383372 25 4
-15.835411 -16.880703 -2.0249765 32 5
-16.325951 -17.38537 -1.2498875 31 6
-5.6983175 -6.0258045 -2.2222204 4 0
-7.4487114 -7.868535 -2.5014558 16 1
-9.6127129 -10.140315 -2.7159753 8 2
-10.278422 -10.831199 -2.3649766 12 3
-15.936093 -16.775543 -2.8410182 17 4
-26.173578 -27.533031 6.0167832 0 12
-15.958363 -16.775517 -2.0256736 32 5
-16.185225 -16.996166 -1.2299998 10 6
-5.7161794 -5.9607759 -2.2129028 5 0
-7.5412498 -7.8557038 -2.5140531 17 1
-9.6465359 -10.034744 -2.7056715 11 2
-10.430492 -10.838886 -2.3824971 11 3
-14.427709 -14.976905 -2.5534067 6 4
-5.7199426 -5.881947 -2.1984091 4 0
-7.5741577 -7.7805243 -2.5068545 15 1
-9.731431 -9.9826183 -2.7098694 9 2
-10.561093 -10.822354 -2.3950119 9 3
-10.682538 -10.935344 -1.8770318 13 4
-5.7391639 -5.8198624 -2.1901269 5 0
-7.6296611 -7.7288442 -2.5073044 15 1
-9.8312483 -9.9451551 -2.7182651 11 2
-10.678072 -10.790485 -2.404398 9 3
-10.761414 -10.863322 -1.8775192 13 4
-5.7304769 -5.7304769 -2.1714919 4 0
-7.6820536 -7.6740131 -2.5068545 12 1
-9.8837605 -9.8596401 -2.7136858 9 2
-10.8329 -10.795155 -2.4222317 8 3
-15.735655 -15.664413 -2.7262175 3 4
-5.7703424 -5.6903329 -2.1714919 4 0
-7.7146153 -7.5996833 -2.5001059 11 1
-9.9996176 -9.840333 -2.7270424 13 2
-10.979379 -10.79318 -2.4385006 8 3
-15.081084 -14.804629 -2.5948424 7 4
-5.7784777 -5.6212878 -2.1601038 4 0
-7.7466002 -7.5279818 -2.4938073 12 1
-10.069484 -9.7716484 -2.7274239 11 2
-11.125381 -10.78501 -2.4541442 8 3
-14.593983 -14.132678 -2.494422 12 4
-5.7924867 -5.5567365 -2.1507864 4 0
-7.7623849 -7.4386611 -2.48211 12 1
-10.144547 -9.707901 -2.729332 11 2
-11.281792 -10.784885 -2.4719777 2 3
-11.308496 -10.799088 -1.9199297 7 4
-5.7988601 -5.4856272 -2.1388805 19 0
-7.7503905 -7.3240571 -2.4618642 9 1
-10.203509 -9.6287546 -2.7270424 11 2
-11.951891 -11.266829 -2.6015055 11 3
-11.467436 -10.798807 -1.9340667 11 4
-5.8370147 -5.4450107 -2.1388805 20 0
-7.7428803 -7.2153006 -2.4434183 10 1
-10.290601 -9.5760136 -2.7323849 11 2
-12.064978 -11.215395 -2.6090145 13 3
-11.599274 -10.771169 -1.9435725 9 4
-5.8805728 -5.4093599 -2.1409512 7 0
-7.698359 -7.0740452 -2.4137249 10 1
-10.336949 -9.4853573 -2.7270424 13 2
-11.937658 -10.942687 -2.5648997 4 3
-11.769351 -10.777068 -1.9594156 11 4
-5.8852839 -5.3383222 -2.1290457 4 0
-7.6782398 -6.9573221 -2.3921297 10 1
-10.344688 -9.3602686 -2.7117777 13 2
-11.878943 -10.737214 -2.5361156 9 3
-11.913549 -10.757166 -1.9708712 10 4
-5.8849711 -5.2636199 -2.115587 4 0
-7.6597767 -6.8438215 -2.371434 10 1
-15.40939 -13.758242 1.0826217 3 9
-10.4508 -9.3244209 -2.7224629 11 2
-12.005226 -10.700027 -2.5470665 11 3
-12.081759 -10.756896 -1.9862267 8 4
-14.226813 -12.635596 -0.99720943 9 6
-5.9128814 -5.2147403 -2.1124811 4 0
-7.6664262 -6.7541089 -2.3588367 9 1
-10.546451 -9.2816029 -2.7308583 11 2
-12.085199 -10.624584 -2.5486307 14 3
-12.24607 -10.750866 -2.0008512 8 4
-5.9249172 -5.1540856 -2.1041989 3 0
-7.6563253 -6.6531987 -2.3417406 9 1
-10.610991 -9.2077484 -2.7308583 11 2
-12.202363 -10.577477 -2.5577037 20 3
-12.406004 -10.742629 -2.0149879 8 4
-25.592798 -22.145744 5.360384 2 12
-14.44653 -12.478716 -1.0004543 18 6
-5.9695539 -5.1201425 -2.1073048 3 0
-7.6581926 -6.5615444 -2.3282435 10 1
-10.59586 -9.0689259 -2.7110145 11 2
-12.473768 -10.664904 -2.5993154 10 3
-12.562221 -10.725363 -2.0281496 8 4
-14.555461 -12.400816 -1.002129 18 6
-5.9718199 -5.0519414 -2.0959167 3 0
-7.681839 -6.4916577 -2.3219447 9 1
-10.673918 -9.0073948 -2.7148306 11 2
-12.597757 -10.619578 -2.6096401 10 3
-12.729078 -10.718882 -2.0432615 8 4
-15.135648 -12.713827 -1.035938 9 6
-5.9743052 -4.9829054 -2.0845287 3 0
-7.7030172 -6.4179115 -2.3147464 9 1
-10.686735 -8.8912249 -2.7022371 9 2
-12.806799 -10.643739 -2.6374853 4 3
-12.895243 -10.705833 -2.0578859 7 4
-13.082049 -10.84551 -1.4867026 30 5
-15.18558 -12.576007 -1.0333213 19 6
-5.9940238 -4.9288063 -2.0793524 3 0
-7.7265506 -6.3466625 -2.3084476 9 1
-15.06586 -12.366437 1.0214933 2 9
-10.815339 -8.8711805 -2.7190285 11 2
-12.905241 -10.574105 -2.6424911 9 3
-13.077196 -10.703562 -2.0749476 8 4
-15.259087 -12.458313 -1.0323793 19 6
-6.0192833 -4.8795409 -2.0762465 3 0
-7.7555261 -6.280303 -2.3039486 9 1
-14.203192 -11.493309 0.95753878 12 9
-10.812888 -8.7436152 -2.7030003 8 2
-13.027919 -10.523477 -2.6525033 9 3
-13.256651 -10.696774 -2.0915217 7 4
-14.499286 -11.670231 -0.97543764 18 6
-6.0154734 -4.8072486 -2.0633056 2 0
-7.7930899 -6.2211423 -2.3021491 9 1
-10.893626 -8.6838207 -2.7079613 11 2
-13.147429 -10.469179 -2.6618891 10 3
-15.018164 -11.945985 -2.3562222 16 4
-14.790057 -11.735074 -0.98946363 9 6
-6.0246072 -4.7460079 -2.0550234 2 0
-7.8057036 -6.1424828 -2.2931509 10 1
-14.630744 -11.504994 0.97543764 5 9
-10.819682 -8.5020275 -2.6747606 11 2
-13.30255 -10.441786 -2.6784713 11 3
-15.102757 -11.842076 -2.3564658 11 4
-23.749805 -18.588787 5.8624158 16 13
-14.629352 -11.442042 -0.97334427 9 6
-6.0347047 -4.6860614 -2.0472586 3 0
-7.792963 -6.0448408 -2.2769547 8 1
-14.963279 -11.598344 0.99218512 2 9
-10.968795 -8.4960155 -2.6968944 11 2
-24.008511 -18.589375 2.656507 18 10
-13.475112 -10.426025 -2.6984947 12 3
-24.099972 -18.633295 3.7404141 25 11
-16.856234 -13.02798 -2.6158037 3 4
-24.154316 -18.655115 4.8338256 18 12
-24.28315 -18.734327 5.9616365 5 13
-14.552279 -11.218908 -0.9629817 18 6
-6.0611362 -4.6391206 -2.0451882 3 0
-7.6522956 -5.8506231 -2.2238662 7 1
-14.386835 -10.991614 0.94885099 5 9
-11.004436 -8.4013586 -2.6911702 11 2
-13.626107 -10.39159 -2.7141383 11 3
-19.823875 -15.101746 -3.0598958 5 4
-14.956247 -11.364754 -0.98443943 27 6
-24.559229 -18.64823 7.1192508 23 14
-6.0687003 -4.5780778 -2.036906 3 0
-7.6182504 -5.7407646 -2.202271 7 1
-14.525448 -10.937758 0.95293313 10 9
-11.036149 -8.3042631 -2.6846826 11 2
-13.821488 -10.38879 -2.7385421 11 3
-19.403374 -14.56847 -2.9792182 7 4
-6.0819097 -4.5217671 -2.0306942 2 0
-7.6080794 -5.6502585 -2.1878741 7 1
-16.280178 -12.086319 1.0626293 15 9
-11.075074 -8.2160835 -2.6804848 13 2
-13.936319 -10.3274 -2.7473023 11 3
-24.722639 -18.307152 3.7772188 3 11
-19.466309 -14.404315 -2.9733684 6 4
-24.911787 -18.400129 6.0200238 5 13
-6.0798254 -4.4562826 -2.019824 2 0
-7.6086249 -5.5707135 -2.1770763 7 1
-16.704273 -12.221202 1.0847151 3 9
-11.059259 -8.0852652 -2.6629305 10 2
-14.008079 -10.229855 -2.7473023 12 3
-24.824184 -18.115395 3.773319 3 11
-19.528625 -14.245741 -2.9680064 6 4
-25.01741 -18.216267 6.0154448 5 13
-6.1264501 -4.4250388 -2.0250003 2 0
-7.571475 -5.462728 -2.1554811 7 1
-14.37522 -10.363926 0.92875397 2 9
-11.121806 -8.0124531 -2.6644568 12 2
-14.218646 -10.232198 -2.7745218 10 3
-19.63727 -14.116014 -2.9694686 6 4
-6.1351571 -4.3664794 -2.0177534 2 0
-7.5427189 -5.3623137 -2.136585 15 1
-11.158262 -7.9209762 -2.6598775 10 2
-14.297792 -10.138392 -2.7760863 11 3
-19.646248 -13.915465 -2.956063 4 4
-17.067726 -12.05781 -1.0951823 29 6
-6.1259475 -4.2958136 -2.0048125 2 0
-7.5815659 -5.3106446 -2.1370349 25 1
-15.233346 -10.666504 0.97460032 2 9
-11.028542 -7.7165289 -2.6163731 10 2
-14.301707 -9.9955711 -2.7635715 11 3
-15.290666 -10.670887 -2.2894378 2 4
-17.152681 -11.943641 -1.0953916 29 6
-6.1137266 -4.2254577 -1.9913538 2 0
-7.6175385 -5.2589154 -2.1370349 8 1
-15.389638 -10.616604 0.97983384 2 9
-10.624697 -7.3240151 -2.5083752 7 2
-14.270267 -9.8260288 -2.7441738 11 3
-15.408743 -10.598058 -2.2962623 12 4
-6.1510615 -4.1881094 -1.993942 2 0
-7.6121721 -5.1771135 -2.1253376 7 1
-15.641787 -10.630145 0.99113846 7 9
-10.409206 -7.0687814 -2.4457898 7 2
-14.353228 -9.7361479 -2.7469897 10 3
-17.124096 -11.602611 -2.5397573 26 4
-6.128809 -4.11063 -1.9773775 2 0
-7.6206055 -5.1054049 -2.1176891 6 1
-10.228217 -6.8420238 -2.3919816 10 2
-14.417566 -9.6335087 -2.7463639 10 3
-17.241364 -11.502913 -2.5448759 21 4
-6.1580672 -4.066668 -1.9773775 2 0
-7.6130238 -5.021771 -2.1055419 5 1
-10.208518 -6.7261662 -2.3763354 10 2
-14.446527 -9.5040359 -2.7388551 10 3
-19.716795 -12.956437 -2.8968344 12 4
-6.1782098 -4.0183129 -1.9747895 3 0
-7.621748 -4.9515147 -2.0983434 5 1
-10.213564 -6.6251655 -2.3664134 9 2
-14.374924 -9.313798 -2.7128868 11 3
-19.733437 -12.771022 -2.8861101 12 4
-6.1800847 -3.9584098 -1.9665072 3 0
-7.6068859 -4.8666763 -2.0848465 4 1
-10.205485 -6.5216613 -2.3542016 9 2
-14.58951 -9.3124514 -2.7413578 10 3
-19.678146 -12.541198 -2.8651483 12 4
-6.1611376 -3.8873889 -1.9520133 3 0
-7.5969701 -4.7877731 -2.073149 5 1
-10.167682 -6.3979774 -2.3351207 7 2
-14.719393 -9.2513704 -2.7535598 11 3
-19.737837 -12.39113 -2.8614924 10 4
-6.165153 -3.8300092 -1.9447664 3 0
-7.6070275 -4.7202339 -2.0668504 4 1
-10.200983 -6.3224139 -2.3328309 9 2
-14.489777 -8.9700451 -2.6991208 15 3
-19.705666 -12.179969 -2.8444309 10 4
-6.1844883 -3.7839243 -1.9426959 3 0
-7.6090493 -4.6500564 -2.0587521 5 1
-10.231467 -6.2428637 -2.329778 7 2
-14.474453 -8.8213797 -2.6847286 15 3
-19.599897 -11.930986 -2.8173759 14 4
-6.2041349 -3.7366674 -1.9406252 3 0
-7.5912318 -4.5666828 -2.0452549 4 1
-10.257969 -6.1611762 -2.3259618 9 2
-14.520437 -8.7109718 -2.6819129 17 3
-19.616302 -11.754069 -2.8078699 16 4
-6.2267466 -3.6912947 -1.93959 3 0
-7.6028056 -4.5016627 -2.0398562 3 1
-10.334534 -6.1093907 -2.3335941 10 2
-14.466932 -8.5420914 -2.6609504 13 3
-19.533735 -11.520029 -2.784471 16 4
-6.225666 -3.6321595 -1.9313078 3 0
-7.6037412 -4.4308152 -2.0317578 3 1
-10.389454 -6.0468044 -2.336647 10 2
-14.596468 -8.485116 -2.6740909 15 3
-19.618832 -11.386372 -2.7852023 14 4
-6.2401934 -3.5839255 -1.9282019 3 0
-7.61344 -4.3673191 -2.0263591 2 1
-10.353045 -5.9292459 -2.3190925 7 2
-14.670782 -8.391839 -2.6769071 16 3
-19.987175 -11.418986 -2.8263941 10 4
-22.322454 -12.717013 -1.346395 11 6
-6.2482429 -3.5307693 -1.9230256 3 0
-7.6199837 -4.300653 -2.0200605 2 1
-9.984417 -5.6282253 -2.227886 6 2
-14.675921 -8.2627087 -2.6675208 16 3
-19.921049 -11.197466 -2.8059199 10 4
-6.2687545 -3.486279 -1.9219903 3 0
-7.5979729 -4.2202978 -2.0065634 3 1
-9.9410524 -5.5126853 -2.2095683 4 2
-14.710784 -8.1476126 -2.6634536 15 3
-19.909956 -11.013565 -2.7937331 10 4
-22.990231 -12.701762 -2.2979484 25 5
-6.2624331 -3.4257433 -1.9126729 3 0
-7.5827861 -4.1428599 -1.9948659 4 1
-9.8938999 -5.3988113 -2.1908689 7 2
-14.568171 -7.9395232 -2.6277864 11 3
-19.97938 -10.870508 -2.792758 10 4
-6.2725878 -3.3746161 -1.9085318 3 0
-21.888271 -11.765922 0.43376213 48 8
-7.6012254 -4.0842857 -1.9921664 3 1
-21.86071 -11.736359 1.3003392 40 9
-9.8077154 -5.261055 -2.1633925 18 2
-14.614161 -7.8294792 -2.6259093 10 3
-20.054785 -10.730761 -2.792758 10 4
-6.2635484 -3.3135805 -1.8986967 2 0
-21.930986 -11.592261 0.43299422 48 8
-7.588201 -4.0092726 -1.9813689 4 1
-9.8511515 -5.1961203 -2.1649189 22 2
-14.546126 -7.6628141 -2.6040082 7 3
-20.080021 -10.56461 -2.7859333 8 4
-21.791962 -11.431336 -1.2896628 64 6
-21.955612 -11.502527 -0.43264514 32 7
-6.2848148 -3.2688801 -1.8981789 3 0
-7.5917959 -3.9436207 -1.9750704 5 1
-9.8436146 -5.1046271 -2.1553786 4 2
-14.318611 -7.4157262 -2.5539494 6 3
-19.86412 -10.274605 -2.7459602 8 4
-21.848989 -11.286772 -2.1515267 29 5
-6.2742414 -3.2093101 -1.8883438 2 0
-7.5889602 -3.8767846 -1.9674219 6 1
-9.8606434 -5.0285864 -2.1515625 4 2
-14.192735 -7.2284422 -2.5226626 7 3
-19.818588 -10.080657 -2.7301171 11 4
-6.2769566 -3.1569798 -1.8826498 2 0
-7.5768619 -3.8057947 -1.9575242 7 1
-9.8016281 -4.9147105 -2.1313365 4 2
-14.052615 -7.0370259 -2.4891856 8 3
-19.787321 -9.8957987 -2.7164679 11 4
-6.2884521 -3.1079476 -1.879544 2 0
-7.5892658 -3.7459073 -1.9539249 7 1
-9.7820253 -4.8218412 -2.1198881 4 2
-13.990308 -6.8871217 -2.4697876 8 3
-19.692017 -9.6768703 -2.6940439 11 4
-22.8137 -11.196074 -2.2233431 27 5
-6.2886095 -3.0549417 -1.8733324 2 0
-7.5830288 -3.6788514 -1.9458266 6 1
-9.7659769 -4.7294703 -2.1092029 4 2
-13.908232 -6.7264957 -2.4469483 9 3
-19.684141 -9.5072098 -2.6840506 9 4
-22.711838 -10.950005 -2.2059119 27 5
-71.256111 -34.308571 -4.1446939 60 6
-6.3202443 -3.0159576 -1.8764381 2 0
-7.5838976 -3.6140869 -1.9395281 7 1
-9.7437963 -4.6350346 -2.0973725 4 2
-13.860284 -6.5843134 -2.4303663 8 3
-19.437963 -9.2215137 -2.6416399 8 4
-22.517626 -10.663271 -2.1797652 28 5
-71.067787 -33.608761 -4.1199913 59 6
-6.3323994 -2.9676602 -1.87385 2 0
-7.5807037 -3.5478349 -1.9323295 6 1
-9.7207747 -4.5411396 -2.0855424 4 2
-13.836098 -6.4548197 -2.4181643 7 3
-19.31653 -8.9992409 -2.6165349 10 4
-28.95973 -13.448809 -1.67339 9 6
-6.338923 -2.9169204 -1.8697089 2 0
-7.5822673 -3.4842486 -1.9264808 5 1
-9.6755095 -4.4379668 -2.0691328 3 2
-13.846701 -6.3424382 -2.4122198 8 3
-19.216417 -8.7898512 -2.5945985 10 4
-70.868622 -32.311638 -4.0818911 57 6
-6.3309636 -2.8598707 -1.8614267 2 0
-7.563776 -3.4119966 -1.9156833 4 1
-9.6525507 -4.3461323 -2.0576842 3 2
-13.8474 -6.2261767 -2.4047108 8 3
-19.168655 -8.606699 -2.5799742 9 4
-6.3172193 -2.8007257 -1.8515915 3 0
-7.5927563 -3.3614767 -1.9170328 6 1
-29.804087 -13.18247 1.7079319 6 9
-9.5964622 -4.2405477 -2.0393667 3 2
-13.839929 -6.1070194 -2.3959506 8 3
-19.155615 -8.4406443 -2.5702245 11 4
-6.3242178 -2.7511621 -1.8479681 2 0
-7.5981646 -3.3006248 -1.912534 6 1
-31.632282 -13.727858 1.8071609 4 9
-9.6178989 -4.1720052 -2.0378401 3 2
-13.858659 -6.0000501 -2.3918834 9 3
-19.166698 -8.286231 -2.5638874 11 4
-6.3410206 -2.7072921 -1.8474505 3 0
-7.5792255 -3.2312498 -1.9021862 5 1
-9.5702066 -4.0741439 -2.0218122 3 2
-13.841791 -5.884047 -2.3821843 8 3
-19.21027 -8.1542759 -2.5624251 9 4
-6.3374567 -2.6562161 -1.8412387 3 0
-7.5789165 -3.1718845 -1.8967873 5 1
-30.476118 -12.742191 1.731169 6 9
-9.6013393 -4.0104208 -2.0225754 3 2
-13.210601 -5.5098648 -2.2670486 5 3
-19.134777 -7.965044 -2.5448759 9 4
-28.710443 -11.904 7.1754885 7 14
-6.3384323 -2.6034584 -1.8360624 3 0
-7.5779805 -3.1079566 -1.8909385 3 1
-31.353828 -12.84636 1.7757591 5 9
-9.5200949 -3.898654 -1.9996784 3 2
-33.364162 -13.649643 3.1538177 2 10
-13.129004 -5.3658705 -2.2463992 5 3
-19.160511 -7.8192573 -2.540976 9 4
-28.767572 -11.693007 7.1691899 7 14
-6.3241954 -2.546159 -1.8267449 3 0
-7.5958772 -3.053525 -1.8900387 3 1
-29.407728 -11.809909 1.6608294 7 9
-9.5149508 -3.8172719 -1.9928092 3 2
-32.879826 -13.184289 3.0992582 1 10
-13.028616 -5.2189903 -2.222934 6 3
-19.122477 -7.648447 -2.5287893 9 4
-32.058273 -12.77699 -1.8086262 6 6
-28.966383 -11.532987 7.1979837 7 14
-6.3525996 -2.5061979 -1.8298507 3 0
-7.6115713 -2.9982769 -1.8886892 2 1
-9.492034 -3.7313612 -1.9825056 4 2
-33.082329 -12.998137 3.1097167 2 10
-12.902917 -5.0643969 -2.1954014 21 3
-19.162464 -7.5096936 -2.5270829 6 4
-6.3447132 -2.4520392 -1.8226038 3 0
-7.5814099 -2.9254236 -1.8760917 3 1
-33.535492 -12.926829 1.8835713 3 9
-9.4610577 -3.643131 -1.9706753 4 2
-33.328461 -12.826984 3.1243591 1 10
-12.906616 -4.9621401 -2.1900828 5 3
-19.156979 -7.3536744 -2.5195272 11 4
-28.674215 -10.966826 -1.6089121 11 6
-6.3508358 -2.4035835 -1.8194979 4 0
-7.5888877 -2.8676021 -1.8729424 3 1
-31.42001 -11.860104 1.7600584 5 9
-9.4531946 -3.5645258 -1.9638064 4 2
-33.135674 -12.487898 3.098038 3 10
-12.84481 -4.8357258 -2.1738136 5 3
-19.144669 -7.1960115 -2.51124 10 4
-32.393639 -12.130822 -1.8128129 6 6
-6.3457241 -2.3511324 -1.8132863 4 0
-7.5886183 -2.8071151 -1.8679937 5 1
-30.98872 -11.450781 1.7313782 6 9
-9.4557476 -3.4902873 -1.9592268 4 2
-33.32859 -12.295569 3.1079736 1 10
-12.781874 -4.7104149 -2.1575444 4 3
-19.023046 -6.999115 -2.488816 9 4
-6.3256598 -2.2936049 -1.8029336 4 0
-7.5658855 -2.7388139 -1.8576458 3 1
-31.150549 -11.264043 1.7359838 6 9
-9.4448013 -3.4115143 -1.9519762 4 2
-33.646 -12.146483 3.1295884 2 10
-12.697377 -4.5788488 -2.1378336 4 3
-19.093859 -6.8742127 -2.4917407 10 4
-32.992256 -11.832436 -1.8368877 5 6
-6.3670077 -2.2584274 -1.8101805 3 0
-7.5774741 -2.6833234 -1.8558462 6 1
-31.356461 -11.091594 1.7431015 12 9
-9.4202585 -3.328491 -1.942054 4 2
-33.356121 -11.77927 3.0949004 6 10
-12.654518 -4.4638114 -2.1253188 4 3
-19.163851 -6.7486625 -2.4946656 10 4
-6.3424654 -2.1999955 -1.7987925 4 0
-7.5278883 -2.6067657 -1.8391999 5 1
-32.777061 -11.337267 1.817628 4 9
-9.4358435 -3.260077 -1.9405276 4 2
-12.629353 -4.3560314 -2.1159329 3 3
-18.902681 -6.5087137 -2.4546924 9 4
-29.237854 -10.02747 -1.6199027 43 6
-6.3357148 -2.1482208 -1.7925807 4 0
-7.5274444 -2.5478995 -1.8347007 4 1
-31.909388 -10.78832 1.765292 5 9
-9.406292 -3.1765373 -1.9298422 4 2
-12.580835 -4.2412543 -2.1027923 3 3
-18.774569 -6.3183427 -2.4322684 8 4
-29.933968 -10.033195 -1.6545491 10 6
-6.3542256 -2.1051505 -1.7936161 4 0
-7.5376487 -2.4928384 -1.8329012 5 1
-32.456165 -10.727575 1.79146 5 9
-9.3866816 -3.0988965 -1.9214467 4 2
-12.515607 -4.1246071 -2.0871489 3 3
-18.689987 -6.1449518 -2.4156942 9 4
-30.279913 -9.9496765 5.0481405 3 12
-30.538702 -10.005185 -1.6841712 19 6
-6.3353248 -2.0511403 -1.7842987 4 0
-7.5358982 -2.4354825 -1.8284022 5 1
-31.986673 -10.325247 1.7615237 5 9
-9.3688469 -3.0206406 -1.9134327 3 2
-12.4576 -4.0092931 -2.072757 3 3
-18.636883 -5.987237 -2.4035072 9 4
-30.363686 -9.742877 5.0506439 6 12
-30.683895 -9.8160915 -1.6883582 18 6
-6.3494902 -2.0068614 -1.7842987 4 0
-7.5545759 -2.383399 -1.8288521 6 1
-31.623657 -9.9648361 1.7376587 6 9
-9.3672352 -2.9480877 -1.9088533 3 2
-12.372211 -3.8867059 -2.0539849 3 3
-18.583521 -5.8272839 -2.3913205 9 4
-30.525219 -9.5601711 5.066287 3 12
-31.790712 -9.9260578 -1.7454044 8 6
-6.3190403 -1.9488206 -1.7718753 4 0
-7.5524058 -2.3248665 -1.8243531 6 1
-9.3725739 -2.8780098 -1.9058005 3 2
-12.297055 -3.7689779 -2.0370898 3 3
-18.547819 -5.67418 -2.3815711 9 4
-32.516483 -9.9040623 -1.7814115 7 6
-6.3435912 -1.9079982 -1.774981 5 0
-7.52739 -2.2597589 -1.8144552 6 1
-9.3449297 -2.8000603 -1.8962599 4 2
-12.231582 -3.6580219 -2.0220721 4 3
-18.507086 -5.5207205 -2.3713338 9 4
-32.981361 -9.8008442 -1.8031832 20 6
-6.313796 -1.8522664 -1.7630754 11 0
-7.5276351 -2.2040884 -1.810856 6 1
-9.32656 -2.723743 -1.8886275 4 2
-12.196136 -3.5548491 -2.0120604 4 3
-18.582355 -5.4057083 -2.3762088 9 4
-6.2949963 -1.799118 -1.7542756 14 0
-7.5091076 -2.1418605 -1.8027576 6 1
-9.2863483 -2.6435325 -1.8767973 3 2
-12.157345 -3.4539354 -2.0017357 4 3
-18.25485 -5.1724887 -2.3296547 5 4
-6.3182631 -1.7593368 -1.7573814 14 0
-7.5235128 -2.0906978 -1.8027576 6 1
-9.2837648 -2.5728714 -1.8725995 4 2
-12.101197 -3.3468637 -1.9885952 4 3
-18.025566 -4.9752264 -2.2960186 5 4
-6.3266616 -1.7141751 -1.7563461 5 0
-7.4890137 -2.0249 -1.7910603 7 1
-9.2730675 -2.5003297 -1.8668753 4 2
-12.080394 -3.2504947 -1.9813992 4 3
-17.862391 -4.7962399 -2.2709136 16 4
-6.3515511 -1.6734102 -1.7599696 6 0
-9.2238302 -2.4181054 -1.8535187 4 2
-12.037816 -3.1490808 -1.9707617 4 3
-17.724497 -4.6267972 -2.2492208 5 4
-6.3574648 -1.6275898 -1.7584167 4 0
-9.2442913 -2.3546236 -1.8542819 4 2
-12.021216 -3.0552356 -1.9645042 4 3
-17.629366 -4.4707422 -2.233134 5 4
-37.947189 -9.5739326 -2.0510464 1 6
-6.3349271 -1.574778 -1.7490991 4 0
-9.2185755 -2.2796602 -1.8458863 4 2
-11.980881 -2.9560947 -1.9544924 4 3
-17.469322 -4.3005795 -2.2090039 4 4
-6.3570342 -1.5332311 -1.752205 4 0
-9.2018108 -2.2074611 -1.8393987 3 2
-11.943594 -2.8585865 -1.9451064 3 3
-17.361834 -4.145781 -2.1916986 2 4
-6.3638206 -1.4879351 -1.7511697 5 0
-7.4184785 -1.7304305 -1.7586673 18 1
-9.1844902 -2.1356077 -1.8329114 4 2
-11.940168 -2.7697783 -1.941352 3 3
-17.249174 -3.9918001 -2.1739056 3 4
-6.3589802 -1.4400575 -1.7470287 4 0
-7.4474864 -1.6824623 -1.7627165 17 1
-9.1758318 -2.067862 -1.8283319 4 2
-11.897072 -2.6745751 -1.9313401 3 3
-17.100348 -3.8317821 -2.1517253 2 4
-6.3686347 -1.3967413 -1.7470287 4 0
-7.4663806 -1.6333958 -1.7645161 7 1
-38.242836 -8.3522739 2.051465 1 9
-9.1708612 -1.9995719 -1.8245157 4 2
-38.375877 -8.3602819 3.4362023 0 10
-11.869126 -2.5813801 -1.9238312 3 3
-16.966955 -3.680789 -2.1317387 2 4
-6.3668919 -1.3498404 -1.7439228 4 0
-7.4737887 -1.5804244 -1.7636162 11 1
-9.1346502 -1.9249752 -1.8145936 4 2
-11.813399 -2.4830179 -1.9119422 3 3
-16.834867 -3.5292521 -2.1119957 3 4
-6.3875155 -1.3076844 -1.7470287 3 0
-7.4750929 -1.5262614 -1.7613667 16 1
-9.1247797 -1.856457 -1.8100141 4 2
-11.787857 -2.3918395 -1.9050591 3 3
-16.711227 -3.3817177 -2.0934718 3 4
-70.425613 -14.161933 -3.7647352 37 6
-6.4078608 -1.2653048 -1.7501343 3 0
-7.4568858 -1.4683907 -1.7546182 6 1
-9.1294994 -1.7927904 -1.8084878 4 2
-11.753462 -2.3016763 -1.8969245 3 3
-16.644802 -3.2474864 -2.0822597 3 4
-6.3859615 -1.2158773 -1.7418523 4 0
-7.4494772 -1.4143279 -1.7505691 7 1
-9.0530567 -1.7122301 -1.7909334 4 2
-11.722656 -2.2107825 -1.8894157 3 3
-16.580683 -3.1179712 -2.0715353 3 4
-6.4094954 -1.1740512 -1.7459934 3 0
-7.4515009 -1.3608875 -1.7487694 6 1
-9.0396795 -1.6444184 -1.7859724 12 2
-11.67755 -2.1179607 -1.8797168 4 3
-16.516096 -2.9865983 -2.0608108 3 4
-50.401585 -9.0505228 -2.6836834 0 6
-6.4023151 -1.1265976 -1.7418523 4 0
-7.4435463 -1.3058008 -1.7447205 5 1
-9.0567408 -1.5822829 -1.7871171 7 2
-11.662861 -2.0313003 -1.8750238 2 3
-16.473957 -2.8603542 -2.0530112 3 4
-6.4004989 -1.0802659 -1.739264 2 0
-7.4736195 -1.2573614 -1.7496693 6 1
-9.0365868 -1.5138289 -1.7810113 4 2
-11.620254 -1.9403962 -1.8659505 4 3
-16.338831 -2.7195268 -2.0337558 2 4
-6.4153323 -1.0379082 -1.7413346 2 0
-7.478157 -1.2058403 -1.7487694 6 1
-9.0776949 -1.4572623 -1.7871171 4 2
-11.562973 -1.850017 -1.8546873 5 3
-16.277042 -2.5925956 -2.0237625 2 4
-6.3825016 -0.98578203 -1.7304642 2 0
-7.4499998 -1.1466646 -1.7402214 5 1
-9.0410757 -1.3867092 -1.7779584 4 2
-11.52319 -1.7591804 -1.8462398 4 3
-16.192694 -2.4633725 -2.0110881 2 4
-57.681103 -8.7028494 -3.0571527 0 6
-6.4121628 -0.94457984 -1.7366759 2 0
-7.461679 -1.0951936 -1.7411212 4 1
-9.0138569 -1.3165861 -1.7707076 3 2
-11.501959 -1.6738544 -1.840921 5 3
-16.099482 -2.3343146 -1.9974388 1 4
-59.938812 -8.6159658 -3.1735482 2 6
-6.3879905 -0.89550036 -1.7283937 2 0
-7.4537034 -1.0409166 -1.737522 4 1
-9.0206642 -1.2549295 -1.770326 4 2
-11.438733 -1.58522 -1.8290319 4 3
-16.04656 -2.212373 -1.9889079 2 4
-62.394409 -8.5358801 -3.3004105 9 6
-6.3862782 -0.85097724 -1.7263231 1 0
-7.4509563 -0.98887646 -1.7352724 3 1
-9.040884 -1.1934667 -1.7726158 4 2
-11.388805 -1.4973441 -1.819333 12 3
-15.974642 -2.0917594 -1.9781833 2 4
-6.4380631 -0.81217486 -1.7387464 2 0
-7.475081 -0.93902093 -1.7393216 3 1
-9.0236702 -1.127159 -1.7676547 3 2
-11.404863 -1.4185276 -1.8202716 5 3
-15.880505 -1.9667617 -1.9647778 3 4
-6.389864 -0.76081508 -1.7242525 2 0
-7.4659724 -0.88497883 -1.7357224 3 1
-9.0313187 -1.0641322 -1.7676547 3 2
-11.381135 -1.3349627 -1.8149529 4 3
-15.787375 -1.8434184 -1.9516157 3 4
-6.4238176 -0.71941203 -1.7320172 2 0
-7.487463 -0.8345601 -1.7393216 2 1
-9.003231 -0.99873704 -1.7607856 3 2
-11.342836 -1.2522602 -1.8074441 4 3
-15.724875 -1.7249353 -1.9423537 3 4
-6.4362507 -0.67647737 -1.7340877 2 0
-7.5007224 -0.78438771 -1.7411212 1 1
-9.0412264 -0.93910563 -1.7668914 3 2
-11.349337 -1.1728414 -1.8071312 4 3
-15.651341 -1.6091295 -1.9318731 4 4
-6.4004416 -0.62757015 -1.7232174 2 0
-7.4866204 -0.73011214 -1.7366221 2 1
-9.0162973 -0.87293607 -1.7607856 3 2
-11.406405 -1.0983129 -1.8149529 3 3
-15.581177 -1.4920648 -1.9218796 7 4
-6.4277534 -0.58497089 -1.7294289 3 0
-7.4701862 -0.67589623 -1.7316732 3 1
-9.022172 -0.80996925 -1.7607856 3 2
-11.398054 -1.0172495 -1.8124499 4 3
-15.506188 -1.3757081 -1.911399 4 4
-6.4239798 -0.53943735 -1.7273583 1 0
-7.4727812 -0.62356782 -1.7312233 4 1
-9.0509539 -0.75048727 -1.765365 3 2
-11.377152 -0.93737364 -1.8080698 4 3
-15.422425 -1.2598249 -1.8999432 11 4
-34.913563 -2.8458803 5.5481057 1 12
-6.4352074 -0.49629232 -1.7294289 1 0
-7.4807382 -0.57298529 -1.7321231 5 1
-9.1773453 -0.69649047 -1.7890252 3 2
-11.387359 -0.85821742 -1.8086954 3 3
-15.398971 -1.1524478 -1.8960434 3 4
-35.066532 -2.6120543 5.5693803 1 12
-6.4423699 -0.4516257 -1.7304642 1 0
-7.4806681 -0.52047724 -1.7312233 5 1
-9.0370474 -0.62242329 -1.7607856 3 2
-11.373364 -0.77735353 -1.8055668 3 3
-15.353166 -1.0412916 -1.8894625 2 4
-6.4068055 -0.40420419 -1.7201115 1 0
-7.4705043 -0.46738601 -1.728074 3 1
-9.0529289 -0.56004709 -1.7630752 3 2
-11.346968 -0.69600117 -1.8005608 2 3
-15.320431 -0.93167466 -1.8845876 4 4
-6.3978982 -0.35881889 -1.7170056 2 0
-7.4638567 -0.41468197 -1.7258245 4 1
-9.0919037 -0.49876559 -1.7699443 3 2
-11.35155 -0.61676478 -1.8005608 3 3
-15.32458 -0.8245849 -1.884344 3 4
-6.4291902 -0.31556502 -1.7247702 2 0
-7.4626765 -0.36237529 -1.7249247 4 1
-9.0559435 -0.43340513 -1.7623119 3 2
-11.351633 -0.53731692 -1.7999352 3 3
-15.26651 -0.71461242 -1.8765444 3 4
-6.4466782 -0.271323 -1.7289113 2 0
-7.48839 -0.31123826 -1.7303236 5 1
-9.0273628 -0.36889178 -1.756206 3 2
-11.331423 -0.45709634 -1.7961807 3 3
-15.261209 -0.60761625 -1.8753256 2 4
-39.537994 -1.5603696 6.2670779 0 12
-6.4271774 -0.22556628 -1.7232174 4 0
-7.4747996 -0.25841498 -1.7267244 4 1
-9.0532646 -0.30665535 -1.7607856 3 2
-11.350131 -0.37850633 -1.7986836 3 3
-15.241271 -0.50028026 -1.8724008 2 4
-6.428596 -0.18069063 -1.7232174 4 0
-7.466681 -0.20595431 -1.7244748 3 1
-9.0433664 -0.24470586 -1.7584958 3 2
-11.309002 -0.30008674 -1.7918006 3 3
-34.9832 -0.91606748 4.2968698 1 11
-15.212642 -0.39304721 -1.8685009 2 4
-6.4258137 -0.13684601 -1.722182 4 0
-7.471807 -0.15520807 -1.7253746 6 1
-9.0252256 -0.18117341 -1.7546796 3 2
-11.318722 -0.2212849 -1.7930521 2 3
-15.183208 -0.28888455 -1.8646011 2 4
-6.4111595 -0.091762409 -1.7180409 4 0
-7.4727082 -0.10304125 -1.7253746 6 1
-9.069437 -0.12030923 -1.7630752 3 2
-11.296263 -0.14393349 -1.7892977 3 3
-15.147141 -0.18242452 -1.8599701 2 4
-6.4386806 -0.048323791 -1.7252878 3 0
-7.4849281 -0.052257054 -1.728074 7 1
-9.026865 -0.056718305 -1.7546796 3 2
-11.320697 -0.065203734 -1.7930521 3 3
-15.08848 -0.079004928 -1.8526579 2 4
-6.4234056 -0.0033625234 -1.7211467 4 0
-7.4617262 6.5232484e-07 -1.7226752 6 1
-8.9681454 0.0046962113 -1.7432311 3 2
-11.289272 0.011822375 -1.7880461 2 3
-15.13035 0.026403593 -1.8577764 2 4
-6.4078259 0.040261745 -1.7170056 4 0
-7.4771423 0.050895449 -1.7262744 7 1
-8.960041 0.067244478 -1.7417046 3 2
-11.281014 0.090569943 -1.7867948 2 3
-15.117887 0.13193238 -1.8563139 2 4
-6.4073734 0.086112529 -1.7170056 4 0
-7.4648957 0.10423609 -1.723575 7 1
-8.9554272 0.12973884 -1.7409414 3 2
-11.256374 0.17093275 -1.7830403 3 3
-15.051098 0.23643936 -1.8482705 2 4
-6.4143419 0.13100164 -1.7190762 4 0
-7.4600897 0.15626673 -1.7226752 7 1
-8.9778233 0.19432676 -1.7455208 3 2
-11.243057 0.24924754 -1.7811631 2 3
-15.078851 0.34218925 -1.8519267 2 4
-82.364861 2.0129378 -1.4381131 2 7
-6.4055467 0.17556575 -1.7170056 5 0
-7.451025 0.20812473 -1.7208756 7 1
-8.9645176 0.25509742 -1.7432311 3 2
-11.233203 0.32554209 -1.7799115 2 3
-15.056251 0.44685858 -1.8494893 2 4
-56.469521 1.7746317 -0.9861657 45 7
-6.400341 0.2190308 -1.7159703 4 0
-7.4494362 0.25883755 -1.7208756 7 1
-8.9664421 0.31781656 -1.7439942 3 2
-11.234605 0.4041014 -1.7805374 3 3
-15.064763 0.54976749 -1.8509518 2 4
-6.3947964 0.26354915 -1.7149351 4 0
-7.4357648 0.31035051 -1.7181761 7 1
-8.9483786 0.37817663 -1.7409414 3 2
-11.223699 0.48022327 -1.7792858 3 3
-15.026842 0.65345621 -1.8468081 2 4
-6.3851357 0.30670041 -1.7128645 4 0
-7.4140158 0.36001191 -1.7136772 7 1
-8.9298344 0.43986621 -1.7378885 3 2
-11.18456 0.55679983 -1.7736541 2 3
-15.026013 0.7559253 -1.8472956 2 4
-6.3866963 0.35148036 -1.7138997 4 0
-7.4054847 0.41143668 -1.7123275 5 1
-8.8795013 0.49955079 -1.7287296 3 2
-11.196177 0.63576508 -1.776157 2 3
-14.994605 0.85933167 -1.8441271 2 4
-6.3917994 0.39653933 -1.7159703 4 0
-7.3985419 0.46288505 -1.7114276 4 1
-8.8875532 0.56227088 -1.7310193 3 2
-11.15204 0.71139592 -1.7698997 2 3
-15.004088 0.9650085 -1.846077 2 4
-6.3618937 0.43928826 -1.7087234 3 0
-7.4048505 0.5151999 -1.7136772 3 1
-8.8952713 0.62357742 -1.733309 3 2
-11.182407 0.78979421 -1.7755314 2 3
-14.985106 1.0688894 -1.8446145 2 4
-6.3356409 0.4808279 -1.7025118 4 0
-7.3953428 0.56514579 -1.7123275 3 1
-8.8789568 0.68475503 -1.7310193 3 2
-11.141171 0.86509019 -1.7698997 2 3
-14.979461 1.1710165 -1.8448583 3 4
-6.3629336 0.52759999 -1.710794 4 0
-7.3659711 0.61465281 -1.7064787 3 1
-8.8309212 0.74310559 -1.7226238 3 2
-11.075809 0.93784904 -1.7605137 2 3
-14.959053 1.2745531 -1.8433958 1 4
-6.378336 0.57373947 -1.7159703 3 0
-7.3479152 0.66483283 -1.7033294 3 1
-8.8724403 0.80901539 -1.7317824 3 2
-11.061124 1.0144258 -1.7592622 2 3
-14.906304 1.3749411 -1.8380336 1 4
-6.3549466 0.61638963 -1.710794 3 0
-7.3527918 0.71706039 -1.7055789 3 1
-8.8548527 0.86978543 -1.7294928 3 2
-11.104883 1.0966697 -1.7673968 1 3
-14.82918 1.4723086 -1.8297465 1 4
-6.3504887 0.66074055 -1.710794 3 0
-7.3340402 0.76695639 -1.7024295 3 1
-8.8407555 0.93076056 -1.7279664 3 2
-11.112672 1.1758325 -1.7698997 1 3
-14.7988 1.5736972 -1.827309 1 4
-6.3534021 0.70591104 -1.7128645 3 0
-7.363368 0.82202899 -1.7105279 2 1
-8.837944 0.99289417 -1.7287296 3 2
-11.064934 1.2489536 -1.7636423 2 3
-14.799287 1.678316 -1.8287715 2 4
-6.3061113 0.74526089 -1.7014765 1 0
-7.3613195 0.87387437 -1.7114276 1 1
-8.8113031 1.0522447 -1.7249134 3 2
-11.0481 1.32523 -1.762391 2 3
-14.799034 1.7830184 -1.8302339 2 4
-6.2815862 0.78686649 -1.6963001 2 0
-7.3434381 0.92378533 -1.7087282 2 1
-8.8076391 1.1142243 -1.7256767 3 2
-11.058175 1.4048148 -1.7655195 1 3
-14.746844 1.8812642 -1.8253592 2 4
-6.3161578 0.83602291 -1.7071705 2 0
-7.300107 0.97015029 -1.7001802 1 1
-8.8619165 1.1840059 -1.7378885 3 2
-11.008942 1.4767287 -1.7592622 2 3
-14.743188 1.9854953 -1.8265779 2 4
-6.3025141 0.87903172 -1.7050999 2 0
-7.3028054 1.0224438 -1.7024295 3 1
-8.7989979 1.2381846 -1.727203 3 2
-11.021835 1.5568651 -1.7630166 2 3
-14.695554 2.0836363 -1.8224343 7 4
-6.3000469 0.92356908 -1.7061353 2 0
-7.2916341 1.0728329 -1.7015297 2 1
-8.7823725 1.2984326 -1.7256767 3 2
-10.979434 1.6291353 -1.7580107 2 3
-14.670833 2.1847179 -1.8212155 16 4
-39.17424 5.8476291 6.2733355 0 12
-6.2724419 0.96430016 -1.7004411 2 0
-7.266633 1.1210378 -1.6974807 1 1
-8.8160133 1.3647921 -1.7340722 3 2
-10.991514 1.7074709 -1.7617651 2 3
-14.657185 2.287389 -1.8214594 5 4
-6.2790847 1.0091174 -1.7040646 2 0
-7.2703776 1.1723341 -1.7001802 0 1
-8.78689 1.4231652 -1.7302561 3 2
-10.971527 1.7828946 -1.7605137 2 3
-14.651072 2.3887017 -1.822678 4 4
-6.2795072 1.0542099 -1.7061353 2 0
-7.2754679 1.2253295 -1.7033294 2 1
-8.7653847 1.4809804 -1.7279664 3 2
-10.959137 1.8575342 -1.7605137 3 3
-14.657521 2.494921 -1.8256029 4 4
-6.2434511 1.0930248 -1.6983706 2 0
-7.2590585 1.2747421 -1.7015297 3 1
-8.7738962 1.5470752 -1.7317824 3 2
-10.914441 1.9304036 -1.7555077 22 3
-14.614337 2.5926845 -1.8224343 6 4
-6.2470713 1.1386642 -1.7014765 2 0
-7.2499824 1.3253888 -1.7015297 2 1
-8.7206802 1.5989699 -1.723387 3 2
-10.916592 2.0075071 -1.7580107 3 3
-14.595881 2.6946452 -1.8224343 6 4
-39.012585 7.2446318 -2.0795171 0 6
-6.2353797 1.1804417 -1.7004411 2 0
-7.2369637 1.3739803 -1.7006299 3 1
-8.7170191 1.661283 -1.7249134 3 2
-10.894549 2.0821869 -1.7567593 4 3
-14.621552 2.8050838 -1.8280404 4 4
-37.980507 7.3276443 -2.0271811 1 6
-42.014702 8.1211805 9.8794003 1 14
-6.2191916 1.2235377 -1.6983706 2 0
-7.2154751 1.4234668 -1.6979306 3 1
-8.7013569 1.7213367 -1.7241502 3 2
-41.092735 8.1440239 3.6650732 0 10
-10.898746 2.1639404 -1.7598881 4 3
-41.060642 8.160017 5.1402054 0 11
-14.656126 2.9179428 -1.834865 4 4
-41.036098 8.1849222 6.6275034 1 12
-41.113052 8.2226553 8.1498346 2 13
-37.143768 7.4422874 -1.9853123 2 6
-41.28059 8.2786436 9.7201357 1 14
-6.2445693 1.2738765 -1.7076882 2 0
-7.2129984 1.4753677 -1.6997302 3 1
-40.96545 8.3941011 2.1915159 1 9
-8.6868935 1.7831613 -1.7237686 21 2
-41.015362 8.4267063 3.6633301 0 10
-10.879505 2.239176 -1.7592622 4 3
-14.928963 3.0807676 -1.8716695 7 4
-41.066181 8.5118694 8.1521244 2 13
-36.445576 7.5674157 -1.9507706 3 6
-6.2033916 1.3106519 -1.6988882 2 0
-7.2025228 1.5256879 -1.6997302 3 1
-8.6822367 1.8438815 -1.7252951 18 2
-10.869807 2.3144128 -1.7602009 5 3
-14.788671 3.1596196 -1.8568015 9 4
-41.095974 8.8177147 8.1700602 1 13
-35.186428 7.5561633 -1.8860834 4 6
-40.231262 8.6542149 9.5005827 1 14
-6.1848903 1.3507843 -1.6963001 2 0
-7.1805491 1.5721762 -1.6970307 4 1
-8.6749039 1.9057134 -1.7264398 3 2
-10.837952 2.3868432 -1.7576978 4 3
-14.681533 3.2413759 -1.846077 9 4
-34.559586 7.6743255 -1.8553097 5 6
-6.184731 1.3960584 -1.6988882 2 0
-7.177001 1.6239897 -1.6988304 5 1
-8.6499014 1.9636217 -1.7241502 3 2
-10.821024 2.4624481 -1.7576978 4 3
-14.567584 3.3230438 -1.8346213 7 4
-33.64473 7.7180357 -1.8090448 6 6
-6.1635456 1.4365693 -1.6957825 2 0
-7.1332283 1.6665164 -1.691182 15 1
-8.6283369 2.0221698 -1.7226238 3 2
-10.799723 2.5370295 -1.7570721 4 3
-14.45901 3.4046445 -1.8238968 7 4
-33.127468 7.8432088 -1.7841328 7 6
-6.1665149 1.4827255 -1.6994059 3 0
-7.1308928 1.7185597 -1.6934315 25 1
-8.6391811 2.0868468 -1.7275848 4 2
-10.830202 2.6221032 -1.7648939 4 3
-14.388594 3.4942582 -1.818047 7 4
-6.1450281 1.5218774 -1.6963001 3 0
-7.1644225 1.7783239 -1.7042291 7 1
-8.6072559 2.1428382 -1.7241502 3 2
-10.823133 2.7005153 -1.7667711 4 3
-14.325958 3.5824852 -1.8131722 7 4
-24.224133 6.0891762 -1.3090271 21 6
-6.1305099 1.5637872 -1.6952648 3 0
-7.1291766 1.8225058 -1.6988304 5 1
-8.59589 2.2038491 -1.7249134 3 2
-10.826975 2.7819057 -1.7705256 7 3
-14.298676 3.6819205 -1.8129284 9 4
-24.32025 6.2941685 -1.3165635 21 6
-6.1306548 1.60949 -1.6983706 9 0
-7.097434 1.8672726 -1.6943314 4 1
-8.6087694 2.2713208 -1.7306377 4 2
-10.853123 2.869545 -1.7780343 6 3
-14.253435 3.7765667 -1.8104911 9 4
-24.042185 6.4016213 -1.3038982 10 6
-6.0875626 1.6436898 -1.6895708 19 0
-7.1124406 1.9244109 -1.7010798 6 1
-8.5756493 2.3267367 -1.727203 3 2
-10.947197 2.9763372 -1.7968066 7 3
-14.217147 3.8733704 -1.8092724 7 4
-24.023872 6.5766935 -1.3053635 21 6
-6.0796623 1.6871822 -1.6906061 18 0
-7.1007099 1.9745402 -1.7015297 5 1
-8.5913458 2.3955157 -1.7336906 4 2
-10.901418 3.045783 -1.7927393 8 3
-14.178288 3.9693227 -1.8078099 7 4
-23.431343 6.5906601 -1.2756367 10 6
-6.0770249 1.7322315 -1.6931943 3 0
-7.0848784 2.0235293 -1.7010798 6 1
-8.6008368 2.463001 -1.7390332 4 2
-10.821028 3.104923 -1.7830403 9 3
-14.163588 4.0720448 -1.8095162 9 4
-23.641884 6.8283505 -1.2896628 21 6
-6.0647836 1.7746149 -1.6931943 3 0
-7.0687089 2.0723934 -1.7006299 4 1
-22.632587 6.6439676 1.2361754 25 9
-8.6041517 2.5290742 -1.7432311 3 2
-10.746031 3.1647642 -1.77428 9 3
-14.146237 4.1741972 -1.8109785 9 4
-23.566826 6.9852839 -1.2881973 21 6
-6.059648 1.8191336 -1.6952648 3 0
-7.0372739 2.1166387 -1.6965809 6 1
-23.728611 7.1415038 1.2986646 17 9
-8.6036549 2.5926805 -1.7466656 4 2
-10.705329 3.2321298 -1.7711512 9 3
-14.135753 4.2786055 -1.813416 9 4
-23.518734 7.1455359 -1.2881973 10 6
-6.0582042 1.8637453 -1.6983706 3 0
-7.0450511 2.1713772 -1.7019798 6 1
-21.853695 6.7439542 1.1985981 4 9
-8.5722151 2.6486254 -1.7439942 6 2
-10.650424 3.2968552 -1.7658324 8 3
-14.113885 4.3770742 -1.8143909 9 4
-23.639898 7.363008 -1.2976178 10 6
-6.0192504 1.8978626 -1.6911237 3 0
-20.936224 6.6091962 0.38321993 39 8
-7.0408697 2.2240314 -1.7046791 6 1
-21.05579 6.659071 1.1573575 12 9
-8.6171522 2.7285559 -1.7569693 6 2
-10.644094 3.3765047 -1.7686483 9 3
-14.086768 4.4767036 -1.8148785 9 4
-23.511808 7.5035763 -1.2934309 10 6
-6.0021777 1.9386497 -1.6900884 4 0
-7.0103388 2.2683306 -1.7010798 7 1
-20.917585 6.776361 1.1523333 16 9
-8.6090984 2.7922828 -1.759259 4 2
-10.586447 3.4397447 -1.7630166 9 3
-14.100473 4.589685 -1.8207282 9 4
-19.806828 6.4623904 -1.8227752 37 5
-23.147512 7.5657701 -1.2762648 10 6
-6.0031705 1.9853597 -1.6942296 4 0
-7.0239291 2.327024 -1.7082783 7 1
-20.792046 6.8964424 1.1480416 16 9
-8.5931215 2.8535528 -1.7600222 6 2
-10.532186 3.5035896 -1.7580107 9 3
-14.077506 4.6911473 -1.8219469 7 4
-22.87063 7.6524038 -1.2639135 10 6
-5.9964833 2.0296972 -1.6963001 3 0
-20.887915 7.0782948 0.38496518 39 8
-6.9927487 2.3709958 -1.7046791 7 1
-20.913607 7.0992112 1.1574621 16 9
-8.5339546 2.9002087 -1.7520082 7 2
-10.514948 3.5795813 -1.7592622 9 3
-14.038774 4.7873936 -1.8212155 9 4
-26.30859 9.0074425 -1.4573472 11 6
-5.9858189 2.0727742 -1.6973354 4 0
-6.9797082 2.4210322 -1.7055789 6 1
-20.684294 7.1827993 1.1475183 12 9
-8.4652853 2.9429545 -1.7420862 9 2
-22.19388 7.7200394 2.0558295 4 10
-10.459855 3.6425059 -1.7542564 9 3
-14.003137 4.8846288 -1.8209718 7 4
-19.134787 6.7009077 -1.0625247 38 6
-5.9679289 2.1121812 -1.6963001 4 0
-20.505606 7.2654395 0.37972948 38 8
-7.0034752 2.482811 -1.7154768 7 1
-20.725275 7.3554873 1.1525426 16 9
-8.4265585 2.9939351 -1.73827 7 2
-22.413027 7.9676933 2.0811048 4 10
-10.423653 3.7096455 -1.7523791 9 3
-13.980782 4.9838314 -1.8224343 7 4
-18.497894 6.6086373 -1.7185369 38 5
-18.981546 6.7926426 -1.0565584 67 6
-5.9494042 2.1524792 -1.6952648 4 0
-7.0006285 2.5369554 -1.7190759 8 1
-20.692192 7.5068135 1.1535892 12 9
-8.396225 3.0493379 -1.736362 6 2
-22.059113 8.0157843 2.0533893 14 10
-10.393788 3.780973 -1.7517534 9 3
-13.912078 5.0690789 -1.818047 7 4
-18.969303 6.9380236 -1.0585471 57 6
-5.955976 2.2020004 -1.7014765 4 0
-19.745785 7.308104 0.36751276 36 8
-6.9790921 2.5844138 -1.7181761 9 1
-20.513807 7.6045709 1.1465763 16 9
-8.3544836 3.1003683 -1.732164 9 2
-22.10161 8.2063408 2.0626278 19 10
-10.354177 3.8486276 -1.7495633 8 3
-13.846582 5.1550012 -1.8141472 7 4
-5.9296145 2.2394321 -1.6983706 4 0
-6.9645243 2.6344528 -1.7190759 9 1
-20.846861 7.894002 1.1682433 12 9
-8.3216219 3.1544411 -1.7298744 7 2
-22.038193 8.3583202 2.0621049 17 10
-10.339984 3.9257252 -1.7517534 9 3
-13.741604 5.2254333 -1.8051288 9 4
-5.928256 2.2863338 -1.7025118 4 0
-6.9568701 2.6872232 -1.7217753 8 1
-21.307251 8.2388792 1.1972375 27 9
-8.3067217 3.2152929 -1.7314008 9 2
-22.042471 8.5364361 2.0680313 4 10
-10.323376 4.0021005 -1.7536306 9 3
-13.651125 5.3004045 -1.7980604 7 4
-19.679604 7.6687975 -1.1069056 9 6
-5.8905792 2.3191726 -1.6963001 4 0
-6.9560695 2.7428727 -1.7262744 8 1
-19.493618 7.6944618 1.0983224 3 9
-8.2658129 3.2659938 -1.7275848 9 2
-21.109646 8.3451118 1.9859307 8 10
-10.328247 4.0871572 -1.7592622 9 3
-13.55658 5.3729038 -1.7905045 9 4
-20.624031 8.2031326 -1.1632191 10 6
-5.8850007 2.3645616 -1.6994059 4 0
-6.9512143 2.7971883 -1.7298737 8 1
-19.489445 7.8505187 1.1011486 17 9
-8.2246027 3.3162766 -1.7237686 9 2
-21.071192 8.5004854 1.987848 6 10
-10.306788 4.1621184 -1.7605137 9 3
-13.489296 5.4555044 -1.7866048 9 4
-18.371391 7.4561124 -1.0390781 9 6
-5.8969488 2.4173129 -1.7076882 4 0
-18.096195 7.4217906 0.34140396 32 8
-6.9098835 2.8367677 -1.7244748 8 1
-19.877108 8.1643562 1.1261653 11 9
-8.2199974 3.3796489 -1.7275848 7 2
-10.307445 4.2442122 -1.7655195 10 3
-13.447212 5.5480309 -1.7861173 9 4
-17.951115 7.4282556 -1.0181438 9 6
-17.864376 7.4069681 -0.33756444 38 7
-5.8874884 2.4603741 -1.7097588 5 0
-6.8760343 2.8777158 -1.7208756 9 1
-20.165947 8.4480076 1.1458435 12 9
-8.1817179 3.4308786 -1.7245318 9 2
-10.255708 4.30689 -1.7617651 9 3
-13.434754 5.650209 -1.7895297 9 4
-17.317343 7.3080068 -0.98506743 9 6
-5.8772769 2.5044475 -1.7118292 7 0
-17.188848 7.3316622 0.32618546 30 8
-6.8539829 2.9248862 -1.7204256 10 1
-19.42506 8.2975101 1.1070102 17 9
-8.1322947 3.477107 -1.719189 7 2
-10.229023 4.3799362 -1.762391 9 3
-13.362142 5.7297778 -1.7851423 9 4
-20.671013 8.8937902 -1.1793386 20 6
-5.8667374 2.5484948 -1.7138997 7 0
-17.100569 7.4355369 0.32548741 30 8
-6.8226752 2.967999 -1.7177262 10 1
-19.897705 8.664156 1.1373651 15 9
-8.1006222 3.5306609 -1.7176627 7 2
-10.227161 4.4638867 -1.7673968 9 3
-13.252694 5.7927151 -1.7758802 9 4
-16.683182 7.3164592 -0.95471257 9 6
-16.608147 7.2939234 -0.31662154 34 7
-5.8417377 2.5862608 -1.7118292 7 0
-17.086126 7.5679612 0.32618546 30 8
-6.7786293 3.0052884 -1.7118775 9 1
-19.55163 8.6722546 1.1209316 14 9
-8.062048 3.5793428 -1.7146096 7 2
-10.160439 4.5173478 -1.7611394 9 3
-13.143024 5.8543978 -1.7666181 9 4
-16.622053 7.4249573 -0.95408463 9 6
-16.228279 7.2626591 -0.31033871 33 7
-5.841609 2.6339052 -1.7170056 9 0
-17.098494 7.7166696 0.32744205 31 8
-6.7651196 3.054569 -1.7136772 9 1
-20.367863 9.2049971 1.1713835 17 9
-8.0225525 3.6290662 -1.7115568 9 2
-10.150249 4.5979495 -1.7648939 9 3
-13.045022 5.9174829 -1.7588185 9 4
-16.49346 7.5060778 -0.94968832 9 6
-15.96011 7.2734423 -0.30615014 32 7
-5.8265901 2.6762357 -1.7180409 7 0
-6.7347784 3.0976508 -1.7114276 10 1
-7.9905329 3.6803029 -1.7100304 7 2
-10.082841 4.6503873 -1.7586365 9 3
-12.909689 5.9651093 -1.7461442 9 4
-15.905581 7.3696299 -0.91870546 9 6
-15.546181 7.2162948 -0.29916915 31 7
-5.8397379 2.7305627 -1.7273583 9 0
-6.6800051 3.1277206 -1.7028794 9 1
-7.9859738 3.7460024 -1.7146096 10 2
-10.046555 4.7189837 -1.7580107 9 3
-12.744839 5.9945498 -1.7293261 11 4
-15.736334 7.4250941 -0.91190183 18 6
-15.268889 7.2143097 -0.29477116 31 7
-5.7926254 2.7579765 -1.7190762 7 0
-6.6668029 3.1784713 -1.705129 11 1
-7.9419117 3.7932024 -1.7107936 9 2
-9.9634666 4.7651424 -1.7492503 9 3
-12.548708 6.0096383 -1.7083646 13 4
-14.911791 7.1637392 -0.86699748 8 6
