# .PCD v0.7 - Point Cloud Data file format
VERSION 0.7
FIELDS x y z intensity ring
SIZE 4 4 4 4 2
TYPE F F F F U
COUNT 1 1 1 1 1
WIDTH 1332
HEIGHT 1
VIEWPOINT 0 0 0 1 0 0 0
POINTS 1332
DATA ascii
10.70153 5.6327338 -0.63378847 43 6
5.6088905 2.9272723 -1.6952648 9 0
6.4474754 3.3606343 -1.6785848 14 1
7.7162676 4.0168343 -1.6909494 7 2
56.414474 29.342491 5.5633254 9 10
9.3749685 4.8740621 -1.6735362 18 3
10.774121 5.5919342 -1.4904622 20 4
10.837892 5.6178303 -1.0680065 15 5
19.590277 10.141627 -1.1561013 10 6
5.625248 2.8872645 -1.6942296 9 0
6.4667311 3.3148952 -1.6776849 14 1
7.7755809 3.978965 -1.6978186 7 2
9.4193201 4.8138871 -1.6754133 18 3
10.752778 5.4859076 -1.4821751 16 4
12.421299 6.328968 -1.2196574 21 5
19.827927 10.089761 -1.1659406 20 6
5.659564 2.8538959 -1.6983706 9 0
6.5007291 3.2737944 -1.6803844 14 1
7.7680898 3.9069457 -1.6901863 7 2
22.210478 11.160991 2.17471 4 10
9.5117836 4.77561 -1.6857381 16 3
10.890187 5.4605322 -1.4958245 21 4
12.46518 6.2420969 -1.2196574 21 5
15.92291 7.9596996 -0.93294084 27 6
5.6793499 2.8143151 -1.6983706 9 0
6.5304122 3.2317884 -1.682184 14 1
7.7958488 3.8512583 -1.6901863 9 2
22.327156 11.025067 2.1785448 2 10
9.6015778 4.7370615 -1.6957498 17 3
10.999269 5.4194717 -1.5055741 21 4
12.480924 6.138669 -1.2168685 21 5
16.223688 7.9689794 -0.94728088 18 6
5.6988592 2.7745972 -1.6983706 9 0
6.5598273 3.1895244 -1.6839837 12 1
7.8260775 3.7984538 -1.6909494 9 2
54.716499 26.545322 5.320684 2 10
9.6219721 4.6638832 -1.6935596 18 3
11.08329 5.365037 -1.5119112 22 4
16.442612 7.9345202 -0.95680606 9 6
5.718091 2.7347441 -1.6983706 9 0
6.5960002 3.1503725 -1.6875829 12 1
7.8701258 3.7521732 -1.6947654 9 2
9.6525145 4.5957465 -1.6932468 17 3
11.156335 5.304574 -1.516786 19 4
12.636368 6.0001855 -1.223841 21 5
16.847733 7.9854894 -0.97711235 27 6
5.7405405 2.6964002 -1.6994059 9 0
6.6390052 3.1141779 -1.6929817 13 1
7.8919291 3.6968508 -1.6940023 7 2
55.789181 26.109827 5.3890138 4 10
9.7032557 4.5391445 -1.6966884 18 3
11.401738 5.3239899 -1.5450597 16 4
12.883798 6.0078168 -1.2437124 22 5
16.344044 7.6109409 -0.94487345 9 6
5.7727928 2.6637409 -1.703547 9 0
6.6600471 3.0689185 -1.6929817 13 1
7.928247 3.6465867 -1.696292 7 2
55.893196 25.696186 5.3820415 4 10
9.7795849 4.4919047 -1.7045102 17 3
11.767045 5.3948302 -1.5894201 21 4
17.297722 7.908566 -0.99679077 28 6
5.7776275 2.6159892 -1.6994059 9 0
6.6782861 3.0195761 -1.6920818 14 1
7.946352 3.5879202 -1.6947654 9 2
22.146212 9.9900923 2.1255541 2 10
9.8601027 4.4437232 -1.7129576 11 3
11.800801 5.3109198 -1.5889326 19 4
17.680065 7.9309077 -1.015527 18 6
17.466717 7.8242216 -0.33407396 37 7
5.8063421 2.5802968 -1.7025118 9 0
6.7205806 2.9823616 -1.6974807 13 1
7.9610543 3.5261958 -1.6924759 9 2
22.131611 9.7981377 2.1175358 4 10
9.8999166 4.3787785 -1.714522 10 3
11.972886 5.2856655 -1.6069694 19 4
18.029305 7.936842 -1.0323793 19 6
5.8388252 2.5448565 -1.7066529 9 0
6.716732 2.9233091 -1.691182 14 1
7.9818764 3.4689658 -1.6917126 9 2
59.307865 25.750872 5.6567559 11 10
9.9364319 4.3101821 -1.7154605 9 3
11.965775 5.1830192 -1.6011195 20 4
18.219498 7.8654118 -1.0400202 19 6
5.8697834 2.5121567 -1.710794 9 0
6.732389 2.877166 -1.6902822 14 1
28.270933 12.070234 1.6110055 8 9
8.0233622 3.4222569 -1.6955289 9 2
9.9866104 4.2534752 -1.719215 9 3
12.072957 5.1346216 -1.6108691 22 4
13.047106 5.538167 -1.2400519 66 5
12.995472 5.5082216 -0.73971647 43 6
5.8907409 2.4726121 -1.7118292 9 0
6.7595005 2.8331082 -1.6920818 14 1
8.0434351 3.3646443 -1.6947654 9 2
10.048871 4.1973562 -1.7248467 9 3
12.365006 5.1571913 -1.6449926 18 4
13.631752 5.6743488 -1.2918224 24 5
18.951942 7.8772898 -1.0756086 19 6
5.9042864 2.4299562 -1.710794 9 0
6.7827191 2.7873304 -1.6929817 14 1
54.787437 22.492321 3.1038365 0 9
8.1066914 3.3247983 -1.7031612 9 2
10.125457 4.1465631 -1.7329811 9 3
12.595475 5.150383 -1.6708289 16 4
24.401749 9.9432774 -1.3809367 11 6
5.9390221 2.3959045 -1.7159703 9 0
6.8092437 2.7428226 -1.6947813 15 1
8.1442795 3.2739763 -1.7062141 7 2
56.970795 22.890574 5.3715825 3 10
10.177993 4.0853343 -1.7370484 8 3
12.561109 5.034256 -1.6615667 21 4
19.581278 7.8200684 -1.1050215 19 6
5.9699769 2.3600662 -1.7201115 9 0
6.8209758 2.6923563 -1.6929817 15 1
8.174242 3.2199204 -1.7077407 9 2
57.129204 22.492311 5.3715825 3 10
10.232 4.0243058 -1.7414287 8 3
12.699417 4.9870796 -1.6752161 14 4
20.005527 7.8279939 -1.1258512 19 6
5.9971161 2.3225191 -1.7232174 9 0
6.8632336 2.6538115 -1.6988304 16 1
8.1891966 3.1599481 -1.7062141 7 2
56.78294 21.89933 5.3245187 2 10
10.274592 3.9584568 -1.7439317 8 3
12.815446 4.9296575 -1.6859406 18 4
14.502855 5.5671268 -1.3591067 26 5
20.182774 7.7353225 -1.1327596 20 6
6.0059581 2.2778544 -1.7211467 9 0
6.8870602 2.6079025 -1.7001802 14 1
8.2147284 3.1040916 -1.7069772 10 2
57.18047 21.595295 5.3475275 3 10
10.324156 3.8949971 -1.7476861 8 3
12.935001 4.8722568 -1.6971526 19 4
14.771657 5.5552444 -1.3807212 27 5
20.509293 7.6966858 -1.1480416 20 6
6.0253372 2.2372112 -1.722182 9 0
6.9233727 2.5665286 -1.7046791 14 1
8.2577629 3.0562768 -1.7115568 10 2
60.764626 22.465458 5.6679125 12 10
10.365252 3.8301098 -1.7501891 9 3
13.063687 4.8168654 -1.7095833 20 4
14.997049 5.5208197 -1.3981524 28 5
6.0259008 2.1908686 -1.7180409 9 0
6.9553351 2.5246656 -1.7082783 15 1
8.2752066 2.9972153 -1.7107936 7 2
59.357449 21.487087 5.5228848 8 10
10.345298 3.7408602 -1.7423673 8 3
13.131651 4.7406325 -1.7142143 19 4
15.267665 5.4997072 -1.419767 43 5
15.247724 5.4835062 -0.84920329 43 6
6.0556097 2.1539254 -1.722182 7 0
6.9691181 2.4747424 -1.7073785 14 1
8.2848253 2.9354401 -1.7085038 10 2
64.700859 22.91176 6.0050306 21 10
10.332051 3.6547167 -1.735797 9 3
13.26363 4.6838808 -1.7271326 20 4
15.508636 5.4644938 -1.4385927 29 5
21.220522 7.4645991 -1.1789199 10 6
6.0850978 2.1166716 -1.7263231 9 0
6.997272 2.4298608 -1.7100779 15 1
8.3199568 2.8826716 -1.7115568 9 2
61.406349 21.26387 5.6853433 12 10
10.364781 3.585079 -1.7370484 9 3
13.395454 4.6255088 -1.7400507 19 4
15.926919 5.4871936 -1.4738036 30 5
22.076689 7.5930028 -1.22351 10 6
6.1180158 2.0803604 -1.7314996 9 0
7.0362082 2.3884716 -1.7154768 14 1
8.328722 2.8207386 -1.709267 9 2
10.406402 3.518321 -1.7398643 8 3
13.534632 4.5680556 -1.7539438 20 4
16.229189 5.4648838 -1.4982072 31 5
22.076151 7.4208751 -1.2205793 10 6
6.1250567 2.0351613 -1.7294289 7 0
7.0490117 2.3380644 -1.714577 13 1
8.3705778 2.7699258 -1.7138464 10 2
59.079243 19.538599 5.4440966 5 10
10.449465 3.4517858 -1.742993 8 3
13.654796 4.5026789 -1.7653995 18 4
16.625586 5.4726496 -1.5313264 32 5
23.254574 7.6367154 -1.2827544 10 6
6.1685157 2.0018919 -1.7377111 7 0
7.0577474 2.2863936 -1.7127774 14 1
25.023096 8.1015358 1.3784245 6 9
8.4041824 2.7177172 -1.7168994 7 2
58.778141 18.984825 5.4040046 4 10
10.4652 3.3781514 -1.7417415 8 3
13.79927 4.4437499 -1.7800238 15 4
16.993429 5.4625397 -1.5616566 33 5
23.625507 7.5807772 -1.3003392 10 6
6.152535 1.9505167 -1.7294289 7 0
7.0842943 2.241828 -1.7154768 13 1
8.430439 2.6613469 -1.7184259 9 2
61.281097 19.333614 5.6218944 10 10
10.496062 3.3073878 -1.742993 8 3
58.894413 18.535442 7.5810046 3 11
13.85647 4.3556385 -1.7834362 13 4
17.578642 5.515554 -1.6118584 34 5
23.929445 7.4944501 -1.3141559 10 6
6.173718 1.9087228 -1.7314996 7 0
7.0964308 2.1899271 -1.714577 13 1
8.4788332 2.6116691 -1.7245318 9 2
10.536456 3.2374167 -1.7458088 7 3
13.905515 4.2646227 -1.7858734 15 4
17.639578 5.3997035 -1.61395 34 5
17.594778 5.37255 -0.96413308 46 6
6.2016897 1.8700373 -1.7356406 7 0
7.1190109 2.1425779 -1.7163765 12 1
8.5010653 2.5520625 -1.7252951 9 2
10.583402 3.1711452 -1.7498761 8 3
14.028143 4.1953034 -1.7978168 10 4
24.852285 7.3993564 -1.3589556 11 6
6.2034717 1.8234299 -1.7325348 7 0
7.1674528 2.1027033 -1.7244748 13 1
28.302258 8.2976055 1.5456903 8 9
8.5220079 2.4952416 -1.7260582 7 2
10.602844 3.0984836 -1.7495633 7 3
14.0933 4.1078205 -1.8024478 7 4
25.650118 7.4471927 -1.3997777 11 6
6.2101688 1.7795652 -1.7309818 6 0
7.1853471 2.054939 -1.7253746 13 1
8.5656519 2.4432254 -1.7314008 9 2
10.639416 3.028713 -1.7520663 7 3
14.147666 4.0193968 -1.80586 7 4
26.435642 7.4755607 -1.4397624 22 6
6.2391882 1.7408395 -1.7356406 7 0
7.2107821 2.0078621 -1.728074 13 1
8.6165495 2.3928218 -1.73827 7 2
10.664109 2.9554172 -1.752692 9 3
14.106503 3.9014797 -1.7970854 7 4
26.714415 7.3533692 -1.4521136 11 6
6.2586465 1.6992642 -1.7377111 7 0
7.2321477 1.959511 -1.7298737 12 1
8.6368351 2.3336329 -1.7390332 7 2
10.686389 2.8814101 -1.7530048 8 3
14.087392 3.790524 -1.7912358 7 4
16.8008 4.4829059 4.6592607 1 15
6.2853007 1.6594745 -1.7418523 9 0
7.2720332 1.9159241 -1.7361722 10 1
8.6529169 2.2732794 -1.7390332 9 2
10.731084 2.8132467 -1.7570721 9 3
14.123115 3.6945951 -1.7924545 9 4
20.035963 5.2152376 -1.0850291 19 6
6.3060875 1.6179578 -1.7444404 6 0
7.2890067 1.8660791 -1.7370721 10 1
8.6799898 2.2157288 -1.741323 9 2
10.775349 2.7445998 -1.7611394 8 3
14.150488 3.5963964 -1.7926983 7 4
20.836729 5.2686372 -1.1263746 20 6
6.3191042 1.5743606 -1.744958 7 0
7.32266 1.8203182 -1.742021 9 1
63.098068 15.661945 3.4071758 12 9
8.7219238 2.1616933 -1.7466656 7 2
10.807669 2.6726313 -1.7633295 9 3
14.236921 3.5127432 -1.8004979 7 4
21.307493 5.2296815 -1.149821 20 6
6.3618641 1.5379204 -1.753758 6 0
7.3143516 1.7641225 -1.7370721 11 1
8.7482567 2.1035039 -1.7489554 7 2
10.826064 2.5971146 -1.7633295 9 3
14.320946 3.4275892 -1.8080537 9 4
21.873915 5.207068 -1.1783965 20 6
6.3724451 1.4934717 -1.753758 6 0
7.3378735 1.7156811 -1.7397714 11 1
8.8006105 2.0528274 -1.7565877 7 2
60.96151 14.197425 5.4761696 6 10
10.855035 2.5260496 -1.7652067 9 3
14.412209 3.34322 -1.8165846 7 4
22.16184 5.1164632 -1.1920038 41 6
6.4013019 1.4543413 -1.7589344 6 0
7.3702884 1.6704323 -1.7447205 9 1
8.803237 1.9887416 -1.754298 7 2
61.834137 13.957594 5.5458941 8 10
10.868552 2.4493372 -1.764581 9 3
14.439071 3.2433922 -1.817072 7 4
23.035158 5.1489658 -1.2370129 21 6
6.4285264 1.4122279 -1.763593 3 0
7.3991842 1.621403 -1.7487694 11 1
8.8245792 1.928912 -1.7558244 7 2
10.924402 2.3799105 -1.7708384 9 3
14.496278 3.150104 -1.8214594 7 4
23.678556 5.1151562 -1.2695658 21 6
6.4231105 1.3641064 -1.759452 4 0
7.4446392 1.5769801 -1.7568678 13 1
8.8592854 1.8701758 -1.7600222 6 2
10.95235 2.3060279 -1.7727156 9 3
14.525686 3.050456 -1.8224343 7 4
24.423395 5.0978718 -1.3075616 21 6
6.4249082 1.3176758 -1.7573814 4 0
7.4974709 1.5335561 -1.7667656 13 1
8.8913622 1.8122058 -1.7638384 4 2
11.003027 2.2365928 -1.7783473 9 3
14.534956 2.9466069 -1.8209718 7 4
25.079054 5.0522757 -1.3407427 22 6
6.4263706 1.2712899 -1.7553109 4 0
7.5232892 1.4841939 -1.7703648 12 1
8.9211359 1.7534918 -1.7672729 7 2
62.592892 12.291585 5.5807567 9 10
11.045511 2.1650422 -1.7827275 9 3
14.574656 2.84887 -1.8234093 7 4
22.210325 4.3252997 -1.9796555 33 5
25.827383 5.0156617 -1.3788432 22 6
6.4426799 1.2278409 -1.7573814 4 0
7.5487828 1.4345458 -1.7739639 11 1
8.9293022 1.6904374 -1.7665098 9 2
11.079767 2.0915413 -1.785856 7 3
14.607845 2.7496209 -1.8251154 9 4
26.649027 4.9824195 -1.4208167 22 6
6.439693 1.1807452 -1.7542756 4 0
7.5298591 1.3765575 -1.7672155 7 1
8.979516 1.635092 -1.7741421 9 2
11.121309 2.019079 -1.7902362 9 3
14.636452 2.6493397 -1.8263341 7 4
38.511112 6.9223065 -2.0506277 1 6
6.4629993 1.1384399 -1.7584167 3 0
7.5258503 1.321596 -1.7640662 7 1
9.005908 1.5766408 -1.777195 7 2
11.127012 1.9419733 -1.7889848 9 3
14.699572 2.5549188 -1.8319401 9 4
39.789375 6.872838 -2.1161523 0 6
6.4744086 1.0950656 -1.759452 3 0
7.5269856 1.2690427 -1.7622666 7 1
9.0863981 1.525431 -1.7909334 7 2
11.167574 1.8688091 -1.793365 9 3
14.753827 2.4610012 -1.8365711 7 4
29.077785 4.8137946 -1.5446436 35 6
6.4628263 1.0467504 -1.7542756 3 0
7.5395088 1.2170845 -1.7631663 7 1
9.1588535 1.4719318 -1.8031452 7 2
11.190101 1.7923667 -1.7949294 8 3
14.796131 2.3620152 -1.8397398 9 4
6.4776125 1.0027881 -1.7563461 3 0
7.547822 1.1644192 -1.7631663 7 1
9.1747274 1.408849 -1.8042899 4 2
11.235536 1.7192807 -1.800248 9 3
14.827959 2.261055 -1.8416896 9 4
31.174236 4.7146702 -1.652351 20 6
6.4729886 0.95584804 -1.7532402 3 0
7.5480552 1.1105624 -1.7613667 7 1
9.1260633 1.3362302 -1.7928416 4 2
11.264857 1.6433668 -1.8030639 8 3
14.866956 2.1609077 -1.8446145 9 4
6.5062871 0.91439897 -1.7604873 3 0
7.5479054 1.0567592 -1.7595671 6 1
9.0593348 1.2619224 -1.7779584 4 2
11.297578 1.5676696 -1.8065054 7 3
14.89741 2.0592387 -1.8465644 9 4
33.633327 4.6071992 -1.7791088 14 6
6.4722991 0.86358869 -1.7496167 20 0
7.5512352 1.0035256 -1.7586673 6 1
9.0969095 1.2040923 -1.7836826 4 2
11.358907 1.4974457 -1.81464 9 3
14.893711 1.9528621 -1.8443708 7 4
6.4703608 0.81854624 -1.7475463 18 0
7.5578909 0.95210272 -1.7586673 7 1
9.0914574 1.1388507 -1.7810113 4 2
11.406326 1.42276 -1.8205845 8 3
14.912566 1.8521796 -1.845102 9 4
6.5027733 0.77655864 -1.7547932 3 0
7.5759645 0.9006958 -1.7613667 6 1
9.0952864 1.0748918 -1.780248 4 2
11.400288 1.3412478 -1.8180816 8 3
14.972454 1.7535599 -1.8509518 9 4
38.211502 4.4279995 -2.0159812 3 6
6.5137954 0.73179191 -1.7563461 3 0
7.5859408 0.84822041 -1.7622666 7 1
9.0830564 1.0091962 -1.7764318 4 2
11.448641 1.2659627 -1.8243389 8 3
15.023794 1.6533327 -1.8558265 9 4
30.287811 3.3063688 5.9223299 4 13
40.538757 4.4110956 -2.1370866 0 6
6.5110607 0.68549019 -1.7542756 3 0
9.0937862 0.94617057 -1.777195 4 2
11.455235 1.1858073 -1.8240261 7 3
15.110006 1.5561416 -1.8650886 9 4
6.542604 0.64266157 -1.7615224 3 0
7.5621333 0.73880982 -1.7541683 42 1
9.1158028 0.88417727 -1.780248 4 2
11.43964 1.1035298 -1.8202716 6 3
15.185711 1.4568717 -1.873132 10 4
33.360218 3.1887288 5.3078218 2 12
6.5276918 0.59521884 -1.7563461 3 0
7.6195078 0.69074863 -1.7663157 6 1
9.1295748 0.82121891 -1.7817745 4 2
11.449032 1.023815 -1.8205845 5 3
15.339854 1.3636515 -1.8909249 9 4
45.759464 4.0114946 -2.4073496 0 6
6.5374637 0.55011529 -1.757899 2 0
7.5833635 0.63412744 -1.7568678 6 1
9.1585627 0.7594136 -1.7863539 4 2
11.4559 0.94386625 -1.8205845 4 3
15.51915 1.2704624 -1.9118865 9 4
6.5103269 0.50208503 -1.7496167 2 0
7.5856633 0.58102131 -1.7564179 5 1
9.1323204 0.69307482 -1.780248 7 2
11.446453 0.86267287 -1.8180816 4 3
15.636516 1.1702281 -1.925292 7 4
52.806461 3.8871393 -2.7749574 0 6
6.5386457 0.45952266 -1.7563461 3 0
7.5855536 0.5291062 -1.7555181 5 1
9.1231146 0.62995452 -1.7775766 3 2
11.456 0.78501469 -1.8187072 5 3
15.436165 1.0496258 -1.8996994 4 4
6.5339828 0.4133721 -1.7542756 3 0
7.5948977 0.4764986 -1.7568678 3 1
47.998672 2.9946072 2.520395 1 9
9.1410084 0.5670988 -1.780248 4 2
11.473032 0.70574534 -1.8205845 4 3
15.367823 0.93725097 -1.8904375 4 4
6.5405669 0.36796638 -1.7553109 3 0
7.5805278 0.42248863 -1.7528186 4 1
9.1408234 0.5030486 -1.7794847 4 2
11.455982 0.62444311 -1.817143 24 3
48.284107 2.614969 5.9372311 1 11
15.370027 0.82971907 -1.8899499 4 4
6.554553 0.32286587 -1.7584167 3 0
7.5813456 0.36946505 -1.7523687 3 1
9.1499958 0.43950391 -1.7806298 3 2
11.454144 0.54416889 -1.8162043 31 3
15.379411 0.72258222 -1.8904375 4 4
48.49218 2.261404 7.6887546 0 12
51.996159 2.3793159 -2.727855 0 6
6.5257649 0.27579346 -1.7501343 3 0
7.5856876 0.31660953 -1.7528186 4 1
9.1528416 0.37561855 -1.7806298 3 2
11.495165 0.46571541 -1.8221489 4 3
15.38408 0.61520344 -1.8904375 4 4
48.390331 1.9181935 7.6702957 2 12
6.5642138 0.23152526 -1.7599696 2 0
7.6071882 0.26432407 -1.7573177 3 1
9.1395426 0.31117603 -1.7775766 3 2
11.498136 0.38545272 -1.8221489 3 3
15.388 0.50778729 -1.8904375 4 4
6.5733948 0.18590808 -1.76204 2 0
7.6205363 0.21153024 -1.760017 2 1
9.1846695 0.24853078 -1.7859724 3 2
11.508445 0.30538076 -1.8234003 3 3
52.933079 1.3121574 -2.7749574 0 6
6.5320415 0.1391077 -1.7506521 2 0
7.6023445 0.15791899 -1.7555181 3 1
9.1822548 0.18432485 -1.7852092 3 2
11.532022 0.22545397 -1.8268418 3 3
15.401529 0.29303709 -1.8914124 3 4
6.5598965 0.093889132 -1.757899 2 0
7.5954676 0.10473331 -1.7537185 2 1
9.1793919 0.12016471 -1.7844458 3 2
11.505661 0.14459226 -1.8224617 3 3
15.436944 0.1859134 -1.895556 3 4
6.5391421 0.047937479 -1.752205 2 0
7.6116028 0.051814143 -1.7573177 3 1
9.1250362 0.055741765 -1.7737606 3 2
11.553799 0.064528853 -1.8299706 3 3
15.429925 0.078098483 -1.894581 3 4
6.5818181 0.0022993372 -1.763593 3 0
7.6293178 -0.0013315671 -1.7613667 3 1
9.2037334 -0.0080317734 -1.7890252 3 2
11.530263 -0.016099295 -1.8262162 2 3
15.424139 -0.029612258 -1.8938497 2 4
23.474253 -0.061455581 -2.0537379 31 5
6.5295153 -0.043306023 -1.7496167 2 0
7.6057377 -0.05442645 -1.7559679 3 1
9.1602631 -0.07194601 -1.7806298 3 2
11.518018 -0.096495375 -1.8243389 3 3
15.451346 -0.13753884 -1.8972621 2 4
6.5348487 -0.088968098 -1.7511697 2 0
7.6032243 -0.10749521 -1.7555181 3 1
9.2262802 -0.13688466 -1.7936047 3 2
11.536815 -0.17720668 -1.8274676 3 3
15.463904 -0.24562606 -1.8989682 2 4
6.5379314 -0.13466696 -1.752205 2 0
7.6178751 -0.16090187 -1.7591172 2 1
9.2133226 -0.20103543 -1.791315 3 2
11.49975 -0.2569496 -1.821836 2 3
15.469751 -0.35375917 -1.8999432 2 4
6.5117273 -0.17961423 -1.7454758 2 0
7.5970864 -0.21353282 -1.7546182 3 1
9.1881466 -0.26467279 -1.7867355 3 2
11.52137 -0.33792102 -1.8255905 2 3
15.458967 -0.46151191 -1.8989682 2 4
6.5257602 -0.22560389 -1.7496167 2 0
7.6090431 -0.26704332 -1.7577676 3 1
9.2096176 -0.32965389 -1.791315 3 2
11.510833 -0.41805968 -1.8243389 2 3
15.471238 -0.57000846 -1.9009181 2 4
6.5259562 -0.27123666 -1.7501343 2 0
7.597259 -0.31974778 -1.7555181 2 1
9.2816277 -0.39712974 -1.8058165 3 2
11.523422 -0.49909344 -1.8268418 2 3
15.462797 -0.68052822 -1.9004307 2 4
6.5084119 -0.31717581 -1.7459934 2 0
7.5908833 -0.37391219 -1.7546182 3 1
9.1727457 -0.45664629 -1.7852092 3 2
11.527447 -0.58193815 -1.8280934 2 3
15.449739 -0.78805691 -1.8994557 2 4
6.546545 -0.3648625 -1.7568637 2 0
7.5900335 -0.42700651 -1.7550682 3 1
9.1731625 -0.5224961 -1.7859724 3 2
11.503383 -0.66126645 -1.8249646 2 3
15.441879 -0.8957814 -1.899212 2 4
6.5824003 -0.41297609 -1.7672166 2 0
7.6004815 -0.48084536 -1.7582175 3 1
9.1733122 -0.58517319 -1.7867355 3 2
11.514385 -0.74056578 -1.8274676 3 3
15.468925 -1.005753 -1.9033556 3 4
6.5274014 -0.4541508 -1.7532402 3 0
7.5853686 -0.53175098 -1.7555181 4 1
9.16117 -0.64864552 -1.7852092 3 2
11.524697 -0.82205713 -1.8299706 3 3
15.426081 -1.1084615 -1.8989682 3 4
6.527925 -0.50000435 -1.7542756 3 0
7.5814714 -0.58469355 -1.7555181 4 1
9.129015 -0.71045363 -1.7798663 3 2
11.506862 -0.90156823 -1.8280934 4 3
15.441713 -1.218001 -1.9018931 3 4
6.5589271 -0.54846293 -1.763593 3 0
7.5772052 -0.63760751 -1.7555181 5 1
9.1903448 -0.77981204 -1.7928416 3 2
11.504224 -0.98221487 -1.8287191 3 3
15.43679 -1.3261137 -1.9023806 3 4
6.5510907 -0.59389025 -1.7625577 3 0
7.5764503 -0.69084436 -1.7564179 5 1
9.1358004 -0.83946222 -1.783301 4 2
11.493152 -1.0621412 -1.8280934 4 3
15.47064 -1.4378912 -1.9077429 3 4
6.4969053 -0.63359284 -1.7490991 3 0
7.5715728 -0.74239916 -1.7564179 5 1
9.1337824 -0.90201354 -1.7840642 4 2
11.501382 -1.1419088 -1.8305963 4 3
15.462471 -1.5433598 -1.9079866 2 4
6.4923239 -0.67893398 -1.7490991 3 0
7.5739574 -0.79605502 -1.7582175 5 1
9.1819286 -0.97154105 -1.7947495 4 2
11.485272 -1.2213393 -1.8293447 3 3
15.478952 -1.6542228 -1.911399 2 4
6.4989452 -0.72552806 -1.752205 3 0
7.5565958 -0.84760797 -1.7555181 5 1
9.133955 -1.0309947 -1.7867355 3 2
11.496095 -1.3037174 -1.8324735 3 3
15.506474 -1.7667395 -1.9162737 2 4
6.4975586 -0.77133662 -1.7532402 3 0
7.5504942 -0.90034187 -1.7555181 4 1
9.1384211 -1.0945439 -1.7890252 3 2
11.483031 -1.3814662 -1.8318479 3 3
15.491791 -1.8747127 -1.91603 2 4
6.4806571 -0.81410116 -1.7501343 4 0
7.5403237 -0.95122749 -1.7546182 5 1
9.1305571 -1.1583149 -1.7890252 3 2
11.508379 -1.4660919 -1.8374794 3 3
15.521644 -1.9883683 -1.9213922 2 4
6.4631758 -0.85892755 -1.7470287 4 0
7.5700245 -1.010057 -1.7631663 6 1
9.1222477 -1.2220294 -1.7890252 3 2
11.509339 -1.5499874 -1.8393567 3 3
15.515252 -2.0977445 -1.9223672 2 4
6.4685006 -0.90563488 -1.7501343 4 0
7.5454206 -1.0604398 -1.7591172 4 1
9.1132698 -1.2872751 -1.7890252 3 2
11.502149 -1.6308542 -1.8399823 3 3
15.531674 -2.2104843 -1.926267 2 4
6.4811339 -0.95358324 -1.7553109 4 0
7.5301228 -1.1119517 -1.7573177 4 1
9.1509066 -1.3561845 -1.7981842 3 2
11.498598 -1.710271 -1.8412338 2 3
15.519791 -2.319448 -1.9267545 2 4
6.4783111 -0.99826497 -1.7563461 3 0
7.5377865 -1.1655639 -1.7609169 5 1
9.1295757 -1.4182281 -1.7958944 3 2
11.505897 -1.7935464 -1.8443626 2 3
15.519334 -2.4274876 -1.9287045 2 4
6.4788127 -1.0446975 -1.7584167 3 0
7.5410075 -1.2200261 -1.7636162 3 1
9.1233273 -1.4825592 -1.7966576 3 2
11.485295 -1.8725569 -1.843111 2 3
15.554902 -2.5444255 -1.9352853 2 4
6.4789824 -1.0911857 -1.7604873 3 0
7.5380712 -1.2736161 -1.7649659 3 1
9.1243687 -1.5481859 -1.7989473 3 2
11.51089 -1.9593226 -1.8493685 2 3
15.546544 -2.6546266 -1.936504 3 4
6.4559841 -1.1337177 -1.7563461 3 0
7.5251579 -1.325534 -1.7640662 3 1
9.1368179 -1.6143563 -1.8035268 3 2
11.489507 -2.0362496 -1.8481169 2 3
15.56672 -2.7700522 -1.9413787 3 4
6.4747233 -1.1824944 -1.763593 3 0
7.5159607 -1.3767251 -1.7640662 3 1
9.1060171 -1.6745528 -1.7997105 3 2
11.521634 -2.1250103 -1.8556259 2 3
15.555313 -2.8773909 -1.9423537 3 4
6.4397392 -1.2226226 -1.7563461 2 0
7.519567 -1.4317138 -1.7672155 3 1
9.1095314 -1.7410319 -1.8027636 3 2
11.494878 -2.2031629 -1.8537486 2 3
15.546542 -2.9881647 -1.9438162 3 4
6.4651637 -1.2742747 -1.7656636 3 0
7.5304174 -1.4883313 -1.7721643 3 1
9.1164122 -1.8084054 -1.8065797 3 2
11.494716 -2.2864411 -1.8562515 3 3
15.587598 -3.1090512 -1.9516157 3 4
6.4296117 -1.3139635 -1.7584167 3 0
7.5026622 -1.5373464 -1.7681153 2 1
9.0846615 -1.8664654 -1.8027636 3 2
11.496299 -2.3682163 -1.8590674 3 3
15.573289 -3.2194042 -1.9525908 3 4
6.4488697 -1.3636928 -1.7661812 2 0
7.5339642 -1.597271 -1.7780131 2 1
9.0714092 -1.9298422 -1.8027636 3 2
11.479486 -2.4484177 -1.8590674 3 3
15.543249 -3.3236723 -1.9516157 3 4
6.4448543 -1.4099195 -1.7677342 3 0
7.5074019 -1.646489 -1.7744139 2 1
9.1075678 -2.0040951 -1.8126855 3 2
11.473687 -2.5310524 -1.8609446 4 3
15.624335 -3.4552495 -1.9647778 3 4
6.4405074 -1.4561564 -1.7692871 2 0
7.488122 -1.6971369 -1.7726144 2 1
9.0474081 -2.0571814 -1.8035268 3 2
11.474997 -2.6154814 -1.8640733 3 3
15.603702 -3.5651271 -1.9652653 3 4
6.4188967 -1.4984486 -1.7661812 2 0
7.4836812 -1.751148 -1.7744139 2 1
9.0328264 -2.1202936 -1.8035268 3 2
11.487225 -2.7027664 -1.8690792 4 3
15.626735 -3.685365 -1.9713587 2 4
6.3988881 -1.5409626 -1.763593 2 0
7.4485416 -1.7978641 -1.7690151 3 1
9.0826807 -2.1990097 -1.8165017 3 2
11.443121 -2.77684 -1.8650119 4 3
15.616056 -3.7981229 -1.9733087 2 4
6.3842249 -1.5846666 -1.7625577 2 0
7.4887595 -1.8629931 -1.7816124 2 1
9.0518675 -2.2585623 -1.8134488 3 2
11.450284 -2.8633687 -1.8693922 4 3
15.635374 -3.9186323 -1.9791584 2 4
6.3842359 -1.6320689 -1.7656636 2 0
7.4566932 -1.9103922 -1.7771133 2 1
9.0092592 -2.3148608 -1.8081062 3 2
11.462535 -2.9516103 -1.8747108 3 3
15.619167 -4.0306673 -1.9806207 2 4
6.3895011 -1.6810228 -1.7703223 2 0
7.4507122 -1.9643899 -1.7789129 2 1
9.0232477 -2.3857296 -1.814212 3 2
11.432103 -3.0290318 -1.8731465 3 3
15.611753 -4.1452141 -1.9833018 2 4
43.683628 -11.655975 -2.3694582 0 6
6.394393 -1.7301296 -1.774981 2 0
7.4311738 -2.0148277 -1.7775632 3 1
9.0101604 -2.4496951 -1.8149751 3 2
11.399242 -3.105653 -1.8712693 4 3
15.582433 -4.2541027 -1.9833018 2 4
42.980984 -11.790524 -2.3357539 0 6
6.3598237 -1.7685176 -1.7687694 2 0
7.4338222 -2.0713654 -1.7816124 3 1
8.9947309 -2.5130663 -1.815357 4 2
11.40011 -3.1915488 -1.8750238 3 3
15.613517 -4.3799419 -1.9911015 2 4
6.3528948 -1.8144658 -1.7703223 2 0
7.4173059 -2.1226759 -1.7811624 3 1
8.9977255 -2.5817559 -1.8195547 3 2
11.406029 -3.2792451 -1.8797168 4 3
15.620708 -4.4998264 -1.9959762 2 4
42.23661 -12.222921 -2.3043525 0 6
6.3196807 -1.8527942 -1.7646283 2 0
7.3929582 -2.1716604 -1.7789129 5 1
9.0270281 -2.6567988 -1.8290951 4 2
66.123207 -19.486202 6.031003 44 10
11.383443 -3.3568072 -1.8797168 4 3
15.594625 -4.6104574 -1.9967074 2 4
42.075844 -12.487399 -2.3001654 0 6
6.3235736 -1.9007728 -1.7692871 2 0
7.3929324 -2.2264276 -1.7825122 4 1
9.000742 -2.717484 -1.8275685 4 2
11.393765 -3.446491 -1.8853484 3 3
15.57048 -4.718802 -1.9976823 2 4
33.408592 -10.169417 -1.8301885 6 6
6.3230734 -1.9488558 -1.7729106 2 0
7.3809333 -2.279135 -1.783412 5 1
8.9627962 -2.7744489 -1.8237525 4 2
11.395842 -3.5341415 -1.8897287 3 3
15.592133 -4.84447 -2.004751 3 4
6.3037872 -1.9912056 -1.7713577 2 0
7.3852787 -2.337075 -1.7883608 6 1
8.9207535 -2.8298297 -1.8191731 4 2
11.359595 -3.6100233 -1.8878514 3 3
15.583547 -4.964355 -2.0081632 3 4
32.643173 -10.436601 -1.7960654 6 6
6.3114319 -2.0434041 -1.7775693 2 0
7.3535371 -2.3850529 -1.7847617 6 1
8.9194517 -2.8981056 -1.8229893 4 2
11.322202 -3.6875472 -1.8859742 2 3
15.586255 -5.0853419 -2.0130382 3 4
6.3226848 -2.095926 -1.7848163 2 0
7.3404059 -2.4375598 -1.7856615 7 1
8.8798571 -2.955657 -1.8191731 4 2
11.303679 -3.7690001 -1.8872255 3 3
15.5692 -5.2003183 -2.0154753 3 4
32.670368 -10.956719 -1.8059046 6 6
6.2639918 -2.1251197 -1.772393 2 0
7.3066044 -2.4831026 -1.7816124 5 1
8.8539581 -3.014133 -1.8180283 3 2
11.300198 -3.8535049 -1.89098 2 3
15.568207 -5.3210826 -2.0201063 2 4
32.341877 -11.092022 -1.7918787 7 6
6.2694583 -2.1746716 -1.7780869 3 0
7.3153038 -2.5417335 -1.7879109 5 1
8.8456783 -3.0803907 -1.8206996 4 2
11.299131 -3.9414089 -1.8953601 3 3
15.659057 -5.4714537 -2.0366805 2 4
6.2650485 -2.2222624 -1.7811928 3 0
7.2918725 -2.5907841 -1.7865613 6 1
8.8115578 -3.1359222 -1.8180283 3 2
11.312977 -4.0328197 -1.9022434 2 3
15.674689 -5.6000085 -2.0437491 2 4
31.24581 -11.199925 -1.7395427 8 6
6.2388792 -2.2609062 -1.7780869 3 0
7.2850599 -2.6443474 -1.7892607 6 1
8.8005209 -3.2013884 -1.820318 3 2
11.295683 -4.1157584 -1.9041206 2 3
15.755555 -5.7501287 -2.0593483 2 4
31.140602 -11.408169 -1.7380774 8 6
6.2338133 -2.3084316 -1.7811928 3 0
7.2627668 -2.6937866 -1.7883608 7 1
8.8037195 -3.272325 -1.8256606 3 2
11.255568 -4.1903806 -1.9022434 2 3
15.839647 -5.9064517 -2.0756788 2 4
6.2139316 -2.350528 -1.7801574 3 0
7.2474284 -2.7458053 -1.7892607 7 1
8.7806606 -3.3337061 -1.8256606 3 2
11.244503 -4.275878 -1.905372 2 3
15.862956 -6.0416179 -2.0842097 3 4
26.392637 -10.088925 -1.4807936 11 6
6.1793494 -2.3868909 -1.774981 3 0
7.2135425 -2.790709 -1.7856615 7 1
8.7974443 -3.4105375 -1.8340561 3 2
11.236475 -4.3628545 -1.9091264 3 3
15.949899 -6.2025766 -2.1012714 3 4
26.183878 -10.219198 -1.473048 11 6
6.1805072 -2.4370589 -1.7801574 3 0
7.1830096 -2.8367062 -1.7829621 6 1
8.7405605 -3.458868 -1.8271869 3 2
11.205743 -4.4411926 -1.9091264 3 3
15.998462 -6.3503938 -2.1134584 3 4
25.388269 -10.113485 -1.4322259 11 6
6.145421 -2.4729357 -1.774981 4 0
7.1702604 -2.8896971 -1.7847617 7 1
8.7568674 -3.5344489 -1.8355827 3 2
11.164265 -4.5129223 -1.9072492 3 3
16.042053 -6.4977007 -2.1251578 3 4
25.51128 -10.364244 -1.4431118 11 6
6.1498933 -2.523509 -1.7811928 4 0
7.1648445 -2.9443619 -1.7883608 7 1
8.7828093 -3.6164267 -1.8462679 3 2
11.106921 -4.5802102 -1.9028691 3 3
16.113718 -6.6580515 -2.1407571 3 4
26.397753 -10.939706 -1.4975412 11 6
6.1459336 -2.5734205 -1.7853339 4 0
7.1471863 -2.9970639 -1.7892607 6 1
8.7501078 -3.6746128 -1.8447415 3 2
11.113918 -4.6764264 -1.9097521 3 3
25.627113 -10.835859 -1.4581846 11 6
6.1029439 -2.6056442 -1.7780869 4 0
7.1260891 -3.0468874 -1.7892607 6 1
8.7163706 -3.7340403 -1.8432151 3 2
11.091891 -4.7585745 -1.9116293 3 3
16.228933 -6.9725003 -2.168787 5 4
25.202362 -10.864282 -1.4382969 11 6
6.095233 -2.6528127 -1.7811928 4 0
7.1296539 -3.1074626 -1.7955593 7 1
8.6799555 -3.7885718 -1.8409253 3 2
11.088204 -4.846622 -1.9166353 4 3
16.318056 -7.1461482 -2.1873109 5 4
23.887987 -10.491065 -1.3673294 11 6
6.077035 -2.6942401 -1.7811928 5 0
7.0923076 -3.1488035 -1.7915101 5 1
8.6640587 -3.853864 -1.8432151 3 2
11.028837 -4.9126611 -1.9122552 4 3
16.417696 -7.3233666 -2.2072978 5 4
23.967297 -10.72611 -1.3761218 11 6
6.0545564 -2.7350092 -1.7801574 4 0
7.0790296 -3.2022562 -1.7937597 6 1
8.6662378 -3.92571 -1.8493209 3 2
11.020327 -4.999042 -1.9166353 3 3
16.675201 -7.5782475 -2.2489769 8 4
23.512072 -10.715068 -1.3541406 22 6
6.0528646 -2.7852867 -1.7853339 4 0
7.063581 -3.2548606 -1.7955593 6 1
8.6521845 -3.9942057 -1.8523737 3 2
11.02372 -5.0960083 -1.9235184 3 3
16.600273 -7.6844707 -2.246052 9 4
23.456532 -10.893136 -1.3553967 11 6
6.0367708 -2.8291149 -1.7863692 3 0
7.04245 -3.3049221 -1.7960092 5 1
8.6240892 -4.0545115 -1.8523737 3 2
11.062938 -5.2081823 -1.9366589 3 3
16.609066 -7.8298006 -2.2545829 11 4
23.105473 -10.926841 -1.3394866 22 6
6.0133858 -2.8695264 -1.7853339 5 0
7.0192056 -3.3540063 -1.7960092 4 1
8.6203651 -4.1264873 -1.8577164 3 2
11.058372 -5.3006577 -1.9422905 2 3
16.656008 -7.994524 -2.268476 15 4
23.291357 -11.214379 -1.3547688 11 6
5.9897313 -2.9097493 -1.7842987 4 0
6.999125 -3.4046326 -1.796909 5 1
8.5426569 -4.1609969 -1.8470311 3 2
11.071749 -5.4000525 -1.9510508 3 3
16.71929 -8.1689959 -2.2848067 11 4
22.809134 -11.174078 -1.3311129 10 6
5.9801779 -2.9555876 -1.7874043 4 0
6.9792809 -3.4539239 -1.7978089 4 1
8.5978298 -4.2623901 -1.8653487 3 2
11.040858 -5.4807296 -1.9523023 2 3
16.857059 -8.3789206 -2.3113742 9 4
22.734142 -11.334825 -1.3313222 10 6
5.9732056 -3.0042093 -1.7915455 4 0
6.972403 -3.5113287 -1.8023077 3 1
8.5187845 -4.2975502 -1.8546635 3 2
11.055223 -5.5843945 -1.9616885 2 3
17.437628 -8.8198423 -2.399364 11 4
22.070238 -11.196872 -1.2969898 10 6
5.9555259 -3.0475965 -1.7925807 3 0
6.940783 -3.556365 -1.8005083 4 1
8.4955616 -4.3605037 -1.8561901 3 2
11.089758 -5.6993613 -1.974829 3 3
17.419956 -8.9680204 -2.4057012 11 4
21.822927 -11.263652 -1.287046 21 6
5.9335656 -3.0901351 -1.7925807 4 0
6.9237957 -3.6104455 -1.8027576 3 1
8.5327845 -4.4551449 -1.8710731 4 2
11.094202 -5.8023739 -1.9829636 3 3
17.420229 -9.1225672 -2.4144754 11 4
22.040592 -11.576477 -1.3047354 21 6
5.9152617 -3.1332922 -1.7936161 3 0
6.9139161 -3.6669121 -1.8068069 4 1
8.4625425 -4.4958253 -1.8626775 4 2
11.081327 -5.894527 -1.9879694 3 3
17.620682 -9.3848686 -2.4512801 10 4
21.673847 -11.577618 -1.2877786 10 6
5.8830385 -3.1690147 -1.7905102 3 0
6.8744264 -3.7076902 -1.8032078 4 1
8.4662933 -4.5719805 -1.8703098 4 2
11.072226 -5.9867301 -1.9936011 3 3
17.722307 -9.5984116 -2.4746792 10 4
21.580498 -11.717255 -1.2869413 21 6
5.8545542 -3.2052743 -1.7884396 3 0
6.845612 -3.7525229 -1.8023077 4 1
8.4444942 -4.6366444 -1.8725995 4 2
11.064782 -6.0829148 -1.9998584 4 3
18.070457 -9.9466419 -2.5326889 11 4
21.515656 -11.877279 -1.2879879 10 6
5.8590426 -3.2611008 -1.7967219 3 0
6.8447819 -3.8144522 -1.8090565 3 1
8.3724918 -4.6734757 -1.8638223 3 2
11.084123 -6.1947064 -2.0111217 4 3
18.295071 -10.237345 -2.5741246 11 4
21.20927 -11.902087 -1.27459 21 6
5.8361325 -3.3019252 -1.7967219 3 0
6.8213763 -3.8640652 -1.8099562 3 1
8.3464899 -4.7356877 -1.8653487 3 2
11.097286 -6.3041353 -2.0214465 4 3
18.388805 -10.459034 -2.5975235 12 4
21.410181 -12.212151 -1.2917562 10 6
5.8028908 -3.3368104 -1.7936161 3 0
6.8195667 -3.9261775 -1.8167046 4 1
8.3506441 -4.8154182 -1.8737445 3 2
11.095773 -6.4061475 -2.0292683 4 3
19.076687 -11.027252 -2.7054996 7 4
21.566315 -12.501555 -1.3064103 10 6
5.796134 -3.3869872 -1.7987925 3 0
6.7701244 -3.9608984 -1.810856 3 1
8.3523922 -4.8944426 -1.8817585 4 2
11.105299 -6.5154405 -2.0392799 18 3
19.380936 -11.384372 -2.7598534 14 4
21.464745 -12.643702 -1.3055729 10 6
5.7740083 -3.4283552 -1.79931 2 0
6.7540331 -4.0150361 -1.8140053 5 1
8.3037004 -4.9421453 -1.8783239 3 2
11.042027 -6.5797572 -2.0358384 31 3
19.507238 -11.642496 -2.7893457 10 4
21.57015 -12.904354 -1.3172961 10 6
5.7687368 -3.4785514 -1.8050041 3 0
6.7415624 -4.0699806 -1.8180546 3 1
8.2857962 -5.0101533 -1.88214 3 2
11.061728 -6.6965814 -2.0480404 4 3
19.320591 -11.710186 -2.7739902 14 4
5.7410164 -3.516721 -1.8039688 3 0
6.7212906 -4.1220398 -1.8203038 5 1
8.2773829 -5.0843172 -1.8882459 3 2
11.093793 -6.8222785 -2.0627451 4 3
15.150996 -9.3282471 -2.1846299 12 4
5.7212467 -3.559777 -1.8055217 2 0
6.6840796 -4.1637111 -1.8180546 3 1
8.2450171 -5.1440587 -1.8890091 3 2
11.10956 -6.9393277 -2.0746341 4 3
14.96769 -9.360117 -2.1675684 21 4
21.697891 -13.605785 -1.3422081 11 6
5.7158527 -3.6120157 -1.8117335 2 0
6.6680231 -4.2186079 -1.8216537 3 1
8.245388 -5.2246118 -1.8974047 3 2
11.119225 -7.0537524 -2.0855846 6 3
14.612082 -9.2802658 -2.1254015 22 4
5.6644831 -3.6351373 -1.8034512 2 0
6.6433282 -4.2682161 -1.8230033 5 1
8.2285252 -5.2947955 -1.9019842 3 2
11.20588 -7.2189293 -2.1112397 4 3
14.838878 -9.5703363 -2.1680558 21 4
15.663268 -10.117517 -1.6313812 35 5
5.6567707 -3.6861956 -1.8091452 2 0
6.6182652 -4.3176856 -1.8243531 7 1
8.1814985 -5.3456693 -1.8996944 3 2
11.289113 -7.3845744 -2.1365821 8 3
14.261876 -9.3398218 -2.0932281 23 4
15.425653 -10.11735 -1.61395 34 5
5.6566772 -3.7426531 -1.8174274 3 0
6.5977087 -4.3702412 -1.8270525 7 1
8.196332 -5.4373856 -1.9119062 3 2
11.245511 -7.4686704 -2.1381464 9 3
14.060777 -9.3490334 -2.0732415 22 4
14.165363 -9.443552 -0.89222342 17 6
5.6336184 -3.7842069 -1.8184627 3 0
6.5638046 -4.4140196 -1.8261526 6 1
8.1614294 -5.4966669 -1.9126694 3 2
11.206201 -7.5558314 -2.1406496 9 3
13.259703 -8.9505186 -1.9642901 3 4
14.952768 -10.108567 -1.5790876 33 5
14.312465 -9.6866245 -0.90572619 27 6
5.6032033 -3.8222458 -1.8174274 3 0
6.538487 -4.4652719 -1.8279523 6 1
8.1439257 -5.567915 -1.9176304 4 2
11.212152 -7.6771202 -2.1522255 8 3
13.354137 -9.1540422 -1.9879328 20 4
14.251011 -9.7798061 -1.5121521 31 5
14.392648 -9.8880939 -0.91514659 27 6
5.5691137 -3.8547995 -1.8148392 2 0
6.5271635 -4.5229931 -1.8333511 6 1
8.1268082 -5.6377673 -1.9225914 3 2
11.243734 -7.8087797 -2.1681819 9 3
13.413743 -9.3262663 -2.0059695 22 4
14.321457 -9.9722176 -1.5267943 32 5
13.779404 -9.6054955 -0.88029093 17 6
5.5544934 -3.8994203 -1.8184627 3 0
6.5033998 -4.5706654 -1.8351506 6 1
8.0882454 -5.6929531 -1.9225914 3 2
11.277518 -7.9465742 -2.1850767 9 3
13.134215 -9.2686024 -1.9737961 23 4
14.822791 -10.471834 -1.5878032 34 5
14.727773 -10.420128 -0.94550145 27 6
5.5107164 -3.9278541 -1.8132863 3 0
6.4673538 -4.6148219 -1.8342509 6 1
8.0648708 -5.7632422 -1.9267894 4 2
11.311942 -8.0925837 -2.2029104 8 3
12.51729 -8.9681101 -1.8906811 2 4
14.349492 -10.307359 -0.92592788 18 6
5.4918585 -3.9739821 -1.8163921 3 0
6.4341655 -4.6609826 -1.8342509 6 1
8.1012897 -5.877295 -1.9454886 3 2
11.738033 -8.5250511 -2.2977097 9 3
13.045225 -9.484869 -1.980377 26 4
14.070596 -10.256693 -0.91252983 18 6
5.4764385 -4.0213728 -1.8205333 3 0
6.4203105 -4.7196383 -1.8396497 6 1
8.0521574 -5.9278898 -1.9435806 4 2
11.795904 -8.693512 -2.3208621 10 3
13.213505 -9.7489576 -2.0162065 22 4
12.83701 -9.4850264 -1.3964093 28 5
13.346726 -9.8724527 -0.87003303 17 6
14.577582 -10.794721 -0.31662154 34 7
5.4575257 -4.066433 -1.8236392 3 0
6.3747091 -4.755024 -1.8360505 6 1
8.0278778 -5.9968834 -1.9477782 3 2
11.855154 -8.8655624 -2.34464 9 3
12.604824 -9.4364777 -1.9333354 20 4
12.692435 -9.5124397 -1.3876938 27 5
13.109754 -9.8395042 -0.85904253 26 6
5.4105115 -4.0904536 -1.8174274 3 0
6.3366961 -4.7958832 -1.8347007 5 1
8.0103455 -6.0691719 -1.9535027 4 2
11.805551 -8.9544077 -2.3468301 13 3
12.565514 -9.5446568 -1.937479 15 4
12.673294 -9.6369972 -1.392923 28 5
13.141005 -10.003515 -0.8655321 26 6
5.4024734 -4.142468 -1.8241568 2 0
6.3255463 -4.8555164 -1.8409994 5 1
7.9802313 -6.1345181 -1.9565556 4 2
11.91965 -9.172739 -2.3821843 12 3
12.316181 -9.4915857 -1.9092052 19 4
12.83602 -9.9029217 -1.4183725 28 5
13.115107 -10.129195 -0.86846292 17 6
5.3711681 -4.1798348 -1.8236392 3 0
6.3060126 -4.9126329 -1.8454984 4 1
7.9743652 -6.2190576 -1.9657143 4 2
11.539227 -9.012188 -2.3189847 24 3
12.287148 -9.6066818 -1.915055 19 4
12.631644 -9.8866863 -1.4033818 28 5
13.08473 -10.256052 -0.87128907 17 6
5.3509541 -4.2244124 -1.8267449 3 0
6.2807355 -4.9637871 -1.8481979 4 1
7.9635262 -6.3027663 -1.97411 4 2
11.561187 -9.1599989 -2.3361926 19 3
12.334873 -9.7835121 -1.9330916 5 4
12.317193 -9.7835054 -1.3761891 27 5
12.815837 -10.190524 -0.85810035 17 6
5.3153 -4.2568359 -1.8246742 4 0
6.2520118 -5.0123892 -1.8499974 4 1
7.9254546 -6.3631239 -1.9756364 27 2
11.573941 -9.3023615 -2.351836 19 3
12.402374 -9.9788942 -1.9545406 25 4
12.450278 -10.031765 -1.3988497 28 5
12.371284 -9.9788036 -0.83297914 17 6
13.646017 -11.018815 -0.30615014 32 7
5.2854528 -4.293839 -1.8246742 4 0
6.2365203 -5.071898 -1.8558462 3 1
7.8686604 -6.40838 -1.9725834 25 2
11.419918 -9.3105392 -2.3336897 18 3
11.500403 -9.3861866 -1.822678 20 4
12.329248 -10.073419 -1.392923 28 5
12.383246 -10.131961 -0.83852679 26 6
13.414059 -10.987102 -0.30265963 32 7
5.2583294 -4.3330908 -1.8257096 3 0
6.2280183 -5.1376348 -1.8639444 3 1
7.8657312 -6.4955449 -1.9828871 4 2
11.353234 -9.3855371 -2.3330638 17 3
11.46212 -9.4890308 -1.8270653 20 4
12.040788 -9.9787159 -1.3681709 27 5
11.914337 -9.88445 -0.81131208 26 6
13.435469 -11.162266 -0.30489355 32 7
5.2287135 -4.3687825 -1.8257096 4 0
13.182494 -11.022275 0.29993707 27 8
6.2033677 -5.1886601 -1.8670937 3 1
7.8758783 -6.5969434 -1.997007 4 2
11.311653 -9.4848776 -2.3380699 19 3
11.266507 -9.4570723 -1.8061038 20 4
11.577344 -9.7317743 -1.3231984 25 5
11.936732 -10.044542 -0.81759238 26 6
5.1980867 -4.4051795 -1.8257096 4 0
13.07472 -11.088168 0.29923895 27 8
6.1699657 -5.2343621 -1.8679937 3 1
7.8430972 -6.6632051 -2.0004416 4 2
11.022454 -9.3742104 -2.2917652 17 3
11.08987 -9.4415579 -1.7883109 19 4
11.6668 -9.9467955 -1.3413268 26 5
11.49412 -9.809968 -0.79194778 17 6
5.1584153 -4.4338055 -1.8226038 4 0
13.00912 -11.18961 0.2995182 27 8
6.1554303 -5.2963748 -1.8747422 3 1
7.8261342 -6.7434292 -2.0080738 4 2
10.6157 -9.1567612 -2.2204311 8 3
10.882453 -9.3967962 -1.7653995 12 4
11.64706 -10.06767 -1.3469048 26 5
11.469146 -9.9278793 -0.79498327 26 6
11.822496 -10.244579 -0.27306035 27 7
5.1331611 -4.4747872 -1.8246742 4 0
13.008011 -11.343615 0.30126345 27 8
6.128583 -5.3481874 -1.8778914 4 1
7.7889237 -6.8042932 -2.0103636 4 2
10.60071 -9.2704182 -2.2304428 13 3
10.988326 -9.6229401 -1.7934294 20 4
11.40881 -10.012305 -0.7955066 17 6
5.1083741 -4.5147414 -1.8267449 4 0
6.1212277 -5.4156046 -1.8868895 5 1
7.7838464 -6.8962598 -2.0214307 4 2
10.977615 -9.7361088 -2.3239908 28 3
10.547006 -9.364069 -1.7317636 19 4
11.258187 -10.009549 -1.3179691 25 5
11.316256 -10.071791 -0.79393655 26 6
11.626372 -10.358721 -0.27180377 27 7
5.0652223 -4.5399785 -1.8226038 4 0
11.791434 -10.576136 0.27648103 24 8
6.0919743 -5.4660149 -1.889589 4 1
7.7866254 -6.9963574 -2.0347872 6 2
10.305748 -9.2695704 -2.1954014 28 3
10.552185 -9.5012302 -1.7434629 14 4
11.188032 -10.087903 -1.3179691 25 5
10.940246 -9.8748703 -0.77237409 17 6
5.0534172 -4.5934219 -1.8298507 3 0
12.471742 -11.344434 0.2942825 27 8
6.0536656 -5.5084119 -1.889589 4 1
7.7419448 -7.0545144 -2.0359321 9 2
10.293324 -9.3892164 -2.2066648 14 3
10.550097 -9.6335621 -1.7541875 19 4
11.087928 -10.138873 -1.3144829 25 5
10.993319 -10.062935 -0.78106189 17 6
5.0382719 -4.6443009 -1.8360624 4 0
6.0394087 -5.5730057 -1.8972371 6 1
7.7040429 -7.1190505 -2.038985 10 2
10.117316 -9.358902 -2.1828868 19 3
10.590368 -9.8067894 -1.7722242 14 4
10.853251 -10.064304 -1.29496 24 5
11.162861 -10.362283 -0.79822809 17 6
4.9859681 -4.660892 -1.8288155 5 0
6.0088916 -5.6230216 -1.8999366 6 1
7.6426935 -7.1619205 -2.0359321 10 2
10.256312 -9.6212168 -2.2273142 17 3
10.573741 -9.9294043 -1.7809987 18 4
10.936578 -10.284508 -1.313437 25 5
10.949183 -10.307169 -0.78807491 17 6
11.093934 -10.454393 -0.2660794 26 7
4.9589162 -4.7009029 -1.830886 4 0
12.158889 -11.53432 0.29253724 26 8
5.9793849 -5.6742239 -1.9030858 5 1
7.6081629 -7.2299786 -2.0401299 10 2
10.360641 -9.8559656 -2.2648585 17 3
10.212341 -9.7250805 -1.7315198 10 4
10.224321 -9.7501087 -1.2360427 22 5
10.917408 -10.421971 -0.79100567 17 6
4.9371185 -4.7461181 -1.8350271 3 0
5.9634972 -5.738801 -1.9107343 6 1
7.6112232 -7.3346848 -2.0546315 10 2
9.9702806 -9.618104 -2.1941502 8 3
10.231304 -9.8802567 -1.7463878 19 4
10.160583 -9.8222466 -1.2363913 22 5
10.963491 -10.613235 -0.79969347 17 6
11.541407 -11.1844 -0.28053001 28 7
4.9046979 -4.779614 -1.8350271 4 0
11.374498 -11.092159 0.27731875 25 8
5.9089522 -5.7642918 -1.9057853 5 1
7.7324543 -7.5536938 -2.1011887 10 2
9.7845335 -9.5683517 -2.1675563 12 3
10.213464 -9.998271 -1.7549187 21 4
10.153256 -9.949748 -1.2437124 22 5
10.72421 -10.523944 -0.78744686 17 6
4.8830462 -4.8237495 -1.8391682 3 0
11.588846 -11.456115 0.28443933 25 8
5.8834357 -5.8180814 -1.9102844 5 1
7.757585 -7.6821303 -2.1221778 10 2
10.009576 -9.9226046 -2.2323201 13 3
9.9602699 -9.8875227 -1.7232326 20 4
10.120292 -10.056902 -1.2482445 22 5
10.459756 -10.405131 -0.77321154 17 6
4.8429451 -4.8530984 -1.8370978 3 0
5.8677926 -5.8862557 -1.9188325 7 1
7.8035078 -7.8362632 -2.1496544 9 2
9.936923 -9.9925756 -2.2320073 9 3
9.7007351 -9.7652864 -1.6900842 25 4
10.352972 -10.432784 -1.2858958 24 5
10.579039 -10.675489 -0.78765625 26 6
11.075921 -11.188611 -0.27480558 27 7
4.8116565 -4.889544 -1.8381329 3 0
11.891235 -12.092161 0.29602769 27 8
5.8429499 -5.9437532 -1.9242314 7 1
7.4707918 -7.6102991 -2.0729489 12 2
9.7272282 -9.9192553 -2.2004075 17 3
9.5739794 -9.7732134 -1.6798471 9 4
10.09693 -10.321449 -1.2632353 23 5
10.336742 -10.577669 -0.77509558 26 6
4.7962389 -4.9424253 -1.8453798 3 0
11.093764 -11.439882 0.27815646 25 8
5.8067379 -5.989996 -1.9260309 7 1
7.555397 -7.8047385 -2.1114926 10 2
9.5176754 -9.8420811 -2.1684947 11 3
9.935832 -10.28526 -1.7558937 16 4
9.9609947 -10.325726 -1.255217 22 5
10.246014 -10.632318 -0.77383947 26 6
4.7669601 -4.9813714 -1.8474505 3 0
11.240286 -11.75407 0.28388086 25 8
5.7674713 -6.033205 -1.9269307 6 1
7.8952165 -8.2705374 -2.2225432 10 2
9.5332546 -9.9969206 -2.1878927 24 3
9.8569384 -10.347188 -1.7546749 19 4
9.9234447 -10.427929 -1.2594005 23 5
10.149525 -10.680424 -0.77216476 26 6
10.150798 -10.692969 -0.25735319 24 7
4.7373714 -5.0201502 -1.849521 3 0
5.7439265 -6.0931754 -1.9332294 6 1
8.0150566 -8.5113201 -2.2725353 10 2
9.5218344 -10.122008 -2.2010331 17 3
9.6798086 -10.304343 -1.7359071 21 4
10.052182 -10.711977 -1.2851986 23 5
10.337486 -11.027574 -0.79215711 17 6
4.7162538 -5.0664201 -1.8546973 3 0
10.477877 -11.263704 0.26852274 23 8
5.7208972 -6.1521101 -1.9395281 7 1
7.980823 -8.5944023 -2.2797861 10 2
8.8826733 -9.5756378 -2.0686896 8 3
9.6103334 -10.374583 -1.7363946 20 4
9.8093567 -10.600561 -1.263584 23 5
10.063665 -10.886811 -0.77697968 26 6
4.6824913 -5.1028857 -1.8557327 3 0
10.404394 -11.342473 0.26866236 23 8
5.6912122 -6.2086916 -1.9444768 10 1
7.9604034 -8.693347 -2.2912345 12 2
8.5446548 -9.3444805 -2.0054901 21 3
8.8615732 -9.7012596 -1.6133065 3 4
10.240066 -11.222167 -1.329125 25 5
9.6209507 -10.558471 -0.7486136 17 6
10.732283 -11.790489 -0.27829608 28 7
4.668787 -5.1598029 -1.8645325 2 0
10.473173 -11.58276 0.27257168 24 8
7.9032545 -8.7559166 -2.2927611 12 2
8.3045988 -9.2102528 -1.9641914 34 3
9.1825857 -10.219796 -0.72003812 26 6
10.916852 -12.16276 -0.28527704 29 7
4.6429405 -5.2038031 -1.8686736 2 0
10.924368 -12.252626 0.28653362 26 8
5.5974879 -6.2802749 -1.9422275 48 1
7.8954496 -8.8710051 -2.3084073 16 2
8.2335339 -9.260623 -1.9626271 16 3
8.4616146 -9.5271959 -1.5645587 21 4
9.5330811 -10.748699 -1.2569602 22 5
9.1216116 -10.295612 -0.72087556 26 6
4.6026702 -5.2317386 -1.8671206 3 0
5.5805221 -6.3499384 -1.9516754 9 1
7.8488669 -8.9436169 -2.3129869 18 2
8.4473534 -9.6357527 -2.0295811 17 3
8.1359491 -9.2903471 -1.5162985 19 4
8.5239124 -9.7573853 -0.67900676 26 6
4.5824904 -5.2827148 -1.87385 2 0
11.045231 -12.737479 0.2942825 27 8
5.5666828 -6.424089 -1.9624729 8 1
7.8147907 -9.0280066 -2.3210008 12 2
8.2484884 -9.5391216 -1.9973555 18 3
8.1591139 -9.4490891 -1.5328728 14 4
8.8712482 -10.284695 -1.1882814 20 5
8.9618425 -10.400731 -0.71951485 35 6
10.315415 -11.988544 -0.27606216 27 7
4.5250754 -5.2888298 -1.8650501 3 0
10.688342 -12.50118 0.28709209 26 8
5.5291576 -6.4692378 -1.9647225 7 1
7.7885332 -9.1256495 -2.3320675 13 2
8.1599045 -9.5709209 -1.9920367 17 3
8.1641102 -9.5860157 -1.5460347 19 4
8.4221926 -9.9135571 -0.68172824 26 6
4.5303941 -5.3704967 -1.8826498 3 0
5.496418 -6.522583 -1.9692216 7 1
7.7334847 -9.1903172 -2.334739 12 2
7.8488431 -9.337327 -1.9319658 17 3
8.1608152 -9.7187881 -1.5582215 19 4
8.2172861 -9.7999249 -1.1189054 17 5
9.2017775 -10.985706 -0.75102103 17 6
4.4927912 -5.4019938 -1.8826498 3 0
5.4632001 -6.5757847 -1.9737206 7 1
7.7180238 -9.303009 -2.349622 13 2
7.7305264 -9.3280153 -1.9188254 16 3
7.9345312 -9.5843868 -1.5277542 20 4
8.0386543 -9.7205172 -1.1035661 25 5
8.1621389 -9.8838806 -0.6717844 35 6
4.4427199 -5.4182887 -1.8774734 4 0
5.4319777 -6.6318555 -1.9791193 7 1
7.086369 -8.6609344 -2.1752226 3 2
7.6993566 -9.4201841 -1.92696 17 3
7.9276757 -9.7133656 -1.5394537 23 4
7.7741957 -9.5355024 -1.0763733 24 5
8.085845 -9.9283686 -0.67105168 26 6
4.4324598 -5.4814515 -1.8888614 3 0
5.3989568 -6.683836 -1.9836185 7 1
7.0466852 -8.7361736 -2.1817102 9 2
7.3037257 -9.0645475 -1.8437368 15 3
7.7754936 -9.6604004 -1.5226357 16 4
7.5052342 -9.337965 -1.0481349 30 5
8.0926094 -10.079577 -0.67743665 17 6
7.9257946 -9.8823996 -0.221122 17 7
4.3796339 -5.4941349 -1.8826498 3 0
5.3740139 -6.7488041 -1.9917165 7 1
6.9879684 -8.788228 -2.1824734 16 2
7.61131 -9.5824509 -1.9382232 18 3
7.5030427 -9.4563084 -1.4821751 19 4
7.6798949 -9.6930914 -1.0819514 16 5
8.4856176 -10.721553 -0.71658397 17 6
7.8417273 -9.9186668 -0.22070314 17 7
4.3459458 -5.5306525 -1.8847204 3 0
5.3315806 -6.7922893 -1.9935162 7 1
7.0402904 -8.9820442 -2.2183454 18 2
7.3713002 -9.4144964 -1.893796 16 3
7.2130408 -9.2223129 -1.4375709 12 4
7.2956362 -9.3413477 -1.0369791 22 5
7.6156979 -9.7616873 -0.64886123 26 6
7.8239179 -10.039415 -0.22216913 26 7
4.3237906 -5.5822401 -1.8919673 4 0
5.3007269 -6.8509226 -1.9998149 7 1
6.991818 -9.0496187 -2.2229249 18 2
7.2619472 -9.4094296 -1.8825326 17 3
7.2090826 -9.3510513 -1.4497578 27 4
7.2399669 -9.4046841 -1.0383735 22 5
7.5607562 -9.8320332 -0.65001267 17 6
7.7974939 -10.150883 -0.22342572 17 7
4.2753358 -5.6000047 -1.8878261 4 0
5.25986 -6.8970585 -2.0025144 7 1
6.9094391 -9.0732203 -2.216819 19 2
7.4161363 -9.7491827 -1.9401004 15 3
7.0991869 -9.3426714 -1.4407395 16 4
7.2102642 -9.502614 -1.0436028 15 5
7.3206182 -9.6585531 -0.63514924 17 6
7.6926398 -10.160431 -0.22244836 17 7
4.252398 -5.6513271 -1.8950732 3 0
5.2232909 -6.9491892 -2.0070133 8 1
6.74929 -8.9924784 -2.1855264 15 2
7.1369724 -9.5193882 -1.8844098 15 3
7.1099482 -9.4936953 -1.4563388 16 4
6.9051056 -9.2336044 -1.0087405 14 5
7.3199468 -9.7990294 -0.64101082 17 6
4.2197452 -5.6901865 -1.8981789 4 0
7.8971596 -10.656832 0.23152363 17 8
5.1781297 -6.9901819 -2.008363 10 1
6.7423882 -9.11514 -2.2038438 16 2
6.8308678 -9.2448788 -1.8205845 18 3
7.1590214 -9.6996231 -1.4802252 15 4
7.0674272 -9.589529 -1.0422083 14 5
7.2122841 -9.7968159 -0.63755667 17 6
4.1799178 -5.7195072 -1.8981789 3 0
7.8508735 -10.750462 0.23236135 17 8
5.1337991 -7.0324583 -2.0101628 10 1
6.8416495 -9.385685 -2.2576523 12 2
6.9429021 -9.5350695 -1.8681406 11 3
6.8062253 -9.3576574 -1.420753 16 4
6.8762021 -9.4677534 -1.0237314 14 5
7.4873548 -10.320602 -0.66822553 17 6
7.8724351 -10.863363 -0.23417638 19 7
4.1556926 -5.7704964 -1.9054259 4 0
5.0823021 -7.0649629 -2.0092628 14 1
6.6327896 -9.2339029 -2.20995 18 2
7.0581169 -9.836894 -1.9175739 6 3
6.8575282 -9.5679054 -1.4453706 20 4
6.8470426 -9.5673752 -1.0293093 14 5
7.0736351 -9.8949356 -0.63745201 17 6
4.1153059 -5.7993679 -1.9054259 3 0
7.8457499 -11.064563 0.23675935 18 8
5.0294757 -7.0955014 -2.0079131 15 1
6.6396174 -9.3809395 -2.2339919 12 2
6.6961989 -9.4713936 -1.8371665 22 3
6.471077 -9.163146 -1.3773675 31 4
7.0326862 -9.9731627 -1.0676578 15 5
7.0296865 -9.9799995 -0.63975483 17 6
6.7603154 -9.6082582 -0.20506579 14 7
4.0769324 -5.8311224 -1.9064611 4 0
4.9798174 -7.1304407 -2.0079131 15 1
6.5099549 -9.3352737 -2.2122397 10 2
6.5926533 -9.4644213 -1.8268418 18 3
6.5067205 -9.3514919 -1.3988165 20 4
6.8767161 -9.9090519 -0.63211375 26 6
6.9004149 -9.9543247 -0.21141845 15 7
4.0492749 -5.8785338 -1.9126729 3 0
4.9387531 -7.1778755 -2.0115123 15 1
