# .PCD v0.7 - Point Cloud Data file format
VERSION 0.7
FIELDS x y z intensity ring
SIZE 4 4 4 4 2
TYPE F F F F U
COUNT 1 1 1 1 1
WIDTH 1341
HEIGHT 1
VIEWPOINT 0 0 0 1 0 0 0
POINTS 1341
DATA ascii
1.1381967 6.0936689 -0.10820492 20 7
1.2039844 6.433423 1.753758 1 15
0.81868571 4.3121386 -1.1760738 14 0
1.2267739 6.4554677 0.11469722 3 8
0.87258786 4.5829539 -1.0770656 15 1
1.1561198 6.0663414 0.32364559 23 9
0.93673617 4.905889 -0.97083622 11 2
1.2279022 6.418643 0.5717417 1 10
1.0357513 5.4090781 -0.87227869 12 3
1.2361033 6.4432311 0.80555642 1 11
1.1416849 5.9398513 -0.74267185 12 4
1.1863352 6.1547666 -0.54838395 6 5
1.2492769 6.4691601 1.2807101 2 13
1.1803272 6.0836124 -0.10817002 18 7
1.2510589 6.4421468 1.7584167 1 15
0.84801656 4.3064666 -1.1760738 14 0
1.2865222 6.5212965 0.1160236 3 8
0.90904593 4.6036749 -1.0833644 8 1
1.2027062 6.0796747 0.32479697 26 9
0.97935736 4.9415984 -0.97923183 13 2
1.2824221 6.4648561 0.57662237 1 10
1.0819569 5.4443412 -0.87916183 10 3
1.2802802 6.4305511 0.80506897 1 11
1.1765242 5.8986416 -0.73852831 10 4
1.2316191 6.1580572 -0.54942977 12 5
1.2897781 6.4371815 1.2761306 2 13
1.2215891 6.0693417 -0.1080653 22 7
1.2937142 6.4218936 1.7553109 1 15
0.88964176 4.3532848 -1.1905677 10 0
1.3248019 6.4768925 0.11539531 3 8
0.93883628 4.581779 -1.0797651 16 1
1.2489918 6.0846076 0.32552966 21 9
1.0229197 4.9788713 -0.9880091 9 2
1.3230276 6.4281926 0.57418203 1 10
1.1264724 5.4635444 -0.88354194 12 3
1.3307625 6.4486732 0.80848128 1 11
1.2216917 5.9097242 -0.74096566 10 4
1.5301435 7.3822913 -0.65959466 8 5
1.3298972 6.4049535 1.2715513 2 13
1.2680138 6.0802412 -0.10841435 20 7
1.3404251 6.4162536 1.7563461 1 15
0.91441154 4.320508 -1.1833206 9 0
1.3694565 6.4594212 0.11525569 3 8
0.96392375 4.5427055 -1.0721167 15 1
1.2914371 6.0757403 0.32552966 23 9
1.0560683 4.9599028 -0.98571932 11 2
1.3678695 6.4188004 0.57418203 1 10
1.1678869 5.4710021 -0.88604486 12 3
1.3644212 6.3807492 0.80116916 1 11
1.2654122 5.9126983 -0.74242812 10 4
1.5745643 7.3321939 -0.65610844 8 5
1.3811834 6.4262228 1.277657 2 13
1.3125405 6.0810142 -0.10858887 13 7
1.3778348 6.3727517 1.7470287 1 15
0.94868398 4.33289 -1.1884971 11 0
1.4076644 6.4184513 0.11469722 3 8
1.0185933 4.6405544 -1.0968614 16 1
1.3325356 6.0607243 0.32521567 26 9
1.0974252 4.9830861 -0.99182522 11 2
1.4340906 6.5063787 0.5828976 1 10
1.2047756 5.4569287 -0.88510633 14 3
1.408934 6.3710685 0.80116916 1 11
1.3040859 5.8920903 -0.74096566 10 4
1.6300299 7.3404732 -0.65785152 8 5
1.4294207 6.431756 1.2807101 2 13
1.3532169 6.0638962 -0.10844925 15 7
1.4269301 6.3837152 1.7527226 1 15
0.97763115 4.320509 -1.1869442 13 0
1.4595114 6.439671 0.11525569 3 8
1.0470859 4.6162257 -1.0928122 15 1
1.3779124 6.0649071 0.32594836 23 9
1.1230412 4.935102 -0.9838112 11 2
1.4679756 6.4456992 0.5783655 1 10
1.2406487 5.4387546 -0.88354194 12 3
1.4551437 6.3688188 0.80214405 1 11
1.3389965 5.8557501 -0.73755336 10 4
1.4760361 6.4447179 1.0471724 4 12
1.6906441 7.3758154 -0.66203499 8 5
1.4637419 6.3756976 1.2715513 2 13
1.401806 6.0815821 -0.10893792 15 7
1.4749386 6.3886561 1.7568637 1 15
1.0046936 4.3004103 -1.1833206 11 0
1.5115061 6.4646363 0.11588398 3 8
1.0779548 4.6031108 -1.0914625 17 1
1.422809 6.0709443 0.32678574 23 9
1.1700643 4.9846826 -0.99525976 12 2
1.2912105 5.4878702 -0.892928 12 3
1.4984583 6.3587666 0.80214405 1 11
1.3912417 5.8945603 -0.7436468 12 4
1.5136486 6.3882475 1.2761306 2 13
1.4497852 6.0949917 -0.10935678 15 7
1.5219668 6.3935046 1.7610049 1 15
1.045702 4.3423042 -1.1967793 10 0
1.5519124 6.4344873 0.11553493 3 8
1.11292 4.6108217 -1.0950617 16 1
1.4689119 6.0763941 0.32762313 23 9
1.1997515 4.9554043 -0.99106199 11 2
1.5595231 6.4364648 0.57941139 1 10
1.325765 5.4633656 -0.89042509 12 3
1.5446924 6.3558655 0.803119 1 11
1.4318018 5.8868828 -0.74389052 10 4
1.4770776 6.054626 -0.54524636 6 5
1.5570971 6.3777962 1.2761306 2 13
1.494092 6.0966363 -0.10956621 18 7
1.573475 6.4108648 1.7687694 1 15
1.0666837 4.2973986 -1.1864265 10 0
1.6035465 6.4506655 0.1160236 3 8
1.136144 4.567009 -1.0865136 14 1
1.5088804 6.0563021 0.32709977 26 9
1.2376443 4.9602413 -0.99373329 12 2
1.3691456 5.4750562 -0.89386666 14 3
1.5919206 6.3564806 0.80458146 1 11
1.472865 5.8767433 -0.74389052 10 4
1.8408529 7.3233342 -0.66064054 8 5
1.6054162 6.3820024 1.2791836 2 13
1.5346601 6.0783019 -0.1094266 18 7
1.6162957 6.3922334 1.7666988 1 15
1.0980924 4.2954621 -1.1879795 12 0
1.6614362 6.4896812 0.11693113 3 8
1.1771892 4.5948334 -1.0950617 16 1
1.5541025 6.0572271 0.32772776 26 9
1.2722455 4.9514794 -0.99373329 12 2
1.6591589 6.4526558 0.5828976 1 10
1.3989613 5.4328442 -0.8885479 15 3
1.6372498 6.3490567 0.80506897 1 11
1.5118724 5.8586292 -0.74291557 9 4
1.654292 6.4012804 1.0471724 4 12
1.912897 7.3913164 -0.6679616 9 5
1.6597763 6.4086494 1.286816 2 13
1.5800754 6.0790515 -0.10963602 18 7
1.6638023 6.3920107 1.7698047 1 15
1.1324774 4.3045063 -1.1926383 10 0
1.6822479 6.3851061 0.11525569 3 8
1.2112237 4.5940413 -1.0968614 16 1
1.6009437 6.0636091 0.32866985 23 9
1.3123026 4.9633551 -0.99793106 12 2
1.7041696 6.4409146 0.5828976 1 10
1.4449507 5.4534969 -0.89355379 12 3
1.6825498 6.3413095 0.80555642 1 11
1.5578307 5.8671174 -0.74535298 9 4
1.9480504 7.3161707 -0.66238362 8 5
1.694364 6.3589654 1.2791836 2 13
1.6297084 6.0949187 -0.11012468 13 7
1.7003915 6.3503819 1.7615224 1 15
1.1604829 4.2890363 -1.1905677 11 0
1.7497965 6.4581299 0.11679151 3 8
1.2458162 4.5948768 -1.0991108 14 1
1.6458534 6.0619226 0.3291932 26 9
1.3438287 4.9427066 -0.99564141 12 2
1.7490941 6.4288607 0.5828976 1 10
1.4829854 5.4432774 -0.89355379 12 3
1.7288696 6.337069 0.80653143 1 11
1.6060696 5.8829098 -0.74876529 9 4
1.7435073 6.3775587 1.0471724 4 12
2.0138094 7.3561993 -0.66726434 9 5
1.745463 6.3715959 1.2841446 2 13
1.6626788 6.0486846 -0.1094964 13 7
1.7375035 6.3122807 1.7542756 1 15
1.1997157 4.3143311 -1.1998851 9 0
1.781963 6.3995237 0.1159538 3 8
1.2799586 4.5935755 -1.1009104 14 1
1.6940349 6.0714464 0.33034459 23 9
1.3915098 4.9804754 -1.0051818 12 2
1.785347 6.3857927 0.58010858 1 10
1.5321337 5.4727383 -0.90012401 15 3
1.7655698 6.2980843 0.803119 1 11
1.6524627 5.8906674 -0.7512027 10 4
2.0500076 7.2882595 -0.66238362 8 5
1.798413 6.389492 1.2902504 2 13
1.7124717 6.0638728 -0.10998507 18 7
1.7867888 6.3185854 1.759452 1 15
1.2207849 4.2742724 -1.1910853 15 0
1.8199986 6.3638563 0.11553493 3 8
1.3195009 4.6107583 -1.1072091 14 1
1.7374808 6.0633125 0.33055395 23 9
1.4251631 4.9668655 -1.0044186 14 2
1.8386822 6.4038134 0.5828976 1 10
1.5697602 5.4600091 -0.89981115 13 3
1.8127875 6.2970514 0.80458146 1 11
1.6962973 5.8885241 -0.75242138 7 4
1.8473341 6.3918705 1.2933035 2 13
1.7581052 6.063293 -0.11019449 18 7
1.8265485 6.2911158 1.7553109 1 15
1.2565738 4.2860379 -1.1967793 14 0
1.8790269 6.4008818 0.11644246 3 8
1.3478134 4.5883465 -1.1040598 16 1
1.7820226 6.0586991 0.33097261 21 9
1.4509295 4.9266624 -0.99831271 12 2
1.8833444 6.390821 0.5828976 1 10
1.6061603 5.443234 -0.89887255 14 3
1.8747042 6.3451619 0.81238109 1 11
1.7221673 5.825141 -0.74584043 10 4
1.8480841 6.2350354 -0.56895268 6 5
1.8729323 6.3148232 1.2803285 2 13
1.8106602 6.0853705 -0.11082278 15 7
1.8693179 6.2745085 1.7542756 1 15
1.291109 4.289885 -1.2004027 12 0
1.9167049 6.360467 0.1159538 3 8
1.3761114 4.5636578 -1.1004605 21 1
1.8287957 6.0572643 0.33160067 23 9
1.5031896 4.9725318 -1.0097612 14 2
1.9290279 6.3771806 0.5828976 1 10
1.6513687 5.4523978 -0.90231407 11 3
1.9200611 6.3315845 0.81238109 1 11
1.7810991 5.8696551 -0.75315261 9 4
1.8510011 6.0885444 -0.55675089 6 5
1.9432273 6.3838983 1.2971196 2 13
4.2459474 13.931347 -0.76326764 8 6
1.847149 6.0493088 -0.11040393 18 7
1.9220768 6.2868357 1.7615224 1 15
1.3141907 4.2586155 -1.1941911 11 0
1.9682149 6.3740225 0.11644246 3 8
1.4062114 4.5483537 -1.0991108 23 1
1.8758866 6.063756 0.33264738 21 9
1.5300314 4.9396801 -1.0051818 14 2
1.9734989 6.3635588 0.5828976 1 10
1.6673675 5.3731122 -0.89105082 15 3
1.9713571 6.3449087 0.81579345 1 11
1.8184958 5.8457046 -0.75169015 10 4
1.8958331 6.0830822 -0.55744815 6 5
1.9608468 6.2839665 1.2795652 2 13
4.3621058 13.970757 -0.76703584 8 6
1.8977016 6.0629821 -0.11089259 18 7
1.9648255 6.2736063 1.7615224 1 15
1.3204418 4.1777325 -1.1740032 13 0
2.0012028 6.3239026 0.11577927 3 8
1.4224319 4.4922314 -1.0878633 22 1
1.919381 6.0543194 0.33285671 21 9
1.5460646 4.8708701 -0.9933517 12 2
2.0167718 6.3499775 0.5828976 1 10
1.7120188 5.3839312 -0.89480525 15 3
2.0156081 6.3309903 0.81579345 1 11
1.8341396 5.757534 -0.74194062 15 4
1.944316 6.0886784 -0.55919123 6 5
2.0107458 6.2929149 1.2841446 2 13
4.4595342 13.939962 -0.76703584 8 6
1.9535714 6.0956283 -0.11173031 14 7
2.0239248 6.3075624 1.774981 1 15
1.3709975 4.2345772 -1.1926383 14 0
2.0724311 6.3934774 0.11731508 3 8
1.4766054 4.5526309 -1.1049596 17 1
1.959131 6.033175 0.33243802 21 9
1.596421 4.9103684 -1.0036553 14 2
2.0610507 6.3357439 0.5828976 1 10
1.7458962 5.3605776 -0.892928 15 3
2.0462186 6.2752442 0.81043118 1 11
1.8989221 5.820076 -0.75169015 10 4
1.9880111 6.0787439 -0.55953985 6 5
2.0692835 6.3235049 1.2933035 2 13
4.5567379 13.908492 -0.76703584 8 6
1.9860992 6.0514431 -0.11117183 14 7
2.0667014 6.289609 1.7739457 1 15
1.4345658 4.3275924 -1.2216259 10 0
2.1333923 6.4281988 0.1182226 3 8
1.5169486 4.5681043 -1.1112581 14 1
2.0049832 6.0307217 0.33306605 21 9
1.6350055 4.9121418 -1.0063267 15 2
2.1052325 6.3212004 0.5828976 1 10
1.7995232 5.3969812 -0.90106261 13 3
2.106318 6.3097634 0.81676841 1 11
1.9395077 5.8066769 -0.75169015 10 4
2.0967903 6.2702904 1.0471724 4 12
2.0304003 6.0647173 -0.55953985 13 5
2.1133764 6.3089056 1.2933035 2 13
2.042311 6.0791316 -0.11193974 16 7
2.1142559 6.2860136 1.7770516 1 15
1.461019 4.3064947 -1.21852 10 0
2.1409173 6.303328 0.11619812 3 8
1.547549 4.5537124 -1.1103585 15 1
2.0528297 6.0335937 0.33400813 19 9
1.6648256 4.8875999 -1.0036553 12 2
2.1493144 6.3063483 0.5828976 1 10
1.8428962 5.4011135 -0.90387845 15 3
2.1477504 6.2873912 0.81579345 1 11
1.983848 5.8042665 -0.75315261 10 4
2.0701108 6.0428543 -0.5588426 22 5
2.1522768 6.27914 1.2902504 2 13
4.750495 13.843511 -0.76703584 8 6
2.0821011 6.0571609 -0.11180011 16 7
2.1618609 6.2820606 1.7801574 1 15
1.4961159 4.3107905 -1.2226613 10 0
2.2229366 6.3977852 0.1182226 3 8
1.580582 4.5464787 -1.1112581 14 1
2.1040902 6.0455246 0.33547351 19 9
1.7066584 4.8981056 -1.0082349 12 2
2.1932857 6.2911901 0.5828976 1 10
1.8844638 5.3993068 -0.9057557 15 3
2.1968307 6.2872357 0.81774336 1 11
2.0275967 5.7996445 -0.75437129 12 4
2.1181769 6.0451775 -0.56041139 16 5
2.2012603 6.2787819 1.2933035 2 13
4.8800969 13.904237 -0.77226943 8 6
2.1376021 6.0802069 -0.11249821 16 7
2.2030966 6.2595267 1.7780869 1 15
1.5184207 4.2783937 -1.2164496 11 0
2.2675476 6.3821106 0.1182226 3 8
1.6135894 4.5390058 -1.1121581 14 1
2.1489232 6.0382142 0.3358922 19 9
1.7493777 4.9101133 -1.0131959 10 2
2.2371531 6.2757254 0.5828976 1 10
1.9327352 5.4157863 -0.91076159 15 3
2.2486875 6.2941771 0.82066822 1 11
2.0660319 5.7797403 -0.75364012 10 4
2.1690612 6.0546274 -0.56267744 22 5
2.2490156 6.2743502 1.2955931 2 13
2.1745839 6.0500822 -0.11221898 19 7
2.2532866 6.2621703 1.7832633 1 15
1.5357345 4.2331839 -1.2066144 12 0
2.2847428 6.2909412 0.11682641 3 8
1.6465695 4.5312939 -1.1130579 14 1
2.1923912 6.0268188 0.33610156 19 9
1.7856271 4.903316 -1.0143408 12 2
2.2809112 6.259954 0.5828976 1 10
1.9698228 5.4003038 -0.91044867 13 3
2.2816772 6.2484913 0.81676841 1 11
2.1008847 5.7502584 -0.75169015 10 4
2.2710509 6.2092991 1.0471724 4 12
2.2163887 6.056561 -0.5642463 19 5
2.2887089 6.2474365 1.2933035 2 13
5.0833769 13.860997 -0.77373481 8 6
2.2291794 6.0685406 -0.11284725 19 7
2.2996171 6.2535396 1.7853339 1 15
1.5806947 4.2640209 -1.21852 10 0
2.3372467 6.3014922 0.11731508 3 8
1.69173 4.5562253 -1.1220559 16 1
2.2389278 6.0267334 0.33693892 19 9
1.8189641 4.891047 -1.0143408 12 2
2.3384583 6.2812223 0.58638382 1 10
2.0003278 5.3701115 -0.90763283 15 3
2.3352506 6.2625766 0.82066822 1 11
2.1618016 5.7912445 -0.75900233 13 4
2.264894 6.0577364 -0.56581503 22 5
2.3501616 6.2791119 1.3032255 2 13
2.2602532 6.0228739 -0.11228879 14 7
2.3516343 6.2630625 1.7925807 1 15
1.6021585 4.2332892 -1.2128261 13 0
2.3996029 6.3336415 0.1182226 3 8
1.7185576 4.5336719 -1.1193565 15 1
2.2880337 6.0296297 0.33798563 19 9
1.851669 4.8745594 -1.0135775 12 2
2.3811619 6.2651587 0.58638382 1 10
2.0405767 5.3634019 -0.90888435 15 3
2.3789177 6.2461195 0.82066822 1 11
2.2050083 5.7834306 -0.75997728 13 4
2.3113945 6.0529451 -0.56686091 30 5
2.3911366 6.2552166 1.301699 2 13
2.3179867 6.048028 -0.11305669 19 7
2.3911512 6.2356696 1.789475 1 15
1.6338036 4.2253194 -1.2138613 12 0
2.4163411 6.2458658 0.11689622 3 8
1.7481408 4.5139894 -1.1175569 15 1
2.3354537 6.0242758 0.33861366 16 9
1.8955941 4.8871384 -1.0189201 12 2
2.4115107 6.210813 0.5828976 1 10
2.0832005 5.3597093 -0.91076159 15 3
2.415271 6.2108583 0.81823081 1 11
2.2460506 5.7697458 -0.76022106 12 4
2.3528721 6.0348048 -0.56668663 37 5
2.4076238 6.1688724 1.2871976 2 13
5.3594651 13.718014 -0.77185076 17 6
2.3637972 6.0410094 -0.11323121 23 7
2.43853 6.2255945 1.7915455 0 15
1.6646829 4.2174039 -1.2148967 12 0
1.7695837 4.4763021 -1.1112581 18 1
2.3877404 6.0338249 0.34007907 19 9
1.9384707 4.8935275 -1.0231179 15 2
2.1220217 5.3487082 -0.91138726 15 3
2.2884729 5.7594604 -0.76095223 10 4
2.4026291 6.0344734 -0.56825542 33 5
5.5202045 13.84352 -0.78106189 17 6
2.4014637 6.0132174 -0.11302178 21 7
2.4790647 6.2012434 1.789475 0 15
1.6883088 4.1913447 -1.2107556 13 0
1.80954 4.4855261 -1.116657 16 1
2.4290583 6.0151567 0.3399744 14 9
1.9696436 4.8725939 -1.0215914 12 2
2.1689501 5.3575654 -0.91545457 11 3
2.3405621 5.7727766 -0.76485211 13 4
2.4484456 6.026783 -0.56912696 37 5
5.58359 13.723248 -0.7764563 17 6
2.4456463 6.001862 -0.1131265 16 7
1.7263403 4.2008982 -1.2169672 12 0
1.8704752 4.544868 -1.1346531 15 1
2.4740357 6.0054388 0.3403931 14 9
2.0103512 4.8750582 -1.025026 12 2
2.2010219 5.3295121 -0.91326451 15 3
2.380048 5.7544613 -0.76460832 12 4
2.5729027 6.2146101 1.0653188 4 12
2.4962771 6.0265427 -0.57069582 33 5
2.5926802 6.2531152 1.3158189 2 13
2.5939505 6.246932 1.5616102 4 14
2.5066783 6.0308042 -0.11399912 23 7
2.5876694 6.2195349 1.8050041 1 15
1.7474117 4.1691451 -1.2112732 16 0
2.5921152 6.1814942 0.11700094 13 8
1.9081926 4.5460739 -1.1382524 14 1
2.5241363 6.0105577 0.34164914 16 9
2.0510938 4.8793612 -1.0288421 12 2
2.5940335 6.1649313 0.58516365 12 10
2.2372451 5.3144073 -0.91326451 15 3
2.5900607 6.1464858 0.81896204 10 11
2.4217041 5.7413645 -0.76509583 12 4
2.6090033 6.1823916 1.0628159 12 12
2.5444887 6.0236526 -0.57209027 30 5
2.6110411 6.1751904 1.3032255 13 13
2.5927761 6.1290112 -0.34876686 11 6
2.6063447 6.1550965 1.5431641 6 14
2.5565238 6.0315685 -0.11434817 32 7
2.6148572 6.1662068 1.7946514 15 15
1.7878916 4.1855793 -1.2195554 13 0
1.9283623 4.5078959 -1.1319537 20 1
2.5841184 6.035018 0.34405661 19 9
2.0874283 4.8703365 -1.029987 15 2
2.2633843 5.2732458 -0.90888435 15 3
2.4795423 5.768517 -0.77094555 12 4
2.5912082 6.0167217 -0.57313615 33 5
3.3805921 7.8383522 -0.44736779 13 6
2.6109967 6.0452371 -0.11494155 20 7
1.8155264 4.1694531 -1.21852 14 0
1.9434288 4.4568114 -1.1225058 24 1
2.6269865 6.0186605 0.34416127 16 9
2.1276665 4.8700371 -1.0330399 18 2
2.3025191 5.2627459 -0.909823 13 3
2.5253301 5.7637939 -0.77265167 10 4
2.6507683 6.0386209 -0.57697099 33 5
3.3853993 7.7012 -0.44087815 13 6
2.6539421 6.0286913 -0.11497645 25 7
1.8673149 4.2078848 -1.2335316 12 0
1.9990288 4.4983401 -1.1364527 21 1
2.6721847 6.0074744 0.34457996 16 9
2.1608155 4.8532705 -1.0326583 15 2
2.3577049 5.2880387 -0.91701895 15 3
2.5784566 5.7750254 -0.77655149 10 4
2.6934369 6.0240755 -0.57731962 33 5
2.7635858 6.1751833 1.3150556 2 13
3.4537778 7.710186 -0.44276223 13 6
2.7981668 6.2436843 1.5796063 4 14
2.7115164 6.044683 -0.11563965 17 7
2.780611 6.1929235 1.8189803 1 15
1.8926642 4.185945 -1.2309434 13 0
2.8112638 6.214685 0.11906032 10 8
2.0271671 4.4771748 -1.1346531 22 1
2.7212584 6.007338 0.34562668 11 9
2.1986628 4.8491797 -1.034948 13 2
2.8225527 6.2193956 0.59753978 1 10
2.3813922 5.2448888 -0.91232592 13 3
2.7965686 6.1535783 0.82993031 1 11
2.6088476 5.7352004 -0.77362669 10 4
2.7403824 6.0160031 -0.5783655 35 5
2.8392045 6.2271943 1.3303204 2 13
2.7578058 6.034699 -0.11581416 22 7
2.8411758 6.2142625 1.830886 1 15
1.9267706 4.1852484 -1.2345669 11 0
2.883033 6.2566581 0.12024708 3 8
2.0690193 4.4880481 -1.1409518 21 1
2.7631283 5.9881949 0.34562668 11 9
2.2390504 4.8479691 -1.0380009 15 2
2.8999183 6.2760038 0.60486084 1 10
2.4138074 5.2191706 -0.91076159 15 3
2.8694813 6.1987562 0.83870488 1 11
2.6561677 5.7353225 -0.7760641 10 4
2.8636513 6.1776752 1.0784594 4 12
2.7898595 6.0129924 -0.5799343 42 5
2.8782227 6.2005997 1.3287939 2 13
2.8038774 6.0266676 -0.1160236 22 7
2.8942766 6.215291 1.8370978 1 15
1.9477389 4.1542044 -1.2293905 11 0
2.9351375 6.2544808 0.12059613 3 8
2.1168635 4.5087752 -1.1499498 15 1
2.8278017 6.0175648 0.34845284 16 9
2.2786906 4.844656 -1.0406723 22 2
2.9351795 6.2375784 0.60311776 1 10
2.4779613 5.2611656 -0.92108625 11 3
2.9279203 6.2108946 0.8430922 1 11
2.7164657 5.7597294 -0.78191376 10 4
2.8445404 6.0203896 -0.58254898 35 5
2.9432526 6.2265048 1.338716 2 13
2.8461106 6.0155563 -0.34876686 11 6
2.8570158 6.030437 -0.11647736 20 7
2.9442184 6.2088976 1.8412387 1 15
1.9999975 4.1893196 -1.2438843 11 0
2.8390651 5.9415407 0.11494155 34 8
2.148289 4.4938869 -1.1499498 15 1
2.8344023 5.9238076 0.34416127 23 9
2.2921031 4.7861342 -1.0315135 16 2
3.016536 6.2959919 0.61078745 1 10
2.4642329 5.1386504 -0.90262699 9 3
2.9780812 6.2046189 0.84504211 1 11
2.7712152 5.7710466 -0.78605735 12 4
2.8484981 5.9213839 -0.57487923 43 5
3.000272 6.2341099 1.3448219 2 13
2.8377655 5.8911757 -0.34269586 23 6
2.8486588 5.9058795 -0.11445288 42 7
3.0026083 6.2195091 1.8505563 1 15
2.0258181 4.1683049 -1.2418139 11 0
2.8804727 5.9215765 0.11494155 50 8
2.1625547 4.4437337 -1.1409518 15 1
2.8713133 5.8948989 0.34363794 26 9
2.3332036 4.7858982 -1.034948 13 2
3.09535 6.3464108 0.61775988 1 10
2.5598404 5.2438073 -0.92421496 7 3
3.0579288 6.2585855 0.85527909 1 11
2.8201549 5.7693939 -0.78849471 12 4
2.8923936 5.9067235 -0.5754022 47 5
3.0506339 6.2271152 1.3478748 2 13
2.8753045 5.864049 -0.3422772 23 6
2.9021559 5.9109802 -0.11494155 47 7
3.0646996 6.2365389 1.8619443 1 15
2.0652752 4.1769314 -1.2485431 13 0
2.9428866 5.9466386 0.11581416 9 8
2.2186921 4.4813037 -1.1544489 19 1
2.9823165 6.0183849 0.35201168 7 9
2.3596199 4.7575936 -1.0322767 11 2
3.1207657 6.2894993 0.61427367 1 10
2.6165619 5.2687225 -0.93172377 13 3
3.1004558 6.2376275 0.85527909 1 11
2.8736272 5.7762246 -0.7921508 13 4
2.9991608 6.0206513 -0.58847558 36 5
3.1150539 6.2478352 1.3570337 2 13
3.0014498 6.0068483 -0.11721037 22 7
3.104491 6.2103477 1.8603914 1 15
2.0846882 4.1413388 -1.2423315 13 0
3.1597173 6.2742195 0.12262061 3 8
2.2542112 4.4722733 -1.1562485 16 1
3.06129 6.0682178 0.35619855 2 9
2.408699 4.772553 -1.0391458 13 2
3.1603024 6.2563362 0.61322778 1 10
2.6550882 5.2516265 -0.93203664 9 3
3.1439271 6.2158298 0.85527909 1 11
2.9031236 5.7347689 -0.78922594 16 4
3.1667838 6.2501826 1.1097462 3 12
3.0384173 5.994235 -0.58795261 38 5
3.1816907 6.2714577 1.3669558 2 13
3.0496566 5.9982257 -0.1174547 21 7
3.1602418 6.2103567 1.8671206 1 15
2.111788 4.1232452 -1.2412962 14 0
3.2136557 6.2692437 0.12296966 3 8
2.2800429 4.4460225 -1.153549 21 1
2.443686 4.7569408 -1.0395275 15 2
3.2038999 6.2341223 0.61322778 1 10
2.6934941 5.2364759 -0.93266243 15 3
3.1810575 6.1790543 0.85332924 1 11
2.9521782 5.7320089 -0.79166335 13 4
3.0931118 5.9953561 -0.59021866 32 5
3.2181923 6.2351351 1.3639028 2 13
3.1171842 6.0265198 -0.11843203 21 7
3.224834 6.2293191 1.879544 1 15
2.1583731 4.1426682 -1.251649 14 0
3.2702923 6.2714777 0.12345833 3 8
2.3254459 4.4576421 -1.1607474 16 1
2.4959309 4.7763052 -1.0475414 18 2
3.2953465 6.3034158 0.62229198 1 10
2.7217438 5.2017922 -0.92984658 11 3
3.2720022 6.2481418 0.86600363 1 11
2.9810688 5.6901588 -0.78873843 16 4
3.1469247 5.996552 -0.59248471 43 5
3.2689416 6.2264242 1.3669558 2 13
3.1573164 6.0010729 -0.11836223 18 7
3.2880459 6.2442584 1.890932 1 15
2.1872416 4.1274986 -1.251649 16 0
3.3608432 6.3368239 0.12520356 4 8
2.3674698 4.4619555 -1.1661462 19 1
2.5282915 4.7570314 -1.0471598 15 2
3.3299189 6.2626648 0.6205489 1 10
2.7459264 5.1599951 -0.92577928 9 3
3.3342092 6.2601871 0.8708784 1 11
3.026319 5.6797214 -0.79020089 15 4
3.2026718 6.0031199 -0.59527373 39 5
3.3289781 6.234622 1.3738248 2 13
3.2104557 6.000042 -0.11878107 13 7
3.3461511 6.2484002 1.8992143 1 15
2.2196717 4.1189299 -1.2537196 13 0
2.3930125 4.4350276 -1.1634469 18 1
2.5718131 4.7604375 -1.0517392 13 2
3.3830326 6.2567925 0.62229198 1 10
2.7480936 5.0803714 -0.91482884 11 3
3.3767407 6.2373486 0.8708784 1 11
3.0980506 5.7177978 -0.79848802 12 4
3.2492535 5.9893708 -0.59614527 29 5
3.4155152 6.2905951 1.3913792 2 13
3.2675569 6.0055871 -0.11933956 15 7
3.3886051 6.2254791 1.8992143 1 15
2.2495108 4.1071153 -1.2547548 13 0
3.4478917 6.289885 0.12520356 4 8
2.4325135 4.4357243 -1.1679459 15 1
2.611599 4.7544141 -1.0544106 13 2
3.4485745 6.2755246 0.62647545 1 10
2.8301375 5.1458764 -0.93015939 15 3
3.4374335 6.244925 0.87526566 1 11
3.1407287 5.7035332 -0.79946297 9 4
3.2995691 5.9845614 -0.59788835 36 5
3.4582517 6.2672024 1.3913792 2 13
3.3102956 5.9867067 -0.11940937 18 7
3.4637883 6.2591395 1.9168139 1 15
2.2687309 4.0744324 -1.2495784 15 0
2.4653192 4.4220381 -1.1688457 18 1
2.6429436 4.7348123 -1.054029 13 2
3.5136766 6.2895641 0.6303103 1 10
2.8496797 5.0989037 -0.92515355 9 3
3.4992456 6.2560306 0.88014042 1 11
3.2192564 5.7507534 -0.80921251 13 4
3.3568523 5.9891901 -0.60067737 37 5
3.5057654 6.2497535 1.3929057 2 13
3.3716063 5.9983144 -0.12010746 15 7
3.5101004 6.2421536 1.9188845 1 15
2.3230484 4.1059742 -1.2640723 13 0
3.632818 6.4157586 0.12869404 4 8
2.481915 4.3814163 -1.162547 20 1
2.686594 4.7350278 -1.0582268 11 2
3.556407 6.2655015 0.6303103 1 10
2.8725255 5.0565553 -0.92108625 13 3
3.5290971 6.2072906 0.87672812 1 11
3.2485147 5.7114511 -0.80677515 9 4
3.5639193 6.2609076 1.1410331 3 12
3.4173214 5.9985013 -0.6039893 45 5
3.5501664 6.2291589 1.393669 2 13
3.4401217 6.0238485 -0.12108479 19 7
3.5928965 6.2862625 1.9401076 1 15
2.3680279 4.1181264 -1.2728721 11 0
3.6775169 6.3902421 0.12869404 4 8
2.5241106 4.3842487 -1.1679459 19 1
2.7274289 4.7297635 -1.0612797 11 2
3.6279354 6.2888451 0.63519108 1 10
2.9354095 5.0842795 -0.92984658 13 3
3.6021407 6.2340655 0.8840403 1 11
3.2922802 5.6955085 -0.80775005 12 4
3.4720962 5.996911 -0.60625535 37 5
3.6230874 6.255188 1.4051175 2 13
3.4941404 6.0204382 -0.12150366 16 7
3.6619203 6.3044605 1.9535662 1 15
2.4103634 4.1248465 -1.2801191 11 0
3.7220423 6.3644109 0.12869404 4 8
2.5408773 4.3429732 -1.1616472 21 1
2.7683229 4.7241578 -1.0643326 9 2
3.6717546 6.2633624 0.63519108 1 10
2.9928243 5.1011462 -0.93672973 11 3
3.6495926 6.2156153 0.88501525 1 11
3.3430212 5.6912131 -0.81043118 11 4
3.6509883 6.210537 1.1410331 3 12
3.5330331 6.0074883 -0.60974157 33 5
3.6925604 6.2737327 1.4150395 2 13
3.5482731 6.0165691 -0.12192252 13 7
3.7078083 6.2820697 1.9546015 1 15
2.4450195 4.1178856 -1.2832248 12 0
3.7652745 6.3389297 0.12869404 4 8
2.6129584 4.3954835 -1.1805431 18 1
2.7994089 4.7035193 -1.063951 15 2
3.7398615 6.2786574 0.63937455 1 10
3.0648887 5.1434445 -0.94830585 15 3
3.7141879 6.2281361 0.89037746 1 11
3.3887761 5.6779633 -0.81189364 11 4
3.5789752 5.9895177 -0.61043882 38 5
3.764483 6.2949786 1.4257249 2 13
3.8150022 6.371881 1.714577 3 14
3.6025236 6.0122342 -0.12234137 16 7
3.7544563 6.2633138 1.9566721 1 15
2.4580288 4.0763321 -1.2754604 13 0
3.8094368 6.312489 0.12869404 4 8
2.6488602 4.3876057 -1.1832426 14 1
2.8352273 4.6889 -1.0650959 13 2
3.8320081 6.3348856 0.64774144 1 10
3.0884483 5.1016426 -0.94455141 15 3
3.7822647 6.2428012 0.89622724 1 11
3.4324913 5.6632538 -0.81311232 12 4
3.6269035 5.9746065 -0.61148465 34 5
3.8092825 6.2725654 1.4264882 2 13
3.6558383 6.0080729 -0.12276023 16 7
3.8061287 6.2501497 1.9608132 1 15
2.4934907 4.0706038 -1.2790838 12 0
2.6651638 4.3457489 -1.1769439 15 1
2.8761132 4.682375 -1.0681487 11 2
3.8448505 6.2570515 0.64251208 1 10
3.131233 5.0917358 -0.94674152 16 3
3.8319957 6.2263894 0.89768964 1 11
3.4979634 5.6814117 -0.81920576 11 4
3.6810775 5.9694891 -0.61357641 34 5
3.8612237 6.2591882 1.4295411 2 13
3.7082074 5.999414 -0.12310927 16 7
3.8821914 6.2759995 1.9773775 1 15
2.534095 4.0727797 -1.2852954 11 0
3.964854 6.3673229 0.13092795 4 8
2.7139843 4.3568096 -1.1850421 20 1
2.8754756 4.6088824 -1.0559371 11 2
3.9200869 6.2807627 0.64774144 1 10
3.1771662 5.0865073 -0.94987023 13 3
3.8943107 6.2297845 0.90207696 1 11
3.5470114 5.6720028 -0.82139945 12 4
3.9267023 6.2742906 1.17232 3 12
3.745929 5.9807925 -0.61741126 50 5
3.9423561 6.2919688 1.4432793 2 13
3.7414947 5.9598303 -0.12283003 13 7
3.9516017 6.2896409 1.9903185 1 15
2.5686567 4.0647888 -1.2884012 11 0
4.0177574 6.3530102 0.13120718 4 8
2.7568393 4.3575172 -1.190441 17 1
2.8466349 4.4925098 -1.0338032 9 2
3.9766366 6.2734375 0.6498332 1 10
3.2051916 5.0525255 -0.94768006 9 3
3.9419665 6.209147 0.90305191 1 11
3.6205792 5.7007241 -0.82919908 13 4
3.9704125 6.2467222 1.17232 3 12
3.800421 5.9746704 -0.61950302 38 5
4.0388861 6.3471098 1.4623603 2 13
4.0961609 6.4272137 1.7595671 3 14
3.8260093 6.0010128 -0.12422623 14 7
4.0037284 6.2749286 1.9944596 1 15
2.5948868 4.0435042 -1.287366 11 0
2.7892983 4.341445 -1.1913408 15 1
2.9735413 4.6211162 -1.0681487 13 2
4.037591 6.2723279 0.65262216 1 10
3.2660623 5.0698814 -0.95518899 15 3
4.0131822 6.2248559 0.90938914 1 11
3.6839631 5.712008 -0.83456135 15 4
4.0139232 6.218853 1.17232 3 12
3.8582551 5.9730973 -0.6221177 44 5
4.0980129 6.3418455 1.4677029 2 13
4.0879951 6.3166575 1.7370721 3 14
3.8938932 6.0144424 -0.12506394 17 7
4.0747533 6.2889762 2.0079181 1 15
2.635709 4.0447125 -1.2935777 11 0
4.1366534 6.343194 0.13218452 4 8
2.8195391 4.321866 -1.1913408 14 1
3.029355 4.6364017 -1.0765444 10 2
4.0921826 6.2606645 0.6543653 1 10
3.3100278 5.0601811 -0.95769191 15 3
4.0565419 6.1966867 0.90938914 1 11
3.755286 5.7343106 -0.84162974 11 4
3.9228079 5.9810019 -0.6257782 36 5
4.1529574 6.3294959 1.471519 2 13
4.1855001 6.3693957 1.7595671 3 14
3.9401839 5.993793 -0.12520356 14 7
4.1270504 6.2732887 2.0120592 1 15
2.682004 4.0536027 -1.3023775 7 0
2.8281195 4.2695832 -1.1823426 21 1
3.0659907 4.6216841 -1.0780709 12 2
4.1379943 6.2352629 0.65471393 1 10
3.3507383 5.045177 -0.95925629 16 3
4.1348662 6.2211199 0.91718876 0 11
3.8040209 5.721179 -0.84357965 11 4
3.9600503 5.9468369 -0.625081 32 5
4.2035751 6.3101521 1.4738088 2 13
9.0048304 13.507286 -0.85077339 8 6
4.2298651 6.3400202 1.7595671 3 14
4.0019116 5.9960804 -0.12583186 14 7
4.1782565 6.255569 2.0156829 2 15
2.7059271 4.0283666 -1.3003069 10 0
2.8980923 4.3095698 -1.1989892 14 1
3.1201155 4.6327343 -1.0857033 12 2
4.1903296 6.2194414 0.65610844 1 10
3.4002345 5.042954 -0.96332359 15 3
4.2092838 6.2381773 0.92401344 0 11
3.8671925 5.7290344 -0.84869814 15 4
4.0416412 5.978467 -0.63135618 36 5
4.2805209 6.3294401 1.4852573 2 13
4.0526476 5.9812393 -0.12611109 14 7
4.2630258 6.2870064 2.0353529 1 15
2.7361615 4.0125694 -1.3013422 11 0
2.9314063 4.2940593 -1.2003388 14 1
3.1545961 4.6140823 -1.0864664 10 2
4.285387 6.2656841 0.66412675 1 10
3.4398189 5.0256147 -0.96457505 15 3
4.2549787 6.2119131 0.92450094 1 11
3.9340219 5.7411995 -0.85454792 12 4
4.0912561 5.963963 -0.63275069 28 5
4.3334937 6.3123503 1.4883102 2 13
4.4272556 6.4416976 1.8045573 2 14
4.0965724 5.9560962 -0.1261809 20 7
4.3309078 6.2921028 2.046741 1 15
2.7773032 4.0124297 -1.3075538 9 0
2.9568732 4.2670822 -1.1985391 15 1
3.1881704 4.595727 -1.0872297 12 2
4.3176603 6.2192497 0.66238362 1 10
3.4919791 5.0280423 -0.96958095 15 3
4.3175526 6.2121487 0.9288882 0 11
3.9910119 5.7380376 -0.85820401 10 4
4.1532884 5.9646845 -0.63588828 41 5
4.4425569 6.3753672 1.510444 2 13
9.338233 13.396006 -0.85579765 8 6
4.4319806 6.3530951 1.7883608 3 14
4.1655235 5.9667048 -0.12701862 15 7
4.3780642 6.2688107 2.0488117 1 15
2.8101006 4.0013385 -1.310142 8 0
2.9880896 4.2500467 -1.199439 15 1
3.2473013 4.6118851 -1.0963886 12 2
4.4333262 6.293962 0.67353958 1 10
3.5235791 4.9986987 -0.96864235 11 3
4.3905673 6.2240305 0.93522543 0 11
4.0334086 5.7156067 -0.85893518 11 4
4.205286 5.9525504 -0.63763142 28 5
4.4699798 6.3225389 1.5051014 2 13
4.4931321 6.3482327 1.7955593 3 14
4.2268486 5.9675837 -0.12764689 18 7
4.4194846 6.2349429 2.0477762 1 15
2.8525434 4.0020738 -1.3168714 9 0
3.0244792 4.2385998 -1.2021384 18 1
3.280901 4.5928698 -1.0971519 12 2
4.4539819 6.2304435 0.6700533 1 10
3.5598233 4.9778104 -0.96926802 13 3
4.4420738 6.2069149 0.93717533 0 11
4.082459 5.7002192 -0.86088508 11 4
4.5409145 6.3380108 1.2348938 2 12
4.2722807 5.9586697 -0.64146626 37 5
4.5575056 6.3517909 1.5196029 2 13
4.5600824 6.3483624 1.8045573 2 14
4.291749 5.9704061 -0.128345 18 7
4.4945331 6.2501988 2.0627878 1 15
2.8815455 3.9836268 -1.317389 8 0
3.0745697 4.2457919 -1.2102367 14 1
3.3205984 4.5788102 -1.0994414 14 2
4.5745878 6.305635 0.68155789 1 10
3.6034741 4.9634013 -0.9714582 15 3
4.5167127 6.2167244 0.94351256 0 11
4.1231441 5.6708598 -0.86088508 12 4
4.5861521 6.3053546 1.2348938 2 12
4.3382611 5.9601626 -0.64495248 34 5
4.621336 6.3444061 1.5257088 2 13
4.6352468 6.3565073 1.8162549 2 14
4.3602977 5.9750767 -0.1291129 15 7
4.5664811 6.2553244 2.0752113 1 15
2.9065461 3.9582348 -1.3158361 10 0
3.1152611 4.2378135 -1.2142857 14 1
3.3478286 4.5491915 -1.0979151 14 2
4.6290445 6.285573 0.6829524 1 10
3.6869488 5.0026851 -0.98428577 15 3
4.5976992 6.2361698 0.95131218 0 11
4.1909194 5.6802745 -0.86673486 11 4
4.6757412 6.3327627 1.2467828 2 12
4.3987045 5.9553723 -0.64774144 38 5
4.6981902 6.356194 1.536394 1 13
4.6656003 6.3051939 1.810856 2 14
4.4090428 5.9541349 -0.12932234 15 7
4.6203246 6.2349062 2.0793524 1 15
2.9156425 3.9130595 -1.3075538 10 0
3.1249633 4.1894073 -1.2066375 14 1
3.3967431 4.5471401 -1.1032577 14 2
4.7205195 6.3169422 0.68992484 1 10
3.7608216 5.0290298 -0.99461043 14 3
4.6588578 6.2253599 0.95472455 0 11
4.2269068 5.6461086 -0.86600363 10 4
4.6748314 6.2398911 1.2348938 2 12
4.4555492 5.942873 -0.6498332 42 5
4.725956 6.3012538 1.5310514 1 13
4.4697223 5.9487882 -0.12988082 9 7
4.6985731 6.2488184 2.0948815 1 15
2.9638608 3.9203477 -1.3168714 11 0
3.1729515 4.1923509 -1.213836 16 1
3.4497538 4.5514774 -1.1101269 12 2
4.7596869 6.2774849 0.68922758 1 10
3.7767372 4.9774714 -0.98960453 14 3
4.71421 6.2084928 0.9571619 0 11
4.2674189 5.6180444 -0.86624736 13 4
4.5282898 5.9528537 -0.6543653 35 5
4.8340316 6.3524728 1.5516587 1 13
4.8133259 6.3161082 1.8333511 2 14
4.5669146 5.9905901 -0.13148643 6 7
4.7561412 6.2342963 2.1010931 1 15
2.9935071 3.9026272 -1.3179066 11 0
3.216382 4.1886458 -1.2192347 14 1
3.5077741 4.5615211 -1.1185224 12 2
4.8204069 6.2662096 0.69166797 1 10
3.8776686 5.0370741 -1.0068123 15 3
4.7598591 6.1785779 0.95764935 0 11
4.3222885 5.6085558 -0.86941594 10 4
4.8821316 6.3304367 1.2661808 2 12
4.5906138 5.9502854 -0.65750289 39 5
4.8878584 6.3310051 1.5547118 1 13
4.8991079 6.338706 1.8495475 2 14
4.6208572 5.9743805 -0.13183548 9 7
4.8090086 6.2131624 2.1052344 1 15
3.018307 3.8785849 -1.3168714 11 0
3.2527318 4.175313 -1.2219341 20 1
3.0352757 3.8919742 -0.95938772 4 2
4.8959069 6.2732415 0.69620007 1 10
3.950763 5.06039 -1.0168241 15 3
4.8311386 6.1835752 0.96349907 1 11
4.3698945 5.5891924 -0.87112212 13 4
4.9689221 6.3530707 1.277444 2 12
4.6639709 5.9588847 -0.66203499 39 5
4.9585743 6.3307276 1.5631074 1 13
4.9600759 6.325819 1.8558462 2 14
4.689611 5.9765859 -0.13260339 6 7
4.8762383 6.2121964 2.1161046 2 15
3.0661798 3.8852463 -1.3261888 10 0
3.283493 4.1561341 -1.222834 21 1
3.6117504 4.5650711 -1.1314974 10 2
5.0003152 6.3178873 0.70491564 1 10
3.9688265 5.011004 -1.0124439 15 3
4.9136481 6.1994791 0.97129875 0 11
4.4423738 5.6028695 -0.87794685 11 4
5.0450773 6.3584599 1.2855786 2 12
4.7079334 5.9293017 -0.66238362 30 5
5.0381837 6.3429489 1.574556 1 13
5.0235276 6.3154392 1.8630446 2 14
4.7750049 6.0008597 -0.13385996 6 7
4.9375396 6.2006712 2.1238692 1 15
3.0884001 3.8577135 -1.3241183 10 0
3.2709925 4.0814075 -1.2075372 17 1
3.4678071 4.320796 -1.076926 8 2
5.0218477 6.2548594 0.70177799 1 10
3.9802058 4.9539161 -1.0064995 14 3
4.9966102 6.2145329 0.97909838 0 11
4.4838686 5.5748134 -0.8784343 11 4
5.0720019 6.3015432 1.2811985 2 12
4.7792106 5.933527 -0.66656709 40 5
5.0872669 6.3137379 1.5760823 1 13
5.0650477 6.2771811 1.8621449 2 14
4.8695374 6.0327287 -0.13532595 6 7
5.014698 6.2081285 2.1383629 1 15
3.127435 3.8510547 -1.3292947 9 0
3.3756223 4.1522226 -1.2354312 18 1
3.0467055 3.7422945 -0.93801707 3 2
5.0955915 6.2567225 0.70596153 1 10
4.0121951 4.9229474 -1.0058737 14 3
5.0448923 6.1856523 0.98007339 0 11
4.5051074 5.5218425 -0.87502193 13 4
5.1783361 6.3424873 1.2968419 2 12
4.8457298 5.9308753 -0.6700533 45 5
5.1635242 6.3175912 1.5860044 1 13
5.1457729 6.2869105 1.8756418 2 14
4.9444733 6.0388136 -0.13623348 6 7
5.068933 6.1864195 2.1430218 2 15
3.1566992 3.8321109 -1.33033 9 0
3.3896484 4.1105151 -1.2300324 21 1
3.7440636 4.5338469 -1.1429459 10 2
5.1695991 6.257863 0.710145 1 10
4.1131735 4.9755092 -1.0224558 15 3
5.1082015 6.1747513 0.98397315 1 11
4.5511413 5.4994326 -0.87648439 17 4
5.2728896 6.3670349 1.3093567 2 12
4.9200692 5.9367886 -0.6745854 45 5
5.2375789 6.3176603 1.5951633 1 13
5.2592468 6.3347974 1.9008365 2 14
4.9992852 6.0195332 -0.13658254 6 7
5.1317549 6.1746516 2.151304 2 15
3.1945255 3.8233206 -1.3349887 8 0
3.4582732 4.134582 -1.2444292 14 1
3.7831862 4.5166297 -1.1452357 10 2
5.2694635 6.2888145 0.71781468 1 10
4.1833467 4.9890556 -1.0312161 14 3
5.1909342 6.188509 0.99177283 1 11
4.6123962 5.4948931 -0.88087165 18 4
5.3299136 6.3451958 1.3124853 2 12
4.9872828 5.9351945 -0.67824602 50 5
5.2992435 6.3019805 1.6005059 1 13
5.3072643 6.3048148 1.9026359 2 14
5.194829 6.1646924 2.1601038 1 15
3.2254689 3.8073852 -1.3370593 8 0
3.4787722 4.1020308 -1.2417299 15 1
3.8367198 4.5177073 -1.1521047 14 2
5.3173089 6.2588744 0.71851194 1 10
4.2619915 5.0131392 -1.0421665 13 3
5.2869511 6.2165427 1.0020097 0 11
4.6574116 5.4724402 -0.88233411 20 4
5.0650377 5.9450908 -0.68330097 46 5
5.3980603 6.3314986 1.6172972 1 13
5.3652382 6.2863307 1.9080348 2 14
5.1649222 6.0473495 -0.13881645 6 7
5.2630229 6.1600332 2.1709743 2 15
3.2525706 3.7868056 -1.3375769 10 0
3.5244024 4.0989418 -1.2480285 14 1
3.8622561 4.4855375 -1.1505783 10 2
5.3857946 6.252728 0.72199816 1 10
4.3076215 4.9974813 -1.0449823 14 3
5.3276296 6.1764755 1.0015223 0 11
4.7525754 5.5059118 -0.89305866 15 4
5.48035 6.346807 1.3281288 2 12
5.135077 5.9427509 -0.68713588 47 5
5.4703827 6.3263302 1.6256927 1 13
11.271013 13.029985 -0.90289998 9 6
5.4242992 6.2664022 1.9134337 2 14
5.3236117 6.14358 2.1782212 1 15
3.2783163 3.7619774 -1.3370593 15 0
3.5587673 4.0794907 -1.2498281 14 1
3.8986442 4.4643779 -1.1521047 10 2
5.4618649 6.2500339 0.72618169 1 10
4.3497739 4.9739633 -1.0465467 13 3
5.4150586 6.1899295 1.0098095 0 11
4.8889623 5.5846214 -0.91133898 11 4
5.5256262 6.3074279 1.3281288 2 12
5.2000742 5.9337311 -0.69027346 38 5
5.5403042 6.3175063 1.6333251 1 13
5.5141983 6.2811017 1.92963 2 14
5.3942237 6.1357965 2.1890914 1 15
3.3185723 3.7549217 -1.3427533 13 0
3.5768309 4.0428705 -1.2462289 19 1
3.956527 4.4657569 -1.1597371 12 2
5.5159345 6.223681 0.72757614 1 10
4.4001236 4.9612074 -1.0503011 13 3
5.5356402 6.2371325 1.0239463 0 11
4.8764338 5.4924583 -0.90183324 11 4
5.6036377 6.3070922 1.3362634 2 12
5.2768216 5.9350815 -0.69480556 33 5
5.5842733 6.2786736 1.6333251 1 13
5.5849257 6.2705865 1.9386281 2 14
5.4600701 6.1239433 2.1984091 1 15
3.351151 3.7388568 -1.3453414 12 0
3.607569 4.0207033 -1.2471286 17 1
3.4535668 3.8436596 -1.0044186 3 2
5.5938787 6.2235484 0.73210824 1 10
4.4610724 4.9597411 -1.0565585 13 3
5.5763907 6.1953869 1.0234588 0 11
4.9545083 5.5025368 -0.90914541 11 4
5.6660428 6.2883668 1.3406435 2 12
5.3194618 5.8995771 -0.69497991 28 5
5.6937151 6.3124294 1.6524061 1 13
5.2887235 5.8593097 -0.41366345 27 6
5.6703663 6.27772 1.953025 2 14
5.3331022 5.9022608 -0.13885134 30 7
5.5208287 6.1057363 2.2056561 3 15
3.3849678 3.7239473 -1.3484472 12 0
5.3391886 5.8697515 0.1385023 41 8
3.6407969 4.0011849 -1.2489282 21 1
5.2900357 5.8095946 0.41177934 16 9
4.0634522 4.4594193 -1.1727122 14 2
5.6855125 6.2373495 0.73838341 1 10
4.470294 4.9007497 -1.050614 14 3
5.6650081 6.2061539 1.0317459 0 11
5.0061851 5.4824753 -0.91158277 11 4
5.6991458 6.2369909 1.3381406 2 12
5.3484211 5.849061 -0.69341105 38 5
5.7588468 6.2957039 1.6585119 1 13
5.3133173 5.8045659 -0.4124074 27 6
5.7377448 6.2638488 1.9611233 2 14
5.3147349 5.8000145 -0.13731554 33 7
5.5985699 6.1054916 2.2196321 4 15
3.4187396 3.7087474 -1.3515531 11 0
5.371902 5.8235149 0.13829286 41 8
3.7030025 4.0129061 -1.2606257 15 1
5.3562069 5.8004031 0.41376811 19 9
4.0705023 4.4049883 -1.165843 12 2
5.7613745 6.2326212 0.74256694 1 10
4.5178127 4.8839226 -1.0537428 14 3
5.7675309 6.2305508 1.0424705 0 11
4.9984803 5.3978701 -0.90329564 21 4
5.8338528 6.2955751 1.3594157 2 12
5.4514399 5.8787842 -0.70142943 39 5
5.8293653 6.2841301 1.6661443 1 13
5.8078609 6.2521944 1.9701214 2 14
5.4177113 5.8301554 -0.13892116 30 7
5.6660528 6.0931368 2.2294674 3 15
3.4353137 3.6749113 -1.3479296 13 0
3.7509003 4.0082998 -1.2673743 23 1
5.8388906 6.2352114 0.44768184 4 9
4.1172652 4.3936539 -1.1704224 14 2
5.8319983 6.2213197 0.74605316 1 10
4.5788283 4.8810773 -1.0600001 14 3
5.8353434 6.2161851 1.0468577 0 11
5.0659385 5.3946781 -0.90865791 17 4
5.8776588 6.2546964 1.3594157 2 12
5.5786667 5.9344492 -0.71258533 43 5
5.9053764 6.2776031 1.6753031 1 13
5.8743324 6.2380538 1.9782196 2 14
5.7402654 6.0871606 2.2418907 5 15
3.4662015 3.6564465 -1.3500001 14 0
3.7774508 3.9806025 -1.2669244 15 1
5.9196963 6.2358842 0.45061263 2 9
4.1795287 4.3996882 -1.1795813 14 2
5.9164715 6.2237735 0.75128251 1 10
4.6337266 4.8727002 -1.0650059 14 3
5.8857307 6.1849494 1.0483202 0 11
5.1116905 5.367805 -0.91012037 16 4
5.6364579 5.9126639 -0.7146771 35 5
5.9897122 6.2788386 1.6867516 1 13
5.9581141 6.239171 1.9917165 2 14
5.8162723 6.0842571 2.2553494 1 15
3.5017171 3.6439135 -1.3541414 14 0
3.8179667 3.9688442 -1.2714233 21 1
6.0628209 6.2980018 0.45814902 2 9
4.2224007 4.3831272 -1.1830158 14 2
5.9642277 6.1890955 0.75197971 1 10
4.644321 4.8160596 -1.0596871 13 3
5.98666 6.2037063 1.0585573 0 11
5.103991 5.2871842 -0.90232068 20 4
6.0621529 6.2753572 1.3819423 2 12
5.7191424 5.9161439 -0.71990639 35 5
6.0732532 6.2802649 1.6982002 1 13
6.0150833 6.2114234 1.9962157 2 14
5.8908772 6.0767932 2.2677724 0 15
3.5351608 3.6276793 -1.3572472 14 0
3.8387773 3.935118 -1.2691739 24 1
6.0926895 6.24123 0.45710227 2 9
4.2762179 4.377419 -1.1895033 12 2
6.0713458 6.2128549 0.75999802 1 10
4.7013068 4.8075299 -1.0650059 16 3
6.0770321 6.2099957 1.0668443 0 11
5.1685481 5.2797956 -0.90719545 20 4
6.0975242 6.2244134 1.3800651 2 12
5.7784367 5.8945684 -0.72217244 30 5
6.1499424 6.2713504 1.7073588 1 13
6.0883365 6.1998701 2.0061135 2 14
3.5495391 3.5919166 -1.353106 16 0
3.8949385 3.9373143 -1.2786218 21 1
6.2007446 6.2638378 0.46191719 2 9
4.3039107 4.3446698 -1.1887401 12 2
6.1454229 6.2014561 0.76383299 1 10
4.7681379 4.8082547 -1.0725149 14 3
6.1509995 6.1984172 1.0722066 0 11
5.2192678 5.2576718 -0.90963286 20 4
6.202086 6.2433558 1.3938313 2 12
5.8826547 5.9176722 -0.73001647 35 5
6.2018809 6.2366157 1.7096486 1 13
6.2002287 6.2262549 2.0286086 2 14
3.601876 3.5943418 -1.3634588 13 0
3.9306102 3.918283 -1.2813212 19 1
6.2839432 6.2598643 0.46484798 2 9
4.3619671 4.342216 -1.1963725 14 2
6.1970406 6.1668334 0.76487875 2 10
4.8268042 4.7999201 -1.0781465 13 3
6.2307301 6.1917081 1.0785438 0 11
5.2614818 5.2266998 -0.91060776 17 4
6.2791634 6.2333074 1.4013401 2 12
5.9337254 5.886281 -0.73123664 30 5
6.3205447 6.2678194 1.7302561 1 13
6.2767773 6.2157259 2.0394061 2 14
3.6345191 3.577873 -1.3665646 14 0
3.9710844 3.9051011 -1.2858201 17 1
6.3776917 6.2673421 0.46861619 2 9
4.4082294 4.3289332 -1.2009518 12 2
6.3156514 6.1998792 0.77429163 1 10
4.8678231 4.7752557 -1.0800236 13 3
6.3407779 6.2158527 1.0902432 0 11
5.3593178 5.2519011 -0.9213323 14 4
6.3581457 6.2263536 1.4094746 2 12
6.0291905 5.9001021 -0.73803484 35 5
6.38552 6.2466145 1.736362 1 13
6.3551807 6.2082658 2.0511036 2 14
3.6774287 3.569905 -1.3732939 12 0
3.9982502 3.8772824 -1.2858201 17 1
4.4538579 4.3130765 -1.2051498 14 2
6.3902736 6.1861229 0.77812648 1 10
4.9152398 4.7548904 -1.0831524 13 3
6.4125595 6.1990318 1.0951179 0 11
5.4558067 5.272295 -0.93156934 16 4
6.4582973 6.2367024 1.4219894 2 12
6.1103773 5.8966045 -0.74291551 46 5
6.4544067 6.2264175 1.7432311 1 13
6.3871436 6.1529279 2.0475044 2 14
3.7120299 3.5534956 -1.3769174 13 0
6.1397648 5.8734403 0.14831054 6 8
4.0421224 3.8654368 -1.291219 16 1
4.5023184 4.2995038 -1.2101108 14 2
6.4823041 6.1881351 0.78405303 1 10
4.9426003 4.715003 -1.081901 13 3
6.4959121 6.1924648 1.1019428 0 11
5.5269732 5.2669425 -0.93741906 13 4
6.5302877 6.2187109 1.4282467 2 12
6.2091265 5.9087424 -0.74988794 36 5
6.5432339 6.2245102 1.7554429 1 13
6.4836326 6.1591902 2.0646007 2 14
3.7395573 3.5301468 -1.3779527 13 0
6.2649832 5.9100237 0.15033503 13 8
4.0718455 3.8397975 -1.2921189 15 1
6.5802217 6.2008934 0.4738498 2 9
4.5307951 4.2666206 -1.2097291 14 2
6.5659647 6.1809702 0.78893375 1 10
4.9955378 4.6993337 -1.0862811 13 3
6.5765915 6.1823149 1.1082799 0 11
5.5664997 5.2309499 -0.93790656 14 4
6.5965829 6.1946049 1.4332528 2 12
6.2749276 5.8884249 -0.75285131 31 5
6.6495304 6.2377777 1.772234 1 13
6.5947366 6.1777277 2.0861959 2 14
3.7655237 3.5052719 -1.3784703 12 0
6.3119507 5.8715873 0.15047465 19 8
4.1042595 3.8165874 -1.2939185 14 1
6.6965079 6.2227788 0.47908339 2 9
4.5619102 4.2362218 -1.2101108 14 2
6.6177206 6.1431112 0.78997964 1 10
5.0586367 4.6925554 -1.0928513 12 3
6.6545277 6.168642 1.1141297 0 11
5.6756854 5.2594237 -0.95009351 14 4
6.6918435 6.196722 1.4445159 2 12
6.3919234 5.9148436 -0.7619155 26 5
6.7044468 6.20187 1.775287 1 13
6.6434302 6.1368265 2.0879958 2 14
3.8098273 3.4971874 -1.3857172 11 0
6.3955226 5.8665786 0.15148689 20 8
4.1451674 3.8010113 -1.2984174 16 1
6.7545133 6.1893702 0.48013014 2 9
4.6246734 4.2347674 -1.2188879 14 2
6.7251105 6.1559529 0.79764932 1 10
5.1189651 4.6824598 -1.0987958 13 3
6.7384601 6.1595325 1.1209544 0 11
5.7239881 5.2303848 -0.95204335 14 4
6.7757902 6.1871467 1.4532764 2 12
6.502233 5.9331946 -0.7701081 10 5
6.7939949 6.1972504 1.7874987 1 13
6.7206879 6.1217918 2.0987935 2 14
3.848474 3.4834669 -1.3908936 12 0
6.4822941 5.8633742 0.15256894 27 8
4.1976223 3.7955041 -1.3065157 21 1
4.6716108 4.2181664 -1.2234674 14 2
6.7915874 6.1302123 0.80043828 1 10
5.1691318 4.6624856 -1.1025503 13 3
6.8314309 6.1575274 1.1292415 0 11
5.7810073 5.2089019 -0.95545572 18 4
6.9068985 6.2189989 1.4720485 1 12
6.608665 5.9462929 -0.77777785 10 5
6.8896422 6.1969328 1.801237 1 13
6.7806592 6.0903492 2.104192 2 14
3.8770213 3.4603753 -1.3924465 16 0
6.5767956 5.8658938 0.15382551 42 8
4.2414708 3.7816708 -1.3119146 20 1
4.7038798 4.1880579 -1.2242306 14 2
6.8967247 6.1382866 0.8077594 3 10
5.228127 4.6499124 -1.1081818 13 3
6.9395366 6.1677079 1.1399659 0 11
5.8676896 5.2132416 -0.96374285 15 4
6.9678726 6.1863656 1.4758029 1 12
6.9768009 6.1877637 1.8126855 1 13
6.9280496 6.13589 2.136585 2 14
3.9054356 3.4370534 -1.3939995 11 0
6.6626348 5.8594542 0.15487266 50 8
4.2999668 3.7802749 -1.3218124 17 1
4.7315288 4.1538219 -1.2238491 14 2
6.993319 6.1372991 0.81403458 3 10
5.2693729 4.6211147 -1.110059 15 3
7.0272117 6.1583648 1.1472781 0 11
5.9547091 5.2166247 -0.97202998 15 4
7.0346704 6.1583924 1.4808089 1 12
6.779983 5.9333348 -0.78823656 11 5
7.0552959 6.1699266 1.8218443 1 13
6.9960685 6.1116705 2.1446834 2 14
3.9497626 3.4274304 -1.4012463 12 0
6.7446604 5.850656 0.15584999 51 8
4.3380332 3.7603748 -1.3254116 17 1
7.1349659 6.182683 0.49478418 2 9
4.771564 4.1318026 -1.2269019 14 2
7.0601048 6.1091838 0.8168236 1 10
5.2917399 4.5773883 -1.1081818 16 3
7.0749779 6.1155782 1.1482531 0 11
5.9999943 5.1827145 -0.97349238 14 4
7.1242728 6.1516752 1.4908206 1 12
6.8815761 5.9379244 -0.79520899 22 5
7.1279345 6.146162 1.8294767 1 13
7.1005793 6.1160955 2.1635792 2 14
3.990613 3.4155397 -1.4074581 11 0
6.8461275 5.8554173 0.15724619 52 8
4.3398299 3.7104976 -1.3182131 21 1
7.25388 6.1975904 0.50001782 2 9
4.8450837 4.1366353 -1.2383504 14 2
7.1772957 6.1256599 0.82553917 1 10
5.3506207 4.5634069 -1.1138135 13 3
7.1779299 6.1175456 1.1580026 0 11
6.0789561 5.1790848 -0.98056084 20 4
7.2121654 6.1402078 1.5002067 1 12
6.9774928 5.9362144 -0.80148417 22 5
7.2413912 6.1585526 1.8477943 1 13
7.1787567 6.0966473 2.174377 2 14
4.0306015 3.4013016 -1.413152 13 0
6.9250546 5.8397107 0.1581188 53 8
4.3984079 3.7077417 -1.3281111 15 1
4.8933725 4.119143 -1.2433115 14 2
7.2625713 6.1113224 0.83041996 1 10
5.4186349 4.5564537 -1.1213224 12 3
7.2690964 6.1081505 1.1658022 0 11
6.1316824 5.1505671 -0.98324198 19 4
7.2820907 6.1125674 1.5058383 1 12
7.0828776 5.9411364 -0.80880529 11 5
7.3263326 6.1431684 1.8584797 1 13
7.2599883 6.0789123 2.1860743 2 14
4.0542488 3.37308 -1.413152 9 0
7.0456142 5.8577003 0.15993385 55 8
4.3852196 3.6445596 -1.3164135 20 1
4.9159675 4.0798659 -1.241785 16 2
7.3142595 6.0681038 0.83146584 1 10
5.4731236 4.5374246 -1.1260154 17 3
7.3482499 6.0876479 1.171652 0 11
6.2011256 5.1354895 -0.98860419 14 4
7.3915482 6.1169949 1.5196046 1 12
7.1149697 5.883925 -0.8077594 22 5
7.4023304 6.119391 1.8668753 1 13
7.3443294 6.0628161 2.1986716 2 14
4.0776968 3.3446956 -1.413152 10 0
7.1188173 5.8349872 0.16066685 40 8
4.470849 3.6632614 -1.3344096 15 1
7.5366168 6.170846 0.51048499 2 9
4.9716806 4.0678244 -1.2486541 14 2
7.4057956 6.0572577 0.8370437 1 10
5.5490232 4.535357 -1.1350887 16 3
7.4612913 6.0939655 1.182864 0 11
6.2399025 5.094583 -0.98909163 13 4
7.4524369 6.0802317 1.5233591 1 12
7.1759486 5.8504767 -0.81002545 28 5
7.5300946 6.1370206 1.8882459 1 13
7.4832101 6.0901208 2.2274654 2 14
4.1219783 3.3331525 -1.4203991 10 0
7.1935978 5.8127961 0.16143475 40 8
4.51754 3.6491013 -1.3407084 18 1
7.7349272 6.2435269 0.52095217 2 9
5.0381589 4.0638332 -1.2581946 10 2
7.5347595 6.0754418 0.84680521 1 10
5.6174645 4.5262547 -1.1425974 13 3
7.5098405 6.0467033 1.183839 0 11
6.2691293 5.0459204 -0.98811674 15 4
7.5655131 6.0850029 1.5377511 1 12
7.2523351 5.8289433 -0.81403458 23 5
7.569695 6.0818419 1.8874826 1 13
7.5377016 6.0474887 2.2310646 2 14
4.1375961 3.2982712 -1.4178108 12 0
7.3059492 5.8197498 0.16304037 41 8
4.5474782 3.6211152 -1.3420579 13 1
5.1032872 4.0578866 -1.2673534 12 2
7.6362557 6.0698056 0.85342902 1 10
5.6427402 4.4820127 -1.141346 15 3
7.6171746 6.0459604 1.1940759 0 11
6.3290868 5.021769 -0.99201655 16 4
7.6728201 6.0835819 1.5508915 1 12
7.3272066 5.8053951 -0.81786948 17 5
7.6981549 6.0971079 1.9088533 1 13
7.6378231 6.0406518 2.2481608 2 14
4.1863427 3.2895985 -1.4266106 11 0
7.4093118 5.8180027 0.16443658 42 8
4.5956397 3.607331 -1.3488065 17 1
7.8213434 6.1349249 0.52095217 2 9
5.1376743 4.0270019 -1.2688799 12 2
7.7599974 6.080246 0.86249328 1 10
5.7205553 4.4790411 -1.150732 12 3
7.6998444 6.0244431 1.2004131 1 11
6.4015183 5.0068126 -0.99786633 15 4
7.7275534 6.0396028 1.5533944 1 12
7.4240847 5.7982488 -0.82414466 11 5
7.7838593 6.0770478 1.9195386 1 13
7.7197676 6.0183349 2.2598584 2 14
4.2244792 3.2721217 -1.431787 10 0
7.5098395 5.8126445 0.16576295 34 8
4.6330419 3.5846994 -1.3524057 17 1
7.9050651 6.1119351 0.52367365 2 9
5.196733 4.0150452 -1.2765123 14 2
7.833796 6.0502758 0.86597949 1 10
5.7892146 4.4679632 -1.1582409 13 3
7.83603 6.0432787 1.2150375 1 11
6.470901 4.988667 -1.0032285 16 4
7.7976971 6.0072069 1.5590261 1 12
7.4612288 5.7438436 -0.82379609 11 5
7.8478785 6.0393209 1.9248812 1 13
7.7955871 5.9904203 2.2697561 2 14
4.2472205 3.2425497 -1.431787 10 0
7.6392684 5.8279972 0.16771764 35 8
4.687396 3.5747199 -1.3609538 14 1
8.0269699 6.1171284 0.52890724 2 9
