# .PCD v0.7 - Point Cloud Data file format
VERSION 0.7
FIELDS x y z intensity ring
SIZE 4 4 4 4 2
TYPE F F F F U
COUNT 1 1 1 1 1
WIDTH 1333
HEIGHT 1
VIEWPOINT 0 0 0 1 0 0 0
POINTS 1333
DATA ascii
6.9262853 3.6225169 -1.8045573 14 1
7.9445567 4.1480179 -1.7420862 18 2
9.7385817 5.0782285 -1.7395515 15 3
10.333188 5.3814092 -1.4305025 19 4
10.369637 5.391192 -1.0225111 43 5
14.086496 7.3142281 -0.83182776 26 6
5.9789772 3.0780575 -1.8018982 9 0
6.9548731 3.5758562 -1.8054571 13 1
7.9803076 4.0960431 -1.7436126 19 2
9.8845415 5.0668907 -1.7592622 18 3
14.140775 7.2175236 -0.83203709 17 6
5.9899802 3.0310051 -1.7987925 9 0
6.965755 3.5201797 -1.8018579 14 1
8.0009937 4.0380855 -1.7420862 18 2
9.9364433 5.0083776 -1.762391 18 3
13.808443 6.9479489 -1.8979933 3 4
14.550035 7.3115401 -1.4246477 28 5
14.443056 7.2483139 -0.84690052 26 6
6.0173893 2.993607 -1.8008629 9 0
7.0000243 3.4778898 -1.8045573 13 1
8.0395412 3.9873679 -1.7443758 21 2
10.001256 4.9537959 -1.7677096 16 3
14.010217 6.9303708 -1.9191986 2 4
14.625735 7.2221341 -1.4270881 29 5
14.647356 7.2232738 -0.85590225 17 6
6.0520258 2.9583149 -1.8050041 9 0
6.9961128 3.4152606 -1.7973589 14 1
8.1342468 3.9638245 -1.7588774 19 2
17.734718 8.6383114 1.7258579 2 10
10.095988 4.9132433 -1.7783473 16 3
14.147528 6.8757777 -1.9313855 4 4
14.948266 7.2520452 -1.4535835 29 5
14.873571 7.2061896 -0.86616015 17 6
6.0655665 2.9126437 -1.8029336 9 0
6.9741011 3.3444235 -1.7856615 14 1
8.2183876 3.9340658 -1.7710892 9 2
10.138954 4.8469 -1.7799115 12 3
11.400576 5.4426837 -1.5511532 9 4
15.044347 7.1596808 -0.87317312 17 6
6.0752697 2.8652825 -1.7998277 9 0
6.9972801 3.2956536 -1.7856615 14 1
8.292943 3.9005952 -1.7813929 10 2
10.209257 4.7954092 -1.7864817 16 3
11.589272 5.4337468 -1.5716273 18 4
15.724159 7.3523555 -0.90970361 9 6
6.1016421 2.8271146 -1.8018982 9 0
7.0195489 3.2479515 -1.7856615 14 1
8.3556185 3.8590679 -1.7890252 10 2
10.059522 4.6396322 -1.7545692 20 3
11.788262 5.4294753 -1.5935637 20 4
15.854685 7.2923412 -1.5267943 32 5
15.81141 7.2590685 -0.91179711 27 6
6.1247473 2.7860482 -1.8029336 9 0
7.0633454 3.208535 -1.7910603 13 1
8.429966 3.8240011 -1.7993289 10 2
10.202431 4.6215868 -1.773967 13 3
12.003139 5.4271998 -1.61745 20 4
16.118996 7.2678576 -0.92666054 27 6
6.1440496 2.7432184 -1.8029336 9 0
7.0713348 3.152797 -1.7874612 11 1
8.4822245 3.7747591 -1.8046715 9 2
10.2569 4.5580931 -1.7777214 12 3
12.20404 5.4157314 -1.6393865 21 4
21.233833 9.3918209 -1.2168112 10 6
6.1665883 2.7018113 -1.8039688 9 0
7.0967422 3.1049182 -1.7883608 12 1
8.5065727 3.7146599 -1.8042899 10 2
10.219666 4.4563665 -1.7658324 16 3
12.412635 5.4048948 -1.662298 20 4
12.434635 5.4041581 -1.1861897 20 5
21.533398 9.3451281 -1.2302091 20 6
6.1888504 2.6602206 -1.8050041 9 0
7.1361527 3.0629845 -1.7928599 13 1
8.5304928 3.6544137 -1.8039083 10 2
10.330439 4.4191003 -1.7795987 14 3
12.610709 5.3867331 -1.6837471 29 4
12.62785 5.3836269 -1.2010062 51 5
6.1894703 2.6094446 -1.7998277 9 0
7.1501784 3.0100656 -1.7910603 14 1
17.672379 7.4324164 1.0047458 2 9
8.5702763 3.6008539 -1.8069613 9 2
10.404757 4.3652143 -1.7871076 15 3
12.649838 5.2993293 -1.6839907 22 4
12.655932 5.2914996 -1.2001345 20 5
17.573816 7.3368816 -0.99804682 18 6
6.2111058 2.5676491 -1.8008629 9 0
7.1710181 2.9600747 -1.7910603 14 1
8.607913 3.5461693 -1.8096325 10 2
10.361903 4.2624092 -1.7745929 14 3
13.07948 5.3722901 -1.7361507 10 4
13.101825 5.3707819 -1.2388318 33 5
17.617212 7.2109871 -0.99762809 18 6
6.2467856 2.5314777 -1.8060393 9 0
7.1806703 2.9055536 -1.7883608 14 1
8.6361008 3.4874632 -1.810396 12 2
10.299803 4.1530352 -1.7589493 17 3
15.51792 6.2476063 -2.0539861 3 4
13.301689 5.3445506 -1.2541711 34 5
18.071222 7.2499385 -1.0204465 9 6
6.2607155 2.4863791 -1.8050041 9 0
7.2080255 2.8582253 -1.7901604 14 1
8.6511106 3.4234705 -1.8084878 9 2
10.409383 4.1129627 -1.7727156 15 3
14.525227 5.7304273 -1.9172486 4 4
13.545381 5.3356686 -1.2736939 23 5
18.307274 7.1966796 -1.0309138 9 6
6.2707186 2.4398115 -1.8029336 9 0
7.2314363 2.8092492 -1.7910603 14 1
8.685194 3.3687687 -1.8107775 10 2
10.440821 4.0434446 -1.7733413 17 3
14.200108 5.4879098 -1.8692321 2 4
13.816512 5.3313484 -1.2956573 36 5
18.467663 7.1149721 -1.0371941 19 6
6.2799611 2.3943155 -1.8008629 7 0
7.2758889 2.7696636 -1.7973589 13 1
8.7011585 3.3052635 -1.809251 10 2
10.479877 3.9746585 -1.7752185 18 3
14.062626 5.3250523 -1.8463207 10 4
14.065862 5.3150535 -1.3155288 25 5
18.942944 7.1466098 -1.0610592 19 6
6.3073816 2.3544712 -1.8039688 9 0
7.2804379 2.7133598 -1.7937597 15 1
8.7608261 3.2581203 -1.8168833 9 2
10.599964 3.9357727 -1.7908621 17 3
14.188804 5.2598596 -1.8580201 12 4
14.367971 5.3148804 -1.3402809 26 5
19.194719 7.0889287 -1.0723639 19 6
6.3182216 2.3083913 -1.8024158 6 0
7.3101883 2.6664736 -1.7964592 14 1
20.963175 7.6382647 1.1692901 4 9
8.7538395 3.1861393 -1.8107775 10 2
10.720013 3.8954074 -1.8065054 10 3
14.232643 5.1633835 -1.8589951 12 4
14.639854 5.3024411 -1.3622442 26 5
6.3378215 2.2655261 -1.8034512 6 0
7.3359671 2.6179936 -1.7982588 14 1
8.7901192 3.1317511 -1.8138304 9 2
10.740694 3.8203671 -1.8055668 11 3
14.406778 5.1130333 -1.8770318 13 4
14.914702 5.2757201 -0.82910633 35 6
13.649152 4.8146577 3.8781447 2 15
6.3458018 2.2197821 -1.8013806 6 0
7.3683352 2.5731382 -1.8018579 14 1
8.7932272 3.0638525 -1.8100141 9 2
10.811882 3.7608604 -1.8130757 9 3
14.337103 4.9758821 -1.8633825 12 4
14.994847 5.1953659 -1.3883909 41 5
15.119161 5.2295732 -0.83842206 17 6
6.3615236 2.1743157 -1.8013806 6 0
7.3902488 2.5216045 -1.8027576 14 1
8.810688 3.0011194 -1.809251 7 2
10.920809 3.7113738 -1.8268418 9 3
14.330134 4.8616381 -1.8580201 14 4
15.555443 5.2561536 -0.86050791 26 6
6.3692188 2.1274028 -1.79931 6 0
7.4076724 2.4699495 -1.8027576 14 1
8.8375273 2.9398539 -1.810396 10 2
10.961452 3.6400166 -1.8293447 9 3
14.390106 4.7702212 -1.8614326 12 4
15.880035 5.2425995 -0.87641799 26 6
6.3986073 2.087682 -1.8034512 6 0
7.4247355 2.418174 -1.8027576 14 1
8.8666677 2.8826654 -1.8123039 9 2
11.004764 3.571418 -1.8324735 9 3
14.445721 4.6769805 -1.8643574 14 4
21.151884 6.8359509 -1.9447932 34 5
16.211878 5.2300463 -0.89274681 26 6
6.41083 2.0434902 -1.8029336 5 0
7.4558797 2.3723063 -1.806357 14 1
24.042505 7.6405864 1.322111 6 9
8.8528938 2.8100076 -1.8054349 9 2
11.016247 3.4903321 -1.8302835 8 3
14.558605 4.6042895 -1.8748381 16 4
16.575661 5.2199254 -0.91075039 27 6
6.4212503 1.9975365 -1.8018982 5 0
7.4648151 2.3178849 -1.8045573 14 1
8.879796 2.7504573 -1.8069613 10 2
11.089414 3.428504 -1.8384181 8 3
14.383641 4.4387279 -1.8482705 15 4
16.930527 5.2020502 -0.92823058 18 6
6.4461308 1.9560279 -1.8050041 5 0
7.480814 2.265718 -1.8045573 12 1
27.006763 8.169261 1.4787003 7 9
8.8987827 2.6883934 -1.8069613 9 2
11.109297 3.3498609 -1.8377923 8 3
14.425685 4.3416357 -1.849733 15 4
17.240187 5.1788616 -1.5749043 33 5
17.186457 5.1496439 -0.94026792 54 6
6.4596291 1.9109778 -1.8050041 4 0
7.4740214 2.2068145 -1.7991585 14 1
30.203335 8.9122477 1.6503623 7 9
8.9357061 2.6333132 -1.8107775 9 2
11.152685 3.2803016 -1.8412338 7 3
14.169918 4.1570048 -1.8131722 12 4
17.715714 5.1770868 -0.96727324 27 6
6.494761 1.8733889 -1.8112158 4 0
7.481379 2.153733 -1.7973589 13 1
8.9463243 2.5686986 -1.809251 9 2
11.188607 3.2061701 -1.843424 8 3
14.465088 4.1368737 -1.8472956 15 4
18.085669 5.1484308 -0.98548621 27 6
6.5225601 1.8321806 -1.8153569 4 0
7.4999857 2.1025028 -1.7982588 13 1
8.9730558 2.5103884 -1.8111591 9 2
11.213977 3.1309998 -1.8440496 8 3
14.422859 4.0160851 -1.8382773 10 4
18.503292 5.1314211 -1.0063158 18 6
6.5236993 1.7846851 -1.812251 4 0
7.5066028 2.0493536 -1.7964592 14 1
9.005517 2.4518087 -1.814212 9 2
11.248907 3.0562608 -1.8462398 9 3
14.444115 3.9162602 -1.8375461 18 4
18.96117 5.1303225 -1.7185369 38 5
18.953249 5.1139822 -1.0288203 28 6
6.5173316 1.734127 -1.8070747 3 0
7.5244946 1.9978943 -1.7973589 13 1
9.0200996 2.3899508 -1.8138304 6 2
11.284727 2.9836602 -1.8487427 9 3
14.482617 3.8183692 -1.8390086 18 4
19.420425 5.1093574 -1.7568854 38 5
19.401022 5.0933938 -1.0512201 28 6
6.5030951 1.6818135 -1.7998277 3 0
7.5495811 1.9482366 -1.8000585 14 1
9.0350685 2.3248539 -1.8134488 9 2
11.279003 2.8959548 -1.8443626 9 3
14.601878 3.7382679 -1.850708 19 4
26.446903 6.7412457 -1.4303418 11 6
6.4737411 1.6248887 -1.7884396 3 0
7.5633287 1.8941631 -1.8000585 14 1
9.0739365 2.267432 -1.8180283 7 2
11.297519 2.8146977 -1.8440496 8 3
14.646885 3.6410253 -1.8531454 18 4
20.469215 5.076993 -1.8450869 36 5
27.619001 6.8299098 -1.4910516 11 6
6.4736648 1.5769137 -1.7853339 3 0
7.5953035 1.8459206 -1.8045573 14 1
9.1013775 2.2052162 -1.820318 7 2
11.301534 2.7320387 -1.8415467 8 3
14.776156 3.5638087 -1.8663074 15 4
19.345091 4.6479239 3.867317 2 13
28.415682 6.8167686 -1.5314549 11 6
6.499557 1.5352334 -1.789475 3 0
7.6231794 1.7964262 -1.8081565 13 1
9.1047096 2.1405225 -1.8180283 9 2
11.300635 2.650543 -1.8384181 8 3
14.914719 3.4872367 -1.880688 9 4
29.321239 6.8232765 -1.5777199 11 6
6.4947915 1.4875064 -1.7853339 3 0
7.6485295 1.7475336 -1.8113058 8 1
9.1079454 2.0742915 -1.8157386 7 2
11.330422 2.5742109 -1.8402953 8 3
15.013615 3.4027469 -1.8901937 7 4
21.585512 4.8763885 -1.9360776 34 5
21.753832 4.9024444 -1.1686621 20 6
6.5163341 1.4446367 -1.7884396 3 0
7.6814737 1.698723 -1.8162549 8 1
9.1222048 2.0106554 -1.8157386 9 2
11.31146 2.4869876 -1.8343508 9 3
15.10681 3.3131509 -1.8989682 7 4
30.502537 6.6506357 -1.6361268 21 6
6.5073714 1.3950593 -1.7832633 3 0
7.6416936 1.6340524 -1.8041074 5 1
9.1456203 1.9489675 -1.8176465 6 2
11.34787 2.412065 -1.8374794 9 3
15.189769 3.2203751 -1.9065242 9 4
31.677835 6.6755567 -1.6966273 9 6
6.5245185 1.3511654 -1.7853339 3 0
7.616653 1.5731777 -1.7955593 7 1
9.1798258 1.8910315 -1.8218443 7 2
11.356285 2.3331819 -1.836228 9 3
15.206048 3.1130576 -1.905793 7 4
23.913733 4.8696532 -1.2789862 42 6
6.533565 1.30672 -1.7853339 3 0
7.6157188 1.5190055 -1.7928599 7 1
9.212059 1.830725 -1.8256606 7 2
11.395548 2.2584512 -1.8399823 9 3
15.250255 3.0140996 -1.9087178 7 4
6.5045896 1.2537657 -1.774981 4 0
7.6184826 1.4643331 -1.7910603 7 1
9.2284727 1.767102 -1.8264238 7 2
11.432383 2.1829102 -1.843424 8 3
15.202673 2.8945644 -1.900187 9 4
6.5283794 1.2111436 -1.7791222 3 0
7.617022 1.4089836 -1.7883608 7 1
9.246376 1.7037036 -1.8275685 6 2
11.4454 2.1026871 -1.843111 9 3
15.220559 2.7880015 -1.8999432 10 4
26.230932 4.7716961 -1.3972656 33 6
6.5556941 1.1689285 -1.7842987 3 0
7.6074867 1.3523617 -1.7838619 7 1
9.2909098 1.6449289 -1.8340561 7 2
11.46369 2.0234239 -1.8437368 9 3
15.249424 2.6834013 -1.9011619 9 4
27.392927 4.7857547 -1.4573472 11 6
6.5256109 1.1166192 -1.7739457 9 0
7.6205854 1.2998703 -1.7847617 7 1
9.3311996 1.5849574 -1.8397803 4 2
11.461956 1.9407049 -1.8412338 9 3
15.30302 2.5828214 -1.9055492 9 4
28.24511 4.7316871 -1.5008907 11 6
6.5332479 1.0710315 -1.7739457 21 0
7.6294742 1.2466403 -1.7847617 6 1
9.2606497 1.5065392 -1.8237525 3 2
11.496674 1.8641214 -1.8446754 8 3
15.332438 2.4778161 -1.9070116 9 4
22.340269 3.5943344 -1.9796555 33 5
29.200382 4.6823783 -1.5498772 12 6
6.531023 1.0238987 -1.7713577 18 0
7.6379914 1.1933463 -1.7847617 7 1
9.2340832 1.436114 -1.8165017 4 2
11.544546 1.7892544 -1.8503071 8 3
15.351324 2.3710256 -1.9072554 10 4
30.337925 4.6477799 -1.6084934 11 6
6.5685811 0.9828558 -1.7796398 3 0
7.6191516 1.1359707 -1.778463 6 1
9.2283487 1.3693078 -1.8134488 4 2
11.589976 1.713526 -1.8556259 9 3
15.379286 2.2655313 -1.9087178 10 4
30.998095 4.5276628 -1.6417791 10 6
6.5963206 0.93997246 -1.7853339 3 0
7.6461906 1.0854942 -1.7829621 7 1
9.257122 1.3075943 -1.8172649 4 2
11.644691 1.6386268 -1.8625089 9 3
15.404557 2.1594863 -1.9099365 9 4
6.560605 0.88819659 -1.7739457 2 0
7.580195 1.0221871 -1.7658658 20 1
9.227109 1.2377198 -1.8096325 4 2
11.702838 1.5635755 -1.8700178 9 3
15.423191 2.0524206 -1.910424 9 4
6.58006 0.84409076 -1.7775693 2 0
7.6122761 0.97245282 -1.7717146 25 1
9.2627907 1.176736 -1.8149751 4 2
11.750704 1.4865468 -1.8759624 7 3
15.486384 1.9508919 -1.9165175 7 4
35.440346 4.4206266 -1.8717432 10 6
6.5685315 0.79604411 -1.7729106 3 0
7.6614423 0.92442465 -1.7816124 6 1
9.2432976 1.1103806 -1.8096325 4 2
11.713476 1.4008979 -1.8684534 4 3
15.525252 1.8457755 -1.9196861 9 4
6.5910721 0.75328922 -1.7775693 2 0
7.6656208 0.87203306 -1.7811624 6 1
9.2391186 1.0444999 -1.8073429 4 2
11.640525 1.3098112 -1.8553129 5 3
15.567046 1.743377 -1.9233421 7 4
6.6038537 0.70808041 -1.7796398 2 0
7.6715217 0.81849569 -1.7811624 6 1
9.2167311 0.97847801 -1.8016186 6 2
11.62167 1.2276412 -1.8509328 4 3
15.640039 1.6410778 -1.9308981 9 4
6.6008315 0.66234136 -1.7775693 2 0
7.6594639 0.76451635 -1.7771133 5 1
9.2291975 0.91469008 -1.8027636 30 2
11.637818 1.1472517 -1.8521842 4 3
15.676532 1.5370994 -1.9340667 10 4
42.222355 4.087873 -2.2231269 1 6
6.6014476 0.61588699 -1.776534 2 0
7.6859589 0.71300828 -1.7820623 6 1
9.264534 0.85455692 -1.8084878 6 2
11.641424 1.0676537 -1.8515586 5 3
15.773866 1.4355353 -1.9447912 7 4
44.516926 4.0043645 -2.342453 0 6
6.6208844 0.57226562 -1.7806751 2 0
7.6770434 0.65950382 -1.7789129 5 1
9.2878799 0.79135305 -1.8119223 4 2
11.624975 0.98434961 -1.8478041 4 3
15.943498 1.3416153 -1.964534 10 4
6.6170144 0.52542073 -1.7786045 2 0
7.6814604 0.60589552 -1.7789129 4 1
9.2558632 0.72520471 -1.8046715 3 2
11.605802 0.90321094 -1.8437368 4 3
16.029665 1.2362289 -1.9740397 8 4
6.631999 0.48120356 -1.7817104 2 0
7.6834626 0.5534516 -1.778463 3 1
9.2607012 0.66056895 -1.8046715 3 2
11.572416 0.81937492 -1.8374794 24 3
15.908995 1.1180515 -1.9581968 5 4
6.5947146 0.43224156 -1.77084 2 0
7.6735268 0.49891606 -1.7753137 3 1
9.2454948 0.59464091 -1.8008554 3 2
11.638968 0.74245715 -1.8471783 12 3
15.864902 1.0036923 -1.9518596 5 4
6.5975714 0.38619122 -1.77084 2 0
7.7021136 0.44679973 -1.7811624 3 1
9.2768621 0.53165329 -1.8061981 3 2
11.64584 0.66130126 -1.8474913 3 3
63.427986 3.5795062 7.8003702 6 11
15.843775 0.89135647 -1.9484472 5 4
6.6078243 0.34051979 -1.7729106 2 0
7.68753 0.39212453 -1.7771133 2 1
62.982689 3.1905725 3.3050158 7 9
9.2587776 0.46579051 -1.8020002 3 2
11.665956 0.58076757 -1.8499942 3 3
15.843663 0.78043127 -1.947716 3 4
6.6138997 0.29455522 -1.7739457 2 0
7.7017608 0.33896366 -1.7798127 3 1
9.2853413 0.40216014 -1.8065797 3 2
11.646044 0.49829641 -1.8462398 2 3
15.820959 0.66862917 -1.9443036 3 4
6.627378 0.248806 -1.7770516 2 0
7.7000451 0.28503913 -1.7789129 3 1
9.280015 0.33866099 -1.8050531 3 2
11.653113 0.41915461 -1.8468655 3 3
15.745887 0.55537045 -1.9345541 19 4
6.5980229 0.20274284 -1.7687694 2 0
7.6901197 0.23227055 -1.7762135 2 1
9.2664537 0.27340281 -1.8020002 3 2
11.643909 0.33744699 -1.8449883 3 3
15.824784 0.44755495 -1.9438162 3 4
6.618618 0.15597844 -1.7739457 2 0
7.6876884 0.1771456 -1.7753137 2 1
9.2995424 0.20941572 -1.8081062 3 2
11.638124 0.2539441 -1.8437368 2 3
15.853324 0.33761567 -1.9469848 2 4
6.6272721 0.1098961 -1.7760164 2 0
7.6887374 0.1234711 -1.7753137 2 1
9.2733202 0.1424378 -1.8027636 3 2
11.635664 0.17262988 -1.843111 3 3
15.789792 0.22599287 -1.9389415 3 4
6.6201506 0.063552164 -1.7739457 2 0
7.7011042 0.069896705 -1.7780131 1 1
9.2819271 0.079384468 -1.8042899 3 2
11.63262 0.093398094 -1.8424854 2 3
15.757239 0.11551397 -1.9347978 2 4
24.218925 0.16486447 -2.1189303 29 5
6.6378164 0.018537214 -1.7786045 2 0
7.6897092 0.017448697 -1.7753137 1 1
9.2822552 0.014578043 -1.8042899 3 2
11.613234 0.01215859 -1.8393567 2 3
15.715974 0.0082256217 -1.9296793 2 4
6.6532393 -0.027869185 -1.7827457 2 0
7.6896434 -0.03623686 -1.7753137 2 1
9.2585726 -0.050094187 -1.7997105 3 2
11.609086 -0.068890512 -1.8387309 2 3
15.723589 -0.10153992 -1.9306543 2 4
6.6219745 -0.073971242 -1.7744634 2 0
7.6755624 -0.089759856 -1.7721643 3 1
9.222662 -0.11429156 -1.7928416 3 2
11.58857 -0.14967974 -1.8356022 2 3
15.68673 -0.21356556 -1.926267 2 4
6.5961661 -0.12089458 -1.7677342 2 0
7.6864142 -0.14490266 -1.7748638 3 1
9.2726736 -0.1796634 -1.8027636 3 2
11.603002 -0.23291846 -1.8381052 2 3
15.668981 -0.32274646 -1.9243171 2 4
47.916821 -1.0455487 -2.5118122 0 6
6.6299233 -0.16782111 -1.7770516 3 0
7.685215 -0.19855998 -1.7748638 3 1
9.2711506 -0.24601211 -1.8027636 3 2
11.573447 -0.31316826 -1.833725 3 3
15.650471 -0.43168998 -1.9223672 2 4
6.6285896 -0.21410222 -1.7770516 3 0
7.6933804 -0.2525273 -1.7771133 4 1
9.2652826 -0.31059885 -1.8020002 3 2
11.598619 -0.39489892 -1.8381052 3 3
15.662947 -0.54148817 -1.9243171 2 4
6.6114912 -0.25976622 -1.7729106 4 0
7.6875358 -0.30607557 -1.7762135 5 1
9.2530794 -0.37487724 -1.8000921 4 2
11.583736 -0.47537628 -1.836228 3 3
15.634985 -0.64983284 -1.9213922 3 4
6.6095166 -0.3059164 -1.7729106 4 0
7.6871576 -0.35982788 -1.7766634 3 1
9.2620802 -0.43840879 -1.8023818 4 2
11.596018 -0.55496812 -1.8387309 4 3
15.653859 -0.76012421 -1.9243171 3 4
6.595706 -0.3502838 -1.7698047 4 0
7.6923141 -0.41256145 -1.778463 7 1
9.2156668 -0.50071579 -1.7939863 4 2
11.603695 -0.63655865 -1.8406081 3 3
15.630484 -0.86567026 -1.9221234 4 4
6.5815296 -0.3956261 -1.7666988 4 0
7.6853561 -0.4660176 -1.7775632 7 1
9.2452583 -0.5670839 -1.8004738 3 2
11.591082 -0.71706361 -1.8393567 3 3
15.622079 -0.97464609 -1.9218796 3 4
6.5863171 -0.4420813 -1.7687694 4 0
7.6702499 -0.51887047 -1.7748638 7 1
9.2391157 -0.63147968 -1.8000921 4 2
11.605501 -0.79932386 -1.8424854 3 3
15.6446 -1.0857457 -1.9255358 4 4
6.6023364 -0.4894796 -1.7739457 5 0
7.6703277 -0.57269609 -1.7757636 7 1
9.2383986 -0.69626021 -1.8008554 4 2
11.611456 -0.88122225 -1.8443626 3 3
15.597053 -1.1919131 -1.9206611 4 4
6.5795031 -0.53399754 -1.7687694 5 0
7.6739111 -0.62686533 -1.7775632 6 1
9.217659 -0.75944918 -1.7978026 4 2
11.589271 -0.96095747 -1.8418596 2 3
15.618024 -1.3032472 -1.9243171 3 4
6.5794635 -0.58025724 -1.7698047 4 0
7.6615839 -0.67973477 -1.7757636 6 1
9.2279196 -0.82356989 -1.8008554 4 2
11.602137 -1.0415866 -1.8449883 3 3
15.614476 -1.4127856 -1.9250482 2 4
6.5753613 -0.62502843 -1.7698047 4 0
7.6684184 -0.7329818 -1.778463 6 1
9.2160826 -0.88740784 -1.7997105 3 2
11.57492 -1.1206551 -1.8418596 3 3
15.606473 -1.5192287 -1.925292 3 4
6.5823693 -0.67209494 -1.7729106 4 0
7.6282206 -0.78291786 -1.7703648 7 1
9.2448139 -0.95535862 -1.8065797 3 2
11.598251 -1.2047006 -1.8468655 3 3
15.593513 -1.6279384 -1.9250482 2 4
6.5890388 -0.7192896 -1.7760164 4 0
7.6458144 -0.83870333 -1.7757636 6 1
9.2457256 -1.0207375 -1.8081062 3 2
11.585632 -1.2852063 -1.8462398 3 3
15.58966 -1.7376407 -1.9260232 2 4
6.5876946 -0.76571792 -1.7770516 4 0
7.6475153 -0.8929643 -1.7775632 7 1
9.2247257 -1.0836562 -1.8054349 4 2
11.588147 -1.3674462 -1.8481169 3 3
15.581092 -1.8469011 -1.9265107 2 4
6.5476766 -0.80743384 -1.7677342 4 0
7.6333594 -0.94537383 -1.7757636 6 1
9.1993999 -1.1458459 -1.8020002 3 2
11.578319 -1.4483125 -1.8481169 3 3
15.55403 -1.9538997 -1.9248046 3 4
6.564868 -0.85612309 -1.7739457 3 0
7.6246409 -0.99838823 -1.7753137 5 1
9.2264261 -1.2130438 -1.8088694 3 2
11.568192 -1.5270896 -1.8481169 3 3
15.569528 -2.0663567 -1.9284606 2 4
6.5359221 -0.89763433 -1.7677342 4 0
7.6022248 -1.0481348 -1.7717146 4 1
9.1827269 -1.2725751 -1.8020002 3 2
11.557249 -1.6078128 -1.8481169 3 3
15.559034 -2.1728351 -1.9289482 2 4
6.5562639 -0.94710827 -1.774981 3 0
7.5985794 -1.1017417 -1.7726144 4 1
9.169734 -1.3360852 -1.801237 3 2
11.545743 -1.6884577 -1.8481169 3 3
15.582767 -2.2871695 -1.933823 2 4
6.5380316 -0.99111891 -1.7718753 3 0
7.6061153 -1.1571071 -1.7762135 4 1
9.1679459 -1.4012552 -1.8027636 3 2
11.533674 -1.7690207 -1.8481169 3 3
15.546801 -2.3928814 -1.9313855 2 4
6.5347691 -1.0373442 -1.7729106 3 0
7.6055498 -1.2114053 -1.7780131 3 1
9.1581964 -1.4636266 -1.8027636 3 2
11.552573 -1.8524905 -1.8531229 3 3
15.519917 -2.4997807 -1.9301667 2 4
6.5466156 -1.084959 -1.7780869 3 0
7.5875158 -1.2615479 -1.7757636 3 1
9.1361361 -1.5255865 -1.8004738 3 2
11.52767 -1.9311389 -1.8512456 3 3
15.529948 -2.6099691 -1.9335792 3 4
6.5331707 -1.1296488 -1.776534 2 0
7.565084 -1.3121564 -1.7726144 4 1
9.1487503 -1.5917767 -1.8050531 3 2
11.510365 -2.0088804 -1.85062 3 3
15.446825 -2.7070162 -1.9255358 5 4
6.5215273 -1.1734079 -1.7754986 2 0
7.5713186 -1.3663882 -1.7762135 4 1
9.137414 -1.6556077 -1.8050531 3 2
11.515496 -2.0927203 -1.8537486 3 3
15.437805 -2.8138757 -1.9267545 7 4
6.5131769 -1.2189077 -1.7754986 2 0
7.5788326 -1.4224477 -1.7802627 3 1
9.1413698 -1.7206707 -1.8081062 3 2
11.489339 -2.1688561 -1.8518714 4 3
15.367074 -2.9119728 -1.9204172 12 4
6.5142112 -1.2650545 -1.7780869 3 0
7.5651493 -1.4732567 -1.7793628 3 1
9.1561089 -1.7897198 -1.8134488 3 2
11.493302 -2.2528131 -1.8550001 4 3
15.324946 -3.0149686 -1.9177362 9 4
6.4917359 -1.3089635 -1.7744634 2 0
7.5601439 -1.5285121 -1.7807125 3 1
9.0972128 -1.8442359 -1.8042899 3 2
11.502051 -2.3401186 -1.8590674 5 3
15.334644 -3.128231 -1.921636 4 4
6.5013499 -1.3582028 -1.7796398 2 0
7.5645471 -1.5844505 -1.7843118 2 1
9.0991526 -1.9125167 -1.8073429 3 2
11.454507 -2.4138432 -1.8540615 5 3
15.458098 -3.2659864 -1.9399164 7 4
6.4520564 -1.394984 -1.7687694 2 0
7.5571108 -1.6380475 -1.7852116 2 1
9.1147013 -1.9806614 -1.8130672 4 2
11.437811 -2.491755 -1.8540615 5 3
15.708363 -3.433594 -1.9742836 5 4
6.4914322 -1.4498174 -1.782228 2 0
7.5248675 -1.6847652 -1.7802627 3 1
9.0968199 -2.0433848 -1.8123039 4 2
11.443263 -2.5767519 -1.8578159 4 3
15.748528 -3.5548608 -1.9823269 3 4
6.4755054 -1.4937977 -1.7806751 2 0
7.5281115 -1.7407694 -1.7838619 3 1
9.0880709 -2.1081731 -1.8134488 3 2
11.434615 -2.6588147 -1.8593802 6 3
15.781325 -3.678237 -1.989639 3 4
6.4517632 -1.5358368 -1.7770516 2 0
7.5233569 -1.7950919 -1.7856615 3 1
9.1017714 -2.1784227 -1.8191731 4 2
11.40617 -2.736274 -1.8578159 5 3
15.828603 -3.8059552 -1.9989011 3 4
6.4427605 -1.5813015 -1.7775693 2 0
7.4936113 -1.8433813 -1.7816124 5 1
9.0691872 -2.2376788 -1.8157386 4 2
11.39446 -2.8177333 -1.8590674 4 3
15.872938 -3.9340355 -2.0079193 2 4
6.4109616 -1.6210321 -1.7718753 2 0
7.4918933 -1.8985232 -1.7843118 5 1
9.0438299 -2.2985206 -1.8138304 4 2
11.443424 -2.9147654 -1.8703307 4 3
15.941259 -4.0693026 -2.0201063 2 4
6.4387498 -1.6759685 -1.7827457 2 0
7.4709144 -1.9488124 -1.7825122 4 1
9.0507689 -2.3659847 -1.8184099 4 2
11.51122 -3.0156174 -1.8847226 5 3
15.947021 -4.1895728 -2.0244937 2 4
6.4066639 -1.7142638 -1.7770516 2 0
7.4687696 -2.0026481 -1.7852116 5 1
9.0169668 -2.4245243 -1.8149751 4 2
11.508961 -3.1010466 -1.8878514 5 3
15.996708 -4.3192377 -2.034487 3 4
6.4113045 -1.7635599 -1.7817104 2 0
7.4489703 -2.0531869 -1.7838619 6 1
9.0267496 -2.4931624 -1.820318 4 2
11.523759 -3.1893239 -1.893796 4 3
16.038851 -4.4509811 -2.0437491 3 4
6.4140248 -1.8113594 -1.7858515 2 0
7.4423227 -2.1059651 -1.7856615 6 1
9.0129013 -2.5571911 -1.8210812 4 2
11.556314 -3.2853618 -1.9028691 4 3
16.053205 -4.5759048 -2.0495987 3 4
6.384201 -1.8523655 -1.7811928 3 0
7.4420323 -2.1635187 -1.7892607 7 1
8.9910593 -2.6189523 -1.820318 4 2
11.538198 -3.3696334 -1.9038078 4 3
16.104696 -4.7123942 -2.0603232 3 4
6.3711138 -1.8968902 -1.7811928 3 0
7.4080729 -2.2098503 -1.7847617 7 1
8.9720888 -2.6832235 -1.820318 4 2
11.574944 -3.4682462 -1.9138194 3 3
16.136049 -4.8441167 -2.0686104 3 4
6.3466296 -1.937937 -1.7780869 3 0
7.4185538 -2.2694955 -1.7910603 7 1
8.9648781 -2.7476833 -1.8226075 4 2
11.59639 -3.5608697 -1.9213283 3 3
16.185316 -4.9823451 -2.0793347 3 4
6.3517294 -1.9868594 -1.7832633 4 0
7.3880577 -2.3152766 -1.7874612 7 1
8.9791918 -2.8207939 -1.8294767 4 2
11.593859 -3.6488566 -1.9250828 3 3
16.243795 -5.1216488 -2.0912783 2 4
6.3340244 -2.0299749 -1.782228 4 0
7.3680034 -2.3656068 -1.7865613 7 1
8.9891825 -2.8930349 -1.8355827 4 2
11.624505 -3.7478919 -1.9344687 3 3
16.296429 -5.2636032 -2.1027339 3 4
6.3196979 -2.0741451 -1.782228 4 0
7.3661184 -2.4218564 -1.7901604 7 1
8.9836826 -2.9606359 -1.8386356 4 2
11.628069 -3.8388634 -1.9394747 3 3
16.387442 -5.4196281 -2.1193082 3 4
6.3087263 -2.1194444 -1.7832633 4 0
7.3416433 -2.470736 -1.7883608 7 1
8.9782047 -3.0267339 -1.8416885 4 2
11.6391 -3.9305634 -1.9457321 3 3
16.441341 -5.5650868 -2.1312513 2 4
6.2649212 -2.1522942 -1.774981 4 0
7.335712 -2.5244563 -1.7910603 7 1
8.9939756 -3.1021426 -1.8493209 4 2
11.633781 -4.0194645 -1.9494866 3 3
16.553156 -5.7288084 -2.1507504 2 4
6.2606783 -2.199821 -1.7780869 4 0
7.3215861 -2.576901 -1.7919601 7 1
8.9485807 -3.1548042 -1.8443599 3 2
11.621054 -4.1038213 -1.9519895 3 3
16.699894 -5.9104624 -2.1751244 2 4
6.2419233 -2.2410796 -1.7770516 4 0
7.3002086 -2.6253583 -1.7910603 6 1
8.9872885 -3.239167 -1.8569533 4 2
11.621848 -4.1955833 -1.9569954 3 3
16.784349 -6.0692239 -2.1914546 3 4
6.2587714 -2.2965801 -1.7863692 4 0
7.3036513 -2.6843264 -1.7964592 7 1
8.9552441 -3.2984378 -1.8550451 3 2
11.647874 -4.2971272 -1.9663814 3 3
16.883085 -6.238544 -2.2099788 4 4
6.2389674 -2.3388619 -1.7853339 4 0
7.2993293 -2.7407298 -1.8000585 7 1
8.9283247 -3.359494 -1.8542819 3 2
11.65456 -4.392272 -1.9726388 3 3
17.024839 -6.4263606 -2.2343528 4 4
6.2116623 -2.3782163 -1.782228 4 0
7.2872949 -2.7944124 -1.8018579 7 1
8.9816217 -3.4513195 -1.8703098 3 2
11.627299 -4.4749475 -1.9732646 3 3
6.1913099 -2.4201171 -1.7811928 4 0
7.2748675 -2.8480604 -1.8036577 7 1
8.9828968 -3.5239766 -1.8756526 3 2
11.645416 -4.5755157 -1.981712 4 3
17.219772 -6.7761059 -2.2721322 5 4
6.1993837 -2.4733033 -1.7884396 4 0
7.2692842 -2.904563 -1.8072568 7 1
8.9617214 -3.5880618 -1.8764157 3 2
11.626023 -4.6618505 -1.9839021 4 3
17.356258 -6.9701338 -2.2965062 5 4
6.1712303 -2.5121524 -1.7853339 5 0
7.2524381 -2.9567125 -1.8081565 7 1
8.9691677 -3.663902 -1.8832849 3 2
11.626104 -4.7563648 -1.9895338 4 3
17.560665 -7.1949935 -2.330142 5 4
6.153542 -2.5551741 -1.7853339 4 0
7.2460155 -3.013258 -1.8117559 6 1
8.9331474 -3.7203393 -1.8809953 3 2
11.677324 -4.8703685 -2.0039258 3 3
17.735292 -7.4115605 -2.360122 8 4
6.1360068 -2.5970001 -1.7853339 4 0
7.2396908 -3.0685937 -1.8153551 7 1
8.9322548 -3.7933574 -1.8863379 3 2
11.664853 -4.9610496 -2.0076802 3 3
17.750181 -7.5601115 -2.3688965 9 4
6.1319175 -2.6458972 -1.789475 4 0
7.2324023 -3.1252451 -1.8189542 7 1
8.909831 -3.855628 -1.8871011 3 2
11.688814 -5.0654697 -2.0176921 3 3
17.791655 -7.7249565 -2.3815711 9 4
6.13098 -2.6964185 -1.7946514 4 0
7.2050576 -3.1733036 -1.8176044 5 1
8.8927898 -3.9240417 -1.8893907 3 2
11.742609 -5.1889029 -2.0333354 3 3
17.90793 -7.9244862 -2.4044824 8 4
6.0979023 -2.7328341 -1.7905102 4 0
7.2022858 -3.2323041 -1.8225534 6 1
8.8974085 -4.0005202 -1.8962599 3 2
11.770941 -5.2999511 -2.0445988 3 3
18.196003 -8.2043428 -2.4507926 9 4
6.1032786 -2.7865715 -1.7977571 5 0
7.177772 -3.2816958 -1.8221035 4 1
8.8978224 -4.0756192 -1.9023658 3 2
11.798292 -5.4116464 -2.0558619 3 3
18.295223 -8.4032593 -2.471998 12 4
6.0696621 -2.8225954 -1.7936161 4 0
7.1723533 -3.3399522 -1.8266027 5 1
8.8841085 -4.1427279 -1.9054186 3 2
11.847097 -5.5319457 -2.0708797 3 3
22.71883 -10.618112 3.0791512 7 11
19.311363 -9.0337753 -2.6177537 7 4
6.0503092 -2.8638449 -1.7936161 4 0
7.1476917 -3.3878603 -1.8261526 3 1
8.8585176 -4.2063336 -1.9061821 3 2
11.854571 -5.6365728 -2.0790143 3 3
22.778585 -10.840437 3.0974314 11 11
19.837301 -9.4449139 -2.6977 9 4
6.0301681 -2.9060137 -1.7936161 4 0
7.1466813 -3.4486878 -1.8320013 4 1
8.8784285 -4.2919998 -1.9168673 3 2
11.893165 -5.7570648 -2.0927804 3 3
22.432594 -10.8685 3.0606267 5 11
19.960232 -9.6749525 -2.7235363 9 4
6.0236092 -2.9548473 -1.7977571 4 0
7.1294284 -3.5019333 -1.833801 4 1
8.8253489 -4.3426094 -1.9119062 4 2
11.923562 -5.8748765 -2.1052952 3 3
20.047079 -9.8904762 -2.7447417 12 4
6.0374026 -3.0140855 -1.80811 4 0
7.1222372 -3.5603335 -1.8382999 4 1
8.8158817 -4.4146643 -1.9164857 4 2
11.967017 -6.0004754 -2.1203129 4 3
22.615759 -11.349823 3.1069374 2 11
20.066246 -10.074723 -2.7569287 14 4
22.353441 -11.247498 4.8641028 8 13
6.0058789 -3.0509114 -1.8050041 4 0
7.1180515 -3.6205711 -1.8436987 5 1
8.8023386 -4.4850159 -1.9203018 4 2
12.012815 -6.1287599 -2.1359563 4 3
22.429893 -11.453268 3.0923128 8 11
21.855135 -11.164591 -3.0133417 14 4
22.125832 -11.327233 4.8316655 4 13
5.9810004 -3.0909915 -1.8039688 4 0
7.1029863 -3.6755495 -1.8463982 5 1
8.785553 -4.5520525 -1.9233549 4 2
12.084795 -6.269515 -2.1562929 13 3
22.562826 -11.715448 3.1215615 2 11
21.526533 -11.186909 -2.9787307 16 4
21.024885 -10.930874 3.753176 2 12
21.997459 -11.456033 4.8209801 3 13
5.963243 -3.1334283 -1.8050041 4 0
7.0709057 -3.7201834 -1.8445988 4 1
8.7552967 -4.6141911 -1.9237365 3 2
12.038984 -6.3528075 -2.1559801 18 3
21.68708 -11.453655 3.0113916 2 11
21.204165 -11.203346 -2.9446073 15 4
20.893927 -11.048762 3.7434771 8 12
22.106359 -11.704714 4.862195 11 13
5.9787064 -3.195014 -1.8163921 3 0
7.0688167 -3.7823277 -1.8508973 4 1
8.7592077 -4.6946778 -1.9317504 4 2
12.152733 -6.5217004 -2.1844511 5 3
21.571613 -11.585995 3.0065172 7 11
20.887619 -11.223323 -2.911459 15 4
20.967644 -11.275755 3.7706969 5 12
21.958422 -11.823391 4.8476939 13 13
23.13278 -12.466136 -1.3771685 22 6
5.9732299 -3.245899 -1.8215685 3 0
7.0542216 -3.8381042 -1.8540466 6 1
8.745182 -4.7660484 -1.9359483 3 2
12.193608 -6.6536932 -2.2000947 4 3
21.000643 -11.468948 2.9380264 14 11
20.575323 -11.241334 -2.878798 14 4
20.834686 -11.392482 3.760998 8 12
20.907545 -11.446545 4.6332245 3 13
5.9335136 -3.2781785 -1.8163921 3 0
7.0426016 -3.8957472 -1.8580956 4 1
8.7889729 -4.869802 -1.9531209 3 2
12.288504 -6.8172374 -2.2257497 5 3
20.861053 -11.582517 2.9297392 21 11
20.371395 -11.3153 -2.8612487 14 4
20.531921 -11.413842 3.7206376 23 12
21.11875 -11.754543 4.6980996 6 13
5.9374342 -3.3346584 -1.8246742 3 0
7.027123 -3.9515047 -1.8612449 6 1
8.8026581 -4.9580188 -1.9638064 3 2
23.134706 -13.035737 2.3232236 7 10
12.342129 -6.9601102 -2.2442091 6 3
18.317932 -10.338479 2.5826554 6 11
20.153616 -11.379162 -2.8417497 14 4
20.620277 -11.652143 3.7512989 24 12
20.292871 -11.481155 4.5320954 6 13
5.9173646 -3.3779435 -1.8257096 3 0
7.0095162 -4.0062685 -1.8639444 6 1
8.7823381 -5.0256219 -1.9668592 3 2
21.729153 -12.444403 2.1907468 2 10
12.549853 -7.1902776 -2.2908266 8 3
18.085262 -10.370107 2.5597439 9 11
19.93939 -11.442515 -2.8227379 14 4
20.770046 -11.924019 3.7932234 22 12
20.166273 -11.596122 4.5217919 8 13
22.199738 -12.770572 -1.3422081 11 6
5.9343429 -3.4414022 -1.8381329 3 0
6.9955664 -4.0617156 -1.8675436 6 1
8.780982 -5.1065502 -1.9744916 3 2
22.575623 -13.134051 2.2850492 13 10
12.596654 -7.3343711 -2.30866 7 3
20.670895 -12.045242 2.9375391 9 11
19.765003 -11.521987 -2.8090887 14 4
18.399952 -10.734838 3.3739789 14 12
20.385239 -11.907399 4.5889564 13 13
21.44961 -12.544185 5.7367015 7 14
20.828299 -12.200351 6.4678884 6 15
5.8968577 -3.4749014 -1.8339919 3 0
6.9670401 -4.1104541 -1.8675436 6 1
8.8474426 -5.2261124 -1.9973886 3 2
20.744259 -12.263234 2.1082973 4 10
12.668859 -7.492342 -2.3311865 9 3
20.803673 -12.31306 2.96825 10 11
19.622599 -11.62327 -2.8003139 14 4
18.251682 -10.815523 3.3602128 19 12
20.438362 -12.130588 4.6198678 22 13
21.329681 -12.674708 5.7281537 21 14
20.73315 -12.334929 6.4642649 6 15
5.85815 -3.5060306 -1.8293331 2 0
6.9623027 -4.1718049 -1.8738421 6 1
8.8006411 -5.2816892 -1.9950989 3 2
20.803793 -12.490299 2.1229396 4 10
12.689054 -7.6243529 -2.34464 8 3
17.906824 -10.768014 2.5655937 19 11
19.455931 -11.708797 -2.7881269 14 4
18.311119 -11.024189 3.3852422 19 12
20.349815 -12.27095 4.6191044 19 13
21.213984 -12.807195 5.7209554 10 14
5.8543682 -3.5609112 -1.8360624 3 0
6.93893 -4.2255735 -1.8756418 7 1
8.7937269 -5.3613958 -2.0019681 3 2
20.727489 -12.647147 2.1243341 9 10
12.698235 -7.7540789 -2.3565292 8 3
18.063293 -11.034537 2.5989857 8 11
19.341536 -11.824665 -2.7834959 16 4
18.348028 -11.226073 3.4068303 9 12
19.960636 -12.227101 4.5500317 2 13
20.949631 -12.84801 5.6737156 17 14
5.8392267 -3.6077881 -1.8391682 3 0
6.9059463 -4.271862 -1.8747422 7 1
8.8185558 -5.4634752 -2.0164697 3 2
20.554016 -12.739064 2.1156185 11 10
12.616934 -7.8258796 -2.3515232 8 3
18.076632 -11.221094 2.6123915 9 11
19.16239 -11.899714 -2.769603 14 4
18.445375 -11.463375 3.4396813 9 12
16.760965 -10.428723 3.8371689 8 13
20.941504 -13.050155 5.6966605 28 14
5.8237157 -3.6546264 -1.8422741 3 0
6.8990569 -4.3344846 -1.8810407 7 1
21.251785 -13.362253 1.3156214 5 9
8.7801991 -5.5249066 -2.0164697 3 2
17.746536 -11.171265 1.8346283 6 10
12.500152 -7.8748126 -2.339947 7 3
18.044872 -11.37666 2.6192162 12 11
18.907589 -11.925186 -2.7447417 12 4
18.172796 -11.470614 3.4037015 13 12
19.88921 -12.568578 4.5733099 6 13
5.8078341 -3.7014236 -1.8453798 3 0
6.8686285 -4.3825436 -1.8810407 7 1
20.82468 -13.297462 1.2948964 17 9
8.810895 -5.6304698 -2.0324974 3 2
17.674828 -11.299178 1.8353256 6 10
12.508101 -8.0023413 -2.351836 7 3
18.359549 -11.754972 2.6767385 13 11
18.59988 -11.913424 -2.7120807 3 4
18.772455 -12.033204 3.5316648 19 12
16.691381 -10.711563 3.8551052 11 13
20.524273 -13.181407 -1.2783582 31 6
5.7721214 -3.7355819 -1.8422741 3 0
20.609259 -13.348041 0.4285962 47 8
6.8509493 -4.4388652 -1.8846399 7 1
17.14345 -11.116077 1.0707937 18 9
8.8092518 -5.716424 -2.0412748 4 2
17.446783 -11.325744 1.8198119 11 10
12.771636 -8.2971659 -2.4122198 8 3
18.586592 -12.084115 2.7220738 13 11
18.319893 -11.91527 -2.6833196 1 4
18.590315 -12.100388 3.5132055 14 12
20.461863 -13.344011 -1.2802423 31 6
16.134977 -10.530301 4.4481821 4 14
5.7530193 -3.779027 -1.8443446 3 0
6.8401146 -4.4982438 -1.8900387 7 1
17.039026 -11.213843 1.0690143 12 9
8.8029289 -5.7978511 -2.0489073 4 2
17.239517 -11.358735 1.8062155 9 10
13.367921 -8.8145199 -2.5361156 4 3
17.947201 -11.84299 2.6401777 7 11
19.772448 -13.052386 -2.9090214 15 4
18.265238 -12.066588 3.4672139 20 12
20.370602 -13.472784 4.7473278 15 13
20.40387 -13.505027 -1.2823358 10 6
16.075924 -10.648494 4.4517813 8 14
19.899757 -13.196349 6.3980069 9 15
5.7457833 -3.8319612 -1.8505563 3 0
6.8182683 -4.5523791 -1.8927382 7 1
16.991875 -11.353608 1.0710031 12 9
8.8177261 -5.8962693 -2.0618823 4 2
17.202856 -11.507614 1.8107476 13 10
13.660626 -9.1449919 -2.6036956 9 3
18.268137 -12.238688 2.6998937 9 11
18.940443 -12.693888 -2.799583 4 4
19.512676 -13.087272 3.7212636 31 12
16.110004 -10.817314 3.7719126 15 13
19.496794 -13.101301 -1.2310464 41 6
20.013216 -13.458465 5.5679884 10 14
19.526981 -13.136433 -0.41079476 34 7
5.7252898 -3.8763123 -1.8526268 3 0
19.489933 -13.2056 0.41093436 44 8
6.8024516 -4.6108027 -1.8972371 7 1
16.903934 -11.46635 1.0704798 9 9
8.8283272 -5.9929695 -2.0740941 4 2
17.140228 -11.639744 1.8126651 6 10
13.763096 -9.3533907 -2.6356082 9 3
18.088688 -12.302292 2.6860006 16 11
19.455339 -13.236732 -2.8892784 4 4
19.255919 -13.110888 3.6896636 7 12
15.933516 -10.860959 3.7482522 10 13
20.543308 -14.013694 -1.3032701 21 6
16.132006 -11.008633 4.5089188 18 14
5.6821675 -3.9052458 -1.8474505 3 0
6.7893624 -4.6714349 -1.9026359 6 1
17.006468 -11.70571 1.0819937 9 9
8.8342171 -6.0852199 -2.0851607 12 2
17.117607 -11.799828 1.8189403 9 10
13.521855 -9.3246212 -2.6015055 11 3
18.530617 -12.78819 2.7644844 8 11
19.006374 -13.126313 -2.8361437 8 4
19.30925 -13.340466 3.7171962 28 12
16.078487 -11.12497 3.8005338 9 13
20.197826 -13.980423 -1.28736 32 6
18.654724 -12.921962 5.23911 6 14
17.410028 -12.073265 5.6769376 9 15
5.6792231 -3.9604075 -1.855215 2 0
6.7829742 -4.7353888 -1.9098345 6 1
16.996372 -11.874482 1.0865992 9 9
8.7866926 -6.1433711 -2.0840161 24 2
17.087505 -11.951469 1.824344 11 10
13.521163 -9.4641018 -2.6140203 10 3
19.4652 -13.634743 2.9180398 16 11
19.37178 -13.574347 -2.9043903 9 4
19.199472 -13.463601 3.7140675 23 12
16.17432 -11.354856 3.841367 11 13
15.901802 -11.18012 4.4877734 4 14
15.279517 -10.754567 5.0065961 7 15
5.6467056 -3.9966106 -1.853662 3 0
6.7592893 -4.7893867 -1.912534 3 1
17.020588 -12.069097 1.0935075 3 9
8.8284473 -6.26478 -2.1042418 6 2
17.136873 -12.165042 1.8386375 3 10
15.113457 -10.736605 -2.9362752 12 3
19.015217 -13.518406 2.864661 22 11
19.438314 -13.824305 -2.9287643 11 4
19.179045 -13.649999 3.7284596 18 12
15.989926 -11.409716 4.5350132 18 14
15.131753 -10.809321 4.9827843 12 15
5.6280808 -4.042697 -1.8567679 3 0
6.7430925 -4.8489733 -1.9174827 4 1
8.8243246 -6.3549433 -2.1137822 4 2
17.725634 -12.770027 1.9113253 3 10
14.900331 -10.742504 -2.9093685 9 3
18.851156 -13.600884 2.8541803 18 11
19.774321 -14.272183 -2.9943302 14 4
19.054459 -13.762742 3.7228277 7 12
14.408966 -10.418858 3.4563143 11 13
15.872002 -11.493635 4.5242157 13 14
15.024642 -10.89202 4.9724321 10 15
5.6153316 -4.0932689 -1.8619443 3 0
6.7216692 -4.9051204 -1.9210819 4 1
8.8526573 -6.4696789 -2.1313365 7 2
20.965433 -15.327524 2.2721503 15 10
14.719751 -10.769284 -2.8887193 12 3
19.260275 -14.101552 2.930958 14 11
19.819935 -14.516625 -3.0165102 11 4
15.784188 -11.569208 3.0995929 17 12
14.308969 -10.499453 3.4498267 10 13
15.750546 -11.574158 4.5125184 6 14
14.868871 -10.938261 4.946032 6 15
5.5866189 -4.1323714 -1.8619443 3 0
6.7060547 -4.9658432 -1.9264808 4 1
8.8530073 -6.5652385 -2.1424036 6 2
20.899519 -15.504381 2.2766824 5 10
14.536355 -10.791714 -2.867444 12 3
13.364351 -9.9288635 2.0442364 2 11
19.603394 -14.569384 -2.9989612 9 4
15.552456 -11.567127 3.0698702 15 12
14.153437 -10.538123 3.4299829 10 13
14.661709 -10.932482 4.222331 4 14
15.360302 -11.465905 5.1360054 12 15
5.5638132 -4.1759109 -1.8640147 4 0
6.7101731 -5.0418038 -1.9377284 3 1
8.8634329 -6.6693783 -2.1561418 4 2
20.930851 -15.755349 2.2920215 15 10
14.31866 -10.785966 -2.8392861 12 3
13.277273 -10.008777 2.0415554 13 11
19.490107 -14.697518 -2.9972548 14 4
15.696803 -11.845579 3.1146107 8 12
14.209539 -10.7349 3.4616568 9 13
14.543069 -11.002827 4.2101841 16 14
14.859458 -11.254436 4.9946899 9 15
5.5283771 -4.2099705 -1.8619443 4 0
6.6887593 -5.0991597 -1.9417773 4 1
16.482622 -12.574588 1.0864946 29 9
8.8759537 -6.7763662 -2.1706433 6 2
21.018272 -16.052252 2.3138106 7 10
14.170813 -10.830485 -2.824894 12 3
13.19446 -10.091577 2.0396054 9 11
19.498962 -14.918869 -3.0145605 11 4
15.831737 -12.121799 3.1580994 16 12
14.134251 -10.833838 3.4616568 8 13
15.879372 -12.18467 4.6209445 11 14
14.972005 -11.505039 5.0593948 12 15
5.5049663 -4.2531867 -1.8640147 4 0
16.342607 -12.631002 0.36053181 35 8
6.6761203 -5.1636147 -1.9485261 3 1
16.319246 -12.626602 1.0813656 26 9
8.9398384 -6.9219627 -2.1977382 9 2
16.376183 -12.688942 1.8124908 11 10
13.999966 -10.851661 -2.805496 11 3
12.06357 -9.3574638 1.8745944 2 11
19.47117 -15.114277 -3.0265036 14 4
18.574417 -14.423376 3.724705 7 12
14.123365 -10.982867 3.4776852 2 13
14.791327 -11.514734 4.3276086 14 14
16.435963 -12.804264 -0.36367324 38 7
15.064009 -11.739683 5.1173706 12 15
5.4941368 -4.3048573 -1.8702265 4 0
16.282354 -12.766996 0.3611601 35 8
6.6607513 -5.2245736 -1.9543748 4 1
16.232271 -12.741456 1.0814704 13 9
8.9067354 -6.9963322 -2.2015543 9 2
20.783987 -16.331902 2.3125904 10 10
13.902127 -10.932039 -2.8011158 11 3
11.990149 -9.435317 1.8733757 15 11
14.928695 -11.751944 -2.332823 1 4
13.259479 -10.445427 2.6734653 15 12
14.387424 -11.346203 3.5616407 8 13
16.134577 -12.733178 -1.0771787 19 6
15.545592 -12.277167 4.5732551 11 14
16.269972 -12.85386 -0.36192802 38 7
14.931675 -11.805024 5.1002884 3 15
5.4699984 -4.3479161 -1.872297 4 0
16.145878 -12.843013 0.36011297 35 8
6.645463 -5.2879338 -1.9606735 4 1
15.19766 -12.101763 1.0181438 2 9
8.8699589 -7.068131 -2.2046072 10 2
16.078154 -12.816653 1.7988945 19 10
13.709652 -10.936438 -2.7776506 10 3
11.972079 -9.5571852 1.8809316 22 11
15.935213 -12.725468 -2.5039277 19 4
13.18006 -10.532806 2.6722138 7 12
16.037773 -12.825717 -1.7966284 37 5
15.899157 -12.719414 3.9577603 8 13
15.9533 -12.771863 -1.0710031 38 6
15.743902 -12.613246 4.6573863 14 14
16.023798 -12.842074 -0.35843751 39 7
15.7697 -12.647474 5.4165654 15 15
5.433496 -4.3811474 -1.8702265 4 0
6.6371961 -5.3574548 -1.9692216 3 1
14.93879 -12.067005 1.0064206 11 9
8.81429 -7.1249452 -2.2030807 9 2
15.384077 -12.440006 1.730913 8 10
13.579224 -10.988391 -2.7667003 11 3
11.959061 -9.6842566 1.8894625 12 11
15.907683 -12.886385 -2.5136774 15 4
13.126158 -10.640737 2.6762812 13 12
15.42734 -12.519584 3.8619745 13 13
15.924214 -12.932031 -1.0750854 29 6
12.485912 -10.143407 3.7139418 7 14
14.655206 -11.914211 -0.32967597 36 7
15.179001 -12.34884 5.2431564 9 15
5.4057684 -4.4214196 -1.8712618 4 0
14.673421 -12.00578 0.33093256 31 8
6.6192341 -5.4197092 -1.9750704 5 1
14.71261 -12.050711 0.99668604 15 9
8.7655888 -7.1847768 -2.2030807 10 2
12.101922 -9.9264898 1.369391 8 10
13.461353 -11.045482 -2.7579401 11 3
11.899003 -9.7704735 1.8904375 15 11
19.470673 -15.999084 -3.0942628 17 4
13.05037 -10.727326 2.6756554 6 12
14.804494 -12.186535 3.727263 9 13
12.545634 -10.338146 3.7530832 9 14
14.611786 -12.04931 -0.33058348 37 7
15.784572 -13.021053 5.4828229 18 15
5.4052877 -4.4827776 -1.8816146 4 0
14.589248 -12.107925 0.33093256 31 8
6.58219 -5.4646397 -1.9750704 4 1
14.740269 -12.246301 1.0043271 22 9
8.763526 -7.2859597 -2.2152925 10 2
11.951356 -9.9398384 1.3599782 2 10
13.309518 -11.077271 -2.7426095 10 3
11.910026 -9.9160166 1.902868 19 11
19.347593 -16.119808 -3.0920694 12 4
12.903853 -10.758718 2.6609504 4 12
15.292445 -12.763809 3.8718965 5 13
12.379269 -10.343334 3.7242899 4 14
15.06876 -12.603909 5.2638621 6 15
5.3805637 -4.5244389 -1.8836851 4 0
6.5836034 -5.5419455 -1.9867678 5 1
14.836818 -12.498187 1.0166783 5 9
8.7137289 -7.3454423 -2.2152925 9 2
11.982425 -10.104445 1.3713084 4 10
13.205126 -11.143403 -2.736665 11 3
11.946918 -10.085211 1.9196861 30 11
19.170698 -16.194761 -3.0813446 10 4
12.883122 -10.890937 2.6719007 4 12
15.474965 -13.095888 3.9405875 11 13
12.318985 -10.436175 3.7274392 16 14
15.393688 -13.054795 5.4082832 15 15
5.3555226 -4.5659723 -1.8857557 4 0
6.5724087 -5.6094007 -1.9948659 5 1
8.6993465 -7.4351978 -2.2244515 10 2
12.097828 -10.347136 1.3927487 7 10
13.074935 -11.186797 -2.7254016 12 3
11.971218 -10.249706 1.9350417 28 11
19.179276 -16.432821 -3.1010876 17 4
12.595715 -10.795833 2.6274736 10 12
15.27739 -13.112819 3.9134927 21 13
21.381084 -18.364679 -1.4771302 23 6
12.760197 -10.963881 3.8840048 11 14
15.321842 -13.183517 5.4160476 31 15
5.3081017 -4.5915399 -1.8805792 3 0
6.5571451 -5.6779747 -2.0025144 6 1
8.6933823 -7.5384159 -2.2366631 10 2
12.982615 -11.269711 -2.7228985 11 3
12.101378 -10.512155 1.9681902 8 11
19.116627 -16.61783 -3.1101058 10 4
12.658257 -11.007535 2.6568832 12 12
15.169842 -13.210202 3.910058 8 13
12.223103 -10.65538 3.7436354 13 14
15.198005 -13.267409 5.405695 11 15
5.3186698 -4.6676335 -1.8961084 3 0
6.5426998 -5.7479019 -2.0106125 7 1
8.6863861 -7.6419277 -2.2488749 9 2
12.866061 -11.330992 -2.71539 11 3
13.310526 -11.734806 -2.1787803 3 4
12.368821 -10.912258 2.6124558 13 12
15.02133 -13.266399 3.8955564 3 13
12.191794 -10.782596 3.7575824 13 14
5.2859545 -4.7046504 -1.8961084 3 0
6.5140524 -5.8038092 -2.0142117 6 1
8.6562643 -7.7232962 -2.2549808 9 2
15.238952 -13.601283 1.7870414 16 10
12.752756 -11.390271 -2.7081938 10 3
11.901239 -10.637199 1.959903 23 11
19.012968 -16.999556 -3.1315548 13 4
12.495495 -11.180112 2.655632 12 12
12.810768 -11.474281 3.3429737 10 13
12.07415 -10.829713 3.744535 13 14
15.004095 -13.47186 5.4031067 13 15
5.2730579 -4.7595611 -1.9033554 3 0
6.4834971 -5.8582892 -2.0173612 5 1
8.6312494 -7.8098845 -2.2626133 10 2
12.617292 -11.428629 -2.6963046 10 3
18.914413 -17.150541 -3.1349673 10 4
12.525393 -11.365301 2.6787841 21 12
14.745991 -13.394315 3.872278 2 13
12.076097 -10.984552 3.7688301 14 14
15.112512 -13.760973 5.4766116 6 15
5.253952 -4.8093009 -1.9085318 3 0
6.4841065 -5.9415889 -2.0304081 7 1
15.069508 -13.818339 1.0715265 3 9
8.6256981 -7.915081 -2.2755883 10 2
12.47028 -11.454966 -2.6819129 10 3
11.814404 -10.860097 1.9703838 17 11
18.878973 -17.360104 -3.1491041 13 4
12.466094 -11.471194 2.6831641 21 12
12.637764 -11.641388 3.339921 13 13
12.076466 -11.139939 3.7931249 14 14
14.821631 -13.686589 5.405695 1 15
5.243751 -4.8659768 -1.9168139 3 0
14.779079 -13.738376 1.0575005 3 9
8.6089964 -8.0083771 -2.2855103 9 2
12.324076 -11.476311 -2.667208 8 3
11.93917 -11.125668 2.0037761 6 11
18.658726 -17.393456 -3.1320424 13 4
12.418056 -11.584077 2.6897345 21 12
12.254295 -11.455337 3.8727574 4 14
15.826777 -14.815618 5.8089347 19 15
5.215281 -4.9077621 -1.9188845 3 0
6.4157538 -6.0437875 -2.0349073 26 1
14.656152 -13.811258 1.0554069 23 9
8.6228466 -8.131444 -2.303828 9 2
12.178162 -11.4962 -2.6525033 9 3
11.786683 -11.134427 1.9908577 9 11
18.583006 -17.566933 -3.139842 10 4
12.102102 -11.444388 2.6381111 4 12
11.888743 -11.258358 3.1826942 10 13
11.960469 -11.338164 3.8048222 14 14
15.738177 -14.934972 5.8135939 2 15
5.1985283 -4.9591489 -1.9250962 3 0
14.509212 -13.850777 0.35013017 33 8
6.4125204 -6.1236563 -2.0470545 8 1
14.71821 -14.065028 1.066921 3 9
8.6112738 -8.2348642 -2.3160398 9 2
12.060505 -11.545423 -2.6443686 9 3
11.602588 -11.114826 1.9728212 8 11
18.411404 -17.643568 -3.1310675 10 4
11.758017 -11.287355 3.1681926 15 13
12.13109 -11.661779 3.8849046 14 14
5.1651688 -4.996664 -1.9256139 2 0
14.524231 -14.06022 0.35285276 34 8
6.3864121 -6.1845422 -2.0524535 7 1
8.6324997 -8.3713188 -2.3374104 9 2
12.015375 -11.655911 1.464565 1 10
12.020714 -11.669239 -2.6534417 12 3
12.057232 -11.712868 2.0639794 9 11
18.347572 -17.829777 -3.1413045 10 4
10.853161 -10.565301 2.9441829 8 13
12.272645 -11.963835 3.9568889 8 14
12.399267 -12.099937 4.6421785 3 15
5.1646366 -5.0664225 -1.9385546 3 0
6.3750596 -6.2603807 -2.0628011 7 1
8.649436 -8.5057144 -2.3580177 7 2
11.937548 -11.75149 -2.6531289 9 3
11.808295 -11.632372 2.0352182 17 11
18.258001 -17.992268 -3.147398 15 4
10.607972 -10.46088 2.3596578 1 12
10.555593 -10.420134 2.8831241 12 13
12.261619 -12.116952 3.9798341 10 14
12.200518 -12.07342 4.5992146 16 15
5.1346192 -5.1078043 -1.9406252 3 0
6.361578 -6.3349857 -2.0726991 7 1
8.6733742 -8.6461687 -2.3805332 6 2
11.665719 -11.641311 -2.6102657 2 3
11.824358 -11.80786 2.0517924 5 11
18.06876 -18.056149 -3.1364298 13 4
10.176085 -10.172532 2.2789376 21 12
10.478427 -10.489405 2.8819792 19 13
12.162964 -12.188463 3.9753351 10 14
11.958483 -11.99611 4.538651 12 15
5.1024532 -5.1453791 -1.9416605 3 0
6.3429956 -6.4030609 -2.0807972 9 1
8.6694107 -8.7637329 -2.3961794 10 2
11.423099 -11.559482 -2.5739729 1 3
11.391537 -11.535594 1.9906142 5 11
18.023535 -18.257832 -3.150079 10 4
11.726528 -11.887263 2.6446812 4 12
10.365444 -10.518535 2.8705306 16 13
12.289439 -12.488371 4.0450697 22 14
11.982786 -12.189515 4.5800619 25 15
5.0718107 -5.1864009 -1.9437311 3 0
6.325376 -6.4750667 -2.0897954 7 1
8.6546278 -8.8718243 -2.4091544 10 2
11.275948 -11.571042 -2.5589554 2 3
11.705432 -12.020158 2.0600796 18 11
17.94548 -18.43442 -3.1588538 13 4
12.666672 -13.020876 2.8771429 3 12
10.167251 -10.462518 2.8358035 19 13
22.795622 -23.474022 -1.7148402 17 6
12.011958 -12.378076 3.9820838 17 14
13.228592 -13.646081 5.0925236 4 15
5.0622997 -5.2494931 -1.9540838 3 0
10.522156 -10.918871 0.26468319 23 8
6.3016496 -6.541523 -2.0969937 7 1
10.420515 -10.824736 0.78744686 14 9
8.5843143 -8.9235392 -2.4068646 13 2
11.112766 -11.56402 -2.5401831 2 3
11.963598 -12.458102 2.1207705 16 11
17.908453 -18.655199 -3.175184 15 4
10.014148 -10.439008 2.2911394 9 12
10.118413 -10.558757 2.8426726 6 13
22.606325 -23.606627 -1.7129561 8 6
11.941419 -12.478526 3.9874825 26 14
11.868829 -12.41568 4.6023207 5 15
5.0255275 -5.2847066 -1.9540838 3 0
10.280372 -10.818115 0.26049462 22 8
6.2799864 -6.6107888 -2.105092 7 1
10.271812 -10.820448 0.78189927 12 9
8.6082821 -9.0744076 -2.4312882 7 2
12.241061 -12.917435 -2.8186367 12 3
12.023746 -12.696985 2.1470942 27 11
17.869215 -18.876356 -3.1915147 10 4
11.451932 -12.105845 2.6393628 13 12
10.148281 -10.739013 2.8720572 28 13
21.626432 -22.901314 -1.6507809 10 6
12.031895 -12.750091 4.0473194 11 14
4.9964404 -5.3281178 -1.9571897 3 0
10.417905 -11.117249 0.26593977 23 8
6.4175353 -6.8507338 -2.1671786 8 1
11.820289 -12.627017 0.90645891 14 9
9.8228769 -10.500628 -2.7949703 4 2
11.949533 -12.778487 1.530629 12 10
10.774892 -11.530424 -2.49951 1 3
10.735124 -11.499931 -1.9316292 2 4
11.613723 -12.449834 2.6966176 6 12
10.097154 -10.835452 2.8789263 30 13
11.731384 -12.597991 -0.90216732 18 6
11.431485 -12.284533 3.8741069 16 14
11.711849 -12.590224 -0.30014646 31 7
11.25238 -12.104766 4.4283938 7 15
