# .PCD v0.7 - Point Cloud Data file format
VERSION 0.7
FIELDS x y z intensity ring
SIZE 4 4 4 4 2
TYPE F F F F U
COUNT 1 1 1 1 1
WIDTH 1318
HEIGHT 1
VIEWPOINT 0 0 0 1 0 0 0
POINTS 1318
DATA ascii
-2.683511 8.7174711 -0.79799795 28 5
-3.3952906 11.050282 -0.6058411 18 6
-4.1728625 13.606332 -0.24841754 22 7
-1.7187448 5.6641655 -1.5860431 14 0
-1.8550512 6.1249061 -1.4774785 15 1
-1.8753501 6.2075343 -1.2604843 30 2
-2.4756136 8.2099848 -1.3581642 2 3
-1.8707547 6.2158375 -0.79702556 26 4
-3.340389 11.127038 -1.0164102 21 5
-3.5045741 11.681352 2.3706112 4 13
-4.7695713 15.91799 -0.87087041 17 6
-3.3260448 11.121532 -0.20262244 28 7
-1.6813544 5.6834354 -1.5881137 15 0
-1.8034195 6.1078024 -1.4702801 15 1
-1.8308554 6.2167096 -1.259721 30 2
-2.4226935 8.2422304 -1.3606671 7 3
-1.8222849 6.2116027 -0.79483193 24 4
-3.2444167 11.080681 -1.0101351 21 5
-4.621933 15.826283 -0.86406672 8 6
-3.2449634 11.132963 -0.20241301 21 7
-1.6464512 5.7117414 -1.5927725 13 0
-1.7575023 6.1090074 -1.4675807 15 1
-1.7841656 6.2139311 -1.2566681 26 2
-2.3676267 8.2623262 -1.361293 10 3
-1.7734236 6.2050858 -0.79239452 27 4
-3.1768169 11.137549 -1.0132726 14 5
-3.161237 11.104966 -0.60510838 18 6
-4.571876 16.103018 -0.2921882 30 7
-1.6075345 5.7228165 -1.5927725 13 0
-1.7148268 6.1170764 -1.4666809 15 1
-1.7386264 6.2186728 -1.2551417 26 2
-2.3151958 8.2976809 -1.3644215 1 3
-1.7279506 6.2055392 -0.79093212 25 4
-3.127605 11.254898 -1.0219883 14 5
-4.3558111 15.717205 -0.85475093 8 6
-1.5644858 5.7227187 -1.5896666 13 0
-1.6710539 6.1251388 -1.4657811 15 1
-1.6921309 6.2152081 -1.2520887 28 2
-2.2659123 8.3399353 -1.3688017 1 3
-1.6793944 6.1982913 -0.78849471 30 4
-3.4976556 12.918044 2.1196871 1 12
-2.3656352 8.7492075 -0.79294294 16 5
-2.9656849 10.991303 -0.59662998 28 6
-1.5170456 5.7094955 -1.5829374 15 0
-2.9626665 11.165881 0.20164511 26 8
-1.6291784 6.144474 -1.4675807 15 1
-1.6415075 6.2084651 -1.2482725 28 2
-2.1825435 8.2722807 -1.3550355 12 3
-1.6289324 6.1871138 -0.78556985 25 4
-2.9135137 11.08987 -1.0031625 14 5
-2.252352 8.5976715 -0.46579006 12 6
-2.2865007 8.7467022 -0.15780467 18 7
-1.4829456 5.742393 -1.589149 14 0
-1.5852698 6.1519246 -1.4666809 15 1
-1.5952984 6.2042832 -1.2452196 30 2
-2.1310945 8.3060789 -1.3581642 2 3
-3.4865959 13.608966 1.7249388 2 11
-1.5827467 6.1867967 -0.78410745 27 4
-2.2234795 8.7103472 -0.78649336 27 5
-2.1927915 8.6089325 -0.46558073 12 6
-2.2686934 8.9330111 -0.16087629 9 7
-1.4250146 5.6774049 -1.5684435 15 0
-1.5433611 6.1625719 -1.4666809 15 1
-1.5500427 6.2076497 -1.2436931 30 2
-2.0687611 8.303503 -1.3553483 5 3
-1.5377243 6.1858678 -0.78264499 24 4
-2.1870601 8.8242855 -0.79538327 11 5
-2.7712762 11.206588 -0.60500371 9 6
-2.1522727 8.7230339 -0.15682732 9 7
-1.384427 5.6834612 -1.5674082 18 0
-1.4956955 6.1542611 -1.4621819 17 1
-1.5029691 6.2030559 -1.2406402 30 2
-1.9879936 8.2236614 -1.3400177 19 3
-1.4935704 6.1925931 -0.78215748 22 4
-2.0783613 8.6436834 -0.77777785 32 5
-2.6598976 11.087768 -0.59757197 18 6
-1.3038613 5.5200162 -1.5197855 10 0
-1.4473333 6.1417904 -1.4567831 15 1
-1.4560351 6.1981077 -1.2375872 30 2
-1.9517182 8.327733 -1.3547227 2 3
-1.4448782 6.1796737 -0.77923268 21 4
-2.6082976 11.181966 -1.0045571 14 5
-2.5919194 11.14692 -0.59977013 18 6
-1.2933048 5.651391 -1.553432 9 0
-1.4061551 6.1593447 -1.4585826 17 1
-1.4094554 6.1887317 -1.233771 30 2
-1.894554 8.3388977 -1.3544097 1 3
-1.3981962 6.1741209 -0.77728271 15 4
-1.9813771 8.7706318 -0.7866677 11 5
-2.4985402 11.123098 -0.19899234 14 7
-1.2589881 5.6789236 -1.5586084 13 0
-1.3591477 6.1459403 -1.4531839 21 1
-1.3602966 6.1715803 -1.2284284 32 2
-1.8396808 8.3673563 -1.3569127 1 3
-1.3574106 6.1893125 -0.77801394 13 4
-2.4246936 11.092721 -0.99340117 14 5
-1.8882699 8.6603708 -0.46453398 12 6
-1.2306498 5.7404647 -1.5731021 13 0
-1.3178378 6.1629014 -1.4549835 18 1
-3.3669407 15.772504 0.84522581 2 9
-1.3171806 6.1809258 -1.2284284 28 2
-1.7869749 8.4070463 -1.361293 1 3
-1.3133446 6.1947541 -0.77752644 12 4
-1.8377169 8.6980257 -0.77777785 26 5
-1.7956351 8.5209055 -0.45636958 12 6
-1.1948532 5.7697253 -1.5787963 11 0
-1.2724155 6.1605005 -1.452284 19 1
-1.2724144 6.1822791 -1.2269019 28 2
-1.7337997 8.4464064 -1.3656731 1 3
-1.2680773 6.1940479 -0.77630776 10 4
-2.2592177 11.074738 -0.98886907 14 5
-1.6978782 8.3453465 -0.4463211 13 6
-2.2367744 11.023648 -0.19633958 27 7
-1.1409191 5.7097278 -1.5601612 12 0
-1.2339492 6.1921673 -1.4576828 16 1
-1.2261643 6.1756067 -1.2238491 28 2
-1.6571411 8.3691683 -1.351281 2 3
-1.6558886 8.3858843 -1.0495389 4 4
-2.1903126 11.133246 -0.99270386 14 5
-2.1594458 11.006774 -0.58783752 28 6
-2.1812673 11.148893 -0.19829424 13 7
-1.1083332 5.7554941 -1.5705141 11 0
-1.1943617 6.2197695 -1.4621819 15 1
-1.1800723 6.1685891 -1.220796 29 2
-1.5949752 8.3611279 -1.3481523 1 3
-1.1799898 6.2033482 -0.77533287 4 4
-2.0821173 10.987747 -0.97841036 14 5
-2.5445991 13.466897 -0.71825874 26 6
-2.1085634 11.19136 -0.19878291 14 7
-1.0646048 5.7440958 -1.5653377 12 0
-1.1608258 6.2816119 -1.4747791 15 1
-1.1355541 6.1689544 -1.2192695 27 2
-1.5287156 8.3293161 -1.3412693 1 3
-1.5861652 8.6678905 -1.0819561 12 4
-1.990352 10.919691 -0.97108924 27 5
-2.0212684 11.122314 -0.59244311 19 6
-2.0082777 11.083815 -0.19661881 13 7
-1.0197372 5.7247615 -1.5580908 20 0
-1.1271689 6.3471241 -1.4882761 15 1
-1.0917751 6.1728649 -1.2185063 29 2
-1.4719011 8.3475676 -1.3425208 1 3
-1.8940425 10.774637 -1.343244 3 4
-1.9271258 11.007897 -0.97771311 14 5
-1.9205639 11.004332 -0.58543009 38 6
-0.98104805 5.7393579 -1.5601612 16 0
-1.07301 6.2972069 -1.4747791 9 1
-1.0473402 6.172595 -1.2169799 27 2
-3.2662766 19.270491 1.7099956 1 10
-1.4142468 8.3615351 -1.3431464 1 3
-1.4524459 8.6148081 -1.0726941 19 4
-1.8462708 10.997505 -0.97562134 13 5
-1.8558893 11.090357 -0.5893029 19 6
-1.8559583 11.126553 -0.19689806 20 7
-0.94407773 5.7651315 -1.5653377 16 0
-1.0318463 6.3218541 -1.4788282 13 1
-1.0017055 6.1642532 -1.2139269 31 2
-1.352052 8.3478041 -1.3393921 1 3
-1.3865775 8.5894632 -1.0683068 15 4
-1.7821358 11.076696 -0.98154789 14 5
-2.1543188 13.449866 -0.71386248 26 6
-0.90499932 5.7792168 -1.5674082 14 0
-0.98828429 6.3327551 -1.4797281 14 1
-0.95972049 6.170929 -1.2139269 27 2
-1.2921693 8.3372936 -1.3362634 1 3
-1.3344474 8.6499434 -1.074644 14 4
-1.6988695 11.089226 -0.58794218 38 6
-0.86678666 5.7928843 -1.5694788 14 0
-0.94400907 6.331625 -1.4779284 13 1
-0.91546619 6.1697097 -1.2124004 31 2
-1.2322031 8.3343868 -1.3343862 1 3
-1.2604944 8.5567045 -1.0619696 14 4
-1.6012044 10.962476 -0.58061516 39 6
-1.6123856 11.079587 -0.19543205 13 7
-0.82278329 5.7739315 -1.5627494 12 0
-0.89649618 6.3149085 -1.4725296 14 1
-0.87127292 6.1681752 -1.210874 29 2
-8.8272066 62.571045 5.5284629 8 10
-1.055626 7.5016608 -1.1998525 3 3
-1.0585243 7.5509062 -0.93620038 3 4
-1.5258262 10.939914 -0.96638286 34 5
-1.5279365 10.997126 -0.58187127 19 6
-0.79022622 5.8369679 -1.5782787 12 0
-0.85238796 6.3210135 -1.4725296 12 1
-0.82714564 6.1663241 -1.2093475 31 2
-1.1178087 8.3664427 -1.3368891 1 3
-1.4336536 10.773408 -1.3344694 2 4
-1.0104592 7.6340022 -0.67371386 9 5
-1.4712247 11.159994 -0.58993095 9 6
-0.74699914 5.8231802 -1.5731021 13 0
-0.80725032 6.319078 -1.4707299 14 1
-0.7825948 6.1602626 -1.2070577 29 2
-1.0573893 8.3583641 -1.3343862 1 3
-1.0725825 8.5142612 -1.0536824 20 4
-1.3670733 10.959911 -0.57883573 9 6
-1.3740867 11.063296 -0.19459434 13 7
-0.70772201 5.8397603 -1.576208 13 0
-0.76311523 6.3245592 -1.4707299 14 1
-0.73816311 6.1538806 -1.2047681 27 2
-0.99620032 8.3420048 -1.3306317 1 3
-1.0274113 8.6417856 -1.0685505 20 4
-1.042207 8.8187094 -0.77690631 10 5
-1.3012602 11.060433 -0.58365065 39 6
-0.92510152 7.8988004 -0.13881645 6 7
-0.66233873 5.8042507 -1.5653377 14 0
-0.90116483 7.9216928 0.13916549 5 8
-0.71410751 6.2871346 -1.4608321 12 1
-0.69518298 6.158884 -1.2047681 25 2
-0.93926108 8.3605347 -1.3325089 1 3
-0.95514351 8.5422173 -1.0553887 21 4
-0.93469226 8.4528084 -0.44569308 26 6
-1.2059219 10.958167 -0.19243024 13 7
-0.62180132 5.8087335 -1.5653377 11 0
-1.1814538 11.073457 0.1943849 37 8
-0.67226166 6.3113441 -1.4653312 14 1
-0.86005706 8.1012936 0.42695674 2 9
-0.65258503 6.1674914 -1.2055314 31 2
-0.87570405 8.3177757 -1.3246872 5 3
-0.86632806 8.2703009 -1.0210215 18 4
-0.89196134 8.5727997 -0.75407147 26 5
-0.88635159 8.5624342 -0.45113602 12 6
-0.58238405 5.8244672 -1.5684435 12 0
-1.1053126 11.093372 0.19459434 12 8
-0.63010949 6.3352757 -1.4698302 15 1
-0.60758245 6.15236 -1.2017151 31 2
-0.81510323 8.2981291 -1.3206199 3 3
-0.84176916 8.6159649 -1.0629444 13 4
-0.83844179 8.6442595 -0.75982374 15 5
-1.0509355 10.894408 -0.57360214 10 6
-0.83166701 8.6688709 -0.15201046 8 7
-0.54123217 5.8012719 -1.5611964 12 0
-1.0294932 11.076566 0.19417547 24 8
-0.58052105 6.2578177 -1.4509343 15 1
-0.56604499 6.1484342 -1.2001886 29 2
-0.75168079 8.1961651 0.72008073 4 10
-0.76040995 8.3072863 -1.3212456 2 3
-0.78417999 8.633357 -1.0644069 18 4
-0.78790146 8.7250347 -0.7664476 21 5
-0.98120588 10.951041 -0.5762189 19 6
-0.49804851 5.785749 -1.5560201 12 0
-0.95157135 11.099589 0.19445471 12 8
-0.54070979 6.3200612 -1.4644314 13 1
-0.52136934 6.1445022 -1.1986622 29 2
-0.68700242 8.147172 -1.2949647 11 3
-0.70812094 8.4327688 1.0390581 4 11
-0.72436607 8.6624861 -1.0673318 12 4
-0.71538228 8.6093311 -0.75581461 26 5
-0.72881353 8.8458462 -0.46516204 12 6
-0.45602629 5.7814617 -1.5539496 12 0
-0.86664623 11.036339 0.19323304 49 8
-0.49151295 6.2732563 -1.4527339 15 1
-0.47708303 6.1441617 -1.197899 31 2
-0.637191 8.2621717 -1.3124853 21 3
-0.66372126 8.6653528 -1.0670881 24 4
-0.65058655 8.5725079 -0.75215399 10 5
-1.0146694 13.46329 -0.70758218 8 6
-0.65709543 8.7801065 -0.1536859 8 7
-0.41634798 5.7941384 -1.5565379 14 0
-0.7899996 11.048104 0.19333775 24 8
-0.45325446 6.3542867 -1.4707299 12 1
-0.43390042 6.143425 -1.1971357 31 2
-0.57162064 8.1540976 -1.2946517 18 3
-0.59645814 8.5727406 -1.0551448 18 4
-0.60815525 8.7852049 1.3947699 8 12
-0.58785254 8.5351009 -0.74849349 21 5
-0.6033318 8.8272638 -0.46369663 12 6
-0.75085652 11.070877 -0.19368681 13 7
-0.3752594 5.7872653 -1.5539496 12 0
-0.71876997 11.145145 0.19494337 12 8
-0.40887913 6.357296 -1.4707299 13 1
-0.39000645 6.13063 -1.1940827 31 2
-0.51443553 8.1539459 -1.294026 15 3
-0.5265584 8.4162169 -1.0354021 9 4
-0.53122669 8.562767 -0.75058526 15 5
-0.67093891 10.938404 -0.57433486 20 6
-0.33551672 5.8013158 -1.5570555 12 0
-0.36448684 6.3599958 -1.4707299 13 1
-0.34893236 6.1449041 -1.1963725 31 2
-0.46113664 8.1967049 -1.3002834 12 3
-0.46976742 8.4553642 -1.0397893 16 4
-0.46989754 8.5384159 -0.74814492 21 5
-0.59788102 10.968643 -0.57569557 19 6
-0.59620851 11.080282 -0.19368681 13 7
-0.29562971 5.7957478 -1.5549849 10 0
-0.56098801 11.074111 0.19354719 12 8
-0.3233518 6.4051471 -1.4806278 15 1
-0.30505109 6.1275816 -1.1925563 34 2
-0.40439144 8.20959 -1.3018478 4 3
-0.41886973 8.5951748 -1.0566072 12 4
-0.41104144 8.5574083 -0.74953938 21 5
-0.51835269 10.910704 -0.57245076 20 6
-0.25346175 5.7590709 -1.5446322 10 0
-0.27913556 6.4189301 -1.4833273 14 1
-0.26209721 6.125639 -1.1917931 31 2
-0.34773511 8.2280006 -1.3043507 19 3
-0.44702032 10.710174 -1.3161889 7 4
-0.35472062 8.6436796 -0.75686044 15 5
-0.5456571 13.468453 -0.70643085 8 6
-0.44178125 11.047486 -0.19298871 26 7
-0.21353553 5.7684216 -1.5467027 9 0
-0.40456003 11.032905 0.19270948 12 8
-0.2347426 6.4324069 -1.4860266 12 1
-0.21904491 6.1194715 -1.1902666 29 2
-0.28965768 8.2124605 -1.3015349 16 3
-0.29165563 8.3938618 -1.0312586 23 4
-0.29178807 8.5264215 -0.74640173 20 5
-0.37078691 11.060599 -0.57998711 19 6
-0.36544117 11.074285 -0.19340758 13 7
-0.17337514 5.7736344 -1.547738 10 0
-0.32956597 11.0394 0.19277929 12 8
-0.19034746 6.4514203 -1.4900758 16 1
-0.17738582 6.120821 -1.1902666 29 2
-0.23453709 8.2418861 -1.3059151 17 3
-0.23155713 8.3421154 -1.0246775 24 4
-0.23496734 8.6278334 -0.75511736 10 5
-0.29479256 11.036913 -0.57862639 19 6
-0.22437002 8.6257687 -0.15061426 12 7
-0.13407391 5.7746806 -1.547738 9 0
-0.25295085 11.061424 0.19312833 36 8
-0.14559257 6.4155498 -1.4815277 12 1
-0.3240433 14.502474 0.76023221 2 9
-0.13465011 6.1219101 -1.1902666 29 2
-0.30815941 14.12268 1.2358683 2 10
-0.17563523 8.1801252 -1.2959032 17 3
-0.28768575 13.620651 1.6727787 0 11
-0.17607872 8.4765005 -1.0410081 14 4
-0.26628599 12.928075 2.0480404 3 12
-0.1717876 8.4838486 -0.7423926 25 5
-0.26354703 13.361062 -0.70035982 26 6
-0.21077788 11.078308 -0.19340758 13 7
-0.092964947 5.7890134 -1.5513614 8 0
-0.17521323 11.030929 0.19256985 24 8
-0.10010402 6.4437065 -1.4878262 13 1
-0.091675006 6.1069961 -1.1872137 29 2
-0.11947007 8.6641045 -1.0639194 14 4
-0.11271356 8.4967937 -0.74343848 25 5
-0.13756217 10.946113 -0.57370681 10 6
-0.10415347 8.648056 -0.15096332 8 7
-0.051916547 5.7199774 -1.5327265 8 0
-0.095994048 10.999907 0.19201139 36 8
-0.055116028 6.4442477 -1.4878262 11 1
-0.04799993 6.1114225 -1.1879768 34 2
-0.060252048 8.2193222 -1.3018478 11 3
-0.058818165 8.6409063 -1.0609946 18 4
-0.053780083 8.5591364 -0.74884212 10 5
-0.047419894 8.4902163 -0.44496036 13 6
-0.055800628 11.02418 -0.19243024 19 7
-0.01292091 5.6950841 -1.5259972 10 0
-0.021092216 10.984307 0.19173212 24 8
-0.011185768 6.4093966 -1.4797281 11 1
-0.0064119389 6.1233873 -1.1902666 31 2
-0.0043178638 8.2471972 -1.3062279 19 3
1.0226299e-07 8.5755987 -1.0529512 28 4
0.004474171 8.5453577 -0.74762189 26 5
0.013495576 11.046831 -0.57894039 9 6
0.026104938 5.7529955 -1.5415263 10 0
0.032382775 6.3976321 -1.4770286 10 1
0.035152882 6.1036572 -1.1864504 31 2
0.051753249 8.2371588 -1.3046635 18 3
0.059273154 8.4900331 -1.0424705 16 4
0.063055307 8.4016695 -0.73507148 25 5
0.14625397 18.216413 -0.95471257 9 6
0.097285636 11.147878 -0.19459434 13 7
0.066955492 5.7256169 -1.5342795 10 0
0.13168806 11.095529 0.19368681 12 8
0.077635527 6.3543673 -1.4671308 10 1
0.077813603 6.1071882 -1.1872137 31 2
0.090520918 6.7354264 -1.0668832 9 3
0.11659919 8.3504705 -1.0254087 16 4
0.12407105 8.5643845 -0.74936509 26 5
0.20576221 13.549841 -0.710199 8 6
0.17366529 11.054953 -0.19298871 33 7
0.10786692 5.7752295 -1.547738 10 0
0.20986517 11.030324 0.19256985 12 8
0.12214816 6.361464 -1.4689304 12 1
0.1212793 6.0946984 -1.184924 36 2
0.13709718 6.7129059 -1.0634416 3 3
0.1753509 8.3712845 -1.0280899 3 4
0.18296055 8.5214787 -0.74570453 20 5
0.29804462 13.444242 -0.70475608 8 6
0.24974507 11.00549 -0.192151 13 7
0.14699082 5.7279868 -1.5353146 11 0
0.28587115 11.064622 0.19319814 12 8
0.16787985 6.4111061 -1.4806278 12 1
0.16297154 6.1015825 -1.1864504 27 2
0.22398041 8.2243948 -1.3030992 9 3
0.29819995 10.675633 -1.3113142 4 4
0.24437822 8.5877075 -0.75163114 10 5
0.39106065 13.493809 -0.70747751 17 6
0.32775822 11.043454 -0.19284908 13 7
0.18666641 5.7480927 -1.5410087 8 0
0.36153537 11.01439 0.19236042 24 8
0.21061526 6.3825474 -1.4743292 11 1
0.20516792 6.0885229 -1.1841607 36 2
0.23112661 6.7538109 -1.0703248 3 3
0.37057912 10.665421 -1.3103393 5 4
0.30587435 8.6295977 -0.75546592 15 5
0.39680022 11.031718 -0.57852173 19 6
0.22838813 5.7871861 -1.551879 10 0
0.25594738 6.4003935 -1.4788282 12 1
0.24798809 6.0947886 -1.1856872 34 2
0.34188098 8.2954664 -1.3149883 7 3
0.24999753 5.9897642 -0.7360909 24 4
0.2532548 5.9678121 -0.52258581 44 5
0.25657728 5.9722872 -0.31328306 31 6
0.26842889 5.7777319 -1.5498085 10 0
0.2869755 6.0183897 -1.1711857 31 2
0.2883985 5.9823947 -0.94861871 31 3
0.29200113 5.991838 -0.73657835 37 4
0.29436076 5.9759007 -0.52345741 48 5
0.29866409 5.9783297 -0.31370175 31 6
0.30917102 5.7834334 -1.551879 9 0
0.58977699 10.996519 0.19222081 36 8
0.32448748 6.0109062 -1.3897476 61 1
0.32751024 6.0084553 -1.1696591 34 2
0.33020112 6.0000167 -0.95174736 35 3
0.33415633 5.9955997 -0.73730958 9 4
0.33674467 5.9856348 -0.52450323 28 5
0.61200833 10.777823 -0.56575173 10 6
0.34655148 5.7484136 -1.5430793 12 0
0.66822731 11.020079 0.19270948 24 8
0.39035094 6.4189849 -1.484677 13 1
0.3754732 6.1040006 -1.1887401 27 2
0.40228972 6.4845476 -1.029026 11 3
0.6148048 9.8268442 -1.208944 5 4
0.83034915 13.161459 -1.1537677 19 5
0.84706241 13.27875 -0.69732434 17 6
0.38836354 5.7709112 -1.5498085 9 0
0.42711356 6.297502 -1.457233 15 1
0.41621289 6.089551 -1.1864504 29 2
0.45687386 6.6334038 -1.0531169 8 3
0.63985538 9.1965361 -1.1319225 9 4
0.93224484 13.298442 -1.1663182 19 5
0.76843244 10.879929 -0.57161337 10 6
0.43021467 5.7892513 -1.5555025 9 0
0.82142687 11.001698 0.19256985 24 8
0.47746423 6.3798728 -1.4770286 15 1
0.45977804 6.0864167 -1.1864504 27 2
0.51017308 6.7067823 -1.0653188 14 3
0.82067263 10.690028 -1.3164327 10 4
0.84742534 10.963295 -0.96202505 13 5
0.84440303 10.850258 -0.57035732 10 6
1.0524619 13.402695 -0.23466507 20 7
0.47147369 5.7840991 -1.5549849 12 0
0.52342397 6.380177 -1.4779284 14 1
0.50290132 6.0908847 -1.1879768 27 2
0.5620836 6.7502055 -1.0728277 6 3
0.8934648 10.662278 -1.3137517 9 4
0.92294377 10.9452 -0.96097922 20 5
0.93759131 11.027024 -0.57998711 9 6
0.51133168 5.7748938 -1.553432 9 0
0.97262388 10.941181 0.19173212 12 8
0.568299 6.380249 -1.4788282 10 1
0.54542053 6.075398 -1.1856872 29 2
0.60724092 6.7244759 -1.0693861 6 3
0.79190165 8.7183657 -1.0748878 16 4
1.0000582 10.946425 -0.96167642 13 5
0.9947769 10.805414 -0.56868255 30 6
1.2394917 13.386693 -0.23466507 20 7
0.55273843 5.782722 -1.5565379 9 0
1.0474571 10.938289 0.19180195 24 8
0.61133617 6.3606076 -1.4752289 14 1
0.58751726 6.079361 -1.1872137 27 2
0.78921556 8.1220274 -1.2924616 11 3
0.84481585 8.6316242 -1.0648944 18 4
1.0744979 10.919351 -0.95993334 27 5
1.3428313 13.477204 -0.23641029 20 7
0.5897246 5.755764 -1.5503261 8 0
0.65621454 6.3718071 -1.4788282 14 1
0.63196689 6.0946398 -1.1910298 21 2
0.85900009 8.2420635 -1.3124853 24 3
0.88141739 8.4144249 -1.0388143 20 4
1.1487937 10.911783 -0.95993334 13 5
1.1529272 10.878061 -0.57328814 30 6
0.63430965 5.7918344 -1.5611964 10 0
0.70324016 6.3903155 -1.4842271 14 1
0.67128235 6.0706825 -1.1872137 27 2
0.91443175 8.230135 -1.3115468 19 3
0.93815845 8.3903112 -1.0366207 18 4
1.2374058 11.014373 -0.96969479 13 5
1.2314256 10.909656 -0.57538158 29 6
0.67326933 5.783545 -1.5601612 10 0
1.2720793 10.894314 0.19145289 12 8
0.73675907 6.3002167 -1.4644314 12 1
0.71502084 6.0775476 -1.1895033 31 2
1.0156069 8.5552301 -1.0578259 20 4
1.243395 10.411966 -0.91740137 13 5
2.1810102 18.182529 -0.95973688 18 6
1.3249148 10.996787 -0.19333775 13 7
0.7065292 5.7211847 -1.5446322 11 0
1.3628466 11.004239 0.19354719 12 8
0.77545112 6.2523723 -1.4545335 13 1
0.75694668 6.0685115 -1.1887401 23 2
1.0339153 8.2538071 -1.3174912 2 3
1.0557313 8.3923359 -1.0385706 14 4
1.377068 10.885331 -0.95993334 13 5
1.3750715 10.824033 -0.5718227 10 6
0.74695092 5.719944 -1.5456674 10 0
1.4360027 10.9667 0.19305852 36 8
0.82009548 6.2545357 -1.4563332 14 1
0.79878122 6.059186 -1.1879768 29 2
1.084777 8.1954718 -1.3093567 24 3
1.1210983 8.4359217 -1.0449078 31 4
1.4677986 10.986044 -0.96969479 13 5
1.435729 10.703316 -0.56596106 20 6
0.78449386 5.6973662 -1.5410087 12 0
1.511436 10.948483 0.19291891 36 8
0.86160266 6.2332153 -1.4527339 13 1
0.84268689 6.0651293 -1.1902666 29 2
1.143603 8.1994371 -1.3112338 3 3
1.1758363 8.3984022 -1.0412518 13 4
1.5722231 11.172824 -0.98712587 14 5
2.8658078 20.288479 -1.0738293 9 6
0.81815863 5.6496887 -1.5296206 13 0
1.5849558 10.917875 0.19256985 24 8
0.89724928 6.1730509 -1.4401367 14 1
0.88727587 6.0746393 -1.1933196 29 2
1.1945106 8.1482553 -1.3043507 9 3
1.2488832 8.4881849 -1.0534387 25 4
1.6210512 10.964478 -0.96969479 13 5
1.2496786 8.4221058 -0.44621637 13 6
0.86628467 5.7011371 -1.5451498 12 0
1.6635522 10.922358 0.19284908 12 8
0.93973291 6.1627836 -1.4392369 14 1
0.93025792 6.0721788 -1.1940827 27 2
1.2624731 8.2119579 -1.3159269 13 3
1.3002423 8.4282503 -1.0471015 7 4
1.308791 8.4445381 -0.74762189 10 5
3.1847031 20.477394 -1.0860759 19 6
1.3181478 8.4464626 -0.14921807 8 7
0.9130491 5.7388306 -1.5570555 10 0
1.35245 8.4815388 0.14991617 32 8
0.9956398 6.2368965 -1.4581327 13 1
0.9726271 6.065536 -1.1940827 25 2
1.3182036 8.1931925 -1.3143625 7 3
1.353673 8.3856535 -1.0429579 19 4
1.7714261 10.925043 -0.96830028 27 5
1.7147837 10.540773 -0.55968076 10 6
1.7958452 11.002707 -0.19459434 13 7
0.92615902 5.570333 -1.5130562 13 0
1.4011122 8.4087715 0.14879921 19 8
1.035951 6.2105718 -1.4536338 14 1
1.0149459 6.0585985 -1.1940827 27 2
1.3799541 8.2110624 -1.3187426 19 3
1.4161433 8.3994884 -1.0458828 18 4
1.850315 10.928125 -0.96969479 13 5
1.4920034 8.7839622 -0.46694148 25 6
0.99242699 5.7217159 -1.5560201 11 0
1.0746073 6.1763096 -1.4473351 13 1
1.059924 6.0668364 -1.1971357 23 2
1.4307659 8.1642599 -1.3127981 18 3
1.8706723 10.641689 -1.3266698 3 4
1.5324494 8.6821165 -0.77132833 21 5
1.518123 8.5746975 -0.45636958 12 6
1.0247898 5.6728249 -1.5446322 9 0
1.5775024 8.7150307 0.15459342 7 8
0.99227303 5.4764333 -1.2849205 8 1
1.1022527 6.059289 -1.1971357 29 2
1.4973015 8.2065411 -1.3212456 7 3
1.9431331 10.618606 -1.3254511 4 4
1.5851088 8.6280956 -0.76749349 10 5
2.0100751 10.909139 -0.58134788 9 6
1.0657953 5.6731267 -1.5467027 11 0
1.6346115 8.6841526 0.15424436 7 8
1.1513538 6.1109133 -1.4356377 15 1
1.1467139 6.0630207 -1.1994255 29 2
1.5545534 8.1958885 -1.3212456 12 3
1.6069446 8.4479437 -1.0558761 9 4
1.6135573 8.458581 -0.75337422 31 5
3.4677117 18.109678 -0.96633118 9 6
1.6536061 8.6113338 -0.15305761 8 7
1.0857712 5.5650539 -1.5192679 12 0
1.2052161 6.1601 -1.4491347 15 1
1.1864481 6.0473685 -1.197899 31 2
1.6095464 8.1812401 -1.3206199 2 3
2.0800467 10.533965 -1.3183827 7 4
1.679536 8.4822912 -0.75651181 26 5
1.684203 8.4825497 -0.45322946 12 6
1.7316571 8.6897926 -0.15466323 13 7
1.1477423 5.6768279 -1.551879 11 0
1.1313483 5.5806975 -1.3146139 23 1
1.2333318 6.0620251 -1.2024784 29 2
2.824259 13.869299 1.2383088 2 10
1.6579326 8.127224 -1.3137368 2 3
1.6942309 8.2830133 -1.0380832 19 4
1.7174834 8.3669186 -0.74727333 21 5
1.7256695 8.3845081 -0.44862387 13 6
1.1738806 5.6043892 -1.5342795 10 0
1.2820226 6.1047549 -1.4401367 14 1
13.84584 65.817108 3.5248272 18 9
1.2764323 6.0571089 -1.2032416 29 2
1.7211645 8.1463737 -1.3187426 3 3
1.8100187 8.5448046 -1.0724503 20 4
1.7775067 8.3625202 -0.74797058 15 5
1.8157953 8.5207157 -0.45657891 38 6
1.822063 8.5282001 -0.15221989 16 7
1.2268893 5.6602502 -1.551879 10 0
1.3419877 6.1756372 -1.4590325 14 1
13.445206 61.768875 3.3129709 8 9
1.3203607 6.0557232 -1.2047681 27 2
1.7923369 8.1997728 -1.3293802 2 3
1.8233129 8.3206005 -1.0458828 19 4
1.8395172 8.373579 -0.75006229 21 5
1.8726575 8.496129 -0.45595092 25 6
1.8824158 8.5191793 -0.1522897 12 7
1.2676454 5.6572022 -1.553432 13 0
1.3961765 6.2155523 -1.4707299 12 1
1.3632754 6.0542564 -1.2062945 29 2
1.8568087 8.2259207 -1.3356376 2 3
1.8699536 8.2573318 -1.0395457 19 4
1.9366541 8.5104494 -0.45741633 25 6
1.9284925 8.4473429 -0.15124255 20 7
1.3048149 5.642796 -1.551879 10 0
1.4410894 6.2172961 -1.4734293 14 1
1.4055089 6.0445914 -1.2062945 31 2
1.9079138 8.1858253 -1.3312575 4 3
1.9500557 8.3468628 -1.0524638 21 4
1.9329898 8.2543049 -0.74169534 10 5
1.9964737 8.4986668 -0.45752099 25 6
2.0180306 8.5702734 -0.1536859 8 7
1.342384 5.6260328 -1.5498085 11 0
1.4808331 6.1919212 -1.4698302 14 1
14.691126 61.381783 3.3077374 7 9
1.4457023 6.0310664 -1.2055314 34 2
16.079931 66.977707 6.0262966 21 10
1.9635849 8.1726494 -1.3312575 3 3
16.058298 66.73365 8.4277534 14 11
1.8850262 7.8216376 -0.9878729 16 4
2.0279901 8.395545 -0.75564027 21 5
2.0674314 8.5392342 -0.46045178 25 6
1.3917832 5.657794 -1.5611964 11 0
1.5305585 6.2079206 -1.4761288 14 1
15.177865 61.468983 3.3182046 8 9
1.4954208 6.0472488 -1.210874 31 2
14.902538 60.218441 5.4273624 5 10
2.0239177 8.1660585 -1.3325089 3 3
2.0558825 8.270299 -1.0463703 18 4
2.1255851 8.5316143 -0.76923656 10 5
3.3705497 13.498459 -0.72914463 8 6
1.4274822 5.6289644 -1.5560201 12 0
1.5691789 6.1741457 -1.4707299 15 1
1.5385742 6.0404658 -1.2116373 29 2
15.452243 60.577461 5.4695458 6 10
2.0920792 8.1896448 -1.3387663 2 3
16.292074 63.730507 8.0767698 10 11
2.1682184 8.4692059 -1.0734253 10 4
2.1687555 8.4528818 -0.7634843 32 5
2.8659725 11.15414 2.2385712 2 13
2.173007 8.4449415 -0.4569976 25 6
2.2015555 8.5373659 -0.15389533 8 7
1.4657694 5.6151233 -1.5549849 12 0
1.6073126 6.1441875 -1.466231 11 1
1.5837492 6.0368981 -1.2131636 29 2
15.846446 60.360191 5.4597845 6 10
2.1451845 8.1595564 -1.3362634 2 3
17.018629 64.641228 8.2074127 11 11
2.1908784 8.3156528 -1.0558761 9 4
2.2124605 8.3797426 -0.758255 31 5
2.2421305 8.4681797 -0.45909104 25 6
1.4843943 5.5282569 -1.5337617 12 0
1.6481426 6.1252894 -1.4644314 14 1
1.6288933 6.0411425 -1.2162166 25 2
16.653858 61.679176 5.5894718 9 10
1.9925101 7.3743401 -1.2098643 1 3
17.147127 63.374187 8.0611706 9 11
1.6326725 6.0258503 -0.76655823 10 4
2.3006649 8.47369 -0.76819068 10 5
2.3102107 8.4912653 -0.46118447 25 6
1.5214735 5.5161633 -1.5332441 11 0
1.6783739 6.0726066 -1.4545335 14 1
16.295874 58.880733 3.2018094 2 9
1.6699802 6.0258398 -1.2154534 29 2
17.126553 61.756378 5.6069031 10 10
2.2632968 8.1501398 -1.3397049 4 3
17.570028 63.184071 8.0523958 9 11
1.6795025 6.035635 -0.76923937 12 4
2.3533368 8.4343939 -0.76609892 16 5
2.1054258 7.5154681 -0.13623348 6 7
1.5752221 5.5593081 -1.5482556 13 0
1.7281822 6.0869856 -1.4608321 14 1
1.7130798 6.0178113 -1.2162166 27 2
16.997253 59.669327 5.4280596 5 10
2.3049653 8.0809526 -1.3309445 8 3
18.913473 66.220787 8.456027 15 11
1.722689 6.0275803 -0.76972687 12 4
2.4044788 8.3909454 -0.76365858 21 5
2.683543 9.3586321 1.8924437 1 13
3.0723279 10.700389 -0.58344132 9 6
1.6226289 5.5778546 -1.5565379 14 0
1.768454 6.0672889 -1.4590325 14 1
1.7583573 6.0170107 -1.2185063 27 2
2.3251429 7.9513679 0.72478712 1 10
2.3674345 8.0855169 -1.3343862 9 3
2.3975518 8.1777906 1.0463703 0 11
1.7652863 6.0173116 -0.7699706 15 4
2.4947445 8.4928322 1.4019659 2 12
3.8887405 13.22133 -1.2057126 21 5
3.1650221 10.739985 -0.5867908 9 6
1.6775515 5.6200747 -1.5715494 12 0
3.2399228 10.840469 0.19749144 38 8
1.8040682 6.0323901 -1.4536338 15 1
1.8037041 6.015872 -1.220796 27 2
17.480587 58.265919 5.3220782 5 10
2.4499667 8.155818 -1.3487781 2 3
20.297068 67.482445 8.6524801 17 11
1.8106847 6.0162458 -0.771433 18 4
19.309555 64.077568 10.599688 12 12
4.6778355 15.474219 -0.84721458 8 6
1.7161804 5.606379 -1.5710317 13 0
3.3465869 10.918916 0.1993414 13 8
1.8541347 6.0457325 -1.4599323 14 1
1.8491207 6.0143929 -1.2230858 26 2
17.937344 58.306221 5.337069 2 10
2.4899814 8.083766 -1.3397049 8 3
18.684982 60.586037 7.7847705 6 11
1.8503004 5.9958711 -0.7704581 15 4
19.636272 63.552418 10.535236 24 12
3.346807 10.825159 -0.9913094 14 5
3.3418667 10.782502 -0.59160572 9 6
1.7627972 5.6182232 -1.5777609 11 0
3.4268172 10.914964 0.19969043 13 8
1.889284 6.0103321 -1.4545335 15 1
17.899206 56.907578 3.1264458 0 9
1.8935521 6.0129032 -1.2253754 30 2
18.240911 57.852741 5.3070874 2 10
2.5395956 8.0496778 -1.3368891 7 3
1.8998932 6.0074134 -0.77362669 24 4
2.721828 8.590703 -0.78841084 11 5
3.4429739 10.847075 -0.59642065 9 6
1.8086801 5.6300049 -1.5844903 7 0
3.4808917 10.822243 0.19843386 12 8
1.9259723 5.9843478 -1.4513842 16 1
18.308311 56.819256 3.1285391 0 9
1.9354867 5.999536 -1.2253754 26 2
18.570602 57.530064 5.288959 3 10
2.6212487 8.1106949 -1.3500296 2 3
18.999104 58.71727 7.5775924 3 11
1.9419661 5.9981179 -0.77411413 27 4
5.9158216 18.196241 -1.0027571 9 6
3.5378759 10.86265 -0.1994112 14 7
1.8485444 5.6190758 -1.5850078 10 0
1.9707538 5.9800105 -1.4536338 15 1
1.9822477 6.000792 -1.2284284 32 2
18.99057 57.455757 5.2941885 1 10
2.6567047 8.0284367 -1.3393921 9 3
19.05022 57.501572 7.4376864 1 11
1.9869139 5.9938369 -0.77533287 25 4
3.570895 10.747023 -0.99078649 35 5
6.0086584 18.05216 -0.9971047 9 6
2.847003 8.5384951 -0.15710656 13 7
1.8772473 5.5749087 -1.576208 14 0
2.0149455 5.9734921 -1.4554334 14 1
19.428312 57.530712 3.1823406 1 9
2.032896 6.0128446 -1.233771 30 2
21.885008 64.693672 5.9750485 20 10
2.6784713 7.9086604 -1.3224971 7 3
19.490713 57.483738 7.4527984 1 11
2.031899 5.9892187 -0.77655149 27 4
3.6015732 10.591677 -0.97875899 21 5
3.6494212 10.713983 -0.59317577 19 6
2.9155803 8.5449085 -0.15759523 22 7
1.9123435 5.5507097 -1.5731021 14 0
2.0922003 6.0624385 -1.4806278 14 1
20.57823 59.560829 3.3025038 7 9
2.0773911 6.005928 -1.2352976 30 2
20.894745 60.374508 5.5894718 9 10
2.8138103 8.1212177 -1.361293 3 3
20.959738 60.425785 7.8530173 7 11
2.0801709 5.9936409 -0.7789889 28 4
3.7277951 10.716818 -0.99270386 14 5
3.0058534 8.626792 -0.47876939 12 6
2.9817533 8.5432262 -0.15794428 9 7
1.9542609 5.5463328 -1.5756904 11 0
2.1208532 6.0090947 -1.47118 9 1
2.1258137 6.009788 -1.2391137 30 2
20.401039 57.642727 5.3496194 3 10
2.8242543 7.9710393 -1.3393921 3 3
20.548903 57.931904 7.547369 3 11
2.1339147 6.0126467 -0.78337622 33 4
3.7811556 10.630463 -0.98712587 21 5
3.8422277 10.784277 -0.59997946 28 6
3.0440121 8.5297346 -0.1580839 18 7
1.9968623 5.5434599 -1.5787963 10 0
3.8971612 10.807036 0.20052816 13 8
2.2024364 6.104126 -1.4981741 10 1
2.1730621 6.0095696 -1.2421666 28 2
5.9704223 16.502131 1.5353355 1 10
2.9060731 8.0235615 -1.351594 13 3
21.032688 58.007244 7.5761304 3 11
2.1738079 5.9920039 -0.78264499 39 4
3.8743348 10.656238 -0.99200666 14 5
3.9187839 10.760944 -0.60018879 28 6
2.0421853 5.547514 -1.5839727 10 0
2.199825 5.9660988 -1.4680306 7 1
2.2190466 6.0053015 -1.2444563 28 2
21.744164 58.813633 5.4859309 7 10
2.9764159 8.0419817 -1.3581642 11 3
21.786089 58.800888 7.6994619 5 11
2.2183468 5.984127 -0.78361994 33 4
3.9555788 10.647605 -0.99374974 14 5
4.0007849 10.752042 -0.60123557 9 6
3.1530333 8.4601688 -0.15759523 27 7
2.0727041 5.5114231 -1.5777609 11 0
4.0969963 10.88257 0.20297149 13 8
2.2400486 5.9469485 -1.4671308 15 1
2.2664611 6.0043583 -1.2475092 30 2
21.926153 58.056496 5.4294538 5 10
3.0583303 8.0893745 -1.3697404 4 3
22.810184 60.270008 7.9124894 7 11
2.2727206 6.0019116 -0.7880072 36 4
3.1822901 8.3862524 -0.78475034 33 5
3.1859536 8.3826742 -0.46997693 37 6
3.1963682 8.3968344 -0.15682732 18 7
2.1028192 5.4751778 -1.5715494 12 0
2.3318884 6.062119 -1.4995238 13 1
2.3125608 5.9993806 -1.249799 30 2
22.556019 58.485722 5.4841881 7 10
3.1225562 8.0880976 -1.3731819 1 3
23.356365 60.435165 7.9553871 8 11
2.3117027 5.9784923 -0.78703225 49 4
3.2651985 8.431284 -0.79102546 27 5
4.1360612 10.657896 -0.59914213 28 6
2.1388764 5.4549685 -1.5699965 14 0
4.2247396 10.769201 0.20192434 13 8
2.3570547 6.0021591 -1.4887261 15 1
2.353344 5.9835 -1.249799 30 2
23.263031 59.086922 5.5556555 9 10
3.1934655 8.10709 -1.3800651 1 3
25.459463 64.566559 8.5218363 15 11
2.3643196 5.9899044 -0.7906884 45 4
3.3049397 8.3601065 -0.78649336 16 5
4.2217503 10.662919 -0.60102618 27 6
2.1759577 5.4402833 -1.5699965 13 0
2.3956816 5.9805493 -1.4873765 17 1
5.7229409 14.272243 0.80586916 2 9
2.4009099 5.9815011 -1.252852 30 2
24.99523 62.240379 5.8680215 17 10
3.252933 8.0919285 -1.3813165 1 3
24.039175 59.73909 7.9066401 7 11
2.4154134 5.9994535 -0.7941007 41 4
4.3218026 10.712976 -1.010658 14 5
4.3507061 10.768369 -0.60866719 36 6
2.2153423 5.4285374 -1.5710317 13 0
2.4226274 5.9276023 -1.4783784 17 1
24.541368 59.987103 3.3967085 12 9
2.4470744 5.9754949 -1.2551417 34 2
5.656292 13.805191 1.3052443 3 10
3.2711179 7.975812 -1.3653603 14 3
2.4587469 5.9861174 -0.79458821 42 4
4.4379506 10.767281 -0.61034197 18 6
2.2814002 5.4807115 -1.5907019 9 0
2.4594548 5.8997507 -1.4756789 16 1
2.4978087 5.9800053 -1.259721 36 2
26.230562 62.767715 5.9516912 19 10
3.364069 8.042078 -1.3806907 22 3
2.5035431 5.9761305 -0.79556316 44 4
3.5486944 8.454402 -0.80218142 22 5
4.5509362 10.826254 -0.61547089 9 6
4.5582833 10.827859 -0.20506579 14 7
2.317343 5.4593158 -1.589149 10 0
2.4845726 5.8447747 -1.466231 15 1
2.5456533 5.9768701 -1.262774 18 2
26.032322 61.091084 5.8098016 16 10
2.538945 5.9524727 -1.0249587 21 3
5.6253829 13.175778 1.7590623 1 11
2.53195 5.9274721 -0.79141963 21 4
2.5414872 5.9383283 -0.56511784 29 5
2.5177724 5.8744049 -0.33495015 11 6
4.6369195 10.803122 -0.2052054 22 7
2.3559806 5.4469624 -1.5901842 10 0
4.6676612 10.78116 0.20506579 27 8
2.5405626 5.8652811 -1.4756789 16 1
2.5550115 5.8873663 -1.2475092 32 2
26.355536 60.700462 5.7895813 15 10
2.5573542 5.8843265 -1.0161984 35 3
2.5627294 5.8882594 -0.78849471 36 4
2.5627394 5.877059 -0.56093436 55 5
2.5616965 5.8662829 -0.33547351 22 6
3.6815858 8.4188061 -0.16038762 9 7
2.4017458 5.4480586 -1.5953608 10 0
3.728857 8.4504614 0.16122533 8 8
2.5908952 5.8687925 -1.4810777 17 1
2.6008155 5.8801584 -1.249799 32 2
27.02051 61.061592 5.8418746 16 10
2.5983722 5.8663292 -1.0161984 42 3
2.6134334 5.8920002 -0.79141963 34 4
2.6109886 5.8754106 -0.56250316 52 5
2.6245136 5.8975234 -0.33829966 11 6
4.8635726 10.91351 -0.20855626 15 7
2.448427 5.4505439 -1.6010547 9 0
2.6445923 5.8789988 -1.4882761 16 1
2.6950428 5.97999 -1.2749858 32 2
27.207006 60.341103 5.790976 15 10
2.6937475 5.9604387 -0.803119 37 4
3.7736936 8.3345308 -0.80043828 16 5
4.9023638 10.812228 -0.62216991 8 6
4.903264 10.799176 -0.20702045 22 7
2.4775767 5.4139948 -1.5953608 10 0
2.679888 5.8479915 -1.4851269 15 1
2.746558 5.982439 -1.2795652 30 2
3.6792638 8.0029678 -1.3950827 9 3
2.7402742 5.9523063 -0.80458146 28 4
4.9199085 10.667217 -1.0277405 14 5
4.9224625 10.658066 -0.61526155 27 6
2.5153131 5.3965659 -1.5953608 10 0
2.7132318 5.8132467 -1.4810777 17 1
2.7949059 5.9773469 -1.282618 32 2
3.7166138 7.9377303 -1.3881997 7 3
2.791872 5.9546003 -0.80750632 30 4
5.0027356 10.650641 -1.0294836 14 5
3.9681573 8.4365807 -0.48860854 24 6
5.1217375 10.874386 -0.20981283 15 7
2.5529244 5.3788757 -1.5953608 11 0
2.7587659 5.8047252 -1.4837772 16 1
2.8416314 5.9683251 -1.2849078 30 2
3.8084936 7.9882627 -1.4016529 5 3
2.8504796 5.9707923 -0.81238109 35 4
4.0282178 8.4226284 -0.8168236 23 5
5.1467037 10.746819 -0.62447268 8 6
5.1663971 10.773458 -0.20855626 15 7
2.5929377 5.3661385 -1.5969136 9 0
2.8153527 5.8186522 -1.4923253 15 1
2.8917921 5.9660077 -1.2887239 30 2
3.7796409 7.787323 -1.3709919 5 3
2.8973005 5.9614592 -0.81384355 33 4
4.0834317 8.3871346 -0.81612635 23 5
5.2828712 10.836295 -0.6317997 17 6
2.6397159 5.3669744 -1.6026076 10 0
2.8688209 5.825079 -1.4990739 16 1
2.9403186 5.9597607 -1.291777 28 2
3.94503 7.9856701 -1.4107262 1 3
2.9441297 5.9517632 -0.81530601 30 4
4.1560402 8.3869867 -0.81891537 11 5
5.3069048 10.69538 -0.62572873 26 6
5.3501267 10.768324 -0.20988265 15 7
2.6840379 5.3622351 -1.6067487 12 0
2.9137833 5.8136196 -1.5013233 14 1
29.093307 57.99688 3.4004769 12 9
2.9836185 5.9425955 -1.2925402 34 2
4.0379491 8.0320597 -1.4238666 1 3
31.081505 61.771832 8.4906378 15 11
2.9909642 5.9417024 -0.81676841 28 4
5.3716607 10.65718 -1.0441258 15 5
5.4709759 10.844798 2.3610706 1 13
5.3508363 10.597452 -0.62216991 26 6
5.481112 10.841354 -0.21204674 15 7
2.7310495 5.3623037 -1.6124427 9 0
2.9534113 5.7914019 -1.5008734 16 1
3.0382817 5.9501262 -1.2986461 28 2
31.581976 61.796337 6.0716176 23 10
4.0817332 7.983284 -1.4201121 1 3
3.0396118 5.9348116 -0.81871831 26 4
5.362287 10.456316 -1.0280892 14 5
5.4282126 10.575788 2.3106971 7 13
5.4712005 10.654951 -0.62771749 17 6
2.7399473 5.2904096 -1.596396 12 0
2.9371455 5.6639047 -1.4729795 25 1
3.0906074 5.9496765 -1.3032255 26 2
31.709688 61.01775 6.0161862 21 10
4.142837 7.9651089 -1.4219894 1 3
31.519602 60.548569 8.381443 14 11
3.0909386 5.9351134 -0.82164317 33 4
31.024355 59.521099 10.630974 13 12
5.5512624 10.641203 -1.0500524 30 5
5.4110608 10.368025 2.2732985 7 13
5.610177 10.740419 -0.63504457 17 6
2.7804136 5.2779903 -1.5984664 12 0
2.989341 5.6673942 -1.4792781 14 1
3.1430774 5.9487834 -1.3078048 28 2
8.787425 16.624622 1.6451519 1 10
4.1946521 7.9290061 -1.420738 1 3
34.063084 64.334007 8.9381418 21 11
3.1453094 5.9379473 -0.82505554 35 4
31.40395 59.236759 10.619085 12 12
5.7075944 10.757069 -1.0653918 15 5
5.3894172 10.153121 2.2343736 6 13
5.7421818 10.808582 -0.64142954 8 6
2.8272288 5.2771831 -1.6041605 9 0
3.069366 5.7219467 -1.4990739 15 1
3.1993961 5.9543676 -1.3139107 28 2
32.900036 61.204346 6.0792875 23 10
4.2255678 7.8543015 -1.4126034 7 3
33.790501 62.755802 8.7514381 18 11
3.2055132 5.950799 -0.82993031 35 4
31.814861 59.012604 10.618461 25 12
5.7333937 10.630288 -1.0566761 15 5
5.4359212 10.070331 2.2244515 1 13
5.7434578 10.631166 -0.63326514 17 6
5.8140717 10.748412 -0.21330331 15 7
2.8723187 5.272584 -1.6088192 10 0
3.1073716 5.6969576 -1.4981741 19 1
3.2492621 5.9496827 -1.317727 30 2
4.2656646 7.8010921 -1.4082233 9 3
35.032639 64.014969 8.9600782 21 11
3.2488863 5.931757 -0.83041775 37 4
31.558945 57.595879 10.401955 21 12
4.5850444 8.3608971 -0.83425474 11 5
5.830102 10.618087 -0.63483518 26 6
5.8851089 10.700556 -0.2131637 23 7
2.9118845 5.2596712 -1.6108898 10 0
3.1422987 5.6688566 -1.4963745 21 1
3.3021557 5.9474511 -1.3223064 28 2
4.320982 7.7728481 -1.4085361 14 3
33.716389 60.601299 8.5150118 15 11
3.310427 5.9476647 -0.83578002 37 4
32.160221 57.733097 10.467031 22 12
5.9103637 10.601408 -1.0619056 23 5
5.8846192 10.542248 -0.63274175 26 6
6.0085382 10.751019 -0.21497875 16 7
2.9390585 5.2223787 -1.6057135 11 0
3.1837111 5.6501765 -1.4972742 21 1
3.355176 5.9447699 -1.3268858 16 2
35.002533 61.993 6.228498 27 10
4.3625078 7.7201357 -1.4044688 9 3
35.89761 63.474659 8.9537411 21 11
3.3616438 5.9416857 -0.83821738 33 4
32.434013 57.28027 10.425733 10 12
5.9940543 10.577221 -1.0636487 15 5
5.9935617 10.563442 -0.63650995 26 6
6.0360413 10.625347 -0.21330331 15 7
2.9869535 5.2218571 -1.611925 10 0
3.2114551 5.6075211 -1.4918754 32 1
3.3926888 5.9143891 -1.3253593 11 2
4.4792614 7.7991209 -1.4244925 12 3
3.410959 5.9318395 -0.84016734 30 4
33.221294 57.727028 10.549004 12 12
6.0420542 10.494735 -1.0594652 15 5
6.1409893 10.64938 -0.6442557 8 6
6.1720591 10.690322 -0.21546741 16 7
2.9786756 5.1240497 -1.5881137 11 0
3.2642481 5.6085439 -1.4981741 22 1
3.4694383 5.9539232 -1.3394792 3 2
4.4993911 7.7121468 -1.4141676 4 3
32.867725 56.291462 8.0036478 9 11
3.4602973 5.9215946 -0.84211725 28 4
33.360268 57.06638 10.469534 22 12
6.3345022 10.827194 -1.0974652 16 5
6.2567372 10.681441 -0.64875656 35 6
6.2809463 10.705615 -0.21665418 16 7
3.0724189 5.2034664 -1.6191721 10 0
3.3003654 5.5828395 -1.4972742 24 1
3.6169505 6.1086245 -1.3799307 5 2
32.446262 54.776356 5.5699492 9 10
4.5098119 7.6074786 -1.4007144 9 3
32.994514 55.613346 7.9397883 8 11
3.5126855 5.9183874 -0.84504211 31 4
33.844578 56.978161 10.496441 23 12
4.9907093 8.3953037 -0.8544749 18 5
6.3546495 10.676974 -0.651164 17 6
6.4212265 10.775994 -0.21895789 17 7
3.114634 5.1918297 -1.6222779 10 0
6.4672217 10.771784 0.21930695 15 8
3.3442771 5.5680151 -1.4995238 15 1
12.317716 20.492027 1.2530276 5 9
3.9256694 6.5256729 -1.4802963 8 2
4.5913448 7.6231918 -1.4094746 2 3
3.5580156 5.9005218 -0.84601706 30 4
5.2552891 8.7083616 1.6109623 1 12
5.0213909 8.3142061 -0.84976846 30 5
6.4528084 10.671658 -0.65357149 17 6
6.4900913 10.720635 -0.21874847 17 7
3.1327071 5.1402655 -1.6129603 11 0
3.3861132 5.5495234 -1.5008734 21 1
3.8974221 6.3774934 -1.4528197 11 2
32.380665 52.964886 5.4311972 5 10
4.6465149 7.5943222 -1.4101005 1 3
32.530067 53.125889 7.6487646 4 11
3.6198599 5.9093928 -0.85089183 33 4
34.118549 55.654636 10.33938 19 12
5.1132789 8.3375845 -0.85569507 36 5
6.5491056 10.662086 -0.65576959 8 6
6.5982985 10.729573 -0.21986541 17 7
3.1532614 5.0936327 -1.6051958 13 0
3.3898661 5.4694324 -1.4855767 22 1
8.7449484 14.10416 0.86971897 2 9
3.9407415 6.3508162 -1.4528197 9 2
32.844238 52.889866 5.4468851 6 10
4.6897645 7.5490923 -1.4075974 1 3
3.6820016 5.9176869 -0.85576659 33 4
36.239845 58.221775 10.861873 15 12
5.1618805 8.2864628 -0.85412621 24 5
6.6183524 10.61218 -0.65545553 35 6
6.6984649 10.723955 -0.22070314 17 7
3.2043102 5.0982194 -1.6134779 14 0
3.3730507 5.3604627 -1.4621819 20 1
3.3851943 5.3714385 -1.2341527 4 2
4.7307549 7.4977937 -1.404156 8 3
5.2176905 8.2631474 1.1999257 2 11
3.7412796 5.9226966 -0.86015391 32 4
36.218983 57.292782 10.735473 28 12
5.2501135 8.301652 -0.85935563 12 5
6.6452603 10.491474 -0.65085006 17 6
6.7263317 10.60718 -0.21923712 17 7
3.2460589 5.0854969 -1.6165838 16 0
3.3998959 5.3203645 -1.4576828 21 1
4.0607271 6.3471475 -1.4646499 6 2
4.1647892 6.5023007 -1.2230048 1 3
3.7975423 5.9198256 -0.86356628 30 4
36.445961 56.792225 10.687918 13 12
5.3219385 8.2865915 -0.86162168 30 5
6.8374939 10.634156 -0.66257328 35 6
6.8760018 10.677653 -0.22168046 17 7
3.2816522 5.0649037 -1.6171014 14 0
3.5399632 5.4573178 -1.5017732 19 1
32.954277 50.764572 3.1718733 1 9
4.1851559 6.4421182 -1.4932712 4 2
4.8379869 7.4384794 -1.4054073 8 3
3.8399158 5.8971653 -0.86405367 27 4
35.750145 54.861542 10.371294 10 12
5.4242816 8.3176584 -0.86876839 18 5
6.9071994 10.579473 -0.66215456 35 6
7.0032272 10.714295 -0.22342572 17 7
3.3402884 5.0773778 -1.6284895 14 0
3.6036992 5.4715323 -1.512571 16 1
4.1738186 6.3275228 -1.4734272 11 2
4.1789746 6.3281288 -1.2011039 2 3
3.8919394 5.8867731 -0.86649108 26 4
35.981865 54.383278 10.328117 9 12
5.5350118 8.3593283 -0.87713534 12 5
7.1563454 10.795687 -0.67879742 8 6
7.1021829 10.701797 -0.22419362 18 7
3.3220036 4.9736109 -1.6026076 14 0
3.652642 5.4624395 -1.5170699 15 1
5.1795502 7.740046 0.48808515 2 9
4.2288151 6.3145423 -1.4772433 11 2
38.273804 57.129559 6.0161862 21 10
4.2032509 6.2692661 -1.1954722 2 3
3.9572811 5.8957205 -0.87185335 30 4
36.294533 54.032379 10.309345 9 12
7.0871429 10.542804 -1.11141 17 5
8.761487 13.018825 -0.82240731 26 6
3.3739922 4.9758811 -1.6108898 6 0
3.666609 5.4013348 -1.5071721 19 1
33.99675 50.043457 3.1706173 1 9
4.2595477 6.2653852 -1.4726639 9 2
35.032444 51.509964 5.4500227 6 10
4.9449143 7.2653089 -1.3919541 2 3
8.7232494 12.80701 1.9026244 3 11
4.0162268 5.8941989 -0.87575316 32 4
36.577385 53.640583 10.283064 9 12
7.0628672 10.349893 -1.0962449 16 5
7.2185059 10.566079 -0.67063302 17 6
7.4202471 10.849177 -0.22942933 19 7
3.4053595 4.947432 -1.609337 5 0
3.7550948 5.4494181 -1.5278676 15 1
4.3522491 6.306591 -1.4894551 9 2
34.745972 50.329575 5.3506651 3 10
4.9685664 7.1916037 -1.3844452 2 3
4.0776038 5.8954039 -0.88014042 33 4
37.079166 53.569069 10.318732 9 12
5.6464663 8.1514978 -0.86754823 12 5
3.4741173 4.9726291 -1.6253836 12 0
3.804214 5.4390402 -1.5323665 17 1
4.3488612 6.208519 -1.4734272 9 2
12.016684 17.148863 1.8320136 1 10
4.9971037 7.1260123 -1.3785007 8 3
36.860329 52.524872 7.8788533 7 11
4.1323519 5.8862872 -0.88306534 41 4
36.171299 51.485672 9.9658146 6 12
7.4710846 10.614525 -0.6802628 26 6
3.493104 4.9261918 -1.6181368 19 0
3.8375804 5.405993 -1.5305669 15 1
4.3739009 6.1524029 -1.4673213 8 2
4.3892584 6.1671648 -1.1989139 5 3
37.414989 52.531433 7.9188271 7 11
4.1998363 5.8944807 -0.88867134 43 4
36.490864 51.177212 9.9551783 5 12
5.9402633 8.3248711 -0.89474088 18 5
39.295681 55.049873 13.147121 29 13
7.531075 10.542606 -0.67900676 26 6
3.4822738 4.838964 -1.5974313 18 0
3.8729498 5.3759074 -1.5296671 14 1
4.4213409 6.1280861 -1.4688478 9 2
36.137524 50.069069 5.4022613 4 10
4.4472423 6.1571898 -1.2029812 2 3
37.780819 52.268948 7.9188271 7 11
4.2618227 5.8939719 -0.89305866 40 4
36.731457 50.761177 9.9238911 5 12
5.965517 8.2380133 -0.88986009 12 5
7.632627 10.528582 -0.68151885 26 6
3.5296409 4.8332582 -1.6036428 19 0
3.9425869 5.3927889 -1.5422645 15 1
4.292367 5.862628 -1.4123683 12 2
36.731068 50.149891 5.438518 5 10
5.3145728 7.2508159 -1.4238666 10 3
38.154167 52.016731 7.9207768 7 11
4.31461 5.8800802 -0.89549601 37 4
37.615719 51.226383 10.065933 7 12
6.0913124 8.2892857 -0.89997017 12 5
7.8018107 10.605353 -0.68999732 17 6
3.5840008 4.8364372 -1.6129603 19 0
3.9894307 5.3776512 -1.5458636 19 1
4.3519216 5.8577356 -1.4184742 17 2
4.7449718 6.3798056 -1.2592976 2 3
4.3721495 5.872108 -0.89890838 40 4
38.189625 51.253979 10.123502 15 12
6.2681327 8.4062824 -0.91740137 13 5
7.8218966 10.478604 -0.68528712 26 6
3.6083922 4.7989435 -1.6088192 15 0
4.0315642 5.3558965 -1.5476632 17 1
4.4919806 5.958899 -1.4505301 9 2
37.737167 50.042595 5.4834909 7 10
4.6299477 6.1352363 -1.2173731 1 3
38.252274 50.652023 7.7935452 6 11
4.4369726 5.8731174 -0.90378314 47 4
8.6904478 11.494999 2.2823792 3 12
6.068017 8.0233545 -0.8800987 25 5
7.9660025 10.517683 -0.69146276 17 6
3.689847 4.8366103 -1.6300424 13 0
4.0759516 5.336915 -1.5503626 18 1
4.6421413 6.071672 -1.4856389 9 2
37.957279 49.610191 5.4650135 6 10
5.4592066 7.1326065 -1.4226153 4 3
4.5068493 5.8798108 -0.90963286 46 4
38.702732 50.474888 10.074068 7 12
6.3324995 8.2526712 -0.91008025 25 5
8.1432657 10.60101 -0.70056915 17 6
8.1971855 10.655798 -0.23466507 20 7
3.7073152 4.7915196 -1.6233131 18 0
4.1121845 5.3090467 -1.5503626 16 1
4.5255818 5.8343472 -1.4352653 12 2
38.555473 49.687527 5.5023165 7 10
4.63656 5.970962 -1.1973495 2 3
39.268581 50.533604 7.8578925 7 11
4.5686946 5.8772106 -0.91402018 40 4
38.949886 50.069363 10.047161 13 12
6.3960748 8.2161245 -0.91095179 31 5
11.873195 15.235337 -1.0122821 9 6
8.2941227 10.63129 -0.23536316 20 7
3.7716892 4.8050303 -1.6367717 14 0
4.1587811 5.2924676 -1.5539619 15 1
4.632978 5.8874664 -1.4562544 11 2
44.257355 56.22089 6.2598739 28 10
5.7220635 7.2636189 -1.4645396 1 3
39.664631 50.314365 7.8666668 7 11
4.6268234 5.8669934 -0.91743249 34 4
39.60685 50.187 10.126004 7 12
6.4903231 8.2181787 -0.91618109 32 5
8.3152552 10.517617 -0.70266259 8 6
8.3582125 10.560584 -0.23508391 20 7
3.8243971 4.802762 -1.645054 15 0
4.2004867 5.2694001 -1.5557615 18 1
4.6898904 5.8749251 -1.4612154 8 2
4.7145438 5.8994703 -1.1960981 3 3
39.794235 49.760269 7.8232808 6 11
4.6860533 5.855433 -0.92084479 34 4
40.136501 50.134411 10.171683 16 12
6.6808324 8.3390455 -0.93483251 13 5
8.4184685 10.496704 -0.70517474 17 6
8.5212221 10.609641 -0.23752725 20 7
3.8756652 4.796309 -1.6523008 15 0
4.2589211 5.2649636 -1.5634098 23 1
4.6937256 5.7962685 -1.4497669 12 2
4.7864971 5.9024081 -1.2036068 11 3
40.453308 49.866646 7.8842158 7 11
4.7518401 5.8533988 -0.92571962 37 4
42.24049 51.995464 10.610326 12 12
6.8117709 8.3818769 -0.94494259 13 5
8.4958878 10.439292 -0.70538408 8 6
8.6683407 10.639811 -0.23955174 21 7
3.9213018 4.7840757 -1.6574773 14 0
4.2770319 5.2125053 -1.5566614 22 1
4.7537785 5.785285 -1.4554911 13 2
4.8225703 5.8627439 -1.2023554 15 3
40.309521 48.968975 7.7876954 6 11
4.8304448 5.8660541 -0.93303174 42 4
42.213028 51.226719 10.513335 11 12
8.7457447 10.609438 -1.2029235 20 5
4.841825 5.865263 -0.39859068 26 6
3.9669538 4.77144 -1.6626536 14 0
4.3020959 5.1690402 -1.5526122 24 1
11.563983 13.889377 0.94717628 7 9
4.8294892 5.7965374 -1.466558 19 2
39.121098 46.92128 5.3447385 3 10
4.8598318 5.8267498 -1.2017297 30 3
39.148571 46.904282 7.5015464 2 11
4.859827 5.8184762 -0.93083817 29 4
41.89706 50.143875 10.349393 10 12
4.8679686 5.8220253 -0.66395247 43 5
4.8342075 5.7754998 -0.39471781 26 6
8.7929306 10.490158 -0.23892345 31 7
4.0080581 4.7546649 -1.6662771 13 0
4.3221016 5.1217632 -1.5472133 24 1
4.313539 5.1043878 -1.2990277 3 2
39.573326 46.812168 5.3628669 3 10
4.8812542 5.7700582 -1.1970366 33 3
39.746986 46.951027 7.5532188 3 11
4.8877711 5.7716303 -0.92864448 36 4
42.889771 50.609684 10.507078 11 12
4.869833 5.7423153 -0.65872312 56 5
4.8808737 5.7492232 -0.3952412 26 6
8.9651394 10.548916 -0.24164602 21 7
4.0323644 4.7162914 -1.6626536 18 0
4.3615518 5.0959082 -1.548563 21 1
4.4014549 5.1352634 -1.314674 11 2
11.430517 13.331511 1.5363814 1 10
4.9793048 5.8033004 -1.2111158 25 3
39.605652 46.127209 7.4649854 2 11
5.0288358 5.8548226 -0.9476561 10 4
42.577648 49.53603 10.345638 10 12
4.9578753 5.7640662 -0.66517264 22 5
5.0368738 5.8497128 -0.40455699 13 6
4.1056919 4.7347302 -1.6792181 15 0
4.3995767 5.0682778 -1.5494629 18 1
4.3921156 5.0525532 -1.3013173 3 2
40.353813 46.405411 5.3802981 4 10
5.1000934 5.8607893 -1.2305136 22 3
40.807976 46.86158 7.6297526 4 11
6.9902415 8.0243626 -1.3066832 5 4
42.974335 49.297161 10.358153 10 12
9.1441393 10.485814 -1.2172171 21 5
5.1012397 5.8414826 -0.40644106 13 6
4.1156821 4.6798391 -1.6699005 15 0
4.4464417 5.0506034 -1.553512 23 1
4.4822221 5.0858736 -1.317727 11 2
5.1660056 5.8555636 -1.236771 23 3
40.721378 46.124359 7.5546813 3 11
7.0329447 7.9604936 -1.3042458 10 4
42.343502 47.911125 10.127256 7 12
