# .PCD v0.7 - Point Cloud Data file format
VERSION 0.7
FIELDS x y z intensity ring
SIZE 4 4 4 4 2
TYPE F F F F U
COUNT 1 1 1 1 1
WIDTH 1345
HEIGHT 1
VIEWPOINT 0 0 0 1 0 0 0
POINTS 1345
DATA ascii
9.4634523 6.4337778 1.8124499 42 12
7.1839023 4.880343 -0.75982374 15 5
10.448186 7.0952506 2.4549487 16 13
8.6087971 5.8417521 -0.54523605 21 6
11.532315 7.8197141 3.2168002 26 14
5.5376563 3.7295766 -1.7889572 10 0
8.3530302 5.6214705 0.17574574 10 8
6.1264687 4.1214728 -1.7046791 14 1
7.0247192 4.7221942 0.44359964 15 9
7.0240765 4.7182078 -1.6447737 10 2
8.6558828 5.8121262 0.91217202 19 10
8.1656885 5.4788489 -1.5574617 18 3
7.2143836 4.8350863 -1.0663568 15 4
9.4113045 6.3026981 1.7939906 21 12
7.3204598 4.8987713 -0.77063102 10 5
10.384871 6.9468174 2.428617 18 13
8.6510305 5.7826185 -0.54534072 21 6
11.445639 7.6448512 3.1776586 11 14
7.5453649 5.0378437 -0.15836313 9 7
5.6005864 3.7153859 -1.8008629 9 0
8.3920689 5.5630221 0.17574574 30 8
6.1615906 4.0829077 -1.7064787 14 1
8.458025 5.6003714 0.53162873 6 9
7.1059632 4.7015548 -1.6562221 10 2
10.20849 6.7517343 1.0707954 9 10
8.2235146 5.4347782 -1.5612161 19 3
12.211622 8.0643167 1.7968417 4 11
7.3092623 4.8250628 -1.0753752 21 4
9.110445 6.0095124 1.728601 21 12
8.93151 5.8870149 -0.9358784 13 5
9.3855419 6.1839247 2.1847632 15 13
12.155985 8.003232 -0.76274431 8 6
11.627347 7.6493654 3.2132008 11 14
7.7374029 5.0883307 -0.16164419 14 7
5.6360898 3.6825383 -1.8039688 9 0
8.1527481 5.3228269 0.16995154 9 8
6.2160535 4.0568361 -1.7136772 15 1
8.6424627 5.6361036 0.54073519 8 9
7.1567092 4.6636181 -1.6604201 10 2
10.567564 6.8836575 1.1033916 20 10
8.2778149 5.3880062 -1.5643448 17 3
10.234111 6.6562757 1.498993 8 11
9.0586348 5.8894901 -1.3266698 11 4
9.5149488 6.1814466 1.7971194 25 12
7.2210274 4.6876025 -0.75319988 15 5
9.4367161 6.1235986 2.1866713 37 13
10.277687 6.6642179 -0.64195293 17 6
7.7458863 5.0167933 -0.16108571 14 7
5.6616616 3.6431012 -1.8039688 9 0
6.263896 4.0259843 -1.7190759 14 1
8.5521994 5.4925251 0.53267539 25 9
7.2006569 4.6209674 -1.6630913 10 2
10.181025 6.5310807 1.0582449 22 10
8.3617916 5.3599381 -1.5731052 17 3
9.9861288 6.3962274 1.4560951 16 11
9.1714144 5.8721361 -1.3371505 25 4
9.228405 5.9040852 1.7351713 4 12
7.2569375 4.6392193 -0.75354856 10 5
9.4891624 6.063911 2.1889608 22 13
5.6804299 3.5993509 -1.8018982 9 0
6.2984366 3.986325 -1.7208756 14 1
8.662921 5.47859 0.53717631 21 9
7.2659345 4.5915599 -1.6707237 10 2
9.9838066 6.3066268 1.0331441 7 10
8.4892111 5.3583674 -1.5900002 15 3
10.156467 6.4057794 1.4743755 21 11
9.3045425 5.8661928 -1.3505563 24 4
10.618191 6.6892238 1.9876565 6 12
9.3023863 5.855762 -0.96167642 13 5
12.804502 8.0509443 -0.7926805 8 6
12.134812 7.6239691 3.3085802 4 14
5.7381983 3.5800605 -1.812251 9 0
10.047622 6.2638311 0.2066714 14 8
6.3128819 3.9340112 -1.7172763 15 1
8.6907854 5.411643 0.53654832 12 9
7.3178163 4.5531688 -1.6753031 10 2
10.066505 6.2609749 1.0371534 3 10
8.4861469 5.2739463 -1.5824912 6 3
10.146976 6.3012056 1.4665757 20 11
9.4464645 5.8639078 -1.3651805 25 4
10.058632 6.2390428 1.8747108 19 12
9.4395704 5.8505044 -0.97161222 41 5
9.3359213 5.7840028 2.1347711 20 13
11.78374 7.294848 -0.72631848 8 6
11.688896 7.2304916 3.1731596 17 14
5.7630539 3.5399103 -1.812251 9 0
10.029752 6.1558752 0.20541482 13 8
6.3468366 3.893919 -1.7190759 15 1
8.8271141 5.4113817 0.54261923 8 9
7.3611412 4.5091515 -1.6779745 10 2
7.4202075 4.5435476 0.76121825 4 10
8.5935268 5.2578778 -1.5956318 14 3
9.5820284 5.8557792 -1.3788298 21 4
10.157575 6.2026458 1.8850355 15 12
9.5720272 5.8404994 -0.98102504 42 5
9.7565432 5.950748 2.2213984 14 13
11.933299 7.2726898 -0.73238945 26 6
9.3789577 5.7114644 2.5351985 19 14
11.825267 7.1983614 -0.24164602 21 7
5.7876267 3.4995904 -1.812251 9 0
9.92871 5.9988441 0.20248282 13 8
6.4005566 3.8656342 -1.7262744 13 1
11.922167 7.1947565 0.72977263 20 9
7.4176621 4.4728546 -1.6836987 12 2
7.4142051 4.4690104 0.75738341 4 10
8.7332478 5.2599201 -1.6147168 9 3
12.732504 7.6625638 1.824628 7 11
9.728137 5.8521905 -1.3939416 21 4
10.007624 6.0155654 1.8493685 10 12
9.7116289 5.8330359 -0.99113512 35 5
9.913991 5.952219 2.24773 30 13
7.3081007 4.3842149 -0.4466351 13 6
12.011013 7.1998391 3.2329965 11 14
7.4188066 4.4453387 -0.15096332 8 7
5.8517575 3.4828155 -1.8246742 9 0
7.4180355 4.4115181 0.15064916 26 8
6.4441371 3.8308172 -1.7307733 13 1
12.502709 7.4265242 0.76211625 8 9
7.4419541 4.4169521 -1.6821721 10 2
7.4178085 4.4008703 0.75459439 4 10
8.8122377 5.2240062 -1.6225384 14 3
7.3902826 4.3775725 1.0546573 5 11
9.8644104 5.8407698 -1.407591 19 4
9.85674 5.8269382 -1.0017681 14 5
9.5293722 5.6311665 2.1515625 52 13
7.3041358 4.3127747 -0.44454166 13 6
9.7330427 5.7423582 2.6089823 19 14
7.4117632 4.3710923 -0.1501954 24 7
5.8359232 3.4184437 -1.812251 13 0
7.3934288 4.3272963 0.14953223 19 8
6.5077286 3.8073847 -1.7406713 10 1
10.800694 6.3139434 0.65566492 14 9
7.4166646 4.3322163 -1.6695787 10 2
7.4104996 4.3268762 0.75075954 4 10
8.8996773 5.192225 -1.6319245 13 3
7.4000835 4.3138747 1.0517325 5 11
10.035298 5.8477187 -1.4261152 18 4
10.630077 6.189343 1.948235 18 12
12.35985 7.1907163 -1.2510335 22 5
9.7483492 5.6691198 2.192014 38 13
7.3375201 4.2636843 -0.44475099 13 6
9.7762661 5.6762261 2.6098821 17 14
7.3936725 4.2911367 -0.14921807 28 7
5.8713617 3.384371 -1.8158745 10 0
7.3749371 4.2476335 0.14855488 19 8
6.5442858 3.7676902 -1.7433707 14 1
7.3768277 4.2435803 0.44600707 4 9
7.1965189 4.1365137 -1.6134809 12 2
7.4128866 4.2591548 0.74797058 4 10
7.2140088 4.1415439 -1.3174912 19 3
7.3886971 4.2383986 1.0458828 5 11
7.2103381 4.134418 -1.020534 18 4
10.678173 6.1179214 1.9491737 12 12
7.2501154 4.1504993 -0.73088807 10 5
9.6070671 5.4975662 2.1515625 42 13
7.2630763 4.1528716 -0.43847069 13 6
7.38872 4.2195807 -0.14851998 32 7
5.9066091 3.3499701 -1.8194979 13 0
7.3800545 4.18224 0.14806621 18 8
6.565341 3.7190323 -1.742021 25 1
7.3715105 4.1723013 0.44391361 4 9
7.2713614 4.1122656 -1.6237847 18 2
7.4146862 4.1916142 0.74518156 4 10
7.2341475 4.0862222 -1.3159269 16 3
7.3852601 4.1681743 1.0412518 6 11
7.2321124 4.0800748 -1.019559 15 4
10.366138 5.8434005 1.8847226 6 12
7.2521615 4.0863819 -0.72827333 25 5
9.6657419 5.4419198 2.1561418 27 13
7.2118163 4.057023 -0.43365577 13 6
11.467274 6.448298 3.0372891 13 14
7.2401743 4.067987 -0.14495969 22 7
5.9585314 3.3246546 -1.8282977 12 0
7.2599063 4.0491109 0.1450993 29 8
6.5877404 3.6712096 -1.7411212 37 1
7.2636466 4.0462127 0.4357492 18 9
7.6559958 4.2612743 -1.7031612 12 2
7.2922821 4.0555005 0.73001647 16 10
9.0746517 5.0446672 -1.6444392 16 3
7.3544564 4.0850382 1.0329647 7 11
10.476667 5.8144813 -1.4712068 21 4
7.3862281 4.0976272 1.3378277 6 12
7.313622 4.0540051 -0.73158526 10 5
9.8443241 5.4523115 2.1874344 42 13
7.291688 4.0368576 -0.43679595 39 6
11.474492 6.3473368 3.0273912 12 14
7.296402 4.0328155 -0.14551817 26 7
6.006423 3.2979691 -1.8360624 9 0
7.3335786 4.0233397 0.14600682 72 8
6.598906 3.6187904 -1.737522 29 1
7.2812057 3.9896491 0.43512118 15 9
7.6924462 4.2114925 -1.7046876 10 2
7.2672839 3.9770749 0.72478712 16 10
9.1477795 5.0020413 -1.6513225 12 3
7.2573709 3.9650645 1.0154155 15 11
10.655375 5.8191562 -1.490706 28 4
7.2776704 3.9712083 1.3131109 21 12
12.630377 6.8891687 -1.2587032 22 5
9.629528 5.2480063 2.1317184 21 13
7.3249531 3.9887226 -0.43710995 26 6
11.52086 6.2709436 3.0282912 15 14
7.3377347 3.9907031 -0.1457974 30 7
6.0395012 3.2614605 -1.8391682 9 0
7.3871889 3.9875805 0.14653042 49 8
6.5965676 3.5578287 -1.7303236 33 1
7.3380795 3.956111 0.43690062 11 9
7.7399478 4.1692758 -1.7088854 10 2
7.387856 3.9762886 0.7340256 20 10
9.1850948 4.9415302 -1.6519481 13 3
7.3558784 3.9541118 1.0254087 21 11
11.050752 5.9352994 -1.5401849 10 4
7.3219357 3.9309263 1.3162397 21 12
12.256788 6.5747895 -1.2168685 21 5
9.662467 5.1788011 2.130955 42 13
7.2727118 3.8963234 -0.43239969 13 6
11.612461 6.216116 3.0408883 16 14
7.3513103 3.9318345 -0.14551817 22 7
6.0825973 3.2300899 -1.8453798 9 0
7.3607745 3.9055617 0.14544836 30 8
6.6487908 3.5262985 -1.737522 26 1
7.3891454 3.9156539 0.43826136 6 9
7.7730541 4.1156206 -1.7096486 9 2
7.381979 3.9069073 0.73071378 5 10
9.2586374 4.8959918 -1.6588312 17 3
7.4068017 3.9134283 1.0285773 9 11
11.434207 6.0387802 -1.587714 10 4
7.370842 3.8894939 1.3199942 10 12
12.70888 6.700635 -1.2569602 22 5
9.6792822 5.1011496 2.1267571 14 13
7.2650604 3.8255732 -0.43030626 13 6
11.756672 6.1854873 3.0669827 9 14
7.3290234 3.8543544 -0.14454083 26 7
6.0776 3.1732409 -1.8370978 9 0
7.3453102 3.8318808 0.14461064 29 8
6.7008939 3.4942119 -1.7447205 23 1
7.3525338 3.8307533 0.43449312 6 9
7.832943 4.0775714 -1.7165178 10 2
7.3896303 3.8451633 0.7287963 4 10
9.3451729 4.8585711 -1.6682173 14 3
7.3705239 3.828681 1.0198027 6 11
11.601171 6.023756 -1.6050195 10 4
7.3452125 3.8106506 1.310608 4 12
12.207 6.3275089 -1.2029235 20 5
9.8628283 5.1102219 2.1591947 14 13
7.2844968 3.7710879 -0.42988759 13 6
11.574552 5.9868703 3.0084953 15 14
7.3308859 3.7902372 -0.14405216 26 7
6.0583558 3.1095653 -1.8246742 9 0
7.3505321 3.7695541 0.14419177 28 8
6.6939077 3.4313476 -1.7366221 23 1
11.73261 6.0090466 0.6908347 10 9
7.8856869 4.0353088 -1.7218604 10 2
7.3879147 3.7789593 0.72600728 4 10
9.4281149 4.8183818 -1.6769776 13 3
7.35641 3.7563722 1.0141968 5 11
11.586364 5.9137392 -1.5972198 14 4
11.148081 5.6851397 1.982025 13 12
12.0485 6.1390176 -1.1830521 20 5
10.90943 5.556241 2.3797698 19 13
7.2358847 3.6820967 -0.42549136 13 6
11.563952 5.8794231 2.9949985 17 14
7.3286438 3.7244694 -0.14349368 25 7
6.0488701 3.051532 -1.8153569 9 0
7.3409553 3.7001445 0.14349368 23 8
6.8604074 3.4564312 -1.7735142 32 1
11.836714 5.9584222 0.69449818 6 9
7.9487424 3.9978044 -1.7294928 9 2
7.364274 3.7022326 0.72112656 4 10
9.4685831 4.7559953 -1.6782292 13 3
7.3576183 3.6924543 1.0107845 5 11
11.481867 5.7597256 -1.5772332 15 4
11.183969 5.6053972 1.9813992 24 12
11.063828 5.5379367 2.4049568 36 13
14.964051 7.4836411 -0.87683672 8 6
11.665727 5.8290401 3.010745 8 14
6.0527196 3.0006449 -1.8101805 9 0
11.419943 5.656496 0.22244836 16 8
7.0136075 3.4724331 -1.8068069 21 1
11.775979 5.8251705 0.68853194 10 9
7.9905396 3.9491735 -1.7325459 10 2
7.3542132 3.6330841 0.71764034 4 10
9.6113787 4.7439828 -1.6976269 13 3
7.338707 3.6190484 1.004691 5 11
11.687387 5.7610502 -1.5999008 20 4
12.596222 6.2035699 2.2238727 12 12
11.479222 5.645988 2.486623 53 13
14.958568 7.3508096 -0.87348717 8 6
11.58544 5.6881895 2.9797015 20 14
6.0561519 2.9498594 -1.8050041 9 0
7.0657153 3.4370265 -1.8140053 21 1
11.848693 5.7585306 0.69041598 14 9
8.0638342 3.9155848 -1.7424678 9 2
7.3650584 3.5746942 0.71624589 6 10
9.7153625 4.7112393 -1.7101418 12 3
7.3512878 3.5616715 1.0029848 5 11
11.759483 5.6948853 -1.6042881 21 4
11.919063 5.7670383 2.0971608 18 12
12.529483 6.0542965 2.7049084 18 13
12.405112 5.9888601 -0.72192228 17 6
11.705608 5.6461139 3.0003972 13 14
12.740408 6.1425085 -0.24688175 22 7
6.073112 2.9058397 -1.8039688 9 0
11.927195 5.7017636 0.23075573 17 8
7.0930552 3.3892953 -1.8149052 22 1
11.701157 5.5861821 0.67953008 12 9
8.1016035 3.8642683 -1.7447575 10 2
7.3610601 3.5094705 0.71345693 4 10
9.8157835 4.6755838 -1.7220308 13 3
12.242502 5.8262687 1.6647354 16 11
11.802537 5.6143608 -1.6047755 20 4
11.926919 5.6684241 2.0915291 9 12
12.257392 5.8228636 -1.1872355 20 5
11.8886 5.6425838 2.5579855 6 13
12.396093 5.8781438 -0.71899146 8 6
11.553584 5.4761686 2.9518077 24 14
6.1037416 2.8683004 -1.8070747 9 0
11.925909 5.6017413 0.22998782 17 8
7.2082787 3.3827438 -1.8382999 14 1
12.228935 5.7362628 0.70789623 2 9
8.1934948 3.8398585 -1.7588774 10 2
12.12913 5.6791205 1.1717217 12 10
9.9189472 4.6421542 -1.7345455 13 3
12.578584 5.881537 1.7049522 5 11
12.208344 5.7032261 -1.6544983 9 4
12.156742 5.6765356 2.125006 7 12
11.988204 5.5876479 2.5709605 6 13
14.499701 6.7551651 -0.83831745 8 6
6.1231241 2.8266871 -1.8070747 9 0
7.2506046 3.3425746 -1.843249 13 1
13.255548 6.1052823 0.76483774 14 9
8.2664719 3.8039057 -1.7687995 10 2
12.840865 5.9061384 1.2365657 12 10
10.04086 4.6140351 -1.7501891 10 3
12.263941 5.6304145 1.6569357 8 11
12.311013 5.6468234 -1.6630292 11 4
12.183506 5.5857649 2.1228158 21 12
12.652681 5.7955236 -1.2175657 21 5
11.846616 5.4213057 2.5324171 12 13
14.517447 6.6404805 -0.83664268 17 6
12.252816 5.5994291 3.1101732 2 14
6.1361561 2.7796102 -1.8050041 9 0
7.3276038 3.3147001 -1.8567461 14 1
12.774732 5.7733812 0.73469228 14 9
8.3804979 3.7857008 -1.7874987 13 2
12.259906 5.5329843 1.1767769 4 10
10.115037 4.5607462 -1.7573849 10 3
12.675766 5.712678 1.7071459 11 11
12.360993 5.5656347 -1.6644917 12 4
14.168782 6.3736506 2.4607143 16 12
12.663757 5.6939836 -1.2147768 31 5
11.841194 5.3191614 2.5232584 12 13
12.640383 5.6728621 -0.72610915 35 6
12.268492 5.5033894 3.1043243 4 14
6.1448197 2.7319949 -1.8018982 9 0
7.3790636 3.2761149 -1.8639444 14 1
12.575554 5.5779772 0.72098023 8 9
8.4737844 3.755064 -1.8016186 10 2
12.556912 5.5618424 1.201529 4 10
10.175535 4.5028033 -1.762391 9 3
12.977763 5.7374091 1.7422442 3 11
12.45947 5.5056744 -1.6725351 9 4
14.00873 6.1844287 2.4253602 15 12
14.693719 6.4837661 -1.4051249 28 5
13.330384 5.8710732 -0.7633723 8 6
6.1708245 2.6921222 -1.8039688 9 0
7.4535646 3.2470942 -1.8769917 17 1
13.135122 5.719491 0.7508117 8 9
8.6035633 3.7427251 -1.8237525 10 2
12.599091 5.4756312 1.2018777 5 10
10.231313 4.4444599 -1.7667711 10 3
12.765216 5.5398865 1.7086083 11 11
12.497602 5.4185567 -1.6725351 9 4
12.390252 5.3694444 2.1387722 15 12
15.192064 6.5773411 -1.448354 29 5
15.199207 6.5741439 3.2189479 7 13
13.461705 5.8198223 -0.76860595 8 6
6.2032151 2.6561368 -1.80811 7 0
7.5292501 3.2192643 -1.8904886 21 1
12.785346 5.4613304 0.72862124 6 9
8.7251854 3.7234101 -1.8439783 15 2
12.619576 5.38271 1.2003088 3 10
10.272995 4.3775702 -1.7686483 9 3
12.845592 5.4685111 1.7142143 10 11
12.764346 5.4312997 -1.7032461 9 4
12.603776 5.3577743 2.1691206 16 12
13.499103 5.7328162 -1.2831068 23 5
13.270162 5.6328487 2.8022211 19 13
13.983762 5.9299941 -0.79602998 17 6
6.1931076 2.6008003 -1.7998277 9 0
7.4976263 3.1440175 -1.8769917 14 1
13.239486 5.5463476 0.75227708 8 9
8.8089209 3.6866605 -1.8561901 15 2
12.642142 5.2883267 1.1989144 8 10
10.274145 4.2935524 -1.7636423 10 3
12.847755 5.3611608 -1.7093396 10 4
12.553354 5.2331686 2.1541028 25 12
12.060352 5.0202384 2.5392861 17 13
13.384895 5.5661192 -0.75970882 17 6
6.2111139 2.5575011 -1.7998277 9 0
7.4869509 3.0782588 -1.8688934 15 1
12.908387 5.3020148 0.73134273 6 9
8.8653202 3.6377425 -1.8626775 12 2
12.92761 5.3020024 1.2224464 5 10
10.36236 4.2456913 -1.7736541 11 3
12.839855 5.2555437 1.7034898 16 11
12.840775 5.2532964 -1.7034898 12 4
12.69198 5.1872587 2.1716235 13 12
13.54928 5.5293636 2.8445807 11 13
13.580636 5.536623 -0.76860595 17 6
6.2252336 2.5126309 -1.7987925 7 0
13.969778 5.6356506 0.26293796 22 8
7.4178843 2.9894934 -1.8463982 14 1
14.03907 5.6550598 0.79320383 8 9
8.9754791 3.6117606 -1.8806137 18 2
15.763109 6.3367233 1.486354 11 10
10.49 4.214828 -1.790549 10 3
12.849544 5.1576653 1.7000775 15 11
13.054013 5.2344546 -1.7268888 11 4
12.837012 5.1448331 2.1903956 16 12
14.014774 5.6111889 -1.3207581 25 5
17.371626 6.9446435 -0.9804619 9 6
6.2493777 2.473042 -1.8008629 7 0
7.3746281 2.9138682 -1.8306518 14 1
13.348103 5.2687254 0.75206774 6 9
9.0406542 3.5648596 -1.8890091 19 2
13.24231 5.2189555 1.2452812 7 10
10.577984 4.1646533 -1.8005608 9 3
12.833508 5.0474944 1.6932528 24 11
13.170627 5.1774383 -1.7376132 10 4
12.773327 5.0161037 2.1735008 22 12
13.403069 5.2553067 2.7984049 15 13
13.964387 5.4697757 -0.78598148 8 6
6.2574849 2.4258616 -1.7982749 6 0
7.3711653 2.8531678 -1.824803 14 1
13.989983 5.4095163 0.78608614 10 9
9.1349154 3.5285344 -1.9035107 10 2
13.709634 5.2928643 1.2857215 16 10
10.65841 4.1106014 -1.8093213 9 3
12.927711 4.9806142 1.7010525 5 11
13.21201 5.0874977 -1.7383444 9 4
12.612605 4.8516321 2.1403368 24 12
13.25066 5.0891075 2.7590983 18 13
6.2851033 2.386234 -1.8013806 6 0
7.3581028 2.7892079 -1.8167046 14 1
14.019937 5.3088875 0.78566748 8 9
9.1868706 3.4750936 -1.9092349 10 2
13.531931 5.1159959 1.2656757 15 10
10.723806 4.0500503 -1.8155787 9 3
14.169416 5.3456998 1.8594825 0 11
13.221203 4.9853311 -1.7349322 9 4
12.701625 4.7843499 2.1497226 13 12
14.356713 5.4020553 -1.3420241 26 5
13.149882 4.9453363 2.7308583 31 13
14.503077 5.4484606 -0.81194013 26 6
13.17555 4.9418702 -0.24562517 22 7
6.2816896 2.3348937 -1.7956866 5 0
14.657837 5.4424634 0.27292073 24 8
7.3883581 2.7418385 -1.8194041 14 1
13.97426 5.1803269 0.78106189 21 9
9.2274771 3.4170086 -1.9126694 10 2
13.511265 5.000648 1.2604463 15 10
10.822226 4.0011148 -1.8274676 9 3
13.664502 5.0465274 1.7885547 13 11
13.313415 4.9142175 -1.742488 11 4
12.558641 4.6306438 2.1200001 15 12
12.590837 4.6350284 2.6079774 22 13
14.990649 5.5125151 -0.83706135 26 6
6.2851295 2.2863595 -1.7920631 6 0
7.4109831 2.6915219 -1.8203038 14 1
14.226 5.1609731 0.79309916 17 9
9.2880211 3.3658874 -1.9203018 9 2
13.551466 4.9082351 1.2609693 18 10
10.90562 3.945631 -1.8368537 9 3
13.460439 4.8646393 1.7573562 15 11
13.384736 4.8346467 -1.7473627 13 4
12.705869 4.5844159 2.1393981 15 12
14.921822 5.3780699 -1.3876938 27 5
12.593339 4.5363631 2.6018715 42 13
16.23152 5.8405061 -0.90405136 9 6
6.319139 2.2488995 -1.7972395 6 0
14.129458 5.0229425 0.2617512 22 8
7.4259214 2.6384094 -1.8194041 15 1
14.670126 5.2064967 0.81581295 14 9
9.3149948 3.3022752 -1.9210651 10 2
13.628593 4.8288193 1.2649784 9 10
11.059528 3.9142158 -1.8581288 9 3
13.436053 4.7500381 1.7498002 16 11
13.541694 4.7847333 -1.7634495 13 4
13.177177 4.6507573 2.2132351 13 12
12.617294 4.445725 2.6003451 21 13
15.058617 5.3000288 -0.83664268 8 6
13.419536 4.7152433 -0.24827793 22 7
6.3346839 2.2047317 -1.7972395 6 0
14.205733 4.9386239 0.26251909 22 8
7.4386373 2.5845873 -1.8180546 14 1
14.42875 5.0076895 0.80042619 8 9
9.2895947 3.2204397 -1.9111431 9 2
13.486891 4.6728945 1.2487675 18 10
11.209792 3.8795447 -1.8787781 10 3
13.239994 4.5770006 1.720064 18 11
13.621677 4.7062783 -1.7695429 9 4
13.491285 4.6559639 2.2604783 16 12
12.540364 4.3204465 2.5782113 21 13
14.683546 5.0530896 -0.81382424 17 6
6.3682108 2.1666763 -1.8024158 6 0
14.940402 5.0774093 0.27543387 24 8
7.4380469 2.5263252 -1.8135554 13 1
14.429313 4.8952851 0.79854208 8 9
9.2337542 3.1290479 -1.895115 10 2
13.46446 4.5600901 1.2437124 14 10
11.29648 3.8214524 -1.8887899 11 3
13.780209 4.653626 -1.7858734 11 4
13.426129 4.5288324 2.2442091 16 12
14.721532 4.9600606 -1.3591067 26 5
12.761862 4.2973247 2.6175179 25 13
14.693857 4.9421716 -0.81246346 17 6
14.924792 5.011148 -0.27480558 27 7
6.3754792 2.1208396 -1.8003453 6 0
14.841781 4.9314508 0.27299055 24 8
7.4550705 2.4756377 -1.8135554 14 1
14.397846 4.7755761 0.79498327 14 9
9.2250214 3.0562444 -1.8890091 10 2
13.758093 4.5553842 1.2679417 5 10
11.494774 3.8015344 -1.9175739 9 3
14.317811 4.7296219 1.8514392 3 11
13.837956 4.5684319 -1.7892859 19 4
12.837561 4.2331953 2.1409624 16 12
12.902707 4.2471886 2.640415 25 13
14.763203 4.853898 -0.81445223 26 6
14.825556 4.8657985 -0.27236226 27 7
6.4397368 2.092397 -1.8143215 4 0
14.849218 4.8190732 0.27250186 24 8
7.4795871 2.4259362 -1.8153551 14 1
13.73922 4.450891 0.75688267 2 9
9.2013035 2.9772615 -1.8798503 10 2
13.598092 4.3973069 1.2503363 4 10
11.577427 3.7394075 -1.92696 9 3
14.879461 4.8002014 1.9196861 11 11
14.137796 4.5582118 -1.8238968 15 4
13.350035 4.2990832 2.2213697 15 12
12.956342 4.1648173 2.645376 35 13
15.530769 4.9863873 -0.85485566 17 6
6.4541879 2.0473883 -1.8143215 4 0
7.4851942 2.3701301 -1.8126557 13 1
14.977278 4.7366982 0.82324463 14 9
9.1731901 2.897577 -1.8699282 10 2
13.634157 4.3040729 1.2508591 6 10
11.608902 3.6602726 -1.9278985 8 3
13.946964 4.3921099 1.7953793 15 11
14.411646 4.5356803 -1.8550954 14 4
13.715158 4.3112187 2.2770603 10 12
13.168676 4.1318631 2.6827745 33 13
16.491451 5.1681094 -0.90572619 9 6
15.084592 4.7214446 3.6491559 3 14
6.4867778 2.0079954 -1.8194979 4 0
15.155776 4.6856976 0.2768999 24 8
7.5164523 2.3224216 -1.8162549 13 1
15.714202 4.8493333 0.86186862 15 9
9.155673 2.8219001 -1.8622959 10 2
13.359218 4.1149364 1.2229693 13 10
11.73235 3.6093416 -1.9441677 8 3
14.05129 4.3173795 1.8048851 13 11
14.590976 4.4804087 -1.8741069 12 4
13.54851 4.1551337 2.2445219 4 12
13.368031 4.0921273 2.7175019 15 13
17.306406 5.2911 -0.94843233 9 6
15.061273 4.5989461 3.635659 22 14
15.172847 4.6301203 -0.2768999 28 7
6.5191321 1.9682438 -1.8246742 4 0
7.5436778 2.2732639 -1.8189542 13 1
15.718988 4.730876 0.86029857 15 9
9.1901894 2.7624383 -1.8653487 9 2
13.963883 4.1946774 1.2756114 3 10
11.796994 3.5392728 -1.950738 9 3
14.191381 4.2522178 1.8190219 25 11
14.703669 4.4029274 -1.8845876 10 4
13.102158 3.9183755 2.1659918 13 12
15.176252 4.5242376 -0.82994366 8 6
15.173323 4.5176058 3.6550047 9 14
15.158981 4.5046968 4.2373857 25 15
6.5253019 1.920499 -1.8226038 4 0
15.315645 4.5018349 0.27864513 25 8
7.5556264 2.2194417 -1.8180546 14 1
15.912615 4.6682568 0.86909097 9 9
9.1847582 2.6910353 -1.8603877 7 2
14.031068 4.1082931 1.2790977 8 10
11.817624 3.4557192 -1.9501122 9 3
13.852961 4.0456386 1.7719804 9 11
14.793122 4.3174105 -1.8921436 11 4
15.459944 4.5061607 2.5505078 15 12
16.947155 4.9332352 -1.5442253 32 5
15.696954 4.5514832 -0.28527704 29 7
6.542264 1.8759651 -1.8236392 4 0
15.588927 4.4641671 0.28304312 25 8
7.5896707 2.1720045 -1.8225534 14 1
15.053767 4.3023882 0.8205232 6 9
9.1731176 2.6182222 -1.8542819 9 2
14.10539 4.0233536 1.2832812 7 10
11.746473 3.3460681 -1.9344687 7 3
17.672806 5.0275674 2.2560456 4 11
14.152695 4.023488 -1.8065913 9 4
18.711985 5.3126059 3.0808206 5 12
18.072886 5.127738 -1.6435831 35 5
15.287906 4.3260474 -0.83266515 17 6
6.5589223 1.8312848 -1.8246742 4 0
15.395522 4.2956123 0.27899417 25 8
7.6159124 2.1221042 -1.8252529 12 1
14.965336 4.1671391 0.81413823 8 9
9.2096405 2.560986 -1.8580981 10 2
13.883568 3.8554764 1.2606206 6 10
11.748038 3.2602298 -1.9310273 8 3
15.391901 4.2656627 1.9611217 6 11
13.925985 3.8541696 -1.7741741 6 4
18.376455 5.0824337 3.0198112 17 12
19.348904 5.3332152 -1.0518482 9 6
6.593605 1.7926823 -1.830886 4 0
15.27075 4.1461101 0.27620178 24 8
7.6339421 2.0712354 -1.8261526 11 1
15.090451 4.0886755 0.81937182 12 9
9.1950769 2.4879115 -1.8516105 10 2
15.428917 4.171711 1.3983268 9 10
11.728556 3.166805 -1.9241441 8 3
18.238771 4.9177866 2.3194177 8 11
14.622753 3.9400485 -1.8594825 13 4
18.689987 5.028954 3.06549 17 12
18.45969 4.9497166 -1.0016056 9 6
15.401748 4.1211286 -0.27829608 28 7
16.332638 4.3641033 4.529851 1 15
6.5723419 1.7377146 -1.8215685 4 0
7.6595221 2.0208731 -1.8288521 13 1
14.751671 3.8865445 0.79948413 12 9
9.2179174 2.4251599 -1.8527553 9 2
15.426834 4.0557895 1.3955377 12 10
11.748466 3.0843513 -1.9238312 9 3
19.040739 4.9916945 2.416913 7 11
15.285521 4.0043802 -1.9401602 9 4
6.5730877 1.6889043 -1.8184627 3 0
15.730035 4.0358672 0.28346199 25 8
7.6866574 1.9707379 -1.8320013 9 1
14.757159 3.7780218 0.79833275 6 9
9.2232122 2.357826 -1.8504658 9 2
15.277175 3.9026306 1.3795011 13 10
11.742918 2.9954152 -1.9194511 9 3
19.919617 5.0737453 2.5239143 16 11
15.315028 3.8980598 -1.9404038 7 4
19.17383 4.8730965 3.1333826 18 12
19.011034 4.814074 -1.0277736 19 6
6.5903401 1.6443806 -1.8200157 2 0
7.6983366 1.9165599 -1.8315514 13 1
14.887841 3.7009242 0.803985 6 9
9.2432594 2.2943242 -1.851229 9 2
15.300181 3.794914 1.3791524 11 10
11.769297 2.9147859 -1.9203898 8 3
19.802311 4.8969188 2.5046589 12 11
15.548071 3.8419993 -1.966484 10 4
18.252287 4.5034738 2.9775739 14 12
21.138866 5.1961169 -1.1408192 10 6
6.5509644 1.5860573 -1.8060393 3 0
7.7039518 1.8609384 -1.829752 13 1
21.301134 5.1375446 1.1483557 4 9
9.2743206 2.2334197 -1.8542819 9 2
20.29689 4.8840914 1.8264357 19 10
11.798961 2.8348627 -1.921954 9 3
19.361158 4.6446376 2.4446993 5 11
15.694197 3.7620564 -1.9815956 10 4
18.81159 4.5023847 3.0636129 29 12
19.61067 4.6755381 -1.0565584 19 6
6.5694003 1.5420501 -1.80811 3 0
7.7129622 1.806217 -1.8288521 13 1
21.285913 4.9768968 1.1456342 12 9
9.3164511 2.1748664 -1.8596245 9 2
20.76318 4.8432117 1.8653071 7 10
11.822312 2.7533176 -1.9225799 9 3
20.541618 4.7764025 2.5894799 13 11
15.857363 3.6842954 -1.9989011 8 4
19.154299 4.4432492 3.1142976 3 12
22.19792 5.1288733 -1.1939926 20 6
6.5630517 1.4922945 -1.8034512 2 0
7.7538905 1.7587962 -1.8356007 9 1
21.725309 4.9199271 1.167406 12 9
9.3390684 2.1115043 -1.8611511 10 2
20.786768 4.6959438 1.8644356 3 10
11.823902 2.6668034 -1.9197639 8 3
20.42728 4.5997367 2.5709558 6 11
15.979535 3.5952802 -2.0110881 8 4
19.668619 4.4180851 3.1928279 11 12
22.788671 5.0980568 -1.2238241 20 6
6.552556 1.4418727 -1.7977571 3 0
7.7831106 1.7083812 -1.8396497 12 1
20.721214 4.5406947 1.1117204 14 9
9.3804331 2.0521235 -1.8664937 10 2
20.505669 4.4822121 1.8363715 6 10
11.826794 2.5808172 -1.917261 8 3
37.568104 8.1843128 4.7209749 1 11
16.062433 3.4963002 -2.0184002 8 4
19.310986 4.1963606 3.1299412 26 12
23.426899 5.0693631 -1.2561678 21 6
6.5530148 1.3940822 -1.795169 2 0
7.7910352 1.6531942 -1.83875 12 1
20.748501 4.3951054 1.1115111 10 9
9.3292236 1.9727803 -1.8535187 10 2
20.612488 4.3549986 1.8431696 11 10
11.790402 2.4867787 -1.9085008 8 3
37.880737 7.9758258 4.7531486 1 11
16.148613 3.3971632 -2.0262001 8 4
37.815479 7.9414115 6.1200299 1 12
22.72665 4.7519794 -1.2168112 10 6
6.568264 1.3494689 -1.7967219 3 0
7.8062038 1.5995482 -1.8396497 11 1
21.866631 4.4726691 1.1697087 12 9
9.3735456 1.913886 -1.8596245 9 2
21.128483 4.3101621 1.8865732 10 10
11.832639 2.4095297 -1.912568 9 3
20.77202 4.2223425 2.6026418 13 11
16.008524 3.2511544 -2.0057259 8 4
22.504757 4.5418477 -1.2032038 20 6
6.5585752 1.2998254 -1.7915455 3 0
7.7770348 1.5370733 -1.8302019 7 1
21.752321 4.2912965 1.161963 12 9
9.3693428 1.8449858 -1.8561901 6 2
28.492903 5.6055813 2.5405898 6 10
11.858865 2.3287668 -1.9141324 8 3
39.574093 7.756959 4.9515519 0 11
15.995765 3.1324477 -2.0013385 8 4
22.328104 4.3441916 -1.1921085 10 6
6.5712852 1.2547276 -1.7925807 3 0
7.739717 1.4736296 -1.8189542 7 1
21.946568 4.1706533 1.1707554 12 9
9.380065 1.7791693 -1.8558085 9 2
28.570492 5.4139447 2.544076 18 10
11.89036 2.248862 -1.9166353 8 3
38.788502 7.3221536 4.8467441 0 11
15.974327 3.0126064 -1.9959762 8 4
23.47686 4.397819 -1.2517716 10 6
6.5817852 1.20917 -1.7930984 2 0
7.7459831 1.4188582 -1.8180546 7 1
24.871113 4.5467672 1.3250419 6 9
9.427022 1.7199788 -1.8626775 7 2
27.355091 4.9860711 2.4326911 23 10
11.837749 2.1534171 -1.9056848 9 3
39.627758 7.194438 4.9452147 0 11
15.932467 2.8896749 -1.9881767 8 4
23.251457 4.1877999 -1.2381642 21 6
6.5767488 1.1608435 -1.789475 3 0
22.606468 3.9820685 0.40067235 42 8
7.7403445 1.3620483 -1.8144552 7 1
24.815695 4.3578234 1.3204364 6 9
9.4620066 1.6581907 -1.8672569 7 2
27.634552 4.8379092 2.4544799 12 10
11.850549 2.0703816 -1.905372 8 3
38.894779 6.7812457 4.8477192 0 11
15.922919 2.7732658 -1.9845206 10 4
23.539913 4.0702796 -1.2519809 10 6
6.5751686 1.1132884 -1.7868867 2 0
7.7266064 1.3040854 -1.8090565 7 1
25.121248 4.2308979 1.3350904 6 9
9.4694796 1.5914469 -1.8664937 7 2
27.773758 4.6626782 2.4638927 15 10
11.860816 1.9869518 -1.9047463 8 3
30.232323 5.0537415 3.7635694 3 11
15.979092 2.6682549 -1.9891516 8 4
28.48583 4.7209048 -1.513242 11 6
6.5865941 1.0679795 -1.787922 2 0
7.7239799 1.2482426 -1.806357 7 1
25.256649 4.072597 1.3407427 12 9
9.4997416 1.528417 -1.8703098 7 2
28.616096 4.5989318 2.5357091 12 10
11.886102 1.9059759 -1.9066235 8 3
15.98557 2.5547554 -1.9876893 8 4
6.5900722 1.0213754 -1.7868867 2 0
7.7402091 1.1954821 -1.8081565 8 1
9.4442043 1.4519163 -1.8573349 4 2
30.268246 4.6479187 2.6791675 3 10
11.891308 1.8217521 -1.905372 8 3
15.951996 2.4352961 -1.981352 8 4
25.223085 3.8416615 4.0410156 3 12
30.381538 4.6002088 -1.6103776 11 6
6.6123304 0.9776035 -1.7910279 2 0
7.7560782 1.1425523 -1.8099562 7 1
29.910494 4.4007988 1.5844189 17 9
9.354805 1.3730576 -1.8378724 3 2
28.679489 4.1992259 2.5358834 6 10
11.913205 1.7421975 -1.9069364 9 3
15.91164 2.3155878 -1.9742836 10 4
31.66935 4.5749154 -1.6769488 9 6
6.5882239 0.92826271 -1.7827457 12 0
7.7482367 1.0875684 -1.806357 7 1
31.289465 4.3807425 1.6558052 15 9
9.3719387 1.3088014 -1.8393987 3 2
28.752794 4.0102434 2.5398927 6 10
11.936817 1.6606184 -1.9088136 9 3
15.873941 2.1998694 -1.9677025 8 4
6.5964589 0.88249862 -1.7832633 13 0
7.7247338 1.0293269 -1.7991585 6 1
9.3477621 1.2389604 -1.8329114 4 2
33.798977 4.4737267 2.9828181 5 10
11.979453 1.5813853 -1.9138194 9 3
15.896786 2.0900376 -1.9686776 8 4
33.310608 4.3381205 -1.7604771 7 6
6.6292906 0.8398242 -1.7905102 4 0
7.7355995 0.97586095 -1.8000585 6 1
36.262051 4.5616879 1.9153916 6 9
9.3990402 1.1790421 -1.8413069 4 2
30.616859 3.8352523 2.6995618 6 10
11.984321 1.4969741 -1.9128809 8 3
15.893262 1.9767934 -1.966484 10 4
35.143955 4.3276076 -1.8557284 5 6
6.6503377 0.7953611 -1.7946514 3 0
7.7422233 0.9218362 -1.8000585 6 1
30.898342 3.6680071 1.6306839 7 9
9.36415 1.108319 -1.8329114 4 2
30.680481 3.6258557 2.7028737 6 10
12.037639 1.4183565 -1.9197639 8 3
15.900759 1.8650954 -1.9657527 8 4
37.002514 4.2944269 -1.9522361 3 6
6.6250124 0.74545741 -1.7863692 2 0
37.568737 4.1940837 1.9811254 1 9
9.3931227 1.0453109 -1.8371091 4 2
36.649624 4.0720496 3.2261569 3 10
11.947116 1.3231992 -1.9038078 6 3
15.937071 1.7566593 -1.9686776 8 4
36.940262 4.026042 -1.9474212 3 6
6.6223702 0.69837749 -1.7842987 2 0
7.7640295 0.81466389 -1.8023077 34 1
37.667923 3.9457729 1.9848937 1 9
9.4175949 0.9831844 -1.8405437 4 2
36.457191 3.7932189 3.2068083 2 10
11.879219 1.2338821 -1.8916059 5 3
16.025955 1.6532993 -1.9781833 10 4
37.05423 3.7834477 -1.9520266 3 6
6.6519632 0.65574801 -1.7910279 2 0
7.7732744 0.76217723 -1.8032078 6 1
34.418667 3.3626556 1.8123943 4 9
9.4164124 0.91665226 -1.8390172 4 2
35.930874 3.491405 3.1583498 5 10
11.867881 1.1490214 -1.8884771 4 3
16.046719 1.545127 -1.9794021 8 4
6.6313696 0.60700333 -1.7842987 2 0
7.7667618 0.70683128 -1.8005083 4 1
34.245831 3.1105912 1.8021365 5 9
9.3950596 0.85005862 -1.8336746 4 2
36.148838 3.258002 3.1754322 2 10
11.891168 1.0696284 -1.89098 4 3
16.076887 1.4348269 -1.9818394 8 4
6.6160989 0.5602209 -1.7791222 2 0
7.7461481 0.65182376 -1.7946595 3 1
37.642231 3.1542914 1.97966 2 9
9.4007645 0.7844525 -1.8336746 19 2
35.927944 2.991698 3.1541662 6 10
11.880627 0.9851228 -1.8881643 4 3
16.151567 1.3307482 -1.9898828 10 4
6.6237001 0.51431727 -1.7801574 2 0
7.7718825 0.59937787 -1.7996083 4 1
36.826946 2.8272302 1.9356978 2 9
9.4099274 0.71909833 -1.8344377 24 2
11.885245 0.9020012 -1.8878514 4 3
16.259438 1.2254081 -2.0020697 10 4
6.6810865 0.47187668 -1.7946514 1 0
7.764214 0.54429138 -1.796909 4 1
36.491138 2.5453234 1.9170662 3 9
9.4362621 0.65488237 -1.8386356 3 2
11.895194 0.81927598 -1.8884771 4 3
16.12302 1.1019845 -1.9842769 7 4
6.6803622 0.42497712 -1.7936161 1 0
7.7697692 0.49019635 -1.7973589 3 1
9.4561758 0.5916217 -1.8416885 3 2
11.886694 0.73743832 -1.886287 4 3
16.060972 0.98514402 -1.9757458 5 4
6.6985302 0.38037157 -1.7977571 1 0
7.7651429 0.43685991 -1.7955593 3 1
9.4326334 0.52406603 -1.8363459 3 2
11.893524 0.65453845 -1.8865999 14 3
16.035593 0.87406868 -1.9718461 5 4
6.6624331 0.33167663 -1.7874043 1 0
7.7952528 0.3839806 -1.8018579 3 1
9.4517498 0.45895827 -1.8393987 3 2
11.923455 0.57272214 -1.8906672 21 3
16.029408 0.76153272 -1.9703838 5 4
6.7031879 0.28680766 -1.7977571 1 0
7.7841148 0.32897413 -1.7987086 4 1
9.4390316 0.39231378 -1.8363459 3 2
11.939005 0.48995844 -1.8925444 3 3
16.026398 0.6492939 -1.9694086 5 4
6.68186 0.23917754 -1.7915455 2 0
7.7842741 0.2745578 -1.7982588 3 1
9.4415398 0.32640734 -1.8363459 3 2
11.95398 0.40699983 -1.8944216 3 3
16.036493 0.53759235 -1.97014 3 4
6.6640563 0.19196407 -1.7863692 1 0
7.789897 0.22031307 -1.7991585 3 1
61.848969 1.7276012 3.2426314 4 9
9.486763 0.26167589 -1.8447415 3 2
11.940733 0.32310796 -1.8919187 3 3
16.000242 0.42177787 -1.9652653 15 4
6.6768475 0.1445263 -1.789475 1 0
7.7737398 0.16419758 -1.7951094 3 1
9.4805079 0.19528224 -1.8432151 3 2
11.970389 0.23820399 -1.8962989 3 3
62.043903 1.2238064 7.6195159 4 11
16.056383 0.31110314 -1.9718461 5 4
6.6776938 0.097906411 -1.789475 1 0
7.7980795 0.11024952 -1.8005083 3 1
9.5248499 0.12801674 -1.8516105 3 2
11.999413 0.154992 -1.900679 2 3
16.076029 0.19922991 -1.9740397 3 4
6.647306 0.051047575 -1.7811928 1 0
7.8103509 0.05588964 -1.8032078 2 1
9.4980268 0.061335605 -1.8462679 3 2
12.008105 0.071257696 -1.9019306 2 3
16.088938 0.087049998 -1.9755023 2 4
6.6513638 0.0046452573 -1.782228 2 0
7.8105512 0.0013654749 -1.8032078 2 1
9.4825182 -0.0049650352 -1.8432151 3 2
12.000407 -0.0125668 -1.900679 2 3
16.114958 -0.025313336 -1.9786707 2 4
6.6705523 -0.041912865 -1.7874043 1 0
7.81037 -0.053164322 -1.8032078 2 1
9.4901047 -0.071223766 -1.8447415 3 2
12.011879 -0.0964396 -1.9025562 3 3
16.134239 -0.1379852 -1.9811082 2 4
6.6314788 -0.086810812 -1.7770516 2 0
7.782547 -0.10595477 -1.796909 2 1
9.4815483 -0.13570634 -1.8432151 3 2
12.030696 -0.17849205 -1.9056848 2 3
16.103153 -0.24734613 -1.977452 2 4
6.6616149 -0.13372514 -1.7853339 2 0
7.8088946 -0.16084601 -1.8032078 3 1
9.460741 -0.20147817 -1.8393987 3 2
12.041005 -0.26273566 -1.907562 3 3
16.105007 -0.35984913 -1.9779397 2 4
6.6450696 -0.1798103 -1.7811928 4 0
7.8309565 -0.21600279 -1.8086064 2 1
9.4826536 -0.2681872 -1.8439783 3 2
12.019134 -0.34622189 -1.9044335 2 3
16.125912 -0.47297198 -1.9808645 2 4
6.6668205 -0.22698569 -1.7874043 4 0
7.8234153 -0.27046549 -1.8072568 3 1
9.5040951 -0.33521199 -1.8485577 3 2
12.032216 -0.43068746 -1.9069364 3 3
16.153957 -0.58669239 -1.9847643 2 4
6.6689343 -0.2736814 -1.7884396 4 0
7.8213367 -0.32507622 -1.8072568 6 1
9.5270224 -0.402632 -1.8535187 4 2
12.028916 -0.51467699 -1.9069364 3 3
16.167315 -0.70022613 -1.9869579 2 4
6.6784391 -0.32078844 -1.7915455 4 0
7.830555 -0.38023815 -1.8099562 7 1
9.5141745 -0.4686498 -1.8516105 3 2
12.068435 -0.60080218 -1.9138194 3 3
16.171947 -0.81357598 -1.9881767 3 4
6.6779656 -0.36751068 -1.7920631 6 0
7.8238187 -0.43467984 -1.8090565 7 1
9.5322332 -0.53627247 -1.8558085 4 2
12.054086 -0.68448055 -1.9122552 4 3
16.209473 -0.9289555 -1.993539 3 4
6.6675243 -0.41364384 -1.7899926 6 0
7.836153 -0.49026281 -1.8126557 7 1
9.5125818 -0.60181463 -1.8527553 4 2
12.062812 -0.7694968 -1.9144453 4 3
16.246174 -1.0448983 -1.9989011 3 4
6.6586924 -0.45978227 -1.7884396 5 0
7.8247628 -0.54441607 -1.810856 6 1
9.5277328 -0.66958618 -1.8565717 4 2
12.063058 -0.85411012 -1.9153838 4 3
16.278086 -1.1611165 -2.0037761 3 4
6.6668782 -0.50713629 -1.7915455 4 0
7.8440881 -0.60081547 -1.8162549 7 1
9.5384855 -0.73729587 -1.8596245 4 2
12.076496 -0.93983752 -1.9185126 4 3
16.3151 -1.2782961 -2.009382 2 4
6.6670256 -0.55398709 -1.7925807 5 0
7.8319345 -0.65491289 -1.8144552 7 1
9.5428886 -0.80469334 -1.8615327 4 2
12.101131 -1.0267959 -1.9235184 4 3
16.284021 -1.3903074 -2.0067008 2 4
6.6937804 -0.60329241 -1.8008629 4 0
7.850461 -0.71168494 -1.819854 6 1
9.5352345 -0.86945236 -1.8611511 4 2
12.111567 -1.110765 -1.9263341 4 3
16.313452 -1.5076097 -2.0115755 2 4
6.6856732 -0.64846826 -1.7998277 5 0
7.8337979 -0.7639696 -1.8171545 6 1
9.4996243 -0.93312025 -1.8554269 3 2
12.095654 -1.1945153 -1.9250828 4 3
16.336393 -1.6219505 -2.0157192 2 4
6.6732974 -0.69432718 -1.7977571 4 0
7.8476553 -0.82066756 -1.8216537 7 1
9.5592623 -1.0064058 -1.8684019 3 2
12.106664 -1.2810076 -1.9282113 4 3
16.350334 -1.7386882 -2.0188875 2 4
6.6759677 -0.74175155 -1.7998277 5 0
7.8417344 -0.87543416 -1.8216537 7 1
9.5637093 -1.074432 -1.8706915 3 2
12.128833 -1.3690413 -1.9332174 3 3
16.379219 -1.8574893 -2.0240064 2 4
6.6706266 -0.78834015 -1.7998277 4 0
7.8122101 -0.92740124 -1.8162549 6 1
9.5286827 -1.1379133 -1.8653487 3 2
12.173896 -1.4602698 -1.9419776 2 3
16.393444 -1.975116 -2.0274186 2 4
6.6572933 -0.83392984 -1.7977571 4 0
7.8287473 -0.98483658 -1.8216537 7 1
9.5945206 -1.2137711 -1.8798503 3 2
12.155566 -1.5442274 -1.9407262 1 3
16.377287 -2.0892634 -2.0271747 2 4
6.6742907 -0.8834278 -1.8039688 5 0
7.833272 -1.0410073 -1.8243531 6 1
9.5704679 -1.2769731 -1.8767973 3 2
12.109532 -1.6222104 -1.9350946 2 3
16.446898 -2.2149391 -2.0376556 2 4
6.6528163 -0.92670524 -1.7998277 5 0
7.833724 -1.0953816 -1.8261526 7 1
9.5729856 -1.3453954 -1.8790871 3 2
12.125296 -1.7105738 -1.9394747 2 3
16.474272 -2.3358362 -2.0430176 2 4
6.6536598 -0.97540843 -1.8018982 4 0
7.8025498 -1.1480061 -1.8207539 7 1
9.5633602 -1.412194 -1.8790871 3 2
12.120561 -1.7984557 -1.9407262 2 3
16.520395 -2.4601471 -2.0508175 2 4
6.6657825 -1.0247711 -1.8070747 4 0
7.8213086 -1.2066094 -1.8270525 6 1
9.5879316 -1.4860038 -1.8859563 3 2
12.099903 -1.8818147 -1.9394747 3 3
16.516546 -2.5775626 -2.0525236 3 4
6.6393924 -1.0682129 -1.8018982 4 0
7.8165417 -1.2618039 -1.8279523 6 1
9.5504627 -1.5468374 -1.8806137 3 2
12.141408 -1.9730034 -1.948235 2 3
16.54517 -2.7004805 -2.0583735 3 4
6.6586399 -1.1178585 -1.8091452 4 0
7.7904773 -1.3120668 -1.8239032 4 1
9.5665321 -1.6180576 -1.8859563 3 2
12.135127 -2.0590394 -1.9494866 3 3
16.522491 -2.8123705 -2.0578859 3 4
6.6316442 -1.1609857 -1.8039688 4 0
7.7849655 -1.3670964 -1.824803 4 1
9.5359612 -1.679731 -1.88214 3 2
12.11305 -2.1402175 -1.948235 3 3
16.576727 -2.9408264 -2.067148 3 4
6.6349921 -1.2081752 -1.8070747 4 0
7.7908163 -1.4228556 -1.8284022 5 1
9.5240021 -1.746263 -1.88214 3 2
12.117243 -2.2283027 -1.9513638 3 3
16.610987 -3.063673 -2.0739727 8 4
6.6263962 -1.2544662 -1.8070747 3 0
7.7692056 -1.4750297 -1.8257027 5 1
9.5462923 -1.819326 -1.8890091 3 2
12.113032 -2.3150668 -1.953241 4 3
16.606741 -3.1829271 -2.0761664 6 4
6.6629705 -1.3096383 -1.8194979 3 0
7.7835741 -1.5341316 -1.8315514 6 1
9.5102482 -1.8813548 -1.8844297 3 2
12.127577 -2.4057245 -1.9582468 4 3
16.588009 -3.2995601 -2.0766537 5 4
6.6385217 -1.3530358 -1.8153569 3 0
7.7860389 -1.5911647 -1.8347007 4 1
9.5203009 -1.9507741 -1.8890091 3 2
12.105116 -2.4870253 -1.9573083 4 3
16.815371 -3.4669948 -2.1080961 3 4
6.6102557 -1.3942043 -1.8101805 1 0
7.7902803 -1.6473505 -1.8382999 5 1
9.5218134 -2.0204504 -1.8920621 3 2
12.102915 -2.5747616 -1.9598112 4 3
16.888453 -3.6020765 -2.1202829 3 4
6.6154609 -1.4436132 -1.8143215 1 0
7.7557459 -1.6966989 -1.8329012 4 1
9.5132303 -2.0881386 -1.8932071 4 2
12.12323 -2.6676831 -1.9660686 5 3
16.952068 -3.7395625 -2.131495 3 4
6.6052213 -1.4897623 -1.8143215 2 0
7.7589183 -1.7542405 -1.8365004 4 1
9.5213947 -2.1597128 -1.8977863 4 2
12.117793 -2.7553194 -1.9682587 4 3
16.997156 -3.87414 -2.1405134 2 4
6.6379342 -1.545917 -1.8262272 2 0
7.7502775 -1.8092506 -1.8374002 2 1
64.662895 -15.118926 3.4802368 15 9
9.5099087 -2.2270269 -1.8985497 4 2
12.104032 -2.8412037 -1.9691973 17 3
17.043125 -4.009984 -2.1497755 2 4
6.6157098 -1.5895126 -1.8231214 2 0
7.75072 -1.8665069 -1.8405495 3 1
9.480772 -2.2901371 -1.8958783 4 2
12.11078 -2.9321434 -1.9735774 8 3
17.118887 -4.1541471 -2.1629374 2 4
6.6044517 -1.6356599 -1.8231214 2 0
7.7318263 -1.9191629 -1.8391999 2 1
53.33147 -13.257488 2.880048 0 9
9.5178947 -2.369549 -1.9065636 4 2
12.185845 -3.0405316 -1.9892209 5 3
17.153019 -4.2894497 -2.1709807 2 4
6.6059756 -1.6850699 -1.8267449 3 0
7.7220159 -1.9740595 -1.8400996 2 1
9.5049238 -2.4369135 -1.9073268 3 2
12.21024 -3.1373286 -1.9967299 4 3
17.228388 -4.4363213 -2.1843865 2 4
6.5678911 -1.7242793 -1.8194979 3 0
7.7193542 -2.0308957 -1.8427991 3 1
9.4767256 -2.4985509 -1.905037 4 2
12.257356 -3.238533 -2.007993 4 3
17.250725 -4.5707245 -2.191211 2 4
6.5802488 -1.7754874 -1.8262272 2 0
7.6978259 -2.0813575 -1.8409994 4 1
51.128361 -13.843367 2.7760041 0 9
9.4647369 -2.5661917 -1.9061821 4 2
12.268761 -3.3333488 -2.0136247 4 3
17.292 -4.7078557 -2.2004731 2 4
52.610001 -14.392467 -2.8584857 0 6
6.5918941 -1.828094 -1.8329566 3 0
7.6943741 -2.1381776 -1.8436987 5 1
50.918869 -14.168916 2.769933 0 9
9.4825239 -2.6422169 -1.9134327 4 2
52.280434 -14.57729 4.7484193 1 10
12.281341 -3.4290123 -2.0195692 4 3
17.379145 -4.862155 -2.2158287 4 4
6.5715399 -1.8719521 -1.830886 3 0
7.6811333 -2.1923771 -1.8441486 6 1
51.379459 -14.684311 2.8004973 0 9
9.4355335 -2.7002499 -1.9077084 19 2
51.983936 -14.886518 4.7308135 0 10
12.32926 -3.5353584 -2.0314584 3 3
17.423002 -5.0058389 -2.2258217 2 4
52.480675 -15.14777 -2.8626723 0 6
6.5249348 -1.9080242 -1.8215685 3 0
7.6768613 -2.2492354 -1.8468481 6 1
43.88028 -12.864752 2.3964636 0 9
9.4188194 -2.7649653 -1.90809 10 2
52.643353 -15.473815 4.8005381 0 10
12.354182 -3.6336904 -2.039593 3 3
17.482832 -5.1554255 -2.2380087 2 4
56.080177 -16.601059 -3.0651078 0 6
6.545105 -1.9623806 -1.830886 3 0
7.680037 -2.3070438 -1.8513472 7 1
44.007439 -13.23636 2.4083962 0 9
9.448163 -2.8453729 -1.918012 12 2
43.196934 -13.017248 3.9471092 0 10
12.377684 -3.7346854 -2.0477273 2 3
17.494841 -5.2886682 -2.2441022 4 4
6.5164733 -2.0034842 -1.8267449 4 0
7.6600194 -2.3594568 -1.8504474 7 1
43.677299 -13.470276 2.395417 0 9
9.4712143 -2.9245861 -1.9267894 13 2
43.006016 -13.287914 3.938045 1 10
12.396601 -3.8350182 -2.0552363 3 3
17.569365 -5.4453478 -2.2584829 2 4
6.4986424 -2.0477672 -1.8257096 4 0
7.6619434 -2.4187424 -1.8549464 7 1
44.960979 -14.21066 2.4711995 0 9
9.4805126 -3.0001128 -1.9328952 4 2
12.42225 -3.9381833 -2.0639966 2 3
17.712547 -5.625556 -2.2818818 2 4
6.4988956 -2.0978334 -1.8298507 4 0
7.6559968 -2.4757712 -1.8576458 7 1
43.838398 -14.193222 2.414886 0 9
9.5191002 -3.0855978 -1.945107 4 2
45.340698 -14.705843 4.170228 0 10
12.420757 -4.0333519 -2.0683768 2 3
17.79932 -5.7902203 -2.2982123 2 4
6.4804235 -2.1419401 -1.8288155 4 0
7.6533251 -2.5340595 -1.8612449 7 1
44.295612 -14.683688 2.4456596 1 9
9.5122337 -3.156925 -1.9481598 4 2
12.459779 -4.1424012 -2.0796399 3 3
17.9016 -5.9620113 -2.3167362 2 4
6.4909315 -2.1957965 -1.8360624 4 0
7.6169915 -2.5811732 -1.8567461 19 1
9.536437 -3.2390409 -1.9577004 4 2
12.460477 -4.2394657 -2.0846457 3 3
18.002344 -6.1355104 -2.3352606 2 4
6.4790955 -2.2423215 -1.8370978 4 0
7.5969453 -2.6336484 -1.8562962 26 1
45.018383 -15.624219 2.4973674 0 9
9.5376997 -3.3139145 -1.9626614 4 2
12.479082 -4.3432336 -2.0927804 2 3
18.122149 -6.3178926 -2.3564658 2 4
6.4632831 -2.2874992 -1.8370978 4 0
7.6371489 -2.7074568 -1.8706928 7 1
43.93697 -15.593428 2.4433565 0 9
9.5698318 -3.4001372 -1.97411 4 2
12.526621 -4.458066 -2.105921 3 3
18.249622 -6.5055766 -2.3788898 2 4
6.4580555 -2.3365085 -1.8402034 4 0
7.5942435 -2.7520766 -1.8648442 15 1
44.044838 -15.978793 2.4554987 0 9
9.5403252 -3.4648533 -1.972965 3 2
12.517468 -4.5535121 -2.1096754 3 3
18.332457 -6.6797161 -2.3957078 4 4
55.910011 -20.449095 -3.119956 0 6
6.4597058 -2.388236 -1.8453798 4 0
7.616878 -2.8205917 -1.875192 23 1
43.325447 -16.060963 2.4215848 0 9
9.5858459 -3.557328 -1.9874666 3 2
12.522408 -4.6545539 -2.1159329 3 3
18.341188 -6.8283148 -2.4030199 28 4
55.795826 -20.850105 -3.1216309 0 6
6.4320326 -2.4291797 -1.8422741 4 0
7.6626177 -2.8985188 -1.8913884 6 1
43.275772 -16.387085 2.4251437 0 9
9.5644493 -3.6255548 -1.9882298 3 2
12.563478 -4.769908 -2.1284475 3 3
18.545416 -7.0521512 -2.4361684 4 4
6.4365463 -2.4823661 -1.8484857 3 0
7.6403775 -2.9512405 -1.8909385 7 1
43.073803 -16.646713 2.4201195 0 9
9.5908184 -3.710408 -1.9989152 3 2
12.585977 -4.8767247 -2.1378336 3 3
18.702984 -7.2619209 -2.4634671 4 4
6.3997259 -2.5183387 -1.8427917 10 0
7.6563721 -3.0174689 -1.8999366 7 1
9.564682 -3.7772737 -1.9989152 3 2
12.577341 -4.9746437 -2.1422138 4 3
19.092365 -7.5630565 -2.521477 4 4
6.381989 -2.5629556 -1.8427917 18 0
7.6495843 -3.0766642 -1.903536 7 1
49.847942 -20.069071 2.8161981 0 9
9.5744972 -3.8586321 -2.0065475 3 2
12.571614 -5.0741582 -2.1472197 4 3
19.348291 -7.8211455 -2.5624251 9 4
51.720047 -20.980307 -2.9250569 0 6
6.3746667 -2.6118419 -1.8458976 7 0
7.6351299 -3.1329517 -1.9053354 7 1
49.67337 -20.402925 2.8143139 0 9
9.5582209 -3.9298596 -2.0088372 3 2
12.583374 -5.1813545 -2.1553543 3 3
19.436361 -8.0150585 -2.5814366 9 4
6.3723197 -2.6629858 -1.8505563 4 0
7.634644 -3.1952066 -1.9107343 7 1
49.920258 -20.912813 2.8365045 0 9
9.566762 -4.0116763 -2.0164697 3 2
12.630676 -5.3042598 -2.1697464 3 3
19.599514 -8.2429018 -2.6106853 10 4
56.574398 -23.874695 -3.2181382 4 6
6.3784542 -2.7180102 -1.8578032 4 0
7.6390367 -3.259901 -1.9174827 5 1
50.290993 -21.482054 2.8660219 0 9
9.5601854 -4.0876288 -2.021049 3 2
12.69866 -5.4374065 -2.1878927 2 3
19.855293 -8.5140915 -2.6526084 10 4
6.3664107 -2.765552 -1.8598738 4 0
7.6321754 -3.3201485 -1.921532 6 1
49.725945 -21.652422 2.842366 0 9
9.5818071 -4.1762347 -2.0317342 3 2
12.70384 -5.5448914 -2.1954014 2 3
20.424719 -8.9275856 -2.7369418 5 4
50.558029 -22.172377 -2.8932366 0 6
6.3504825 -2.8114946 -1.8609091 4 0
7.626626 -3.3812478 -1.9260309 3 1
9.5703611 -4.2509956 -2.0355504 3 2
12.751455 -5.6719809 -2.2104194 2 3
22.447227 -9.9988441 -3.0172415 14 4
6.3588748 -2.8684702 -1.8691912 3 0
7.6312504 -3.4472449 -1.9332294 6 1
48.690834 -22.015453 2.8004973 0 9
9.5440283 -4.3193245 -2.0363138 3 2
12.815902 -5.8081574 -2.2285657 2 3
25.845753 -11.729592 -3.4849761 12 4
51.275993 -23.346203 -2.9526904 0 6
6.3597589 -2.9224732 -1.8754028 5 0
7.5910649 -3.4931049 -1.9291801 4 1
9.5689106 -4.4113283 -2.0481439 4 2
12.818086 -5.9173579 -2.2360744 3 3
25.201048 -11.649857 -3.4089296 15 4
6.3531995 -2.9733522 -1.879544 3 0
7.6264887 -3.5741315 -1.9444768 5 1
50.010185 -23.447773 2.894702 0 9
9.5368853 -4.4755254 -2.0477622 3 2
12.849023 -6.0380754 -2.2485893 3 3
24.720388 -11.637802 -3.3548195 14 4
55.908871 -26.392197 -3.2401195 6 6
6.3397899 -3.0198507 -1.8816146 4 0
7.5914307 -3.6209269 -1.9417773 4 1
51.056484 -24.374573 2.9650416 0 9
9.5461502 -4.5614634 -2.0565395 4 2
12.881397 -6.1634402 -2.26173 3 3
24.278975 -11.632535 -3.3055842 14 4
55.813263 -26.825129 -3.245353 6 6
6.3359356 -3.0724661 -1.886791 4 0
7.6168046 -3.6985214 -1.9548247 3 1
9.5811605 -4.6606297 -2.0710409 4 2
12.912642 -6.2895494 -2.2748702 3 3
23.997347 -11.704288 -3.2782857 11 4
6.3108668 -3.1149139 -1.8857557 4 0
7.6030283 -3.7576501 -1.957974 4 1
9.5695028 -4.7378583 -2.0756204 4 2
12.942752 -6.4163928 -2.2880106 4 3
23.689236 -11.759439 -3.2473309 16 4
52.218674 -26.001139 -3.0571527 0 6
6.3303986 -3.1797066 -1.8981789 4 0
7.5975013 -3.8211446 -1.9633728 4 1
48.415459 -24.371616 2.8406913 0 9
9.5852861 -4.8292842 -2.0863059 4 2
12.908223 -6.5119314 -2.2898879 30 3
23.381535 -11.810863 -3.2163761 13 4
47.496304 -24.064987 -2.7904487 0 6
6.2977242 -3.2185485 -1.8950732 5 0
7.5914574 -3.8847446 -1.9687717 4 1
9.5408554 -4.8907104 -2.0840161 4 2
12.967892 -6.6560102 -2.30866 4 3
23.125484 -11.884884 -3.1924896 10 4
6.302526 -3.2766941 -1.9033554 3 0
7.5779796 -3.9448466 -1.9723709 4 1
9.5526094 -4.9791327 -2.0939381 4 2
13.023856 -6.7971344 -2.3268065 4 3
22.901213 -11.972465 -3.1729906 13 4
6.2903237 -3.3249345 -1.9064611 3 0
7.5819559 -4.0127449 -1.9804692 4 1
48.721329 -25.807505 2.8894684 0 9
9.5713873 -5.0742073 -2.1057682 3 2
13.077286 -6.9416094 -2.3449528 6 3
22.782015 -12.113413 -3.1681156 13 4
53.3806 -28.454714 -3.1701984 1 6
6.3242192 -3.4009709 -1.9240609 3 0
7.5496154 -4.0650487 -1.9795692 4 1
48.152119 -25.948931 2.8666499 0 9
9.5702915 -5.1595368 -2.1134005 3 2
49.369545 -26.638359 4.9079142 1 10
13.152423 -7.102591 -2.3674796 6 3
22.648001 -12.245728 -3.1612909 13 4
55.904015 -30.315514 -3.3328588 11 6
6.2732015 -3.4302094 -1.9157786 3 0
7.5740414 -4.146666 -1.9935162 7 1
48.502262 -26.576221 2.8984702 0 9
9.5468988 -5.2354398 -2.1164536 3 2
50.076725 -27.473032 4.9971614 1 10
13.336273 -7.322588 -2.4097166 5 3
22.580666 -12.418959 -3.1642158 10 4
55.977852 -30.863201 -3.3500249 12 6
6.2704439 -3.4872174 -1.922508 2 0
7.5612001 -4.2102389 -1.9980152 6 1
48.122425 -26.81761 2.8871658 0 9
9.5684185 -5.3344655 -2.1294286 3 2
49.739658 -27.753002 4.9832168 1 10
13.352522 -7.4563565 -2.4222317 8 3
22.533268 -12.59858 -3.169822 15 4
49.529343 -27.771841 -2.9759274 0 6
6.2595692 -3.5342863 -1.9261314 3 0
7.5355515 -4.2599378 -1.9984653 5 1
47.823078 -27.056997 2.8796294 0 9
9.5909138 -5.4306979 -2.1424036 3 2
48.274826 -27.345957 4.8540521 1 10
13.288627 -7.5336595 -2.4194157 9 3
22.211 -12.612477 -3.1361859 18 4
6.2341185 -3.5789878 -1.9261314 3 0
7.5403547 -4.3341455 -2.0079131 6 1
