# .PCD v0.7 - Point Cloud Data file format
VERSION 0.7
FIELDS x y z intensity ring
SIZE 4 4 4 4 2
TYPE F F F F U
COUNT 1 1 1 1 1
WIDTH 1342
HEIGHT 1
VIEWPOINT 0 0 0 1 0 0 0
POINTS 1342
DATA ascii
8.7491999 5.848238 -0.92071325 13 5
9.6158743 6.4227023 2.24773 4 13
5.0485587 3.3453698 -1.6227955 13 0
9.3853703 6.2144012 0.19647919 12 8
5.4974661 3.6386924 -1.5220188 26 1
9.8136425 6.4905882 0.61662227 2 9
6.1256924 4.0483637 -1.4272513 12 2
9.7681684 6.4531631 1.0242543 1 10
6.866292 4.5326447 -1.3030992 13 3
9.8103161 6.4736328 1.443177 1 11
7.6631241 5.0528994 -1.1270478 18 4
9.8113365 6.4644713 1.8609446 3 12
8.8187561 5.8082752 -0.92385083 13 5
9.7249699 6.4002666 2.2629948 4 13
5.0776815 3.3151546 -1.624866 12 0
9.544693 6.2268529 0.19892253 13 8
5.5645452 3.6288674 -1.5337163 23 1
9.947958 6.4825158 0.62227458 2 9
6.1925917 4.0322843 -1.4364102 12 2
9.8296814 6.3956771 1.0259974 1 10
6.9267912 4.5051923 -1.3087308 14 3
9.931838 6.4547458 1.454389 1 11
7.7448301 5.0295501 -1.1338725 16 4
9.8899031 6.4201298 1.8675148 3 12
8.8958635 5.7704206 -0.92768568 13 5
9.8666124 6.3952241 2.2855103 4 13
5.1159005 3.2881351 -1.6295248 11 0
5.6346469 3.6173811 -1.5458636 19 1
10.081508 6.4672408 0.62771749 1 9
6.2692208 4.0185928 -1.4474771 10 2
9.9825726 6.3939495 1.0371534 1 10
6.9987783 4.4810734 -1.3162397 16 3
10.024592 6.4134641 1.4612136 2 11
7.8274531 5.0039387 -1.1406971 16 4
10.088729 6.4470549 1.8962989 3 12
9.0712681 5.792398 -0.94163066 13 5
10.004806 6.3835931 2.3068807 8 13
10.156783 6.4755759 -0.63127637 8 6
5.1556249 3.261771 -1.6347013 11 0
5.6570935 3.5748858 -1.5449638 20 1
10.218719 6.4525223 0.6333698 2 9
6.284533 3.9652469 -1.4444242 10 2
10.158413 6.4070063 1.0507497 1 10
7.0707736 4.4561539 -1.3237487 17 3
10.187813 6.4156117 1.4782752 1 11
7.9125919 4.9808998 -1.1480093 14 4
10.184767 6.406249 1.9056848 1 12
9.1293535 5.7379389 -0.94337374 13 5
10.153858 6.3793902 2.3309228 10 13
10.201747 6.4045053 -0.63127637 8 6
5.171711 3.2216125 -1.6326306 11 0
5.6819134 3.5353048 -1.5449638 22 1
10.361895 6.4421883 0.63944077 2 9
6.3637595 3.953392 -1.4562544 11 2
10.301064 6.3968935 1.0608597 1 10
7.1352816 4.4275126 -1.330006 15 3
10.323459 6.4008188 1.4914372 0 11
7.9741697 4.9422708 -1.1519091 18 4
10.296419 6.3765926 1.9181997 1 12
9.2810087 5.7432599 -0.95487827 13 5
10.283299 6.3610206 2.3503854 7 13
5.1792531 3.1763413 -1.6279719 13 0
5.7230716 3.5057333 -1.5494629 21 1
10.519047 6.4385076 0.64634913 2 9
6.411303 3.9211605 -1.4608337 13 2
10.416867 6.3684707 1.0681808 2 10
7.17276 4.3817101 -1.3312575 14 3
10.408561 6.3534083 1.4972868 1 11
8.025424 4.8968191 -1.1543465 15 4
10.411526 6.3477387 1.9313401 3 12
9.4321718 5.7483897 -0.96638286 13 5
10.428068 6.350337 2.3732824 5 13
5.2095728 3.1450958 -1.63056 12 0
5.6589608 3.4123566 -1.5256181 42 1
10.610521 6.3956323 0.64927989 2 9
6.505116 3.9179456 -1.4760985 13 2
10.583983 6.3695607 1.0807312 1 10
7.2735124 4.3755531 -1.344398 12 3
10.594479 6.3683233 1.5177609 1 11
8.090044 4.8590732 -1.1587338 12 4
10.603525 6.3662057 1.9588726 3 12
9.4105644 5.6455073 -0.96010768 13 5
10.566442 6.3339109 2.3946528 6 13
5.2375007 3.1135135 -1.6326306 12 0
5.7608104 3.4205222 -1.5467634 17 1
10.833557 6.427381 0.66016579 2 9
6.557642 3.8874531 -1.4818227 14 2
10.726511 6.3562818 1.0908413 1 10
7.3276792 4.338758 -1.3487781 13 3
10.74802 6.3589005 1.5333602 1 11
8.1912794 4.8443093 -1.1684834 18 4
10.732744 6.3422718 1.974516 1 12
9.5860138 5.6623807 -0.97405255 13 5
10.703993 6.3177238 2.4160237 1 13
5.282454 3.0905306 -1.6398776 18 0
10.531397 6.158989 0.21295427 44 8
5.8653111 3.4274137 -1.5683587 19 1
10.946037 6.3937902 0.66435266 2 9
6.5907316 3.8466883 -1.4833492 14 2
10.939292 6.3796058 1.1079237 2 10
7.4184761 4.3245964 -1.3600414 12 3
10.907699 6.3535304 1.5499344 2 11
8.3106833 4.8369327 -1.1806704 15 4
10.908846 6.3465509 1.9989198 3 12
9.6666517 5.6193514 -0.97823608 14 5
10.463571 6.075284 -0.63410246 35 6
10.544589 6.1124859 -0.21274483 47 7
5.3569374 3.085356 -1.6564419 10 0
10.574138 6.0853157 0.21295427 44 8
5.8378291 3.358259 -1.5548617 22 1
11.007723 6.3271699 0.66539943 4 9
6.6480722 3.8181791 -1.4902184 9 2
11.006651 6.3188891 1.1103642 7 10
7.486186 4.2943211 -1.3669246 12 3
10.993123 6.3009167 1.5557842 4 11
8.3606386 4.7901196 -1.1831076 14 4
11.042032 6.3212719 2.0151892 3 12
9.83708 5.6269169 -0.99148369 14 5
5.3817086 3.0497873 -1.6574773 12 0
5.973063 3.380775 -1.5845551 18 1
11.305448 6.393714 0.68068153 2 9
6.6882396 3.7794003 -1.4932712 9 2
11.272547 6.3673196 1.132676 1 10
7.5435081 4.2574878 -1.3719305 12 3
11.265082 6.3527341 1.5879577 2 11
8.476882 4.7784257 -1.1948072 19 4
11.209814 6.3138332 2.0377157 3 12
9.9351606 5.5913229 -0.9974103 14 5
5.4231167 3.0234301 -1.6636889 10 0
5.9931154 3.3370967 -1.5836555 21 1
11.510381 6.4039607 0.69031131 2 9
6.762507 3.7593284 -1.5039566 11 2
11.438638 6.356205 1.1448778 2 10
7.6214023 4.2315726 -1.3806907 15 3
11.472329 6.3644562 1.6108691 2 11
8.5690575 4.7518644 -1.2030942 16 4
11.398761 6.3158402 2.0639966 3 12
9.9834442 5.5293636 -0.99845618 14 5
5.4593358 2.9938586 -1.6683476 7 0
6.0675397 3.3232622 -1.5971525 17 1
11.606259 6.3542433 0.69345152 2 9
6.8103318 3.7254558 -1.5089177 11 2
11.640076 6.3621998 1.1605659 1 10
7.6847014 4.1985364 -1.3869481 15 3
11.64432 6.3566046 1.6289058 1 11
8.6473331 4.71664 -1.2094315 14 4
11.59411 6.3213172 2.0915291 3 12
10.175771 5.543407 -1.0137956 14 5
5.4829893 2.9584608 -1.6693829 9 0
6.1209002 3.2985222 -1.6052507 17 1
11.840256 6.3753295 0.70475608 2 9
6.8534613 3.6871245 -1.5127338 11 2
11.83753 6.3658624 1.1759052 1 10
7.7521062 4.1653581 -1.3938313 13 3
11.821337 6.346519 1.6474299 1 11
8.7080402 4.6711688 -1.2133312 13 4
11.759821 6.3055634 2.1134298 3 12
10.252862 5.4929256 -1.0176305 14 5
11.909741 6.3725686 -0.70789623 8 6
5.5279126 2.9318218 -1.6766298 7 0
6.1753445 3.2710569 -1.613349 17 1
12.016207 6.3595695 0.71250176 2 9
6.7731776 3.5831866 -1.4894551 16 2
12.023697 6.3554778 1.1898502 1 10
7.8411031 4.1411438 -1.4044688 10 3
12.02335 6.3472424 1.6693665 1 11
8.8422756 4.6639767 -1.2274681 14 4
11.944446 6.29493 2.1384594 3 12
10.301534 5.4267898 -1.0186763 14 5
5.5139871 2.875294 -1.6662771 13 0
6.2395115 3.2494683 -1.6241466 15 1
12.22331 6.3603477 0.72213155 2 9
6.836967 3.5545509 -1.4978507 16 2
12.26224 6.3724499 1.2090244 2 10
7.8996253 4.1017766 -1.4097875 12 3
12.202379 6.3305187 1.6878905 1 11
8.9486341 4.6405134 -1.2377051 15 4
12.167002 6.3040819 2.170372 3 12
10.414416 5.3914056 -1.0259974 14 5
5.4789119 2.8085315 -1.6497126 22 0
6.2828593 3.2164886 -1.6295455 18 1
12.402558 6.343977 0.73008668 2 9
7.0172043 3.5862494 -1.5318148 10 2
12.448377 6.3591928 1.2229693 2 10
7.9826112 4.0743656 -1.4194865 13 3
12.423116 6.3353643 1.7122644 1 11
9.0480185 4.612185 -1.2469672 16 4
12.33393 6.2817478 2.1922729 3 12
10.497971 5.342062 -1.0305295 14 5
5.4966602 2.7693439 -1.649195 21 0
6.3051615 3.1725476 -1.6295455 20 1
12.653542 6.3612995 0.74222863 2 9
7.1104884 3.5715427 -1.5466977 15 2
12.659842 6.3561649 1.2393546 1 10
8.0373449 4.031827 -1.4241794 10 3
12.65161 6.3409781 1.7376132 2 11
9.1119423 4.5649152 -1.2513546 18 4
12.531167 6.2724051 2.2194924 4 12
10.662377 5.3346725 -1.0430799 14 5
5.5262489 2.7360427 -1.6523008 19 0
6.3411326 3.1353588 -1.6331446 20 1
12.846948 6.3493614 0.75102103 2 9
7.1451979 3.5282724 -1.5489874 13 2
12.846847 6.3381562 1.2532996 1 10
8.0079107 3.9490628 -1.4141676 9 3
12.840493 6.3266649 1.7575998 1 11
9.1970186 4.5274925 -1.2586666 16 4
12.736632 6.2672062 2.2482765 4 12
10.878162 5.3480029 -1.060511 15 5
5.6107526 2.7304895 -1.6719712 16 0
6.3483052 3.0853117 -1.6295455 14 1
13.070631 6.3467531 0.76148826 2 9
7.2155795 3.5005872 -1.5589095 10 2
13.068967 6.3374915 1.2707307 1 10
8.1668358 3.9568014 -1.4373201 11 3
13.041583 6.3129792 1.7790488 1 11
9.1507864 4.427608 -1.248186 21 4
12.908125 6.2400365 2.270803 7 12
10.940351 5.28406 -1.0629514 15 5
5.6871953 2.7187483 -1.6890532 12 0
6.3802414 3.0459547 -1.6322449 21 1
13.294887 6.3413382 0.77195543 2 9
7.2859225 3.4720871 -1.5688316 10 2
13.303556 6.336926 1.2892077 1 10
8.2442026 3.9234576 -1.4460803 12 3
13.289717 6.3189468 1.8068351 2 11
9.4163446 4.4752407 -1.2801157 14 4
13.149448 6.243814 2.3055315 1 12
11.077777 5.2553811 -1.0727129 16 5
5.6972933 2.6748729 -1.6864649 14 0
13.004229 6.0999322 0.25072128 20 8
6.4048796 3.0029922 -1.6331446 21 1
13.5197 6.3330917 0.7824226 2 9
7.3046503 3.4186406 -1.5676868 12 2
13.524332 6.3266292 1.3062903 1 10
8.3322382 3.8942442 -1.4567178 9 3
13.484591 6.2965689 1.827309 1 11
9.5390978 4.4522109 -1.2925464 21 4
11.185527 5.2135234 -1.0796853 16 5
12.909671 6.0061727 -0.7462061 35 6
12.96121 6.0218983 -0.24946471 34 7
5.7017932 2.6285629 -1.6823239 15 0
13.045445 6.0112801 0.25072128 20 8
6.4929547 2.9891722 -1.6502409 15 1
13.743929 6.3244162 0.79288983 2 9
7.3723459 3.3893421 -1.5772274 13 2
13.716635 6.3002491 1.3205838 1 10
8.4088182 3.8605154 -1.4654782 9 3
13.682311 6.2758112 1.8482705 1 11
9.7125139 4.450839 -1.3118018 15 4
11.283249 5.1634955 -1.0856119 16 5
13.302672 6.0792041 -0.76651251 17 6
5.6808348 2.5721633 -1.6709359 14 0
6.5344572 2.9545441 -1.6556398 20 1
13.969767 6.3105264 0.80335701 2 9
7.4101439 3.3442514 -1.5802802 19 2
13.966244 6.3001328 1.3404553 1 10
8.5040007 3.8325589 -1.4773673 12 3
13.924896 6.2697945 1.8750819 1 11
9.655694 4.34552 -1.3001022 19 4
11.457149 5.1466451 -1.0988595 16 5
13.455946 6.0360565 -0.77289748 17 6
5.7728 2.5653911 -1.6926767 11 0
6.5941133 2.9262397 -1.6655376 15 1
14.196069 6.2937951 0.81382424 2 9
7.4368987 3.2940311 -1.5810434 13 2
14.192069 6.2831326 1.3578864 1 10
8.5847445 3.7970719 -1.4867533 9 3
14.120853 6.2398176 1.895556 1 11
8.8250761 3.8978484 -1.1845701 11 4
11.536553 5.0858216 -1.103043 17 5
13.691523 6.0272679 -0.78399271 17 6
5.7586951 2.5111246 -1.6833591 11 0
6.6358218 2.8894687 -1.6709365 17 1
7.589354 3.2983735 -1.6085199 10 2
14.436602 6.2712278 1.3770608 1 10
8.6726542 3.7637844 -1.4973909 11 3
14.397193 6.2421584 1.9267545 1 11
8.9128542 3.8606353 -1.1926135 10 4
11.652237 5.0399656 -1.1107128 17 5
13.95329 6.0265746 -0.79655331 17 6
5.810267 2.4842825 -1.6931943 9 0
6.6186914 2.8258407 -1.6614884 23 1
7.6266456 3.2514653 -1.6115729 10 2
14.635083 6.2333426 1.3917029 1 10
8.782979 3.737206 -1.5117829 9 3
14.623093 6.219193 1.9511282 2 11
10.057723 4.2733989 -1.3417815 18 4
11.745831 4.9833961 -1.1162907 17 5
14.191013 6.0091176 -0.8076486 17 6
5.8239045 2.4421673 -1.6921589 9 0
6.5789385 2.7547302 -1.6466417 21 1
14.996493 6.2731733 0.85192472 2 9
7.6479058 3.1960504 -1.6111913 12 2
14.880475 6.2154899 1.4108772 1 10
8.8015642 3.6727507 -1.5105313 12 3
14.876101 6.2014618 1.9789146 2 11
10.142286 4.2259789 -1.3490938 20 4
11.846561 4.9288201 -1.122566 17 5
14.431828 5.9926262 -0.8189531 17 6
5.8658266 2.4117339 -1.6994059 7 0
6.6286569 2.7213149 -1.6542901 25 1
7.6349678 3.1297739 -1.6039405 13 2
15.137381 6.199039 1.4310971 1 10
8.9177666 3.6501744 -1.5261748 9 3
15.087009 6.1691895 2.0013385 2 11
10.320393 4.2158751 -1.3688365 16 4
12.020888 4.9031839 -1.1358136 18 5
14.694254 5.9846482 -0.83151376 17 6
5.9286895 2.3905365 -1.7128645 5 0
6.6940274 2.6950548 -1.6659875 24 1
15.478103 6.2252984 0.87432462 2 9
7.7404294 3.110065 -1.6214949 16 2
15.412184 6.1894126 1.4530605 1 10
8.983366 3.6040089 -1.5330579 10 3
15.398734 6.1715231 2.0369244 1 11
10.341478 4.142581 -1.3678616 18 4
12.199126 4.8768363 -1.1494099 18 5
14.958268 5.9707756 -0.84407437 17 6
5.9075046 2.3341773 -1.7019941 6 0
6.7634368 2.6682806 -1.6785848 23 1
15.744166 6.2049675 0.88688523 2 9
7.8240619 3.0804076 -1.6344699 19 2
15.707164 6.1808853 1.4767668 1 10
9.0800047 3.5693946 -1.5452598 13 3
15.65578 6.1480474 2.0651982 3 11
10.558629 4.1442561 -1.392723 13 4
12.355316 4.8395109 -1.1609144 19 5
15.222795 5.9534955 -0.85663497 17 6
5.8930292 2.2810235 -1.6931943 9 0
6.7873535 2.6231055 -1.6799345 21 1
16.040495 6.1927376 0.90112054 2 9
7.860033 3.0313587 -1.6375229 15 2
16.032505 6.1800098 1.5032623 1 10
9.1212959 3.5123019 -1.5480757 10 3
15.965115 6.1412263 2.1002965 2 11
10.635477 4.0889692 -1.3990601 13 4
12.522735 4.804522 -1.1734649 19 5
15.383353 5.8928003 -0.863334 17 6
15.448169 5.9083471 -0.28869772 45 7
5.9160342 2.2425685 -1.6952648 9 0
6.8273706 2.5839376 -1.6853334 20 1
16.438297 6.2148018 0.92100829 2 9
7.9434495 2.9999952 -1.6504979 15 2
16.373505 6.180501 1.531152 1 10
9.2786751 3.4987185 -1.5706023 9 3
16.288109 6.1352792 2.1371009 4 11
10.752938 4.0481915 -1.4107596 11 4
12.70145 4.7716322 -1.1870612 20 5
15.781298 5.9192309 -0.88332635 8 6
5.9098125 2.1931467 -1.6890532 9 0
6.8488979 2.5375645 -1.686233 22 1
16.736027 6.1941633 0.93524361 2 9
8.0010281 2.9580822 -1.6581303 22 2
16.715273 6.1765342 1.5590419 1 10
9.3195515 3.4400117 -1.573418 13 3
16.552179 6.103148 2.1661057 3 11
10.86662 4.0045986 -1.4219716 11 4
12.849566 4.7277203 -1.1978685 20 5
16.116594 5.9169827 -0.89975989 18 6
5.9249802 2.151835 -1.6890532 7 0
6.87744 2.4936707 -1.6889325 20 1
17.085751 6.1917076 0.9524098 2 9
8.122509 2.9403059 -1.6791192 10 2
17.050278 6.1653814 1.5862345 1 10
9.4412146 3.4120805 -1.5900002 10 3
10.939127 3.9448044 -1.4278214 14 4
13.058469 4.7013445 -1.2142538 21 5
16.421509 5.9024048 -0.91451859 18 6
6.0414243 2.147692 -1.7180409 4 0
6.8758883 2.4402852 -1.6844335 20 1
17.523878 6.2124205 0.97439086 2 9
8.0484552 2.8501055 -1.6596566 10 2
17.392361 6.1555476 1.6141243 1 10
9.5355768 3.3711054 -1.6018891 12 3
11.107994 3.9204593 -1.4463456 18 4
13.173661 4.6391768 -1.2219235 21 5
16.771328 5.8962469 -0.93168473 18 6
6.1365581 2.1333747 -1.740817 3 0
6.8890753 2.3909452 -1.6835337 21 1
14.638078 5.0746074 0.81194013 55 9
7.9995151 2.7700825 -1.6455369 12 2
17.743698 6.1408339 1.6427114 2 10
9.5999508 3.3186557 -1.6087722 9 3
11.307729 3.9023991 -1.4687696 16 4
13.428021 4.6236367 -1.2424922 22 5
17.102955 5.8790026 -0.94780427 18 6
6.158618 2.0929708 -1.7428875 3 0
6.8557725 2.3258877 -1.6713864 25 1
14.69017 4.9780669 0.81288213 31 9
8.2083387 2.7783709 -1.6844618 12 2
18.061684 6.110033 1.6681609 1 10
9.7201996 3.2844365 -1.6250414 9 3
11.402411 3.8462024 -1.4775441 18 4
13.504498 4.5473933 -1.2466757 22 5
17.465435 5.8675957 -0.96559846 18 6
6.2299161 2.0687952 -1.7589344 2 0
6.8958898 2.2859402 -1.677235 22 1
14.727507 4.8792148 0.81309152 14 9
8.2848396 2.741554 -1.696292 10 2
18.44441 6.0963368 1.6995369 1 10
9.8061037 3.2392633 -1.6356789 10 3
11.594895 3.8211815 -1.498993 14 4
13.740315 4.520247 -1.2655014 23 5
14.603608 4.7957702 -0.80555516 17 6
6.2530413 2.0293233 -1.7615224 3 0
14.670184 4.7553186 0.26918593 23 8
6.9483681 2.2509596 -1.686233 19 1
14.626293 4.7326231 0.80565983 14 9
8.2701511 2.6727808 -1.6894228 22 2
18.815376 6.0772023 1.7298672 1 10
9.8811178 3.1877065 -1.6444392 9 3
11.62507 3.7413576 -1.4994806 15 4
14.014343 4.502214 -1.2878133 24 5
18.092413 5.8018765 -0.99574399 18 6
6.258194 1.9816097 -1.7589344 2 0
6.9568653 2.1988318 -1.6844335 21 1
14.72073 4.6470857 0.80900931 17 9
8.2661428 2.6078908 -1.6848437 21 2
19.227032 6.0585814 1.7636836 1 10
9.9564352 3.133522 -1.6531997 10 3
11.836502 3.7184126 -1.5233669 16 4
14.098664 4.4209571 -1.292694 24 5
18.493736 5.784956 -1.015527 18 6
6.2441883 1.9293194 -1.7511697 2 0
7.0502577 2.1743343 -1.7033294 22 1
14.743272 4.5412555 0.80848593 19 9
8.3408861 2.5659909 -1.696292 16 2
19.588806 6.0225601 1.7929679 1 10
10.06871 3.0917695 -1.6682173 11 3
12.0216 3.6845512 -1.5438409 11 4
14.498798 4.4354954 -1.3265103 25 5
18.824034 5.7443104 -1.031437 19 6
6.2371588 1.8795484 -1.7454758 2 0
7.1100531 2.1385324 -1.7141271 21 1
14.783404 4.4436779 0.80900931 2 9
8.4408932 2.5339987 -1.7130833 15 2
19.943361 5.9794984 1.821555 1 10
10.138721 3.0379038 -1.6763519 10 3
12.187775 3.642606 -1.5618777 15 4
14.720335 4.3911276 -1.3439416 26 5
18.824413 5.6046572 -1.0293437 19 6
6.2609291 1.8403187 -1.7485816 2 0
7.169323 2.1032519 -1.7249247 18 1
20.54879 6.0205741 1.1221877 3 9
8.5017176 2.4876852 -1.7218604 12 2
20.323986 5.9431562 1.8525823 3 10
10.208982 2.9814458 -1.6844865 12 3
12.307576 3.5873299 -1.5740645 11 4
15.006239 4.3653951 -1.3672993 27 5
19.793386 5.7430182 -1.0801096 9 6
6.264338 1.7939049 -1.7459934 2 0
7.1913271 2.0552917 -1.7267244 17 1
8.4750299 2.4173768 -1.7130833 13 2
20.924505 5.9604969 1.9034814 1 10
10.295535 2.9308207 -1.695437 13 3
12.336139 3.5024099 -1.5745521 14 4
15.19737 4.3061581 -1.3819414 27 5
20.01652 5.6603394 -1.0901581 19 6
20.379774 5.7476892 -0.36960706 38 7
6.3229232 1.764203 -1.7589344 2 0
7.2783656 2.0266809 -1.7442704 13 1
21.880608 6.0844865 1.1902244 4 9
8.4633236 2.350271 -1.7073588 12 2
21.42535 5.9458065 1.9453162 3 10
10.405215 2.8836682 -1.7101418 9 3
12.606504 3.4866204 -1.6059943 10 4
15.365348 4.2380981 -1.3944918 28 5
20.217302 5.5649834 -1.0989505 19 6
6.3183064 1.7154621 -1.7542756 2 0
7.2697659 1.9697036 -1.7388717 11 1
22.500933 6.0880756 1.221626 4 9
8.6444168 2.3356814 -1.7405598 10 2
21.866426 5.9041123 1.981573 4 10
10.48422 2.8268983 -1.7198406 13 3
12.732135 3.4258621 -1.6189125 11 4
15.510023 4.161705 -1.4049505 28 5
20.301964 5.4361033 -1.1014627 29 6
6.3095827 1.6658856 -1.7485816 2 0
7.3134909 1.9268467 -1.7460701 10 1
23.160973 6.0934658 1.255121 5 9
8.7098818 2.2882452 -1.7504818 9 2
10.50752 2.7546372 -1.7204664 17 3
12.886334 3.3710544 -1.6354867 11 4
15.781613 4.1166801 -1.4269139 29 5
20.65641 5.3767362 -1.1186289 9 6
6.2929888 1.6145971 -1.740817 2 0
7.3380904 1.8786452 -1.7487694 10 1
23.934393 6.1185985 1.294687 5 9
8.5829744 2.1909637 -1.7218604 10 2
10.553296 2.6880403 -1.7248467 17 3
13.011522 3.3069243 -1.648405 9 4
16.026276 4.0612259 -1.4464366 29 5
21.611256 5.4644785 -1.1682433 10 6
20.033808 5.0581765 4.7703123 5 14
6.3228531 1.5752946 -1.7459934 2 0
7.3718305 1.8325413 -1.7537185 7 1
24.364214 6.047586 1.3156214 5 9
8.5809097 2.1267436 -1.7184259 16 2
10.629331 2.62853 -1.7342327 15 3
13.007308 3.2093549 -1.6449926 16 4
16.29344 4.0111089 -1.4680512 30 5
22.126041 5.4305849 -1.1939926 10 6
6.318676 1.52748 -1.7418523 2 0
7.3825502 1.7805711 -1.7532685 7 1
8.682992 2.0894098 -1.7359804 16 2
10.74686 2.580092 -1.7505019 14 3
13.216661 3.1632886 -1.6686351 18 4
22.667646 5.4001956 -1.2212074 10 6
6.2950711 1.4764972 -1.7325348 2 0
7.3944983 1.7302818 -1.7532685 7 1
8.7375164 2.03811 -1.7439942 10 2
10.880047 2.5318701 -1.769274 9 3
13.358317 3.098747 -1.6837471 18 4
23.058977 5.3235841 -1.2402576 10 6
6.4015551 1.4532241 -1.7589344 2 0
7.4066906 1.6773237 -1.7532685 7 1
8.7898312 1.9857131 -1.7516266 10 2
10.842001 2.44136 -1.7602009 12 3
13.507455 3.034127 -1.6998338 14 4
6.3473916 1.3944041 -1.7413346 2 0
7.3915701 1.6197345 -1.7469698 7 1
26.166414 5.7243319 1.4037551 14 9
8.9323254 1.9508303 -1.777195 7 2
10.833688 2.3601482 -1.7561336 14 3
13.761086 2.9903433 -1.7290823 16 4
23.920631 5.1674504 -1.2825451 10 6
6.3701987 1.3528693 -1.744958 9 0
7.4026976 1.5680958 -1.7469698 6 1
9.0360098 1.9074819 -1.7951311 4 2
10.760983 2.2657356 -1.7417415 13 3
13.886533 2.9162312 -1.7422442 15 4
17.539583 3.6706047 -1.5677575 33 5
23.901377 4.9889116 -1.2796142 10 6
6.394629 1.311466 -1.7490991 9 0
7.4134655 1.5163734 -1.7469698 7 1
9.0317926 1.8408279 -1.7916965 4 2
10.842356 2.203933 -1.7523791 17 3
14.027177 2.843667 -1.7573562 18 4
17.834288 3.6025054 -1.5918124 34 5
25.059473 5.0483308 -1.3396959 11 6
6.4112091 1.2682906 -1.7511697 2 0
7.4123993 1.4623176 -1.7442704 6 1
8.9827805 1.7656084 -1.7794847 4 2
10.807076 2.1183064 -1.7442445 14 3
14.179166 2.7715647 -1.7739303 15 4
17.960697 3.4977155 -1.6008766 34 5
24.92157 4.8397532 -1.3304847 10 6
6.3475833 1.2108687 -1.7314996 2 0
7.4030366 1.4081911 -1.7397714 6 1
9.0023069 1.7058855 -1.7810113 4 2
10.770778 2.0351598 -1.7361099 16 3
14.375224 2.7084324 -1.7961105 10 4
25.680311 4.805943 -1.3692133 11 6
6.3748837 1.1700091 -1.7366759 2 0
7.4203558 1.3578734 -1.7415711 6 1
9.0024071 1.6408881 -1.7787216 4 2
10.979077 1.9952413 -1.7673968 16 3
14.505117 2.6281884 -1.8100036 11 4
25.288649 4.5501475 -1.3466043 11 6
6.4399714 1.1355393 -1.752205 2 0
7.3835907 1.2979391 -1.7307733 15 1
8.9652977 1.5695313 -1.7691811 3 2
11.237931 1.9613317 -1.8068182 8 3
14.613076 2.542505 -1.8212155 11 4
19.156303 3.3192072 -1.7009314 37 5
6.4248838 1.0866891 -1.7459934 1 0
7.4251394 1.2518716 -1.7384217 25 1
8.9934626 1.5098288 -1.7726158 4 2
11.276677 1.8870668 -1.8108855 9 3
14.479701 2.4152758 -1.8024478 18 4
19.17901 3.1853812 -1.7009314 37 5
26.394047 4.3695049 -1.4020804 11 6
6.4094296 1.038102 -1.7397816 1 0
7.4683275 1.2055939 -1.74652 5 1
8.9999046 1.4463871 -1.7718524 4 2
11.365645 1.8204846 -1.8230875 8 3
14.600103 2.3307219 -1.8153659 16 4
19.397011 3.0860741 -1.7183627 38 5
28.155914 4.4594555 -1.4939823 11 6
6.412703 0.99273944 -1.7387464 1 0
7.4669318 1.15194 -1.7442704 6 1
8.9765549 1.3800217 -1.765365 3 2
11.407064 1.7475659 -1.8277806 9 3
14.81226 2.2586613 -1.8397398 12 4
19.615061 2.9805129 -1.7357937 38 5
28.93602 4.3813362 -1.5337577 11 6
6.4460669 0.95302212 -1.7459934 2 0
7.4611044 1.0990995 -1.7411212 5 1
8.9976254 1.3190284 -1.7676547 3 2
11.395531 1.6644611 -1.8240261 7 3
14.941226 2.1743655 -1.8538766 16 4
29.752663 4.2927327 -1.575417 12 6
6.4525628 0.90799689 -1.7459934 2 0
7.4859643 1.0494192 -1.7451702 6 1
9.0085592 1.2564523 -1.7680362 24 2
11.393177 1.5829618 -1.821836 5 3
14.867556 2.0577562 -1.8429084 20 4
30.676294 4.2075901 -1.6227288 10 6
6.4319367 0.85934877 -1.7387464 1 0
7.4757228 0.99482185 -1.7411212 5 1
9.0015411 1.1914691 -1.7649832 22 2
11.3922 1.5018349 -1.8199588 5 3
14.678835 1.9272937 -1.8178033 18 4
31.235718 4.0623593 -1.6507809 10 6
6.4109473 0.81103003 -1.7314996 1 0
7.4747524 0.94162935 -1.7393216 4 1
8.9960032 1.1268936 -1.7623119 3 2
11.394566 1.421293 -1.8187072 5 3
15.026824 1.8663707 -1.8592389 16 4
32.004704 3.9353564 -1.6899282 9 6
6.4816728 0.77403885 -1.7490991 1 0
7.4927549 0.89080316 -1.742021 5 1
9.0114489 1.0649838 -1.7638384 3 2
11.364973 1.337093 -1.8124499 5 3
15.272139 1.7886587 -1.888 15 4
32.900383 3.8125401 -1.7357744 8 6
6.5176349 0.73222327 -1.7573814 1 0
7.4871707 0.83717644 -1.7393216 5 1
9.0399542 1.0060086 -1.7680362 4 2
11.35025 1.2570934 -1.8086954 4 3
15.448028 1.7000186 -1.9082304 9 4
34.089081 3.7152977 -1.7971122 6 6
6.4533048 0.68054831 -1.7387464 1 0
7.4694386 0.78375304 -1.7339227 4 1
9.0779991 0.9461295 -1.7741421 4 2
11.341068 1.1759896 -1.8058797 9 3
15.490834 1.5980942 -1.9121301 5 4
35.00832 3.5683584 -1.8442147 5 6
6.473279 0.63699269 -1.7428875 1 0
7.4824862 0.73234677 -1.7357224 4 1
9.0453024 0.87893254 -1.7665098 4 2
11.356866 1.0975454 -1.8071312 24 3
15.390959 1.4792736 -1.8984808 5 4
6.4814162 0.59213668 -1.7439228 1 0
7.4951797 0.68079644 -1.737522 5 1
9.0570841 0.81629175 -1.7676547 3 2
11.372122 1.0189326 -1.8083826 4 3
15.385094 1.3703719 -1.8965309 4 4
37.040344 3.253649 -1.9486772 3 6
6.4545918 0.54427624 -1.7356406 1 0
7.4880981 0.62747723 -1.7348225 5 1
9.0467777 0.75331968 -1.7646016 3 2
11.374857 0.94118083 -1.8077569 4 3
15.358674 1.2600163 -1.8921436 4 4
37.658859 3.049814 -1.9800788 2 6
6.4311814 0.49824253 -1.7283937 1 0
7.4999676 0.5770908 -1.7366221 5 1
9.0165806 0.68746078 -1.7577326 3 2
11.381149 0.86175185 -1.8077569 4 3
15.327304 1.152474 -1.8872689 4 4
38.276779 2.8310266 -2.0114803 1 6
6.4691911 0.455773 -1.7377111 1 0
7.496038 0.52417332 -1.7348225 4 1
9.0602226 0.62878495 -1.765365 3 2
11.382811 0.78398579 -1.8071312 3 3
15.283484 1.0419235 -1.8809316 4 4
6.4682875 0.41148582 -1.7366759 2 0
7.4916525 0.4726499 -1.7330229 4 1
59.208172 3.7146795 3.1090701 0 9
9.03304 0.56356573 -1.759259 3 2
59.210911 3.6837294 5.1902986 1 10
11.388006 0.70449972 -1.8071312 3 3
59.224449 3.6430981 7.2855935 1 11
15.252739 0.93289679 -1.8763006 19 4
59.165199 3.6083603 9.3882589 1 12
6.4710665 0.36518928 -1.7366759 1 0
7.4870601 0.4185937 -1.7312233 4 1
9.0367537 0.50048947 -1.759259 3 2
11.376976 0.62212807 -1.8046281 3 3
15.284648 0.82778543 -1.8794692 4 4
39.324905 2.0815775 -2.0638163 0 6
6.4695992 0.31981304 -1.7356406 1 0
7.4995317 0.36678991 -1.7334728 3 1
9.024416 0.43505484 -1.756206 3 2
11.353417 0.54137486 -1.800248 3 3
15.276175 0.720411 -1.877763 3 4
6.4330716 0.27300382 -1.7252878 2 0
7.5116453 0.31482881 -1.7357224 2 1
9.042861 0.37426254 -1.759259 3 2
11.360787 0.46423784 -1.8008738 3 3
15.237194 0.61199296 -1.8724008 3 4
6.4733939 0.23058119 -1.7356406 2 0
7.4863482 0.26273796 -1.7294236 3 1
9.0452538 0.31112668 -1.759259 3 2
11.371649 0.38518614 -1.8021252 3 3
15.231088 0.50793153 -1.8711821 2 4
6.4285002 0.18405892 -1.7232174 2 0
7.4918962 0.21058008 -1.7303236 2 1
9.0707111 0.25019982 -1.7638384 3 2
11.35821 0.3073453 -1.7996223 3 3
15.204496 0.40080142 -1.8675259 3 4
6.4779134 0.1402202 -1.7361581 2 0
7.4970803 0.15835395 -1.7312233 2 1
9.0840473 0.18552545 -1.7661282 3 2
11.340368 0.22566691 -1.7964935 2 3
15.197001 0.29445201 -1.8663074 2 4
6.4072638 0.093941443 -1.7170056 2 0
7.4980035 0.10600704 -1.7312233 2 1
9.0654907 0.12184282 -1.7623119 3 2
11.321916 0.14624101 -1.793365 2 3
15.194715 0.18830781 -1.8658198 2 4
6.4541264 0.049564064 -1.7294289 2 0
7.510252 0.053742182 -1.7339227 1 1
9.077898 0.058622532 -1.7646016 3 2
11.310808 0.067119844 -1.7914877 2 3
15.134123 0.081883922 -1.858264 2 4
6.4659061 0.004515735 -1.7325348 1 0
7.5065475 0.0013123276 -1.7330229 2 1
9.0623817 -0.0047450522 -1.7615488 3 2
11.330755 -0.011865542 -1.7946163 2 3
15.090652 -0.023704359 -1.8529016 2 4
6.4348712 -0.040432017 -1.7242525 2 0
7.4829888 -0.050935876 -1.7276241 2 1
9.0150099 -0.067658156 -1.7523898 3 2
11.298791 -0.090714447 -1.7896105 2 3
15.092105 -0.12907253 -1.8531454 2 4
6.4035244 -0.084944546 -1.7159703 2 0
7.482451 -0.10317533 -1.7276241 2 1
8.9986143 -0.13036513 -1.749337 3 2
11.286032 -0.16941415 -1.7877333 3 3
15.114655 -0.23480131 -1.8560703 2 4
6.3989134 -0.12956893 -1.7149351 2 0
7.4971356 -0.15573353 -1.7312233 2 1
9.0053358 -0.19335219 -1.7508634 3 2
11.272724 -0.24794012 -1.785856 3 3
15.07494 -0.33946583 -1.8514392 3 4
6.4171638 -0.17476417 -1.7201115 2 0
7.4530091 -0.2068796 -1.7213255 3 1
8.9802618 -0.25397861 -1.746284 3 2
11.286572 -0.32511979 -1.7883589 3 3
15.052361 -0.44411418 -1.8490019 3 4
6.408103 -0.21817711 -1.7180409 2 0
7.4514284 -0.25760543 -1.7213255 4 1
8.9508009 -0.31569713 -1.7409414 3 2
11.268234 -0.40334108 -1.785856 3 3
15.02112 -0.54817426 -1.8455895 3 4
6.4276099 -0.26490158 -1.7237349 2 0
7.4513412 -0.31100094 -1.7217753 6 1
8.9778013 -0.37942073 -1.7466656 4 2
11.253219 -0.48345515 -1.7839788 3 3
14.973295 -0.65112996 -1.8402272 3 4
6.4256039 -0.30976799 -1.7237349 2 0
7.4567738 -0.36339253 -1.723575 6 1
8.9434834 -0.44210342 -1.7405598 4 2
11.241677 -0.56161076 -1.7827275 4 3
14.976316 -0.75604689 -1.8412023 3 4
6.3866353 -0.35259587 -1.7138997 2 0
7.4501643 -0.41522446 -1.7226752 6 1
8.9421387 -0.50464004 -1.7409414 3 2
11.22565 -0.63940418 -1.7808502 4 3
14.96671 -0.86035419 -1.8407148 3 4
6.4302931 -0.40005299 -1.7263231 3 0
7.4256897 -0.46588361 -1.7177262 5 1
8.9481945 -0.56767666 -1.7428495 4 2
11.211056 -0.7171272 -1.7792858 4 3
14.956376 -0.96456414 -1.8402272 3 4
6.4042168 -0.44333377 -1.7201115 3 0
7.4183688 -0.51744181 -1.7168264 5 1
8.9284554 -0.62747037 -1.7397964 4 2
11.196062 -0.79272354 -1.7777214 4 3
14.949278 -1.0689549 -1.8402272 3 4
6.4049029 -0.48720834 -1.7211467 2 0
7.4224467 -0.56852001 -1.718626 5 1
8.941474 -0.6911487 -1.7432311 3 2
11.217827 -0.87301272 -1.7821016 3 3
14.909991 -1.1682051 -1.8363274 3 4
6.4032712 -0.53207076 -1.7216644 2 0
7.4299488 -0.62129849 -1.7213255 5 1
8.9267817 -0.75117177 -1.741323 4 2
11.207687 -0.94901586 -1.7814759 4 3
14.925207 -1.2742938 -1.8392524 3 4
6.3706398 -0.5730477 -1.7138997 2 0
7.4216661 -0.67150658 -1.7204256 5 1
8.9154539 -0.81293881 -1.7401782 3 2
11.188987 -1.0261542 -1.7795987 3 3
14.886536 -1.3731209 -1.8355962 2 4
6.3914804 -0.61993337 -1.7206291 2 0
7.4187365 -0.72349185 -1.7208756 6 1
8.8900232 -0.87324089 -1.736362 3 2
11.205141 -1.106572 -1.7833531 3 3
14.884489 -1.4777989 -1.8365711 2 4
6.3985262 -0.6657384 -1.7237349 2 0
7.3805561 -0.77182072 -1.7132272 4 1
8.9110432 -0.9381609 -1.7417046 3 2
11.193213 -1.1843554 -1.7827275 3 3
14.865913 -1.5808355 -1.8355962 2 4
6.3495612 -0.70548528 -1.7118292 2 0
7.3943548 -0.82548964 -1.7177262 4 1
8.9198847 -1.0021018 -1.7447575 3 2
11.165042 -1.2602535 -1.7795987 2 3
14.866351 -1.6859221 -1.8370585 2 4
6.3483186 -0.75024956 -1.7128645 2 0
7.3884115 -0.87709141 -1.7177262 4 1
8.8658867 -1.0587624 -1.7355988 3 2
11.163818 -1.33911 -1.7808502 2 3
14.85816 -1.7901418 -1.8375461 2 4
6.335259 -0.79359001 -1.710794 2 0
7.3801746 -0.92840731 -1.7172763 3 1
8.8738604 -1.1226027 -1.7386516 3 2
11.138521 -1.4150233 -1.7783473 2 3
14.845301 -1.8938268 -1.8375461 2 4
6.3544612 -0.84109426 -1.7175232 2 0
7.3696504 -0.97939408 -1.7163765 3 1
8.8891592 -1.187646 -1.7432311 3 2
11.159696 -1.4969517 -1.7833531 2 3
14.804175 -1.9937102 -1.8341339 2 4
6.3388672 -0.88410151 -1.7149351 2 0
7.376143 -1.0327111 -1.7195259 3 1
8.8728743 -1.2485805 -1.7417046 3 2
11.137237 -1.5731661 -1.7814759 2 3
14.791862 -2.0972924 -1.8343775 3 4
6.3479948 -0.92946702 -1.7190762 2 0
7.3515902 -1.0803446 -1.7154768 3 1
8.8292103 -1.3037844 -1.7348354 3 2
11.137996 -1.6506754 -1.7833531 2 3
14.777244 -2.197928 -1.8343775 3 4
33.187038 -4.9953713 -0.5858075 16 7
6.3107991 -0.96906996 -1.710794 2 0
7.3708324 -1.1357967 -1.7217753 3 1
8.8198929 -1.3653916 -1.7348354 3 2
11.149624 -1.7320313 -1.7871076 2 3
14.745847 -2.2985919 -1.8324275 3 4
6.330584 -1.0173953 -1.7180409 2 0
7.3492565 -1.1850551 -1.718626 4 1
8.8682861 -1.436349 -1.746284 3 2
11.109963 -1.8053916 -1.7827275 2 3
14.75491 -2.4056332 -1.8355962 4 4
6.3309474 -1.0628452 -1.7201115 2 0
7.333118 -1.2350386 -1.7168264 4 1
8.8699198 -1.4986423 -1.7485738 3 2
11.124683 -1.8855939 -1.7871076 3 3
14.759282 -2.5122466 -1.8382773 3 4
6.3368874 -1.1082435 -1.7237349 2 0
7.3264604 -1.2852614 -1.7172763 3 1
8.8128366 -1.5523547 -1.7394148 3 2
11.076233 -1.9570254 -1.7814759 3 3
14.732068 -2.6109188 -1.8370585 4 4
32.833332 -5.860333 -1.7479165 8 6
6.3194923 -1.1507254 -1.7211467 2 0
7.3134756 -1.3356776 -1.7163765 3 1
8.8213778 -1.6158429 -1.7432311 3 2
11.074314 -2.0345149 -1.7833531 4 3
14.699816 -2.7111831 -1.8353524 13 4
6.3001246 -1.1915598 -1.7180409 2 0
7.3252749 -1.3894223 -1.7213255 4 1
8.7944527 -1.6744502 -1.7401782 3 2
11.038496 -2.1077025 -1.7799115 4 3
14.794102 -2.8328311 -1.8494893 3 4
6.2802782 -1.2332799 -1.7149351 2 0
7.2962766 -1.436763 -1.7168264 2 1
8.7825489 -1.7358057 -1.7401782 3 2
11.0177 -2.1835618 -1.778973 4 3
14.812905 -2.9437826 -1.854364 3 4
6.2677293 -1.2763231 -1.7138997 2 0
7.282249 -1.4868854 -1.7159266 3 1
8.7856026 -1.8002295 -1.7432311 3 2
10.998319 -2.2596312 -1.7783473 4 3
14.815324 -3.0519292 -1.857289 3 4
6.2662272 -1.3216434 -1.7159703 1 0
7.3021965 -1.5441393 -1.7231251 2 1
8.7843447 -1.8639654 -1.7455208 3 2
11.007393 -2.3417015 -1.7824146 5 3
14.801423 -3.1569414 -1.858264 3 4
6.2719479 -1.3686523 -1.7201115 2 0
7.3026609 -1.597579 -1.7258245 2 1
8.7404346 -1.9185112 -1.7394148 3 2
10.984988 -2.4172163 -1.7814759 4 3
14.846869 -3.2751634 -1.8667948 2 4
6.2547021 -1.4107051 -1.7180409 2 0
7.310338 -1.6528194 -1.7303236 2 1
8.7386618 -1.980564 -1.7417046 3 2
10.95287 -2.488431 -1.778973 9 3
14.837191 -3.3818216 -1.8685009 2 4
6.2675333 -1.4585006 -1.7242525 2 0
7.2761445 -1.6972286 -1.7249247 3 1
8.7322693 -2.0433121 -1.7432311 3 2
10.946771 -2.5675416 -1.7808502 11 3
14.833152 -3.4872794 -1.8709384 2 4
6.2496843 -1.5004165 -1.722182 2 0
7.2679076 -1.7488955 -1.7258245 5 1
8.7330589 -2.1079097 -1.746284 3 2
10.980419 -2.6564426 -1.7892977 4 3
14.870179 -3.6057177 -1.8787379 2 4
6.2615609 -1.5495795 -1.7283937 1 0
7.2328243 -1.7939624 -1.7204256 5 1
8.6800261 -2.1593466 -1.7386516 3 2
10.996106 -2.7416372 -1.7949294 4 3
14.856199 -3.7123299 -1.8802004 2 4
6.2393584 -1.5903924 -1.7252878 2 0
7.248445 -1.8516479 -1.7271742 6 1
8.7126751 -2.2305524 -1.7481922 4 2
10.979103 -2.8169119 -1.7952422 4 3
14.874137 -3.8273318 -1.8858064 2 4
6.2097015 -1.6279263 -1.7201115 2 0
7.2394428 -1.9019333 -1.728074 7 1
8.6892967 -2.2893226 -1.7466656 4 2
10.97827 -2.8985341 -1.7983708 4 3
14.88996 -3.9396582 -1.8911686 2 4
6.1758022 -1.6652029 -1.7138997 2 0
7.2335138 -1.954461 -1.7298737 6 1
8.6977367 -2.3566036 -1.7516266 4 2
10.965392 -2.977176 -1.7996223 4 3
14.919558 -4.0591469 -1.8984808 2 4
6.2161536 -1.7227236 -1.7283937 2 0
7.212182 -2.0028265 -1.728074 7 1
8.6791811 -2.4167407 -1.751245 4 2
10.978589 -3.0632117 -1.805254 3 3
14.915709 -4.1701541 -1.9016495 3 4
6.2299881 -1.7734832 -1.7356406 1 0
7.2017722 -2.0541968 -1.7289737 7 1
8.6488857 -2.4734948 -1.7485738 6 2
10.987319 -3.148488 -1.8102598 3 3
14.920577 -4.2840438 -1.9060366 3 4
6.1766601 -1.8050117 -1.7242525 1 0
7.1947365 -2.1066146 -1.7307733 7 1
8.6935701 -2.5520632 -1.7611672 4 2
10.991603 -3.2329199 -1.81464 3 3
14.922675 -4.3976431 -1.9101802 2 4
6.1713104 -1.8503081 -1.7263231 1 0
7.1798544 -2.1567917 -1.7307733 7 1
8.6605024 -2.6081641 -1.7581142 4 2
10.995241 -3.3175647 -1.8190202 3 3
14.958116 -4.5218196 -1.9187111 2 4
6.1711688 -1.8973205 -1.7299466 2 0
7.1646223 -2.2068634 -1.7307733 7 1
8.6683464 -2.676671 -1.7634568 4 2
10.983135 -3.3977478 -1.8208973 2 3
14.998237 -4.6484675 -1.9279732 3 4
6.1393476 -1.9345508 -1.7247702 2 0
7.1490407 -2.2568281 -1.7307733 7 1
8.6943703 -2.7513375 -1.7726158 4 2
10.951616 -3.4719534 -1.819646 2 3
15.010826 -4.7674818 -1.933823 3 4
6.1642995 -1.9898262 -1.7356406 3 0
7.1405282 -2.3090806 -1.7325729 7 1
8.6319962 -2.7980444 -1.7638384 3 2
10.94214 -3.5532057 -1.8221489 2 3
15.028146 -4.888741 -1.9404038 2 4
41.226673 -13.466991 -2.2729506 0 6
6.1502576 -2.0328121 -1.7356406 3 0
7.1112838 -2.3545864 -1.7294236 14 1
8.6197052 -2.8607121 -1.765365 3 2
10.94706 -3.6394801 -1.8271548 2 3
15.040734 -5.0092187 -1.9464973 2 4
6.113956 -2.0682707 -1.7294289 3 0
7.1168208 -2.41168 -1.7348225 5 1
8.6218309 -2.9283957 -1.7699443 3 2
10.966268 -3.731086 -1.8346636 2 3
15.095588 -5.1448379 -1.9581968 1 4
38.876606 -13.302856 -2.1534157 0 6
6.1103215 -2.1146941 -1.7325348 3 0
7.1163821 -2.4670506 -1.7388717 7 1
8.6350813 -2.9986067 -1.7768134 3 2
10.959273 -3.812134 -1.8377923 2 3
15.175518 -5.2906141 -1.9733087 2 4
6.0739307 -2.1485059 -1.7263231 3 0
7.0847292 -2.510226 -1.7352724 7 1
8.6028376 -3.0548756 -1.7745237 3 2
10.947282 -3.8938465 -1.8402953 2 3
15.242001 -5.4304295 -1.9867141 2 4
35.469913 -12.6861 -1.9742171 2 6
6.0733171 -2.1961126 -1.7304642 3 0
7.0780258 -2.563607 -1.7379718 7 1
8.5781536 -3.1120229 -1.7737606 3 2
10.93909 -3.9750178 -1.843424 3 3
15.308174 -5.5747461 -2.0003636 2 4
35.469036 -12.958769 -1.9790322 2 6
6.0509791 -2.234724 -1.7283937 4 0
7.0713782 -2.6157823 -1.7406713 6 1
8.6077614 -3.1909409 -1.7844458 3 2
10.90737 -4.0499144 -1.8427982 4 3
15.396393 -5.7258673 -2.0169377 2 4
35.46003 -13.236804 -1.9836376 2 6
6.0424609 -2.2796407 -1.7304642 4 0
7.0438304 -2.6616414 -1.7384217 5 1
8.5889482 -3.2523468 -1.7852092 3 2
10.926853 -4.1441765 -1.8509328 3 3
15.472955 -5.877624 -2.0322933 3 4
35.392883 -13.493997 -1.9851029 5 6
6.0336094 -2.3245473 -1.7325348 4 0
7.0359855 -2.7149606 -1.7411212 4 1
8.5660334 -3.3122294 -1.7852092 3 2
10.901338 -4.2217855 -1.8515586 2 3
15.54259 -6.028573 -2.0469177 3 4
35.387157 -13.775535 -1.9901272 2 6
6.0082455 -2.3630774 -1.7299466 2 0
7.027739 -2.7682998 -1.7438205 5 1
8.5725088 -3.3819869 -1.791315 3 2
10.934813 -4.32057 -1.8621961 2 3
6.0189152 -2.4147084 -1.7377111 3 0
7.0051165 -2.8146186 -1.7429208 4 1
8.5304766 -3.4344194 -1.7874987 3 2
10.922705 -4.404191 -1.8653249 3 3
15.68329 -6.3364601 -2.0768976 3 4
6.0157847 -2.4635742 -1.7418523 3 0
6.9938111 -2.8683708 -1.7451702 3 1
8.5353498 -3.5058241 -1.7936047 3 2
10.932923 -4.4995298 -1.8725207 4 3
15.774484 -6.5017729 -2.0949342 5 4
5.9823956 -2.4988105 -1.7371935 2 0
6.9862008 -2.9223907 -1.7483196 3 1
8.5534992 -3.5850248 -1.8027636 3 2
10.926744 -4.5864491 -1.8769009 3 3
15.862296 -6.6678948 -2.1127272 3 4
35.364136 -14.916578 -2.0114803 1 6
5.9896874 -2.5511122 -1.7444404 2 0
6.9907231 -2.981796 -1.7546182 3 1
8.5144558 -3.6369932 -1.7997105 3 2
10.927963 -4.6747036 -1.8825326 4 3
15.995993 -6.8558912 -2.1368573 5 4
35.26178 -15.156949 -2.0114803 1 6
5.9278803 -2.5725961 -1.7314996 2 0
6.9881372 -3.0370784 -1.7591172 2 1
52.777401 -22.959221 3.0163307 0 9
8.510457 -3.7057517 -1.8042899 3 2
10.943952 -4.7721992 -1.89098 4 3
16.303703 -7.119524 -2.1843865 7 4
35.2356 -15.438018 -2.0160859 1 6
5.9504113 -2.6318908 -1.7434052 2 0
6.9738917 -3.0889473 -1.7609169 2 1
8.4628448 -3.7555192 -1.7997105 3 2
10.953692 -4.8677378 -1.8984889 2 3
16.220953 -7.2186422 -2.1799989 8 4
5.9495049 -2.6813056 -1.7485816 2 0
6.9521575 -3.1375585 -1.7609169 2 1
8.4578876 -3.8242149 -1.8042899 3 2
11.00222 -4.9815698 -1.9128809 1 3
16.150276 -7.3226919 -2.1773179 10 4
5.8972831 -2.7074606 -1.7387464 2 0
6.9548717 -3.197413 -1.7672155 1 1
8.4494953 -3.8899076 -1.8081062 3 2
10.975233 -5.0596519 -1.9141324 2 3
16.091553 -7.4319329 -2.176343 10 4
5.9172201 -2.7655342 -1.7501343 2 0
6.9223566 -3.2397227 -1.7645161 1 1
8.4292421 -3.9521341 -1.8096325 3 2
11.029048 -5.1781249 -1.9297757 2 3
16.049574 -7.5455141 -2.1775615 8 4
5.8907919 -2.8034558 -1.7480639 2 0
6.9241996 -3.2997072 -1.7708147 2 1
8.4227057 -4.0210338 -1.814212 3 2
11.038967 -5.2771468 -1.9379103 3 3
16.041271 -7.6788054 -2.183655 10 4
5.8919396 -2.8546205 -1.7542756 2 0
6.904501 -3.3496678 -1.7717146 1 1
8.3908978 -4.078021 -1.8134488 3 2
11.033829 -5.3696437 -1.943542 3 3
16.005117 -7.7993021 -2.1860926 10 4
24.265129 -11.861118 -1.4154785 11 6
5.8372145 -2.8785956 -1.7439228 2 0
6.901916 -3.4081419 -1.7771133 1 1
8.4051828 -4.1559253 -1.8226075 3 2
11.060754 -5.4761763 -1.9548053 3 3
15.992958 -7.9320154 -2.1919422 11 4
23.683094 -11.777005 -1.3861703 11 6
5.834753 -2.926923 -1.7490991 2 0
6.8576608 -3.4445462 -1.7717146 2 1
8.3899946 -4.2215624 -1.8256606 3 2
11.07165 -5.5781474 -1.9635657 3 3
16.014807 -8.0791388 -2.2024229 9 4
23.254572 -11.767114 -1.3658639 11 6
5.8331046 -2.9772463 -1.7547932 2 0
6.8612103 -3.5065267 -1.7789129 2 1
8.3785419 -4.2875161 -1.8294767 3 2
11.100228 -5.6876097 -1.9754546 3 3
15.996867 -8.2106876 -2.2077851 9 4
5.8373661 -3.0322688 -1.7625577 3 0
6.8221121 -3.5483403 -1.7753137 3 1
8.3817101 -4.3669615 -1.8371091 4 2
11.093266 -5.7870984 -1.981712 3 3
15.965856 -8.3396521 -2.2116849 9 4
28.205877 -14.777032 -1.6687845 9 6
5.828011 -3.0792642 -1.7661812 2 0
6.8109541 -3.6031711 -1.7789129 2 1
8.3753052 -4.4382396 -1.8424517 6 2
11.143332 -5.9125462 -1.9979812 10 3
15.947565 -8.472331 -2.2172909 11 4
28.013897 -14.926624 -1.6635509 9 6
5.7910562 -3.1116469 -1.7615224 1 0
6.7890654 -3.6524787 -1.7798127 2 1
8.3441162 -4.4966016 -1.8424517 4 2
11.105262 -5.9920735 -1.998607 12 3
15.93868 -8.6108227 -2.2243595 12 4
28.060026 -15.20366 -1.6725527 9 6
5.7861452 -3.1612623 -1.7666988 1 0
6.7753687 -3.7063332 -1.7829621 3 1
8.3477545 -4.572156 -1.8500841 4 2
11.15948 -6.1197658 -2.0158148 4 3
15.940812 -8.7562904 -2.233134 9 4
34.845577 -19.188208 -2.0847507 0 6
5.7509818 -3.1930718 -1.7625577 2 0
6.7516875 -3.7533119 -1.783412 3 1
8.341361 -4.644649 -1.8558085 4 2
11.216555 -6.253314 -2.0339613 4 3
15.922442 -8.8878145 -2.2389839 9 4
20.878395 -11.687676 -1.2539697 21 6
5.72855 -3.2331429 -1.7625577 1 0
6.7185335 -3.7965209 -1.7816124 4 1
8.293354 -4.6940651 -1.8523737 3 2
11.234495 -6.3665285 -2.0452244 5 3
15.939425 -9.0438175 -2.2501957 9 4
21.74605 -12.358495 -2.1883063 28 5
34.74786 -19.771629 -2.0952177 0 6
5.7494073 -3.2980492 -1.7760164 1 0
6.7104535 -3.8540077 -1.7865613 3 1
8.3522778 -4.8047128 -1.8729813 3 2
11.265092 -6.488184 -2.0589907 4 3
15.896536 -9.1667738 -2.2531207 9 4
34.705811 -20.069725 -2.1010797 0 6
5.6995397 -3.32254 -1.7677342 2 0
6.6850677 -3.9017437 -1.7870111 3 1
8.3524294 -4.8827214 -1.8806137 3 2
11.323517 -6.6275382 -2.0780756 4 3
15.84928 -9.2875652 -2.255558 12 4
34.692276 -20.386406 -2.1088252 0 6
5.6994748 -3.3760326 -1.774981 1 0
6.6710749 -3.9562716 -1.7906104 4 1
8.3789034 -4.9770069 -1.8943518 3 2
11.499387 -6.8386993 -2.1190615 8 3
15.807935 -9.4122057 -2.2589705 9 4
34.641705 -20.683395 -2.1144774 1 6
5.6790776 -3.4177325 -1.7760164 1 0
6.6482997 -4.0057645 -1.7919601 6 1
8.3842945 -5.0597258 -1.9035107 3 2
11.441219 -6.9126835 -2.1171842 8 3
15.842053 -9.5829544 -2.273351 11 4
34.612587 -20.995171 -2.1215951 1 6
5.6814504 -3.4734187 -1.7842987 1 0
6.6367936 -4.062254 -1.7964592 7 1
8.3152924 -5.0976138 -1.8958783 3 2
11.364061 -6.9748235 -2.1118655 9 3
15.845798 -9.7369661 -2.2835879 11 4
34.580799 -21.307543 -2.1287129 0 6
5.601264 -3.4783466 -1.7666988 1 0
6.6198568 -4.1156898 -1.7996083 5 1
8.3061666 -5.1721444 -1.9019842 3 2
11.301681 -7.0456285 -2.1093626 11 3
15.998042 -9.9850426 -2.3155177 9 4
34.566647 -21.633207 -2.1370866 0 6
5.593184 -3.5276713 -1.7718753 1 0
6.6189742 -4.1794925 -1.8072568 8 1
8.3163166 -5.259388 -1.9126694 3 2
11.252217 -7.1243567 -2.1093626 9 3
16.201233 -10.269719 -2.355247 11 4
34.509171 -21.933992 -2.1429484 0 6
5.5749273 -3.570801 -1.7739457 1 0
6.6027584 -4.2340145 -1.810856 7 1
8.2860031 -5.3215618 -1.914196 3 2
11.208853 -7.2070112 -2.1106141 9 3
16.144165 -10.392246 -2.3574409 12 4
34.486088 -22.258858 -2.1511126 1 6
5.5498624 -3.6096342 -1.7739457 2 0
6.586103 -4.2885141 -1.8144552 7 1
8.268384 -5.392149 -1.9187754 3 2
11.164882 -7.2894068 -2.1118655 9 3
16.062914 -10.499268 -2.3562222 11 4
34.45681 -22.582275 -2.1590676 0 6
5.5470967 -3.6631951 -1.7811928 1 0
6.556004 -4.3343892 -1.8144552 7 1
8.2544098 -5.4634748 -1.924118 3 2
11.111712 -7.3630524 -2.1112397 9 3
15.982608 -10.606761 -2.355247 11 4
34.425362 -22.898146 -2.1668134 0 6
5.5188241 -3.6987169 -1.7801574 1 0
6.5328217 -4.3832569 -1.8162549 7 1
8.24051 -5.5373926 -1.9298422 4 2
11.096098 -7.4647045 -2.1181231 9 3
15.893577 -10.704215 -2.3528099 11 4
34.403702 -23.23181 -2.175606 0 6
5.5088406 -3.7480221 -1.7853339 1 0
6.5149469 -4.4375334 -1.819854 7 1
8.2243567 -5.6102753 -1.9351848 4 2
11.063289 -7.5553555 -2.1218774 10 3
15.849594 -10.836199 -2.3574409 9 4
34.059467 -23.347206 -2.1640921 0 6
5.5047941 -3.801759 -1.7925807 2 0
6.5030432 -4.4962072 -1.8252529 8 1
8.2398672 -5.705555 -1.9481598 4 2
11.000534 -7.6256547 -2.1200001 10 3
15.7018 -10.896786 -2.3467162 9 4
33.308723 -23.176037 -2.1266196 0 6
5.4306622 -3.8068297 -1.7770516 2 0
6.4778767 -4.5459743 -1.8270525 7 1
8.2297564 -5.7818246 -1.955029 21 2
10.948372 -7.700356 -2.1200001 9 3
15.687015 -11.049578 -2.3559783 9 4
33.300304 -23.508192 -2.1362493 0 6
5.4392595 -3.8683386 -1.7884396 2 0
6.4531331 -4.5944839 -1.8288521 7 1
8.2115707 -5.8550935 -1.9603716 19 2
10.939365 -7.8087363 -2.1287606 9 3
15.609826 -11.154946 -2.3557348 11 4
33.226295 -23.805239 -2.1421108 0 6
5.4403176 -3.9265678 -1.7977571 2 0
6.433537 -4.6485534 -1.8324513 6 1
8.1991243 -5.9329958 -1.9672408 4 2
10.894182 -7.8918695 -2.1306376 9 3
15.464074 -11.214703 -2.3454976 11 4
32.878372 -23.905073 -2.1303875 0 6
5.3971868 -3.9530375 -1.7925807 4 0
6.4245005 -4.710639 -1.8391999 3 1
8.2208014 -6.0365705 -1.9825056 4 2
10.822905 -7.9560318 -2.1275089 9 3
15.358228 -11.302386 -2.3413541 9 4
32.874615 -24.254974 -2.1410642 0 6
5.363256 -3.9860106 -1.7905102 3 0
6.4117832 -4.7704973 -1.8450485 6 1
8.2288361 -6.1313515 -1.9947174 4 2
10.811434 -8.0644665 -2.1362693 9 3
15.161244 -11.321438 -2.3233173 9 4
32.189655 -24.098467 -2.1073599 0 6
5.3476377 -4.0326614 -1.7946514 4 0
6.3876543 -4.8221879 -1.847748 6 1
8.2171526 -6.2123299 -2.0023496 4 2
10.75487 -8.1397476 -2.1362693 9 3
14.974247 -11.345488 -2.3067431 9 4
32.211487 -24.467573 -2.1199205 0 6
5.3331628 -4.080461 -1.79931 6 0
6.3847752 -4.8903642 -1.8567461 6 1
60.474346 -46.336552 3.9927104 39 9
8.2120686 -6.2967882 -2.0115087 4 2
10.721154 -8.2296038 -2.1406496 9 3
14.811262 -11.38563 -2.2938249 11 4
32.066345 -24.703327 -2.1213858 0 6
5.3098435 -4.1202211 -1.8008629 5 0
6.3605742 -4.9408832 -1.8594455 6 1
59.455566 -46.218269 3.9466548 37 9
8.2314415 -6.4033885 -2.0271549 4 2
10.663439 -8.3042507 -2.1406496 9 3
14.653578 -11.423938 -2.2813942 9 4
34.093063 -26.646004 -2.2677171 0 6
5.3082728 -4.178699 -1.8101805 7 0
6.3397007 -4.9960232 -1.8634945 5 1
59.194191 -46.681686 3.9508419 38 9
8.2081137 -6.4777265 -2.0324974 4 2
10.634656 -8.4017582 -2.146594 8 3
14.490945 -11.460694 -2.268476 11 4
31.84351 -25.247904 -2.1297596 0 6
5.2699137 -4.2084227 -1.8070747 7 0
6.3381543 -5.0669312 -1.8733923 4 1
8.2822342 -6.6305752 -2.0622637 6 2
10.578825 -8.4782686 -2.1472197 8 3
14.292909 -11.46717 -2.2499521 11 4
34.007179 -27.352247 -2.2871861 0 6
5.24791 -4.2511902 -1.8096628 6 0
6.3162489 -5.1221037 -1.8774415 3 1
8.2475796 -6.6954589 -2.064935 7 2
10.530067 -8.5575542 -2.149097 8 3
14.113966 -11.486479 -2.2343528 11 4
33.909981 -27.656305 -2.293257 0 6
5.2352734 -4.3003016 -1.8153569 7 0
6.2932796 -5.1748786 -1.8810407 3 1
8.1915426 -6.7453856 -2.0626454 9 2
10.468545 -8.6296024 -2.1487842 9 3
14.000238 -11.553224 -2.2287467 8 4
33.894592 -28.040047 -2.3053992 0 6
5.2140293 -4.3441658 -1.8184627 7 0
6.2704673 -5.2299213 -1.8850898 2 1
58.029446 -48.434162 3.961309 38 9
8.1321974 -6.7923403 -2.0595925 9 2
10.408045 -8.7024755 -2.1487842 9 3
13.605663 -11.38821 -2.1785367 15 4
13.618683 -11.415284 -1.5546842 33 5
33.86631 -28.417206 -2.3169129 0 6
5.1909518 -4.3866944 -1.8210509 6 0
6.2576079 -5.2937074 -1.8922883 1 1
57.461239 -48.644531 3.9456084 37 9
8.0636082 -6.8311825 -2.0542498 7 2
10.365115 -8.7902555 -2.1525385 9 3
13.855725 -11.762987 -2.2316716 16 4
33.837452 -28.797926 -2.3286364 0 6
5.1719356 -4.4328847 -1.825192 6 0
6.2278934 -5.3436089 -1.8945377 1 1
56.901466 -48.839401 3.9299073 37 9
8.0288372 -6.8961434 -2.0573027 10 2
10.357466 -8.9056807 -2.1634889 8 3
13.846978 -11.922899 -2.2436149 11 4
33.782784 -29.150232 -2.3384755 1 6
5.1401839 -4.4667182 -1.8246742 5 0
6.2310748 -5.4204102 -1.9066852 1 1
7.9864202 -6.9571853 -2.0588293 10 2
10.320349 -8.9998436 -2.1688077 9 3
13.805877 -12.052123 -2.2501957 12 4
17.689728 -15.464385 -2.0556552 31 5
33.776855 -29.558989 -2.3522921 0 6
5.1233687 -4.5152678 -1.8298507 7 0
6.1872358 -5.4586215 -1.9048855 2 1
56.24995 -49.660835 3.9324193 37 9
7.9361839 -7.0114713 -2.0584474 10 2
10.360847 -9.1632795 -2.1907084 9 3
13.736265 -12.161371 -2.2526331 9 4
17.646935 -15.645662 -2.0633252 31 5
33.731003 -29.937256 -2.3635967 0 6
5.1075654 -4.5650868 -1.8355448 6 0
6.1736665 -5.5237732 -1.912534 3 1
56.705391 -50.771751 3.9889421 39 9
7.9016633 -7.0798054 -2.0622637 10 2
10.37162 -9.3026562 -2.2066648 8 3
12.531414 -11.251693 -2.0678792 3 4
17.418753 -15.66191 -2.0493801 31 5
33.663692 -30.300285 -2.3736453 0 6
5.0755711 -4.6006331 -1.8355448 6 0
6.142169 -5.5732865 -1.9147834 4 1
7.8418741 -7.1255546 -2.0595925 10 2
10.319574 -9.3867989 -2.2094805 9 3
13.60329 -12.386724 -2.2589705 8 4
33.651951 -30.717684 -2.3878806 0 6
5.0447516 -4.6372623 -1.8360624 4 0
6.1303558 -5.6411018 -1.9233315 7 1
7.7876062 -7.176136 -2.0584474 10 2
10.277023 -9.4800434 -2.2144866 11 3
13.497522 -12.463881 -2.2558017 11 4
33.562729 -31.06855 -2.3968823 0 6
5.0122547 -4.6723676 -1.8360624 3 0
6.0651789 -5.6598306 -1.9152331 15 1
7.7602687 -7.2517753 -2.0645535 12 2
10.173083 -9.5164728 -2.206352 11 3
13.597097 -12.732844 -2.2872441 8 4
33.540146 -31.485275 -2.4109085 0 6
5.0103984 -4.7364421 -1.8474505 3 0
6.0297656 -5.7060537 -1.9165829 25 1
7.6994781 -7.2963223 -2.0618823 10 2
10.135061 -9.6144505 -2.2126093 10 3
13.101946 -12.441978 -2.2185097 9 4
33.493114 -31.883917 -2.4234691 0 6
4.9967337 -4.7900219 -1.8546973 3 0
6.0235286 -5.7803941 -1.9273807 11 1
7.6738329 -7.374383 -2.0687513 10 2
10.084776 -9.7014065 -2.2163637 11 3
13.646775 -13.141763 -2.3262422 9 4
33.470882 -32.311161 -2.438123 0 6
4.963172 -4.8247886 -1.8546973 3 0
6.013752 -5.8522038 -1.9372785 5 1
7.6390357 -7.4442177 -2.0733306 10 2
10.03377 -9.7881269 -2.220118 11 3
13.88703 -13.561253 -2.3832772 4 4
33.458572 -32.75362 -2.4538238 0 6
4.929368 -4.8593202 -1.8546973 3 0
6.0074263 -5.9282651 -1.9485261 7 1
7.5826015 -7.4905238 -2.0718043 10 2
9.950057 -9.83953 -2.2163637 12 3
