# .PCD v0.7 - Point Cloud Data file format
VERSION 0.7
FIELDS x y z intensity ring
SIZE 4 4 4 4 2
TYPE F F F F U
COUNT 1 1 1 1 1
WIDTH 1305
HEIGHT 1
VIEWPOINT 0 0 0 1 0 0 0
POINTS 1305
DATA ascii
-4.587687 4.0431666 0.10673892 2 8
-4.0417986 3.5633242 -1.2439793 42 1
-4.6413884 4.0948138 0.32437828 2 9
-4.4814844 3.9565246 -1.1620268 4 2
-4.5846252 4.0490055 0.53513628 1 10
-4.5026307 3.9793909 -0.95174736 3 3
-4.5694776 4.0413089 0.74900907 1 11
-4.0023208 3.5409546 -0.65614462 10 4
-4.5597973 4.0370045 0.96457505 5 12
-4.5700173 4.0474777 -0.5340904 6 5
-4.5723224 4.0523658 1.1875952 2 13
-4.0090475 3.5556467 -0.28083476 30 6
-4.6821833 4.1541147 1.4450855 4 14
-4.5867391 4.0751605 1.6440187 2 15
-3.6971531 3.3021531 -1.3282595 14 0
-4.5272536 4.0449891 0.10597102 2 8
-3.952904 3.5343022 -1.2241837 40 1
-4.5598164 4.0783777 0.32061011 2 9
-4.4398217 3.9738431 -1.1582106 4 2
-4.529532 4.0569863 0.53199863 1 10
-4.4224768 3.962491 -0.94048411 3 3
-4.5241275 4.056417 0.74608415 1 11
-3.947953 3.5422945 -0.65126985 10 4
-4.5145717 4.0521145 0.96082056 5 12
-4.5059557 4.0500665 1.1776732 2 13
-3.9431679 3.5454614 -0.27790397 29 6
-4.5215731 4.0726714 1.63056 2 15
-3.717551 3.3661423 -1.3437886 13 0
-4.4663043 4.0469556 0.10520311 2 8
-3.8897703 3.5257914 -1.2120364 37 1
-4.469101 4.0537534 0.31621388 2 9
-4.36836 3.9651566 -1.1467621 4 2
-4.4782124 4.0662932 0.52920967 1 10
-4.3917818 3.9906125 -0.93985838 3 3
-4.4398875 4.0371542 0.73682213 1 11
-3.895849 3.5437064 -0.64663881 7 4
-4.4890943 4.0861931 0.96144634 5 12
-4.4579678 4.06213 1.1723305 2 13
-3.8888028 3.54599 -0.27581054 28 6
-4.4217134 4.0389929 1.6046782 2 15
-3.551666 3.2613502 -1.2920247 15 0
-4.4202714 4.0618019 0.10478425 2 8
-3.8363674 3.526484 -1.2030382 28 1
-4.4318709 4.0767422 0.31558585 2 9
-4.2914615 3.9503486 -1.1337872 4 2
-4.3705688 4.0245795 0.51979685 1 10
-4.302804 3.9649532 -0.92671788 3 3
-4.3970013 4.054595 0.73438478 1 11
-3.8783102 3.5775483 -0.64785749 4 4
-4.3849797 4.04776 0.94517714 5 12
-4.3775921 4.045187 1.1585923 2 13
-3.8302262 3.5418639 -0.27340308 35 6
-4.4511285 4.1189041 1.4000953 5 14
-4.3593946 4.0382562 1.5922549 2 15
-3.6475692 3.3966551 -1.3355063 13 0
-4.3274384 4.0325775 0.10324844 2 8
-3.7831454 3.5266054 -1.1940402 35 1
-4.3507257 4.0585365 0.31181765 2 9
-4.252296 3.9694958 -1.1307341 4 2
-4.3015938 4.0169177 0.51491612 1 10
-4.2519245 3.9733174 -0.92171198 1 3
-4.3366895 4.0553641 0.7290225 1 11
-4.2243562 3.9517002 -0.71025455 3 4
-4.3098192 4.0372901 -0.51665926 5 5
-4.3119984 4.0407467 1.1486702 2 13
-3.7675273 3.5329952 -0.27068159 33 6
-4.3711071 4.101872 1.383899 5 14
-4.3029356 4.0421381 1.5819021 2 15
-3.6012943 3.400815 -1.3272241 14 0
-4.2672057 4.0324731 0.10248053 2 8
-3.7216132 3.5181241 -1.1823426 35 1
-4.2932687 4.0613594 0.30972421 2 9
-4.2273326 4.0017838 -1.1314974 4 2
-4.2589774 4.0331521 0.51317304 1 10
-4.189671 3.9702935 -0.91420311 1 3
-4.2737031 4.0527573 0.72317278 1 11
-4.1793847 3.9647005 -0.70732975 1 4
-4.2580676 4.0464067 1.1418011 2 13
-3.7051392 3.5234272 -0.26796013 32 6
-4.2326488 4.0321054 1.566373 2 15
-3.6374612 3.4833274 -1.3494825 11 0
-4.2302861 4.053865 0.1022711 2 8
-3.6632001 3.5116539 -1.171545 35 1
-4.2302179 4.0580511 0.30721208 2 9
-4.1171474 3.9523423 -1.1093636 4 2
-4.1761093 4.010345 0.50654918 1 10
-4.1390624 3.9775462 -0.90919721 1 3
-4.2052422 4.0439677 0.71634805 1 11
-4.117269 3.960752 -0.70147997 3 4
-4.2451701 4.0866451 0.9332881 5 12
-4.2042675 4.0515146 1.134932 2 13
-3.6646373 3.5339568 -0.26680872 44 6
-4.2236648 4.0758958 1.3551052 5 14
-4.1488185 4.0078673 1.5456674 2 15
-3.6005814 3.4965239 -1.3448237 14 0
-4.1703329 4.052639 0.1015032 2 8
-3.6050589 3.5045431 -1.1607474 37 1
-4.1731534 4.0596299 0.30511865 2 9
-4.12603 4.0165944 -1.1192856 4 2
-4.1480112 4.0394011 0.50654918 1 10
-6.804831 6.6312876 -1.5048997 1 3
-4.1229014 4.0205622 0.70708597 1 11
-4.0468888 3.9478145 -0.69416779 1 4
-4.1656494 4.0665064 0.92202479 5 12
-4.0818014 3.9874372 -0.49922809 5 5
-4.1281404 4.0341134 1.1219569 2 13
-3.5998926 3.5203562 -0.26387793 42 6
-4.1951065 4.1052828 1.3551052 5 14
-4.1152182 4.0313253 1.5435969 2 15
-3.6036127 3.5486853 -1.3551766 13 0
-4.1020565 4.0423546 0.10052586 2 8
-3.5527496 3.5022633 -1.1517494 28 1
-4.0821471 4.0269504 0.30051309 2 9
-4.0112648 3.9597883 -1.0956253 4 2
-4.0743437 4.0234637 0.5009712 1 10
-3.5520086 3.5100994 -0.79093277 9 3
-4.0862641 4.0408716 0.70562357 1 11
-9.1166515 9.0185299 -1.5745521 1 4
-4.0669665 4.0260024 0.90638137 5 12
-4.052464 4.0158486 1.108982 2 13
-3.5511198 3.5214937 -0.26209849 47 6
-4.1670666 4.1337423 1.3551052 5 14
-4.0568218 4.030004 1.5322088 2 15
-3.5596139 3.5546451 -1.3479296 15 0
-4.0065393 4.0023456 0.098850429 2 8
-3.5034046 3.5021818 -1.1436511 28 1
-4.0348711 4.0348706 0.29904768 2 9
-3.9897697 3.9925554 -1.0971519 4 2
-4.003921 4.0095143 0.49574184 1 10
-3.5001221 3.5062356 -0.78467536 18 3
-4.0194092 4.0292416 0.69879889 1 11
-8.9273376 8.9554253 -1.5526155 2 4
-4.0394683 4.0535922 0.90638137 5 12
-3.9561424 3.9727471 -0.49051252 5 5
-3.9966316 4.0162106 1.1013496 2 13
-3.4946704 3.5130169 -0.25969106 40 6
-4.0211296 4.0493002 1.529103 2 15
-3.5244744 3.5677977 -1.3437886 13 0
-3.9855242 4.0373344 0.099024951 2 8
-3.4466345 3.4926567 -1.1328535 25 1
-4.0037994 4.0600967 0.29883832 2 9
-3.9149463 3.9727674 -1.0841768 4 2
-3.9429791 4.0026107 0.49155837 1 10
-3.454772 3.5094697 -0.77998233 19 3
-3.9494188 4.01475 0.69148672 1 11
-8.8940105 9.0442915 -1.5574903 1 4
-3.9418426 4.0112467 0.89073795 4 12
-3.9290092 3.999584 -0.49051252 5 5
-3.9499471 4.0237079 1.096007 2 13
-3.4434862 3.5102379 -0.25770226 44 6
-3.9359937 4.0193024 1.5073622 2 15
-3.4859993 3.5784793 -1.3386122 15 0
-3.9216781 4.0271201 0.098117426 2 8
-3.394985 3.4887025 -1.1238555 21 1
-3.9175794 4.0271273 0.29444212 2 9
-3.8631818 3.9739847 -1.0773077 4 2
-3.8927269 4.007175 0.48876941 1 10
-3.3977757 3.4988933 -0.77247345 19 3
-3.8943508 4.0130482 0.68661195 1 11
-3.8197076 3.9388778 -0.67369378 3 4
-3.9144475 4.0379853 0.89073795 4 12
-3.8316782 3.9553638 -0.48179695 5 5
-3.8971813 4.0257945 1.0891378 2 13
-3.3972895 3.5106325 -0.25602752 43 6
-3.8763306 4.0126548 1.494939 2 15
-3.4294355 3.5686932 -1.3261888 14 0
-3.8768473 4.0370922 0.097698569 2 8
-3.3441696 3.4836137 -1.1148574 27 1
-3.8506541 4.0140233 0.2915113 2 9
-3.8136072 3.9781811 -1.0712018 4 2
-3.8377905 4.0048089 0.48528317 1 10
-3.3541393 3.5025544 -0.76809335 19 3
-3.836046 4.008585 0.68124968 1 11
-3.7653632 3.9360979 -0.66881901 3 4
-3.8861623 4.0652142 0.89073795 4 12
-3.839859 4.0209918 1.0807421 2 13
-3.3533943 3.514035 -0.25456211 42 6
-3.8202405 4.0102448 1.4840684 1 15
-3.4124107 3.6009619 -1.3292947 13 0
-3.7715695 3.9827495 0.095743902 1 8
-3.301012 3.4870627 -1.1085589 28 1
-3.8280282 4.0466108 0.29192999 2 9
-3.7142613 3.9290938 -1.050976 3 2
-3.779633 3.9996448 0.48144829 1 10
-3.3133299 3.5086508 -0.76433885 17 3
-3.7698197 3.9948428 0.67442501 1 11
-8.5816641 9.0970936 -1.5355538 2 4
-3.8089063 4.0405002 0.87947464 4 12
-3.7760787 4.0084772 -0.48179695 5 5
-3.7766995 4.0105405 1.0708202 2 13
-3.3109872 3.518451 -0.2532014 46 6
-3.781569 4.0255532 1.4799274 1 15
-3.4597328 3.7023289 -1.3577647 12 0
-3.7300258 3.9943664 0.09539485 1 8
-3.252651 3.4843817 -1.1004605 28 1
-3.747915 4.0177388 0.28795245 2 9
-3.6679993 3.9348235 -1.0456334 3 2
-3.7380366 4.0113573 0.47970518 1 10
-3.2537532 3.4941099 -0.75620425 19 3
-3.7418385 4.0210638 0.67442501 1 11
-8.4854984 9.1218996 -1.5297042 1 4
-3.7483282 4.032269 0.87196583 4 12
-3.7480013 4.0347424 -0.48179695 5 5
-3.7165473 4.0022807 1.0616612 2 13
-3.256454 3.5092721 -0.2508986 43 6
-3.7231781 4.0192595 1.4680218 2 15
-3.3971469 3.6866128 -1.3432709 12 0
-3.6939206 4.0114851 0.095185429 1 8
-3.2150488 3.492666 -1.0959616 18 1
-3.7008433 4.0232277 0.28648707 2 9
-3.629811 3.9487712 -1.0425804 3 2
-3.6748896 3.9992132 0.47517309 1 10
-3.2092395 3.4949155 -0.75151128 27 3
-3.713675 4.0470891 0.67442501 1 11
-8.4296598 9.1896935 -1.5311666 1 4
-3.6524541 3.9873502 -0.47308138 5 5
-3.6805604 4.0194421 1.0593716 2 13
-3.1846862 3.4803493 -0.24723509 36 6
-3.6520326 3.9980831 1.4509397 1 15
-3.3635325 3.7016613 -1.3401651 12 0
-3.6658263 4.0371747 0.095185429 1 8
-3.1905873 3.5150263 -1.0959616 5 1
-3.6404619 4.0134611 0.28397492 2 9
-5.0103168 5.5275488 -1.4501485 3 2
-3.6174495 3.9922891 0.47133827 1 10
-3.1463113 3.4747703 -0.74243808 20 3
-3.6187363 3.9993186 0.66223812 1 11
-8.3120327 9.1894321 -1.521417 1 4
-3.6366215 4.0275536 1.0547922 2 13
-3.152283 3.4936004 -0.24660707 36 6
-3.6695826 4.0697665 1.2651247 5 14
-3.6007595 3.9976442 1.4416221 1 15
-3.2306082 3.6056323 -1.297201 15 0
-3.6028719 4.0239334 0.094277903 1 8
-3.302434 3.6896811 -1.1432012 7 1
-3.6096902 4.0358024 0.28376558 2 9
-4.9925399 5.5858121 -1.4562544 3 2
-3.5762138 4.0025897 0.46959516 1 10
-3.1061897 3.4789681 -0.73868364 20 3
-3.5722263 4.0037465 0.6588257 1 11
-8.4141645 9.4338989 -1.5521282 1 4
-3.6104875 4.0508971 0.85945106 4 12
-3.5744727 4.014719 1.0448701 2 13
-3.0999367 3.4841869 -0.24440894 38 6
-3.5445402 3.9909079 1.4302342 1 15
-3.0851254 3.4920077 -1.2485431 19 0
-3.5402801 4.0100126 0.093370378 1 8
-3.4210186 3.8762887 -1.1935903 3 1
-3.5470803 4.0219569 0.28104413 2 9
-3.4840105 3.9532244 -1.0242627 3 2
-3.4902332 3.961679 0.46192542 1 10
-3.0557203 3.4709153 -0.73242623 22 3
-3.531076 4.0136838 0.65638834 1 11
-8.29566 9.4327841 -1.5423784 1 4
-3.5821178 4.076005 0.85945106 4 12
-3.5024123 3.9881144 -0.46436578 4 5
-3.520452 4.0100694 1.0372378 2 13
-3.0702691 3.4997373 -0.24399024 38 6
-3.4911366 3.9864891 1.4198813 1 15
-3.034023 3.4828715 -1.2376727 18 0
-3.4911923 4.0104976 0.092811897 1 8
-3.3759632 3.8794971 -1.1872917 3 1
-3.4743562 3.995379 0.27748525 2 9
-4.9913278 5.7438903 -1.4791514 3 2
-3.4441991 3.96489 0.45948508 1 10
-3.0055156 3.4623287 -0.72616887 22 3
-3.4691489 3.9992495 0.65005112 1 11
-8.2660198 9.5324631 -1.5492033 1 4
-3.5070052 4.0471697 0.8481878 4 12
-3.4744847 4.0124688 -0.46436578 4 5
-3.4743829 4.0137663 1.0318952 2 13
-3.0274677 3.4999397 -0.24252485 41 6
-3.4253438 3.9668996 1.4043522 1 15
-3.000824 3.4937093 -1.2340492 17 0
-3.426641 3.9922855 0.09183456 1 8
-3.3564117 3.9118445 -1.1899911 7 1
-3.417778 3.9861805 0.27518249 1 9
-3.3722708 3.9358847 -1.0074716 3 2
-3.4034746 3.9737065 0.45774195 2 10
-2.968425 3.4682205 -0.72304016 23 3
-3.4411454 4.0233707 0.65005112 1 11
-8.1373463 9.5175171 -1.5375037 1 4
-3.4299059 4.0144825 0.83629876 4 12
-3.4182386 4.0050712 1.0234995 2 13
-2.9692643 3.4814782 -0.23980337 42 6
-3.3775287 3.9671807 1.3960699 1 15
-2.9601297 3.4954088 -1.22732 18 0
-3.3857682 4.0008464 0.091485515 1 8
-3.2711239 3.8667431 -1.1692957 3 1
-3.3692355 3.9855397 0.27350774 1 9
-3.332042 3.9443343 -1.0036553 3 2
-3.370508 3.9912817 0.45704472 1 10
-2.9263062 3.4677224 -0.71866006 25 3
-3.4129729 4.047296 0.65005112 1 11
-8.1602688 9.680335 -1.5545654 1 4
-3.2898157 3.9081643 -0.44693464 4 5
-3.3750257 4.0108104 1.0189201 2 13
-2.9191768 3.4715512 -0.23770994 36 6
-3.3286381 3.9655077 1.3872701 2 15
-2.9158444 3.4922624 -1.2190377 18 0
-3.3449435 4.0090313 0.091136463 1 8
-3.2340636 3.8775132 -1.1656964 3 1
-3.3336563 3.9997587 0.27287969 1 9
-3.2742698 3.9312949 -0.99449658 3 2
-3.3017671 3.9657176 0.45146674 1 10
-2.8818114 3.4637709 -0.7136541 23 3
-3.3846343 4.0710244 0.65005112 1 11
-8.0544243 9.6912689 -1.5472534 2 4
-3.3566096 4.0444903 -0.45983368 4 5
-3.3118441 3.9919684 1.0082349 2 13
-2.8821239 3.476469 -0.23666322 36 6
-3.2922487 3.9782331 1.3836466 1 15
-2.8594711 3.4737542 -1.2055792 18 0
-3.2736821 3.9797783 0.089949705 1 8
-3.2032015 3.8954813 -1.1643466 2 1
-3.2853634 3.998244 0.27120495 1 9
-3.2268102 3.929781 -0.98839068 3 2
-3.2714725 3.9855912 0.45111811 1 10
-2.832504 3.4532592 -0.70739675 22 3
-3.2680435 3.9870861 0.63298941 1 11
-3.2056994 3.9124174 -0.62104625 3 4
-3.2674911 3.9906716 0.81690085 4 12
-3.2349281 3.9537168 -0.44693464 4 5
-3.2515774 3.9754803 0.99831271 2 13
-2.8325043 3.4655764 -0.23456979 30 6
-3.2350874 3.9651942 1.3712233 1 15
-2.8181076 3.4726317 -1.1983322 19 0
-3.2130723 3.9621518 0.089042179 1 8
-3.161202 3.8995833 -1.1589478 1 1
-3.2347414 3.9931483 0.26932088 1 9
-3.1548278 3.897279 -0.97465241 3 2
-3.2210088 3.9804552 0.44798052 2 10
-2.7884536 3.4483731 -0.70239085 20 3
-3.2002039 3.9603953 0.62518978 4 11
-3.1558549 3.9069061 -0.61665893 1 4
-3.2035701 3.9688098 0.80782765 7 12
-3.2079413 3.9756446 -0.44693464 4 5
-3.1917036 3.9583473 0.98839068 2 13
-2.8032284 3.4790454 -0.23415108 33 6
-3.191586 3.9681129 1.3644941 2 15
-2.7720723 3.4650679 -1.1890148 20 0
-3.1685431 3.9620664 0.088553511 1 8
-3.1144357 3.8972003 -1.1517494 1 1
-3.197515 4.0025887 0.26848349 1 9
-3.1257768 3.9155941 -0.97388911 3 2
-3.1558673 3.9561191 0.44275117 1 10
-2.7550638 3.4549177 -0.69988787 22 3
-3.1756465 3.9851921 0.62567729 1 11
-3.1235561 3.922631 -0.61568397 3 4
-3.1408041 3.9457042 0.79875451 7 12
-3.1354573 3.9418101 -0.44065943 4 5
-3.1737642 3.9928284 0.99144357 2 13
-2.7546325 3.4667714 -0.23205765 34 6
-3.1476951 3.9685557 1.3572472 2 15
-2.7316723 3.4626212 -1.1817677 21 0
-3.1308997 3.971529 0.08827427 1 8
-3.0468273 3.8662677 -1.1364527 1 1
-3.1126509 3.9526353 0.26366857 3 9
-3.0910819 3.928062 -0.9715994 3 2
-3.0956059 3.9352276 0.43804473 6 10
-2.7089031 3.4461141 -0.69425625 20 3
-3.1477492 4.0072637 0.62567729 1 11
-7.5690975 9.6393633 -1.5048428 2 4
-3.1058667 3.958209 0.79687726 3 12
-3.0734391 3.9197028 -0.43577868 4 5
-3.127136 3.9896147 0.98533767 2 13
-2.7131212 3.4639053 -0.23059224 33 6
-3.0961149 3.9599962 1.3468944 2 15
-2.7050605 3.4785578 -1.1807325 20 0
-3.0908284 3.9774985 0.087925225 1 8
-3.0149796 3.8812883 -1.1346531 1 1
-3.0702863 3.9553356 0.26241252 12 9
-3.0298915 3.9061108 -0.96091413 3 2
-3.0668385 3.9551673 0.43787044 3 10
-2.6702609 3.4462023 -0.69050181 22 3
-3.1196945 4.0291429 0.62567729 1 11
-7.5575137 9.7641783 -1.5160547 2 4
-3.0630591 3.9631324 -0.43821907 4 5
-3.0631959 3.9647434 0.97388911 2 13
-2.6669023 3.4543054 -0.22870816 40 6
-3.0389123 3.9432602 1.3339534 1 15
-2.6572051 3.4666932 -1.1703798 25 0
-3.0435297 3.9735792 0.087366745 1 8
-2.9712238 3.8805807 -1.1283545 2 1
-3.0304618 3.9608119 0.2613658 5 9
-2.9882386 3.9084525 -0.95633471 3 2
-3.0173745 3.9479883 0.43473285 1 10
-2.6365452 3.4522011 -0.68799889 21 3
-3.048136 3.9940133 0.61690265 1 11
-7.4513316 9.7706575 -1.5087426 2 4
-3.0431125 3.9917626 0.79500008 7 12
-3.0087526 3.9495537 -0.4343842 4 5
-3.0418813 3.995934 0.97617888 2 13
-2.6354649 3.4633036 -0.22808012 30 6
-2.9949496 3.9428422 1.3267065 1 15
-2.6113734 3.4578691 -1.1610622 23 0
-2.9892085 3.9596186 0.086598843 1 8
-2.9175596 3.8675168 -1.1184566 2 1
-2.997232 3.9760163 0.26094711 1 9
-2.9207084 3.8759096 -0.94335973 3 2
-2.9698699 3.9440129 0.43194386 2 10
-2.5832698 3.4330971 -0.68049002 22 3
-2.9867668 3.9707763 0.61007798 3 11
-7.3972549 9.8414783 -1.5116674 1 4
-2.9717622 3.9565754 0.78373677 7 12
-2.9476128 3.9258494 -0.4295035 4 5
-2.9667833 3.9542561 0.96091413 2 13
-2.586653 3.4501135 -0.22598669 34 6
-2.9481404 3.939424 1.3184243 1 15
-2.5710213 3.4543197 -1.1538154 21 0
-2.9345429 3.9456072 0.085830934 1 8
-2.8718848 3.8627689 -1.1112581 3 1
-2.9598725 3.9840181 0.26010972 1 9
-2.8765142 3.8746417 -0.93801707 3 2
-2.9280148 3.9454508 0.4298521 3 10
-2.5427656 3.4288344 -0.67610979 20 3
-2.9157276 3.9346309 0.60130334 4 11
-7.0873194 9.5674782 -1.4619447 2 4
-2.9511197 3.986752 0.78561401 3 12
-2.9201334 3.946332 -0.4295035 4 5
-2.9204292 3.9496143 0.95480824 2 13
-2.5387673 3.4359596 -0.22389325 28 6
-2.9102459 3.9459171 1.3137655 2 15
-2.5354171 3.4566073 -1.148639 21 0
-2.881604 3.9300125 0.085063025 1 8
-2.8218126 3.8512852 -1.1022601 2 1
-2.9185236 3.9847376 0.25885364 1 9
-2.8384786 3.878289 -0.93420094 3 2
-2.8827569 3.9416735 0.42723745 5 10
-2.5123725 3.4364951 -0.67423266 18 3
-2.8888781 3.9543865 0.60130334 4 11
-7.0636597 9.6760473 -1.4709631 2 4
-2.8925114 3.9666221 -0.4295035 4 5
-2.8812222 3.9540393 0.95099211 2 13
-2.5012093 3.4337881 -0.22263718 29 6
-2.8776395 3.9578233 1.3111774 1 15
-2.5005119 3.4581294 -1.1434625 18 0
-2.8540971 3.9500339 0.085063025 1 8
-2.7909701 3.8640833 -1.1004605 2 1
-2.8462164 3.9434748 0.25487614 1 9
-2.7883656 3.8661642 -0.92656857 3 2
-2.8267303 3.9208007 0.42287967 2 10
-2.4721541 3.4315121 -0.66985244 19 3
-2.8356855 3.9390156 0.59594113 4 11
-7.050971 9.7980213 -1.4821751 2 4
-2.8220608 3.9244213 0.76559031 3 12
-2.8647487 3.9867191 -0.4295035 4 5
-2.8634043 3.9863157 0.954045 2 13
-2.4678588 3.4381859 -0.22179982 27 6
-2.818435 3.9338455 1.2966834 1 15
-2.4550078 3.4456098 -1.1336274 17 0
-2.8078966 3.9437981 0.084504552 1 8
-2.7413244 3.8517215 -1.0914625 2 1
-2.8255618 3.9730148 0.25550416 1 9
-2.7385609 3.8535304 -0.91893619 3 2
-2.7923658 3.9306939 0.42183378 2 10
-2.4389904 3.4358015 -0.66734952 20 3
-2.8035231 3.95224 0.59496623 4 11
-7.0616236 9.9587393 -1.498993 1 4
-2.7740374 3.9150152 0.75995874 6 12
-2.7792804 3.925318 -0.4207879 4 5
-2.7924051 3.9453146 0.93954355 2 13
-2.4391823 3.448808 -0.22138111 25 6
-2.7953594 3.9597385 1.298754 1 15
-2.4209046 3.4484336 -1.1289687 19 0
-2.7734046 3.9534824 0.084295124 1 8
-2.7031806 3.854809 -1.0869635 3 1
-2.767956 3.9501166 0.2527827 1 9
-2.7115917 3.8725553 -0.91893619 3 2
-2.7442913 3.9207115 0.41869619 10 10
-2.3923006 3.4203701 -0.66109216 18 3
-2.7485721 3.9326644 0.58911645 3 11
-6.8464036 9.7995043 -1.4677945 1 4
-2.7669919 3.9634411 0.76559031 3 12
-2.6954861 3.862452 -0.41207233 4 5
-2.7513177 3.9453888 0.93496412 2 13
-2.4013436 3.446089 -0.22012506 24 6
-2.741173 3.9410944 1.2863307 1 15
-2.3835824 3.4461861 -1.1227571 22 0
-2.7100384 3.9196343 0.08317817 1 8
-2.6474011 3.8319023 -1.075266 2 1
-2.7228463 3.9425702 0.25110796 3 9
-2.6650975 3.8618381 -0.91206706 2 2
-2.7304275 3.9594555 0.4207879 1 10
-2.3555098 3.4170582 -0.65733767 18 3
-2.7217398 3.9512825 0.58911645 1 11
-6.8566141 9.9615221 -1.4848562 2 4
-2.6839635 3.9008152 0.74994689 3 12
-2.668457 3.8811748 -0.41207233 4 5
-2.7148128 3.9515553 0.93191117 2 13
-2.3597419 3.4360113 -0.21845031 24 6
-2.6989915 3.9373541 1.2790838 1 15
-2.3513663 3.449559 -1.1186159 24 0
-2.6781049 3.9318473 0.083038554 1 8
-2.6124845 3.836946 -1.0716668 3 1
-2.6862674 3.9482725 0.25027055 1 9
-2.6292431 3.8673599 -0.90901417 2 2
-2.6698163 3.9285133 0.41555858 2 10
-2.3205006 3.4170763 -0.65420902 17 3
-2.678483 3.9471908 0.58570409 1 11
-6.8599668 10.113102 -1.5004555 2 4
-2.6611004 3.9259965 0.75119835 3 12
-2.6591716 3.926105 -0.41486132 4 5
-2.6922572 3.9764445 0.93343765 2 13
-2.3155499 3.4226265 -0.21656621 29 6
-2.6573837 3.9352875 1.2723545 1 15
-2.3186114 3.4530604 -1.1144749 23 0
-2.6505904 3.9504485 0.083038554 1 8
-2.5769498 3.8421435 -1.0680676 2 1
-2.6319516 3.9271114 0.24775843 3 9
-2.5541127 3.8138463 -0.89222288 2 2
-2.6268082 3.9238777 0.41311821 1 10
-2.2812121 3.410207 -0.64982885 17 3
-2.6464486 3.9591925 0.58472919 4 11
-2.5784833 3.8589709 -0.56986111 1 4
-2.623755 3.9296937 0.74838257 9 12
-2.614007 3.9180543 -0.41207233 4 5
-2.6491807 3.9722762 0.92809504 2 13
-2.279417 3.4204254 -0.21541482 19 6
-2.6244953 3.9457006 1.2697662 1 15
-2.2912507 3.464329 -1.112922 17 0
-2.6273565 3.9755299 0.08317817 1 8
-2.5479159 3.8567886 -1.0671679 2 1
-2.6088722 3.9520574 0.24817713 1 9
-2.2625749 3.4300714 -0.7987265 7 2
-2.5927696 3.9321404 0.41207233 1 10
-2.2486541 3.4128535 -0.64732587 16 3
-2.5794466 3.9178836 0.57595456 7 11
-2.5492973 3.8735623 -0.56937367 1 4
-2.616879 3.9792738 0.75432706 3 12
-2.5872769 3.9357564 -0.41207233 4 5
-2.6170731 3.9841108 0.92656857 2 13
-2.2456174 3.4212291 -0.21447276 21 6
-2.5788901 3.9364548 1.2609664 1 15
-2.2649004 3.4770029 -1.1118866 7 0
-2.5391302 3.8994796 0.081223503 1 8
-2.5103004 3.8581483 -1.0626688 2 1
-2.5579541 3.9328897 0.24587436 1 9
-2.2220571 3.4190543 -0.7926206 17 2
-2.5370414 3.9067006 0.40754023 2 10
-2.2146156 3.4115119 -0.64419717 19 3
-2.544076 3.9220271 0.57400465 4 11
-2.5092361 3.8712757 -0.56644875 1 4
-2.5596569 3.9505756 0.74556679 3 12
-2.5614686 3.9594262 0.91664648 2 13
-2.2114334 3.4196627 -0.21342604 46 6
-2.5447023 3.9425554 1.2573429 1 15
-2.5291157 3.9440441 0.081781976 1 8
-2.5045812 3.9102874 0.24336222 1 9
-2.1325176 3.3319619 -0.7689603 40 2
-2.5103905 3.9238791 0.40754023 3 10
-2.1279697 3.3286932 -0.62573791 34 3
-2.5294571 3.9597673 0.57692951 1 11
-2.1126029 3.3097448 -0.48211515 23 4
-2.5405145 3.9816711 0.7480697 3 12
-2.1079185 3.306221 -0.343045 39 5
-2.518996 3.9540308 0.91130376 2 13
-2.1199176 3.3288848 -0.20683172 38 6
-2.4963908 3.9276173 1.2469902 1 15
-2.1139925 3.3465924 -1.0606405 32 0
-2.4908431 3.9446967 0.081432931 1 8
-2.0828714 3.301152 -0.90115386 45 1
-2.4658856 3.9112136 0.2423155 1 9
-2.1175778 3.3600557 -0.77201319 45 2
-2.4642007 3.9130807 0.40457696 4 10
-2.0820026 3.3087254 -0.61916769 31 3
-2.5017509 3.97733 0.57692951 1 11
-2.0862763 3.319371 -0.48138395 34 4
-2.0752513 3.3056698 -0.3414762 34 5
-2.4788113 3.9515631 0.90672439 2 13
-2.0801308 3.3185852 -0.20526163 24 6
-2.4446559 3.9077117 1.2350845 1 15
-2.0885386 3.3579879 -1.0596052 34 0
-2.4541073 3.948832 0.081153691 1 8
-2.0618327 3.3189225 -0.90205371 42 1
-2.4153447 3.8910027 0.24001274 1 9
-2.0634713 3.3267391 -0.76094633 32 2
-2.4252715 3.9115632 0.40265954 2 10
-2.056772 3.3198211 -0.61854196 26 3
-2.0515614 3.3152864 -0.47870281 23 4
-2.4382617 3.9432626 0.73430347 3 12
-2.0594554 3.3319407 -0.34269637 27 5
-2.4449737 3.9587502 0.90443468 2 13
-2.0600591 3.3381252 -0.20557566 15 6
-2.4142761 3.9197488 1.2335316 1 15
-2.0610092 3.3658962 -1.0575346 20 0
-2.4250858 3.9620328 0.081083886 1 8
-2.0497961 3.3515229 -0.90700263 37 1
-2.4117243 3.9448409 0.2423155 1 9
-2.0479417 3.3524365 -0.76361769 26 2
-2.3854499 3.9079912 0.40056777 2 10
-2.0516183 3.362411 -0.62386072 18 3
-2.4459763 4.0118713 0.57692951 1 11
-2.0469563 3.3600433 -0.48309013 22 4
-2.3867078 3.919275 0.72679466 2 12
-2.0382152 3.3496411 -0.343045 29 5
-2.4111574 3.9656575 0.90214497 2 13
-2.0580356 3.3862057 -0.20766909 24 6
-2.3614895 3.893146 1.220073 1 15
-2.058002 3.4129345 -1.0678874 22 0
-2.3560858 3.9103539 0.079687685 2 8
-2.0490551 3.4021237 -0.91690052 30 1
-2.3676476 3.9342015 0.24064074 1 9
-2.0487707 3.4070306 -0.77277648 39 2
-2.3475022 3.9053538 0.39865038 4 10
-2.039284 3.3952787 -0.62730229 14 3
-2.4179065 4.028851 0.57692951 1 11
-2.3328798 3.8917913 0.71866006 2 12
-2.0710881 3.4577973 -0.35263211 8 5
-2.3679717 3.9550269 0.89603907 2 13
-2.0507512 3.4279139 -0.20934384 30 6
-2.3312836 3.9045601 1.21852 1 15
-2.3083282 3.8923078 0.078989588 2 8
-2.3084714 3.8940978 -1.0451226 3 1
-2.3197665 3.9162667 0.23854731 3 9
-2.0199351 3.4128029 -0.77086836 36 2
-2.3110502 3.9062145 0.39708155 1 10
-2.2810216 3.8631473 -0.55084944 1 4
-2.2835722 3.8705523 0.71177691 2 12
-2.0641003 3.5013494 -0.35559544 3 5
-2.3104031 3.9207187 0.88459057 2 13
-2.0065038 3.4077253 -0.20725042 26 6
-2.2873273 3.8924272 1.2097203 1 15
-2.2517958 3.8550305 -1.1962616 2 0
-2.2690024 3.8876035 0.078570738 1 8
-3.1876321 5.4637308 -1.4603822 2 1
-2.2923691 3.9323661 0.23854731 1 9
-1.9822259 3.4030712 -0.7655257 34 2
-2.2777083 3.9119229 0.39603567 2 10
-2.2429986 3.8554034 -0.70645815 2 3
-2.2816095 3.9249215 0.55743045 1 11
-6.1037416 10.504135 -1.4916809 2 4
-2.2465761 3.8693171 0.7086482 2 12
-1.981617 3.4157183 -0.34548536 11 5
-2.2691867 3.9129758 0.8792479 2 13
-1.9726511 3.4043691 -0.2062037 22 6
-2.2659016 3.918334 1.2128261 1 15
-2.2267532 3.874007 -1.197297 3 0
-2.2418067 3.9033494 0.078570738 1 8
-2.19081 3.8160977 -1.0158789 2 1
-2.231071 3.8893707 0.23498847 2 9
-1.9486569 3.3997936 -0.76170951 35 2
-2.2295427 3.8914251 0.39237517 6 10
-4.8383603 8.4516716 -1.542444 2 3
-2.2600665 3.9510932 0.55889291 1 11
-6.0204062 10.529258 -1.4892435 2 4
-2.2214687 3.8883376 0.70927399 2 12
-1.9498205 3.415627 -0.34409088 14 5
-2.2340293 3.9150808 0.87619489 2 13
-1.9349865 3.3937669 -0.20473827 17 6
-2.2117383 3.8870444 1.1983322 1 15
-2.1784523 3.8504021 -1.1853913 6 0
-2.2014081 3.8941472 0.078082062 1 8
-3.0851524 5.4596572 -1.447785 2 1
-2.1966894 3.8905532 0.23415108 2 9
-1.9235408 3.4095595 -0.76094633 30 2
-2.1834292 3.8718019 0.38888893 4 10
-4.7884774 8.4981775 -1.5449469 2 3
-2.1824777 3.8764369 0.54621845 3 11
-5.9388614 10.552694 -1.4868062 2 4
-2.2104414 3.9309173 0.71427983 2 12
-1.9056467 3.3902736 -0.34025604 16 5
-2.2323244 3.9747028 0.88611698 2 13
-1.9118409 3.4068594 -0.20473827 17 6
-2.1776791 3.8885238 1.1941911 1 15
-2.1430626 3.8503244 -1.1807325 8 0
-2.1709635 3.9020507 0.077942446 1 8
-3.0450678 5.4776554 -1.4468851 2 1
-2.1740386 3.9123981 0.23456979 1 9
-1.89457 3.4122748 -0.75865656 32 2
-2.1592453 3.8921773 0.38941187 2 10
-4.7036972 8.4822035 -1.5361867 2 3
-5.8881197 10.635578 -1.4926558 2 4
-2.1625907 3.9078484 0.70739675 2 12
-1.8828957 3.4052384 -0.34043032 26 5
-2.1798368 3.9455109 0.87619489 2 13
-1.8808825 3.405807 -0.2039009 19 6
-2.1334438 3.8711104 1.184356 2 15
-2.1279426 3.8851542 -1.1869442 5 0
-2.1398273 3.9100962 0.077802829 1 8
-2.9833984 5.4538035 -1.4351877 3 1
-2.1351752 3.9064505 0.23331371 2 9
-1.8631737 3.4116342 -0.75560367 33 2
-2.1136086 3.8718088 0.38592559 2 10
-4.6197724 8.4697466 -1.5280521 2 3
-2.0930045 3.8420324 -0.53720009 3 4
-2.1220367 3.89856 0.70301658 2 12
-1.8428944 3.3885458 -0.33746704 27 5
-2.1341763 3.9257605 0.86856258 2 13
-1.8494331 3.4048147 -0.20306353 20 6
-2.101763 3.877418 1.1817677 1 15
-2.0861087 3.8727026 -1.1786621 4 0
-2.0992112 3.9002869 0.077314161 1 8
-2.0718303 3.851028 -1.0095804 3 1
-2.0908315 3.8895955 0.23142964 2 9
-1.8318808 3.4107211 -0.75255072 35 2
-2.0714502 3.8583832 0.38313666 2 10
-2.0374866 3.7983017 -0.68268013 2 3
-5.712801 10.663255 -1.4853437 2 4
-2.1096818 3.9411452 0.70802242 2 12
-1.8107359 3.3855169 -0.33589822 34 5
-2.0845022 3.8990116 0.85940373 2 13
-1.8162076 3.4000266 -0.20201682 22 6
-2.0746424 3.8919966 1.1817677 1 15
-2.034606 3.841079 -1.1646857 2 0
-2.0494812 3.8724287 0.076476447 2 8
-2.0011551 3.7827148 -0.98798501 2 1
-2.061759 3.9005654 0.23122028 1 9
-1.7988564 3.4060667 -0.74873453 35 2
-2.0370221 3.858655 0.38174215 1 10
-4.4439297 8.4250927 -1.5086541 2 3
-2.0981417 3.9811609 0.55255568 1 11
-2.0206525 3.8357551 -0.53232533 3 4
-2.0342746 3.8648796 0.69175333 2 12
-1.7814922 3.3874955 -0.33485237 35 5
-2.0627143 3.9238951 0.8616935 2 13
-1.7905692 3.4090867 -0.20180747 19 6
-2.0330718 3.8790088 1.1734856 1 15
-1.9863247 3.8140676 -1.1522624 2 0
-2.0242426 3.8901901 0.076546252 1 8
-2.870326 5.5185452 -1.4360875 3 1
-2.0271099 3.9006867 0.23038292 2 9
-1.7623677 3.3941486 -0.74339187 37 2
-1.99902 3.8515613 0.37965041 1 10
-4.3831849 8.452405 -1.5080284 2 3
-5.6190491 10.849505 -1.5002117 2 4
-1.7550563 3.3945398 -0.33432943 37 5
-2.0118327 3.8928537 0.85177141 2 13
-1.7548147 3.398433 -0.20044672 18 6
-1.9953253 3.8724992 1.167274 1 15
-1.9552474 3.8192439 -1.1496743 2 0
-1.9751796 3.8615003 0.075708538 1 8
-2.8335037 5.5419197 -1.4369874 3 1
-1.9871081 3.8898427 0.22891749 2 9
-1.7332741 3.3958778 -0.74110222 37 2
-1.973893 3.8689725 0.37999901 2 10
-4.381484 8.5954342 -1.5280521 2 3
-5.5512738 10.90439 -1.5024054 2 4
-1.9890692 3.9105127 0.69488198 2 12
-1.7159697 3.3765147 -0.33136615 34 5
-1.9668254 3.8717964 0.84413904 2 13
-1.7183913 3.3856673 -0.19898133 12 6
-1.9647485 3.8794425 1.1652035 1 15
-1.9146433 3.8051896 -1.1413921 2 0
-1.9320054 3.8430357 0.075080253 1 8
-1.9057465 3.7924521 -0.97988683 3 1
-1.958111 3.9000506 0.22870816 1 9
-1.7060031 3.4008763 -0.73957568 33 2
-1.9521927 3.8933449 0.38104489 1 10
-4.3390665 8.6611366 -1.5343094 2 3
-1.9254521 3.8467147 0.52818179 1 11
-5.4474764 10.887847 -1.4948496 2 4
-1.9281564 3.8571613 0.68299294 2 12
-1.6887943 3.3812823 -0.33066887 35 5
-1.9572854 3.9205632 0.85177141 2 13
-1.6849067 3.3779216 -0.19782993 9 6
-1.9307323 3.8792272 1.1610622 1 15
-1.9025893 3.8479021 -1.1501919 2 0
-1.9157572 3.8779442 0.07549911 1 8
-1.8688698 3.7846963 -0.97448796 2 1
-1.9007908 3.8527272 0.2251493 1 9
-1.6735387 3.3950939 -0.7357595 35 2
-1.9161587 3.8890069 0.37930179 1 10
-1.8757672 3.8103831 -0.67266828 2 3
-1.9230816 3.9099395 0.53500646 1 11
-5.3774629 10.938082 -1.4965557 2 4
-1.9133739 3.8953507 0.6873731 2 12
-1.6572474 3.3768923 -0.32910007 37 5
-1.929867 3.9341321 0.85177141 2 13
-1.6727101 3.4129169 -0.19919068 12 6
-1.8948758 3.8696301 0.99473363 4 14
-1.9138395 3.9100845 -0.075987779 2 7
-1.9019059 3.8891411 1.160027 1 15
-1.865548 3.8402395 -1.1439801 2 0
-1.8833984 3.8804302 0.075289682 1 8
-1.8372985 3.7871315 -0.97178853 2 1
-1.8686205 3.8551199 0.22452128 2 9
-1.6378157 3.3819573 -0.73041683 37 2
-1.8785444 3.8807688 0.37721002 1 10
-4.1162271 8.5110331 -1.4973909 2 3
-1.8715554 3.8732235 0.52818179 1 11
-5.2983789 10.969994 -1.4958245 2 4
-1.8689624 3.8730319 0.68111575 2 12
-1.6267097 3.3740225 -0.32770559 37 5
-1.8801945 3.901526 0.84184933 2 13
-1.6401782 3.4065161 -0.19814396 12 6
-1.8678145 3.8827646 0.99473363 4 14
-1.8864952 3.9233503 -0.075987779 2 7
-1.856304 3.8640144 1.148639 1 15
-1.8145669 3.8026071 -1.1289687 2 0
-1.8510985 3.882654 0.075080253 1 8
-1.8108163 3.799865 -0.97178853 2 1
-1.8433784 3.8716781 0.22473061 2 9
-1.6150087 3.3950818 -0.73079848 41 2
-1.8342949 3.8578024 0.3737238 2 10
-4.0567083 8.5395622 -1.4973909 2 3
-1.8683023 3.936409 0.53500646 1 11
-5.2361298 11.037206 -1.4999681 2 4
-1.8368016 3.8752754 0.6792385 2 12
-1.5909101 3.3580086 -0.32509091 31 5
-1.8579507 3.9252043 0.84413904 2 13
-1.6155024 3.4160781 -0.19803928 5 6
-1.841342 3.8953886 0.99473363 4 14
-1.8590591 3.9364247 -0.075987779 2 7
-1.8309318 3.8803742 1.1496743 1 15
-1.7937121 3.8274286 -1.1325922 2 0
-1.8110567 3.8661892 0.074521773 2 8
-2.663147 5.6903825 -1.4504844 3 1
-1.8135985 3.8768981 0.22431193 1 9
-1.5852115 3.3917675 -0.72774553 38 2
-1.8123754 3.881346 0.37476969 1 10
-3.9767659 8.5204382 -1.4892563 2 3
-1.8263639 3.916651 0.53061914 1 11
-5.1866179 11.132871 -1.5080113 2 4
-1.8137168 3.8948517 0.68049002 2 12
-1.562387 3.3581941 -0.32404503 33 5
-1.8156067 3.9060335 0.8372699 2 13
-1.5972618 3.4378633 -0.19866732 3 6
-1.8036638 3.8909943 1.1491566 2 15
-1.7555019 3.813226 -1.1248276 2 0
-1.779008 3.8678386 0.074312352 1 8
-1.7322042 3.767812 -0.95739168 2 1
-1.7748158 3.8640566 0.22284654 2 9
-1.5582203 3.3956137 -0.72621906 39 2
-1.7576717 3.8320196 0.36884311 2 10
-3.8925004 8.4941168 -1.4798702 2 3
-1.8039359 3.9401345 0.5320816 1 11
-1.7412952 3.8050697 -0.51380116 3 4
-1.7684129 3.8678946 0.67360687 2 12
-1.5372472 3.365396 -0.32369643 30 5
-1.7873483 3.9147289 0.83650672 2 13
-1.551671 3.401685 -0.19594584 3 6
-1.786774 3.9207182 0.99473363 4 14
-1.8046079 3.961683 -0.075987779 2 7
-1.7636524 3.8753581 1.1408744 2 15
-1.7161081 3.7972221 -1.1165454 2 0
-1.750316 3.876519 0.07424254 1 8
-2.5700095 5.6945868 -1.4423862 3 1
-1.7477982 3.8763523 0.22284654 2 9
-1.5256065 3.386719 -0.72202128 37 2
-1.7537819 3.8950644 0.3737238 1 10
-3.8622799 8.5859394 -1.4911336 2 3
-1.7340705 3.858479 0.51940715 1 11
-5.0383205 11.215999 -1.5097176 2 4
-1.7235712 3.8404984 0.66672373 2 12
-1.5071952 3.3615012 -0.32230192 33 5
-1.7663958 3.9414444 0.83955961 2 13
-1.5817543 3.5327442 -0.20285419 2 6
-1.7593586 3.9330966 0.99473363 4 14
-1.7286751 3.8699377 1.135698 2 15
-1.6864237 3.8020468 -1.1144749 2 0
-1.72159 3.8849874 0.074172728 1 8
-2.5420291 5.7391167 -1.4491347 3 1
-1.7029127 3.848278 0.22054374 2 9
-1.4955751 3.3829224 -0.71896833 34 2
-1.6975558 3.8416066 0.3674486 2 10
-3.8277738 8.6705217 -1.5011454 2 3
-1.7247146 3.9104495 0.52476943 1 11
-1.6719828 3.7926829 -0.50892639 3 4
-1.7014965 3.8632836 0.66860098 2 12
-1.4810683 3.3643882 -0.32160467 33 5
-1.6914154 3.8458521 0.81666255 2 13
-1.5956156 3.6314709 -0.20787844 2 6
-1.732548 3.9449804 0.99473363 4 14
-1.6892067 3.8536029 1.1274159 2 15
-1.6613812 3.8172705 -1.1155102 2 0
-1.6903195 3.8856139 0.073963299 1 8
-2.4980168 5.7477875 -1.4468851 3 1
-1.6941859 3.9000821 0.22284654 1 9
-1.4678241 3.3822186 -0.71667862 35 2
-1.6691101 3.8497086 0.3671 2 10
-3.7592406 8.6746254 -1.4973909 3 3
-1.6933249 3.9111683 0.52330703 1 11
-4.8725595 11.26521 -1.5070363 2 4
-1.6782959 3.8820283 0.66985244 2 12
-1.4543843 3.3673298 -0.32090744 33 5
-1.6583027 3.8431456 0.81360966 2 13
-1.6183197 3.7522848 -0.21415874 3 6
-1.677204 3.8925512 0.97853714 4 14
-1.6706445 3.8810549 -0.073753871 2 7
-1.6583557 3.8543639 1.12431 2 15
-1.6201818 3.792959 -1.1051573 2 0
-1.6474543 3.8605354 0.07326521 1 8
-2.4924757 5.8435278 -1.4666809 2 1
-1.6355983 3.8383186 0.21865964 2 9
-1.4426378 3.3887703 -0.71591538 36 2
-1.6272655 3.8243141 0.36361378 1 10
-3.7233183 8.7588329 -1.5074027 2 3
-1.639596 3.8607719 0.51501989 1 11
-4.7949915 11.296288 -1.5067927 2 4
-1.6388141 3.864553 0.66484654 2 12
-1.4252096 3.3624763 -0.31951293 33 5
-1.6474153 3.8905017 0.82124197 2 13
-1.5858593 3.748776 -0.21332137 2 6
-1.6779908 3.9684935 0.99473363 4 14
-1.6441882 3.8923364 -0.073753871 2 7
-1.620893 3.8409286 1.117063 1 15
-1.603368 3.8273404 -1.1118866 2 0
-1.6118702 3.8495255 0.072846346 1 8
-2.4756873 5.918314 -1.4810777 2 1
-1.607893 3.8456776 0.21845031 3 9
-1.4149977 3.3876424 -0.71362567 37 2
-1.6020614 3.8392587 0.36396238 2 10
-1.5770718 3.7812288 -0.64889026 2 3
-1.6086974 3.8608482 0.51355743 1 11
-4.6809201 11.245187 -1.4955807 2 4
-1.5957773 3.8354948 0.65796345 2 12
-1.4009358 3.3705044 -0.31933865 36 5
-1.6187085 3.8982813 0.82047874 2 13
-1.5756176 3.7963777 -0.21541482 3 6
-1.6502445 3.9801114 0.99473363 4 14
-1.5947109 3.8518727 1.117063 1 15
-1.5736076 3.8292315 -1.1092985 3 0
-1.58192 3.8532844 0.072706729 1 8
-1.5520518 3.782409 -0.94389462 2 1
-1.5749472 3.8420238 0.21761292 2 9
-1.3883368 3.3901711 -0.71209919 37 2
-1.5774028 3.8537621 0.36431101 1 10
-3.6261244 8.8678465 -1.5174146 2 3
-1.5817045 3.8719847 0.51355743 1 11
-4.6525526 11.400733 -1.5119112 2 4
-1.5928352 3.9050717 0.66797519 2 12
-1.3773711 3.3802028 -0.31933865 34 5
-1.5751692 3.8694832 0.81208313 2 13
-1.54757 3.8035848 -0.21520546 3 6
-1.5783901 3.8832161 0.9677394 4 14
-1.566328 3.8593323 1.1160278 2 15
-1.5353435 3.813513 -1.1015339 2 0
-1.5624439 3.8827865 0.073055774 2 8
-2.3899055 5.9450707 -1.4792781 2 1
-1.5340148 3.8198359 0.21572883 1 9
-1.3595177 3.3870265 -0.70942789 38 2
-1.5571989 3.8834443 0.36605412 1 10
-1.5161144 3.7848086 -0.64576155 2 3
-1.5516829 3.8755615 0.51258254 1 11
-4.5514688 11.379486 -1.5048428 2 4
-1.5369984 3.8466644 0.65608621 2 12
-1.3470887 3.3730836 -0.31776983 31 5
-1.5481168 3.8803856 0.81208313 2 13
-1.5055236 3.7774553 -0.21311203 2 6
-1.5584534 3.9122446 0.97223842 4 14
-1.5408123 3.8758273 1.1175808 1 15
-1.5001752 3.8025744 -1.0953223 2 0
-1.5052927 3.8194504 0.071659587 2 8
-2.3611958 5.9942489 -1.4873765 2 1
-1.501461 3.8155832 0.21489146 2 9
-1.3366823 3.4003227 -0.71019113 38 2
-1.5198509 3.8682587 0.36361378 2 10
-3.490299 8.8924761 -1.5130343 2 3
-1.5311568 3.9050472 0.51501989 1 11
-4.4654002 11.394347 -1.5026492 2 4
-1.5072256 3.8499432 0.65483475 2 12
-1.3118929 3.3527186 -0.31498083 33 5
-1.5095528 3.8618424 0.80597723 2 13
-1.4733034 3.7729902 -0.21227466 1 6
-1.5081072 3.8720882 1.1134396 1 15
-1.4652349 3.7913311 -1.0891106 2 0
-1.4763771 3.8221459 0.071519956 2 8
-1.452189 3.7634337 -0.93129742 3 1
-1.4783291 3.833169 0.21531016 3 9
-1.306448 3.3910224 -0.70637494 39 2
-1.4742018 3.8304296 0.35908166 2 10
-1.4609511 3.7979774 -0.64451009 2 3
-1.5016943 3.9079661 0.51404494 1 11
-4.3615513 11.362237 -1.4943621 2 4
-1.4781563 3.8527353 0.65358323 2 12
-1.28774 3.3599358 -0.31480655 34 5
-1.4783454 3.8612857 0.80368757 2 13
-1.4547253 3.8015845 -0.21332137 2 6
-1.4688864 3.8426092 0.94974333 4 14
-1.4658724 3.8407524 1.1015339 1 15
-1.45034 3.8301234 -1.0973928 2 0
-1.4496576 3.8323598 0.071519956 2 8
-1.4306734 3.7841682 -0.93399686 2 1
-1.4529437 3.8471324 0.21551949 2 9
-1.2813563 3.3963866 -0.70561171 38 2
-1.4523124 3.8515611 0.36012751 1 10
-3.3701448 8.9471483 -1.5142858 3 3
-1.4534023 3.8626168 0.50673276 1 11
-4.2834167 11.389801 -1.4941182 2 4
-1.4526125 3.8666592 0.65420902 2 12
-1.2620397 3.3611617 -0.3141093 34 5
-1.457544 3.8859649 0.80674046 2 13
-1.4113333 3.7667603 -0.21080926 2 6
-1.4426965 3.8525186 0.94974333 4 14
-1.4552203 3.8900895 -0.072497301 2 7
-1.4403757 3.854512 1.1025692 1 15
-1.4094639 3.8021162 -1.0865225 2 0
-1.4221483 3.8383884 0.071450152 2 8
-1.3961033 3.7721334 -0.92859799 3 1
-1.4239516 3.8494406 0.2151008 1 9
-1.2493619 3.3810897 -0.70065069 37 2
-1.4281478 3.8690829 0.36082479 2 10
-3.3119001 8.9772949 -1.5155373 2 3
-1.431195 3.8835962 0.50819516 1 11
-4.1852803 11.36913 -1.4875373 2 4
-1.4126176 3.8393798 0.6479516 2 12
-1.2296085 3.3455794 -0.31184325 33 5
-1.3965483 3.8038969 0.78765959 2 13
-1.3884131 3.7837796 -0.21122794 2 6
-1.4493006 3.9539809 0.97223842 4 14
-1.4061404 3.8424556 1.0963575 1 15
-1.3874978 3.8245759 -1.0901459 2 0
-1.3973705 3.8559873 0.071589775 1 8
-1.3624347 3.7616329 -0.92364907 3 1
-1.3827794 3.8219693 0.21300736 1 9
-1.2204645 3.3770189 -0.69797933 39 2
-1.3929793 3.856472 0.35873303 2 10
-3.2529387 9.0156288 -1.5180402 3 3
-1.3912526 3.8601234 0.5038079 1 11
-4.0957155 11.370057 -1.4838812 2 4
-1.3877827 3.8568249 0.64920312 2 12
-1.2082448 3.3597069 -0.31236616 34 5
-1.3752677 3.828335 0.79071248 2 13
-1.3478099 3.7560203 -0.2091345 2 6
-1.4007638 3.9100285 -0.072497301 2 7
-1.3786085 3.8524194 1.0963575 1 15
-1.3543019 3.8159633 -1.0849695 2 0
-1.359058 3.8314855 0.070961483 1 8
-1.3380928 3.7765632 -0.9249987 3 1
-1.3513983 3.8162315 0.21216999 2 9
-1.1948307 3.3778443 -0.69645286 38 2
-1.3540745 3.8322892 0.35559544 1 10
-3.1770251 8.9965839 -1.5111572 3 3
-1.3583417 3.8507833 0.50137055 1 11
-4.0327306 11.44518 -1.4899747 2 4
-1.3706838 3.8922668 0.65358323 2 12
-1.1768266 3.3455062 -0.31027445 36 5
-1.3628258 3.8785923 0.79910809 2 13
-1.32883 3.7839522 -0.21018122 2 6
-1.3617003 3.8818867 0.94974333 4 14
-1.3331985 3.8070154 1.0808283 1 15
-1.3263967 3.8196177 -1.0834166 2 0
-1.3303102 3.8352127 0.070856772 1 8
-1.305336 3.7653298 -0.92004979 3 1
-1.3338727 3.8519955 0.2136354 3 9
-1.168011 3.3768268 -0.69454479 37 2
-1.320146 3.8188202 0.3535037 2 10
-3.1141396 9.0185452 -1.5111572 2 3
-1.3197743 3.8263934 0.4969832 1 11
-3.9514973 11.462982 -1.4887561 3 4
-1.2946001 3.7597914 0.62980521 1 12
-1.1494888 3.3402512 -0.30905426 33 5
-1.3172474 3.8320804 0.78765959 2 13
-1.2971916 3.7780244 -0.20934384 1 6
-1.3352455 3.8910656 0.94974333 4 14
-1.3065882 3.8162303 1.0808283 1 15
-1.2829301 3.779393 -1.0694402 2 0
-1.2977512 3.8252416 0.07050772 1 8
-1.2796408 3.776197 -0.92049968 2 1
-1.2986543 3.834501 0.21216999 2 9
-1.1443694 3.3828392 -0.6941632 38 2
-1.2883509 3.8128431 0.35210916 1 10
-3.059 9.0582485 -1.5142858 3 3
-1.2898914 3.8240025 0.49552077 1 11
-3.8587034 11.452662 -1.4838812 2 4
-1.3093231 3.8883302 0.64982885 2 12
-1.1223305 3.3368642 -0.3080084 33 5
-1.306718 3.8895698 0.79758167 2 13
-1.2714454 3.7867665 -0.20934384 1 6
-1.3080482 3.9002924 0.94974333 4 14
-1.3192579 3.9382763 -0.072497301 2 7
-1.2769018 3.814044 1.0777225 1 15
-1.265696 3.8137071 -1.0766873 2 0
-1.2735312 3.8418007 0.070647344 1 8
-2.0077257 6.0601511 -1.4738793 3 1
-1.2655784 3.8245127 0.21112327 2 9
-1.1127168 3.3665125 -0.68920213 37 2
-1.2561184 3.8026056 0.35036606 1 10
-1.24903 3.7855771 -0.63136959 2 3
-1.2668914 3.8442266 0.4969832 1 11
-3.7918363 11.512602 -1.4882686 2 4
-1.2574534 3.822319 0.63731414 1 12
-1.0940317 3.3294756 -0.30661389 33 5
-1.2704115 3.8685303 0.79147577 2 13
-1.2487128 3.8069375 -0.20997187 1 6
-1.2807872 3.9093294 0.94974333 4 14
-1.2924203 3.9471653 -0.072497301 2 7
-1.2520452 3.8283741 1.0792755 1 15
-1.2277222 3.7875335 -1.0668522 3 0
-1.239288 3.8277686 0.070228487 1 8
-1.2118574 3.7452743 -0.90880221 2 1
-1.2339337 3.8180511 0.21028589 2 9
-1.0855669 3.3629892 -0.68691242 36 2
-1.2197552 3.7809436 0.3475771 2 10
-2.9504035 9.1564827 -1.5236719 3 3
-1.2363757 3.841639 0.49552077 1 11
-3.7235215 11.57659 -1.4931433 3 4
-1.2114055 3.7708211 0.62730229 1 12
-1.0707625 3.3370318 -0.30661389 33 5
-1.2349802 3.8511324 0.78613311 2 13
-1.2147961 3.7927368 -0.20871581 1 6
-1.2152972 3.8057365 1.0704756 1 15
-1.1995018 3.7904868 -1.0652993 2 0
-1.2065084 3.8172598 0.069879435 1 8
-1.0806133 3.4210188 -0.82826978 6 1
-1.2120559 3.8418105 0.21112327 2 9
-1.0585237 3.3592505 -0.6846227 37 2
-1.1969202 3.8007689 0.34862295 1 10
-1.1877553 3.7762666 -0.62698942 2 3
-1.207146 3.8426015 0.49454582 1 11
-1.1916101 3.795464 -0.4884524 3 4
-1.1945074 3.8093445 0.63230819 1 12
-1.0414832 3.325413 -0.30487078 30 5
-1.2010286 3.8371763 0.78155369 2 13
-1.1918619 3.8125634 -0.20934384 1 6
-1.1898501 3.8178167 1.0715109 1 15
-1.1713001 3.793231 -1.0637463 3 0
-1.1774724 3.8179464 0.069739819 2 8
-1.152559 3.7394822 -0.90340346 3 1
-1.1758039 3.8196366 0.20944853 2 9
-1.0338919 3.3628051 -0.68385947 35 2
-1.168016 3.8014145 0.34792572 2 10
-1.1555679 3.7655818 -0.62386072 1 3
-1.1861073 3.8699148 0.4969832 1 11
-3.5603652 11.623652 -1.4926558 2 4
-1.1482364 3.7533662 0.62167066 1 12
-1.0199902 3.3383186 -0.30539373 34 5
-1.1856776 3.8830209 0.78918606 2 13
-1.1570615 3.7940454 -0.20787844 2 6
-1.1564229 3.8038511 1.0652993 1 15
-1.1436757 3.7976162 -1.0627111 3 0
-1.1484853 3.8184137 0.069600195 2 8
-1.1023027 3.6671886 -0.88405764 3 1
-1.146812 3.8201001 0.20902982 2 9
-1.0092624 3.3661804 -0.68309623 34 2
-1.1334425 3.7827566 0.34548536 2 10
-1.1371795 3.8000519 -0.62824088 2 3
-1.1476923 3.8400617 0.49210843 1 11
-3.501287 11.722405 -1.5021616 2 4
-1.1400745 3.8218651 0.63168246 1 12
-0.99381518 3.3358109 -0.30452216 30 5
-1.1361314 3.8159389 0.77392131 2 13
-1.1237147 3.7790577 -0.20662238 2 6
-1.1311899 3.809063 0.91735035 4 14
-1.1325855 3.8210921 1.0678874 1 15
-1.1204002 3.8166296 -1.0658169 3 0
-1.1263022 3.8416893 0.069879435 1 8
-1.0109229 3.4503796 -0.83006936 5 1
-1.1156274 3.8126783 0.20819245 1 9
-0.98573738 3.3731441 -0.68309623 33 2
-1.1148256 3.8173521 0.34792572 1 10
-1.0995604 3.7699709 -0.62198347 1 3
-1.1119733 3.8174865 0.48820862 1 11
-3.3977256 11.672229 -1.4926558 2 4
-1.0935131 3.7614448 0.62041914 3 12
-0.97105813 3.3445811 -0.30469647 31 5
-1.1225929 3.869029 0.78308016 2 13
-1.099528 3.7944839 -0.20704105 1 6
-1.1099873 3.8355868 0.92184937 4 14
-1.0951605 3.7917857 1.0575346 1 15
-1.0884159 3.8057845 -1.0606405 3 0
-1.0972564 3.8417683 0.069739819 1 8
-0.96915984 3.3955142 -0.81522262 9 1
-1.0824127 3.7973249 0.20693639 2 9
-0.95786422 3.3648379 -0.68004328 34 2
-1.0859678 3.8173766 0.34722847 1 10
-2.6452463 9.3108759 -1.5330579 3 3
-1.0939643 3.8557119 0.49210843 1 11
-3.3443136 11.794976 -1.5053302 2 4
-1.0822959 3.8222055 0.62917954 1 12
-0.94501489 3.3396111 -0.30365062 33 5
-1.0880803 3.8503222 0.7777375 2 13
-1.0762656 3.8136008 -0.20766909 1 6
-1.0838535 3.8430533 0.92184937 4 14
-1.0801702 3.8402524 1.0689226 1 15
-1.0519758 3.7779305 -1.0508054 2 0
-1.0603592 3.8106179 0.069041722 1 8
-0.93969172 3.3815444 -0.81027371 13 1
-1.0586777 3.8123024 0.20735508 2 9
-0.93598747 3.3750634 -0.68080652 34 2
-1.0571656 3.8171842 0.34653121 2 10
-1.0495839 3.7923884 -0.62323499 2 3
-1.0613501 3.8401086 0.4891836 1 11
-3.2650561 11.829517 -1.5067927 3 4
-1.0404966 3.7723558 0.61979342 1 12
-0.91956043 3.3384435 -0.30295336 34 5
-1.0715872 3.8956838 0.78536987 2 13
-1.0312247 3.7515085 -0.2039009 1 6
-1.0462494 3.8165898 -0.069076627 2 7
-1.0504323 3.8344734 1.0652993 1 15
-1.0262339 3.7850039 -1.0508054 2 0
-1.0285058 3.7986255 0.068692669 2 8
-0.91003585 3.3634081 -0.804425 21 1
-1.0257872 3.7964625 0.20609902 3 9
-0.91035825 3.3739336 -0.67928004 34 2
-1.0187098 3.7781231 0.34234774 2 10
-2.5381942 9.4265757 -1.5461985 2 3
-1.0314206 3.835923 0.48772117 1 11
-3.166436 11.784369 -1.4982618 2 4
-1.0079921 3.7566335 0.61603898 1 12
-0.89726275 3.3486311 -0.30330199 31 5
-1.0227022 3.8194439 0.76857871 2 13
-1.0112001 3.7817702 -0.20515697 1 6
-1.0300901 3.8578117 0.92184937 4 14
-1.0202463 3.8236229 -0.069076627 2 7
-1.0126944 3.8006454 1.0539112 1 15
-0.99042892 3.7565835 -1.0409703 2 0
-1.0009432 3.8018456 0.068622865 1 8
-0.88256764 3.3546019 -0.80082577 30 1
-0.99824291 3.7996681 0.20588967 1 9
-0.88578516 3.3764088 -0.67851686 34 2
-0.99635065 3.8005612 0.34374225 1 10
-2.4833238 9.4861078 -1.5530815 3 3
-1.0006012 3.8276653 0.48577127 1 11
-0.99140197 3.7951894 -0.48162767 2 4
-0.97875148 3.7521098 0.61416179 3 12
-0.87185407 3.347101 -0.30260473 34 5
-0.99601448 3.8264902 0.76857871 2 13
-0.9812566 3.7752061 -0.20442426 2 6
-0.99352747 3.8306525 -0.069076627 2 7
-0.98516756 3.8038828 1.052876 1 15
-0.97472668 3.8045769 -1.0523583 3 0
-0.96743834 3.7816186 0.068134196 2 8
-0.85430008 3.3418014 -0.79632676 33 1
-0.96773994 3.7910628 0.2050523 2 9
-0.8621918 3.3825104 -0.67851686 31 2
-0.9638921 3.7842553 0.34165049 2 10
-0.95629954 3.7599332 -0.61447465 1 3
-0.96603453 3.8037736 0.48187143 1 11
-3.0050087 11.840899 -1.4999681 3 4
-0.96126556 3.793319 0.61979342 1 12
-0.84748983 3.3492429 -0.30225611 33 5
-0.97408706 3.8523846 0.7723949 2 13
-0.94607615 3.7471077 -0.20254017 2 6
-0.959454 3.8056817 0.9061029 4 14
-0.95293379 3.7881854 1.0466642 1 15
-0.94207907 3.7869177 -1.0456289 2 0
-0.94872731 3.8193316 0.068692669 2 8
-0.83282691 3.3552494 -0.79812634 30 1
-0.94028878 3.7938495 0.20484295 1 9
-0.83478177 3.3732014 -0.67546391 33 2
-0.93649292 3.7870243 0.34130189 2 10
-0.92339569 3.7396693 -0.61009449 1 3
-0.9527629 3.8643911 0.48869613 1 11
-2.9493315 11.971457 -1.5138612 2 4
-0.93193042 3.7884283 0.61791623 1 12
-0.82361174 3.353143 -0.30208179 41 5
-0.9368751 3.8171439 0.76399928 2 13
-0.92132133 3.7594407 -0.20285419 2 6
-0.93286014 3.8122873 0.9061029 4 14
-0.93058598 3.8116369 1.0513231 1 15
-0.91788495 3.8027923 -1.0482172 3 0
-0.91267169 3.7869809 0.067994572 2 8
-0.80710131 3.3515091 -0.7958768 39 1
-0.91378164 3.8003209 0.20484295 2 9
-0.81029707 3.3751287 -0.67470068 34 2
-0.9044562 3.7702203 0.33921015 2 10
-2.2657144 9.4591913 -1.5405668 3 3
-0.91375625 3.8207517 0.4823589 1 11
-2.8513858 11.931901 -1.5063052 2 4
-0.90729332 3.8025277 0.61916769 3 12
-0.79383749 3.3296003 -0.29946712 45 5
-0.91565943 3.8465102 0.76857871 2 13
-0.88812363 3.7366347 -0.20128411 2 6
-0.90689087 3.8185487 0.9061029 4 14
-0.89505339 3.7804427 1.0409703 1 15
-0.891756 3.8109882 -1.0487348 2 0
-0.88231879 3.7736342 0.067645527 2 8
-0.78191328 3.3494709 -0.79407722 36 1
-0.88335365 3.7870028 0.20379624 3 9
-0.78641546 3.3767414 -0.67393738 32 2
-0.87540376 3.7647994 0.33816427 1 10
-0.87622017 3.771286 -0.61322314 2 3
-0.89131659 3.8423531 0.48430881 1 11
-2.7617455 11.924442 -1.5028929 2 4
-0.87248182 3.7701249 0.61291033 1 12
-0.77236724 3.3428264 -0.30016437 39 5
-0.87730938 3.8030703 0.75865656 2 13
-0.86536199 3.7542703 -0.20191215 2 6
-0.88020843 3.8247871 0.9061029 4 14
-0.8692981 3.786448 1.0409703 1 15
-0.86023742 3.7924783 -1.0420054 3 0
-0.85816252 3.7894533 0.06782005 1 8
-0.75565374 3.3395102 -0.79047799 34 1
-0.8630572 3.8203514 0.20526163 3 9
-0.75936502 3.3668289 -0.67088449 34 2
-0.85764343 3.8056562 0.34130189 2 10
-0.84466517 3.754185 -0.60946876 2 3
-0.85663903 3.8136191 0.47992152 1 11
-2.6940675 12.013163 -1.5116674 3 4
-0.84268475 3.7607038 0.61040735 3 12
-0.74596632 3.3345265 -0.29894418 37 5
-0.85073763 3.8091025 0.75865656 2 13
-0.83130097 3.7251325 -0.20002805 2 6
-0.85857201 3.8536637 0.91150165 4 14
-0.84787369 3.8150539 1.0471818 1 15
-0.83183551 3.7928758 -1.0404526 2 0
-0.83083016 3.7914453 0.067750245 2 8
-0.73173743 3.3448322 -0.79047799 36 1
-0.82717234 3.7874043 0.2031682 2 9
-0.73667872 3.3758843 -0.67164773 31 2
-0.82360142 3.7805486 0.3385129 2 10
-0.81526232 3.7485516 -0.60759157 1 3
-0.82156348 3.7807102 0.47504675 1 11
-2.592885 11.952139 -1.5016742 2 4
-0.81240726 3.7511926 0.60790437 1 12
-0.72266877 3.339653 -0.29894418 37 5
-0.81666255 3.7804074 0.75178748 2 13
-0.79957068 3.7075572 -0.19877198 2 6
-0.82672167 3.8367038 0.9061029 4 14
-0.83224553 3.8688967 -0.069076627 2 7
-0.8156848 3.7983584 1.0409703 1 15
-0.81054461 3.8231587 -1.0471818 3 0
-0.80284983 3.7933807 0.067680433 1 8
