# .PCD v0.7 - Point Cloud Data file format
VERSION 0.7
FIELDS x y z intensity ring
SIZE 4 4 4 4 2
TYPE F F F F U
COUNT 1 1 1 1 1
WIDTH 1353
HEIGHT 1
VIEWPOINT 0 0 0 1 0 0 0
POINTS 1353
DATA ascii
4.3228335 6.39923 0.67563128 1 10
3.6154895 5.3480954 -1.0224558 15 3
4.2658477 6.3053718 0.93473798 0 11
4.1145172 6.0794034 -0.90134573 8 4
4.372323 6.4554687 1.2348938 2 12
4.3752933 6.4525752 1.5154052 2 13
4.1057134 6.0504518 -0.38320392 25 6
4.3304415 6.3696623 2.0638232 1 15
2.7563257 4.0315509 -1.3085891 14 0
4.1746011 6.101418 0.1290431 42 8
3.0313075 4.4287748 -1.2390305 15 1
3.3100858 4.8288321 -1.1379849 14 2
4.3876882 6.3984704 0.67876893 1 10
3.6527381 5.3227239 -1.0224558 15 3
4.3254938 6.2983479 0.93815029 0 11
4.1568594 6.0505304 -0.90134573 11 4
4.4172812 6.424789 1.2348938 2 12
4.2769351 6.2183294 -0.66029191 8 5
4.4224572 6.4251094 1.5161684 2 13
4.1750422 6.0611176 -0.38571605 25 6
4.3956518 6.3694839 2.0736582 1 15
2.8130414 4.0534744 -1.3220477 14 0
4.2365594 6.1024303 0.12967138 48 8
3.0599284 4.4043036 -1.2381306 16 1
4.535512 6.5257516 0.41648957 2 9
3.3641772 4.8368125 -1.1452357 10 2
4.4413567 6.380764 0.68016338 1 10
3.737422 5.367444 -1.0359092 13 3
4.4227433 6.3469334 0.94984972 0 11
4.2432795 6.0848675 -0.91085154 10 4
4.3019919 6.1621823 -0.65750289 8 5
4.5076861 6.4520135 1.5299066 1 13
4.236794 6.0620275 -0.38760012 25 6
4.4666076 6.3789787 2.0865991 1 15
2.8494647 4.0468688 -1.3261888 13 0
4.2997923 6.102129 0.13029967 43 8
3.0831001 4.3738165 -1.2354312 19 1
3.4001272 4.8164163 -1.145999 12 2
4.521462 6.4024658 0.68574136 1 10
3.7542818 5.3121848 -1.0302775 13 3
4.4692354 6.3191462 0.95033723 0 11
3.9681587 5.6085806 -0.84357965 11 4
4.5625191 6.4438829 1.2505373 2 12
4.3922071 6.2010417 -0.66482401 9 5
4.6037211 6.4948616 1.547461 1 13
4.2882586 6.045332 -0.38843751 25 6
4.6362147 6.5334496 1.8495475 2 14
4.4931273 6.3224454 2.0783172 1 15
2.8866336 4.0394521 -1.33033 13 0
4.3644876 6.1052547 0.13099776 45 8
3.11356 4.3521857 -1.2354312 21 1
4.6250563 6.4625969 0.41648957 2 9
3.4294012 4.7883735 -1.1448541 15 2
4.5590887 6.3610258 0.68469548 1 10
3.788049 5.2832975 -1.0296518 13 3
4.5514946 6.3434138 0.9586243 0 11
4.0153193 5.59203 -0.84528583 9 4
4.6420727 6.4530005 1.5451714 1 13
4.3619738 6.0613937 -0.3913683 25 6
4.5439644 6.3026862 2.0819407 1 15
2.892777 3.9874182 -1.3199772 15 0
4.4279213 6.098989 0.13155624 45 8
3.1560752 4.345562 -1.2399302 17 1
3.5002079 4.8123245 -1.1566842 14 2
4.6419983 6.3797946 0.69027346 1 10
3.8743494 5.3208609 -1.0424794 11 3
4.6130662 6.3307371 0.96179295 0 11
4.2084169 5.7732944 -0.87721562 20 4
4.713603 6.4544978 1.5535669 1 13
4.4333935 6.0663447 -0.39377576 26 6
4.7844644 6.5419307 1.871143 2 14
4.5843396 6.2614117 2.0793524 1 15
2.9228344 3.970237 -1.3210124 16 0
4.4869976 6.090467 0.13204491 40 8
3.1909611 4.3296976 -1.2417299 18 1
3.5605342 4.8241024 -1.1654614 17 2
4.6864243 6.3472319 0.69027346 1 10
3.9454441 5.339756 -1.0515525 13 3
4.6807551 6.3303008 0.96666771 0 11
4.4103451 5.9624186 -0.91060776 15 4
4.7866025 6.45929 1.5627258 1 13
4.4768267 6.0368505 -0.39388046 26 6
4.8300161 6.5083714 1.871143 2 14
4.6417632 6.2478657 2.0855639 0 15
2.9701331 3.9760473 -1.3298123 11 0
4.5461698 6.0814161 0.13253358 41 8
3.2257764 4.3135591 -1.2435294 15 1
3.5552895 4.7472706 -1.152868 12 2
4.7545147 6.3462505 0.69375974 1 10
3.9719622 5.2978573 -1.0487368 14 3
4.7677264 6.35463 0.97544235 0 11
4.3553424 5.8028831 -0.89086497 10 4
4.8580313 6.4679346 1.2811985 2 12
4.6447659 6.1795092 -0.67632854 18 5
4.8693395 6.4759269 1.5749376 1 13
4.5356717 6.0277944 -0.39534587 26 6
4.9339471 6.5523305 1.8936379 2 14
4.7849975 6.3522162 -0.13881645 6 7
4.6945715 6.2276487 2.089705 0 15
3.0036552 3.9629116 -1.3324004 14 0
4.6187267 6.0893607 0.13340619 37 8
3.2652376 4.3033514 -1.2471286 15 1
3.6501083 4.8036208 -1.1727122 12 2
4.7987037 6.3129034 0.69375974 1 10
4.0016732 5.2605677 -1.0468596 14 3
4.8071609 6.3148746 0.97446734 0 11
4.4005566 5.7786551 -0.89183992 18 4
4.9287176 6.4605079 1.579517 1 13
4.6164269 6.0467825 -0.39869535 26 6
4.9795737 6.5177226 1.8936379 2 14
4.8200917 6.302135 2.1259398 0 15
3.050091 3.9663484 -1.3406827 13 0
4.6928315 6.0981731 0.13431372 38 8
3.3165984 4.3082461 -1.255227 18 1
3.6739674 4.7655807 -1.1696591 10 2
4.8888922 6.3392029 0.70038354 1 10
4.0334759 5.2262454 -1.0456082 16 3
4.8802514 6.3188658 0.98031712 0 11
4.4007435 5.6959519 -0.88379657 7 4
5.008275 6.4776144 1.2968419 2 12
5.0289769 6.4973583 1.5970714 1 13
4.6878815 6.0523019 -0.40120748 26 6
5.0238199 6.4836793 1.8936379 2 14
4.8876543 6.2988582 2.1362925 0 15
3.0753281 3.9419131 -1.3396474 14 0
4.7588406 6.0976152 0.13501182 38 8
3.3489919 4.2880597 -1.2561266 18 1
3.7208297 4.7590241 -1.1742386 10 2
4.9821386 6.3676844 0.70735598 1 10
4.093307 5.2297807 -1.0518655 11 3
4.9770079 6.3542624 0.99104154 0 11
4.1428232 5.2854385 -0.82456803 6 4
5.0522509 6.4433742 1.2968419 2 12
5.0839143 6.4744434 1.6001244 1 13
4.7561116 6.0548062 -0.40351027 26 6
5.117135 6.5097308 1.911634 2 14
4.9328051 6.2684793 2.1373277 0 15
3.1248651 3.9496727 -1.3494825 11 0
4.8149452 6.0814915 0.13539577 34 8
3.3974628 4.2896056 -1.2633251 16 1
3.7734838 4.7575426 -1.1803445 10 2
5.0377541 6.3492298 0.70909911 1 10
4.0695262 5.1252742 -1.0365349 21 3
5.0558262 6.3628793 0.99786633 0 11
4.5369115 5.7077727 -0.89525223 10 4
5.1217046 6.4388647 1.3030992 2 12
5.1890149 6.5164795 1.6192051 1 13
4.8082242 6.0339508 -0.40434763 26 6
5.1746063 6.4890838 1.9161332 2 14
5.0559936 6.3335352 2.1714919 0 15
3.1547811 3.930774 -1.3505179 12 0
4.8873372 6.0851469 0.13623348 34 8
3.4200037 4.2566671 -1.2606257 21 1
5.2274728 6.501668 0.43721461 2 9
3.8398368 4.7723799 -1.1906482 8 2
5.1119361 6.3511577 0.71328253 1 10
4.1609712 5.1659651 -1.050614 14 3
5.1175647 6.3490658 1.0012786 0 11
4.6987619 5.8273993 -0.91913867 9 4
5.2161508 6.4644456 1.3156141 2 12
5.231915 6.4770403 1.6184419 1 13
4.8803625 6.0375166 -0.40685976 26 6
5.2369413 6.4740119 1.9224317 2 14
5.1438541 6.3521309 2.1901269 0 15
3.2089772 3.9416142 -1.3619058 11 0
4.9486465 6.0741334 0.13675706 40 8
3.4545603 4.2387314 -1.2624253 20 1
5.2727351 6.4650154 0.43721461 2 9
3.8519578 4.7196002 -1.1841607 12 2
5.1435509 6.2998819 0.71153951 1 10
4.2319298 5.1796222 -1.0593743 17 3
5.1919179 6.350069 1.0071282 0 11
4.7531548 5.8113561 -0.92181975 11 4
5.2636528 6.4309316 1.3162397 2 12
5.3242846 6.4980655 1.6329435 1 13
4.9375925 6.0218291 -0.40811583 26 6
5.3265114 6.4915271 1.9386281 2 14
5.2125988 6.3459215 2.2004797 0 15
3.251178 3.9369905 -1.3681176 11 0
5.0253282 6.0810542 0.13769948 35 8
3.5113842 4.2475538 -1.2723231 21 1
3.927377 4.7440128 -1.1971357 10 2
5.2280746 6.3129206 0.71711749 1 10
4.2226081 5.0951986 -1.0481111 17 3
5.2690711 6.3533959 1.0134655 0 11
4.3170352 5.2035913 -0.83017403 9 4
5.35637 6.4517827 1.3281288 2 12
5.407166 6.5060329 1.6443919 1 13
5.002501 6.014852 -0.40999994 26 6
5.3716979 6.4541855 1.9386281 2 14
5.2518253 6.3034415 2.1984091 1 15
3.2649372 3.897908 -1.3624235 13 0
5.0946331 6.0780082 0.13843249 41 8
3.5735068 4.2617612 -1.2840205 18 1
3.9275758 4.6773877 -1.1872137 10 2
5.3078985 6.3189869 0.72199816 1 10
4.2784133 5.0897894 -1.0531169 16 3
5.3618593 6.3741798 1.0227276 0 11
4.8849535 5.8051829 -0.93156934 12 4
5.4267316 6.444448 1.3343862 2 12
5.5005412 6.5251627 1.6588935 1 13
5.0958805 6.0408487 -0.41418681 27 6
5.4417667 6.4463086 1.9476261 2 14
5.328124 6.3049874 2.2118676 0 15
3.2995768 3.8838513 -1.3655293 13 0
5.1628461 6.0727639 0.13913059 35 8
3.6183226 4.2545233 -1.2894194 15 1
4.0276008 4.7290702 -1.2074393 17 2
5.3777261 6.312109 0.72548437 1 10
4.3522902 5.1048927 -1.062503 29 3
5.4242635 6.3577361 1.02614 0 11
5.0001059 5.8585134 -0.94570619 10 4
5.5100741 6.4514704 1.3437722 2 12
5.2297068 6.118876 -0.70421833 9 5
5.5638204 6.5074968 1.6642361 1 13
5.154809 6.0248542 -0.41554755 27 6
5.542407 6.4732909 1.9674219 2 14
3.3278718 3.862185 -1.366047 11 0
5.239068 6.0759478 0.1400381 42 8
3.645391 4.2262073 -1.2885196 17 1
5.5816998 6.4664621 0.44768184 2 9
4.0387011 4.67558 -1.2009518 14 2
5.4529257 6.3105931 0.7296679 1 10
4.3632741 5.0459933 -1.0565585 24 3
5.4841037 6.3377261 1.0290648 0 11
5.0512786 5.8354712 -0.9476561 12 4
5.619648 6.4875002 1.3594157 2 12
5.6451292 6.5100265 1.6749215 1 13
5.2425594 6.0415173 -0.41921103 40 6
5.6334591 6.4874134 1.9836185 2 14
3.368737 3.8548591 -1.3717409 14 0
5.2695084 6.0256791 0.13972397 31 8
3.6850715 4.212389 -1.2921189 20 1
4.1074677 4.6886191 -1.2116373 10 2
5.538867 6.3203225 0.73524588 1 10
4.3827662 4.9975872 -1.0528041 14 3
5.5910659 6.3709016 1.0407642 0 11
5.0421281 5.7433763 -0.93839401 12 4
5.690877 6.4777899 1.3656731 2 12
5.2554331 5.9779258 -0.69637436 28 5
5.7293353 6.5146842 1.68637 1 13
5.2318296 5.944797 -0.41502416 27 6
5.6786127 6.4479265 1.9836185 2 14
5.2836285 5.9973207 -0.13951454 23 7
3.3930025 3.828357 -1.3707057 13 0
5.3021617 5.9782691 0.13947964 41 8
3.7350807 4.2098846 -1.2993174 15 1
4.111413 4.6275406 -1.2032416 12 2
5.614625 6.3172379 0.7394293 1 10
4.5238848 5.0864263 -1.0781465 10 3
5.685555 6.3880644 1.0500263 0 11
5.1665831 5.8029227 -0.95399332 11 4
5.7753806 6.4821515 1.375059 2 12
5.3026299 5.949451 -0.6972459 39 5
5.8164911 6.5214152 1.6985818 1 13
5.2958136 5.9334583 -0.4168036 27 6
5.7223678 6.4091268 1.9836185 2 14
5.3253689 5.960288 -0.13951454 40 7
3.4131899 3.7973921 -1.3681176 12 0
5.4430051 6.0535669 0.14209749 33 8
3.7748077 4.1952953 -1.3029165 15 1
5.8484063 6.4975972 0.45814902 2 9
4.1822319 4.6432123 -1.2146901 14 2
5.7012768 6.3252439 0.74500728 1 10
4.5769196 5.076057 -1.0825267 10 3
5.7448668 6.3668985 1.0529512 0 11
5.2069664 5.7667141 -0.95399332 10 4
5.8193731 6.442687 1.375059 2 12
5.9040241 6.5272388 1.7107936 1 13
5.4553399 6.0290833 -0.42611939 40 6
5.8140635 6.4210215 1.9998149 2 14
3.463681 3.8012025 -1.3779527 14 0
5.4986086 6.0301967 0.14244655 27 8
3.7165999 4.0744805 -1.2732229 19 1
5.8936253 6.4566092 0.45814902 2 9
4.2185202 4.6182485 -1.215835 14 2
5.7441959 6.286293 0.74500728 1 10
4.6202455 5.0527244 -1.0844039 13 3
5.8347359 6.3764329 1.0612383 0 11
5.2621851 5.7487063 -0.95691812 13 4
5.912241 6.4543447 1.3863224 2 12
5.7379074 6.2596383 -0.74291551 10 5
5.9509673 6.4897966 1.7115568 1 13
5.521605 6.0173402 -0.42800349 40 6
5.8930178 6.4175944 2.0115123 2 14
3.5019336 3.7896984 -1.3826115 11 0
5.6003098 6.056262 0.14398235 40 8
3.7634807 4.0684619 -1.2795216 19 1
5.9385571 6.4153066 0.45814902 2 9
4.2786746 4.6189327 -1.2238491 12 2
5.8800335 6.3454108 0.75686044 1 10
4.5721297 4.9305439 -1.0650059 19 3
5.9358215 6.3966579 1.0714754 0 11
5.2805796 5.6885538 -0.95301831 12 4
6.019001 6.4794879 1.4007144 2 12
5.7407765 6.1756473 -0.73768622 10 5
6.0362377 6.4912243 1.7230054 1 13
5.5811696 5.9976501 -0.42936423 26 6
5.9881406 6.4304938 2.0286086 2 14
3.5296261 3.7665672 -1.383129 13 0
5.662972 6.038897 0.14450593 41 8
3.8451228 4.0989394 -1.2975177 21 1
6.0324097 6.4261131 0.46191719 2 9
4.318881 4.5975347 -1.2261386 12 2
5.9241862 6.3042083 0.75686044 1 10
4.71064 5.0093112 -1.0890969 12 3
5.9912171 6.3666272 1.0734253 0 11
5.309279 5.639986 -0.95106846 10 4
6.1155605 6.4919486 1.4126034 2 12
5.750947 6.1006269 -0.73350269 10 5
6.1433702 6.5146255 1.7405598 1 13
5.6599164 5.9977603 -0.43219036 26 6
6.0328884 6.3885326 2.0286086 2 14
3.5651493 3.7516387 -1.3867525 12 0
5.7477112 6.0441365 0.14558797 36 8
3.8521545 4.0494051 -1.2903192 18 1
6.1156845 6.4243474 0.46484798 2 9
4.3373313 4.5530562 -1.2223225 12 2
5.9680533 6.2626963 0.75686044 1 10
4.7332268 4.9634361 -1.0862811 16 3
6.0492234 6.3390064 1.0758626 0 11
5.3978701 5.6544743 -0.95984304 12 4
6.1743813 6.4633756 1.415732 2 12
5.8044114 6.0718498 -0.7348972 15 5
6.2131243 6.4971175 1.7474288 1 13
5.7320266 5.9898491 -0.43449312 26 6
6.1258631 6.3969274 2.044805 2 14
3.584553 3.7197008 -1.3841642 13 0
5.8300228 6.0456066 0.14660022 42 8
3.9073908 4.0504637 -1.2993174 15 1
4.3908343 4.545259 -1.2284284 10 2
6.0476274 6.2581291 0.76139253 1 10
4.7979708 4.9615135 -1.0931642 13 3
6.1927228 6.3993287 1.0934118 0 11
5.4510241 5.6309128 -0.96228039 13 4
6.2743287 6.4768682 1.4282467 2 12
5.8844328 6.0722599 -0.73977798 15 5
6.2911305 6.4874129 1.7565877 1 13
5.7931767 5.9697514 -0.43595853 13 6
6.1584044 6.3438959 2.0412059 2 14
3.6158352 3.7001119 -1.3862349 13 0
5.8920069 6.0272317 0.14712378 36 8
3.9301219 4.0175138 -1.2975177 18 1
6.2539697 6.3908048 0.46861619 2 9
4.4326625 4.5264859 -1.2314813 12 2
6.1664705 6.292603 0.77080542 1 10
4.8786502 4.9766989 -1.1038017 13 3
6.2694988 6.3910413 1.0992615 0 11
5.5374808 5.6408868 -0.97056752 15 4
6.3597894 6.4762959 1.4376329 2 12
5.9322648 6.0367174 -0.74047518 10 5
6.3555393 6.4629312 1.7619303 1 13
5.9065113 6.0042195 -0.44140148 13 6
3.664048 3.6987474 -1.3950348 11 0
5.9663215 6.0186138 0.1479266 43 8
3.9409091 3.9740665 -1.2921189 14 1
6.3434529 6.392354 0.4719657 2 9
4.455853 4.4870734 -1.2291917 14 2
6.2653294 6.3070197 0.77777785 1 10
4.9439116 4.973341 -1.1106849 13 3
6.3391671 6.3724456 1.1036489 0 11
5.6177535 5.6452794 -0.97787964 15 4
6.4410915 6.4681287 1.4457675 2 12
6.05477 6.0780697 -0.75058526 10 5
6.4714589 6.4918222 1.7817745 1 13
5.9962435 6.0109138 -0.44496036 13 6
6.3443975 6.3576999 2.0735989 2 14
3.6979976 3.681253 -1.3981405 8 0
6.0482535 6.0187716 0.14893883 31 8
4.0210676 3.9986713 -1.3092151 20 1
6.4321413 6.3940892 0.47531521 2 9
4.4779377 4.4483356 -1.2269019 14 2
6.3092046 6.2631292 0.77777785 1 10
4.984663 4.9465284 -1.1122491 12 3
6.4415932 6.3878579 1.1138859 0 11
5.6598482 5.608717 -0.97836721 16 4
6.549521 6.4880877 1.4601595 1 12
6.11971 6.0580778 -0.75337422 10 5
6.5277877 6.4575295 1.7848274 1 13
6.1137075 6.0457954 -0.45061263 12 6
6.3470435 6.2721591 2.0601017 2 14
3.7249844 3.6567016 -1.3986582 9 0
6.1311374 6.0145469 0.14991617 32 8
4.0683632 3.9896054 -1.3155137 20 1
6.5091138 6.3786511 0.47761798 2 9
4.5419168 4.4477715 -1.2356791 14 2
6.3954883 6.2607422 0.78300714 1 10
5.0566459 4.9466476 -1.1203837 11 3
6.5155325 6.3693504 1.1187607 0 11
5.7528195 5.6217866 -0.98762923 11 4
6.6466613 6.4907355 1.4714227 1 12
6.1686082 6.0196977 -0.75407147 10 5
6.6345453 6.4721208 1.8016186 1 13
6.0910234 5.9377627 -0.44579774 13 6
6.433641 6.267375 2.0735989 2 14
3.7448702 3.6252325 -1.3965876 10 0
6.2074723 6.0049663 0.15075389 33 8
4.1185308 3.9827807 -1.3227122 18 1
6.5735941 6.3524842 0.47908339 2 9
4.6124001 4.4541411 -1.2463645 16 2
6.4763098 6.2519188 0.78753924 1 10
5.064045 4.8851676 -1.1144392 13 3
6.6341534 6.3953524 1.131435 0 11
5.8062205 5.5952616 -0.99006665 16 4
6.723114 6.4743228 1.4783059 1 12
6.2391987 6.0041137 -0.75755769 21 5
6.7220111 6.4664812 1.8130672 1 13
3.7700877 3.599 -1.3965876 10 0
6.2810783 5.991847 0.15152179 27 8
4.1659794 3.9727592 -1.3290108 15 1
6.6900792 6.3753271 0.484317 2 9
4.6561766 4.4340186 -1.249799 26 2
6.5659804 6.2505102 0.79311723 1 10
5.1123362 4.8633122 -1.117568 12 3
6.6901493 6.3598228 1.1333849 0 11
5.9285998 5.6339059 -1.0042036 13 4
6.7710142 6.4299498 1.4789317 1 12
6.337328 6.0138969 -0.76435584 26 5
6.8011746 6.4518223 1.8222259 1 13
6.6619911 6.3109579 2.1185889 2 14
3.8091862 3.5858352 -1.401764 9 0
6.3897533 6.0108809 0.15312742 28 8
4.2177448 3.9662752 -1.3366592 14 1
6.7344213 6.3284688 0.484317 2 9
4.6998992 4.4134998 -1.2532336 14 2
6.658844 6.2508855 0.79904383 1 10
5.1144686 4.79777 -1.1106849 15 3
6.8212843 6.3944159 1.1480093 0 11
5.922884 5.5502996 -0.9966476 21 4
6.9137893 6.4743342 1.5002067 1 12
6.3966126 5.985847 -0.7664476 32 5
6.8747292 6.431005 1.8298583 1 13
3.8596144 3.5828106 -1.4110814 10 0
6.4784756 6.009644 0.15424436 28 8
4.2324734 3.9248056 -1.33261 16 1
6.8897762 6.3844719 0.49227205 2 9
4.7435589 4.3925881 -1.2566681 10 2
6.7578807 6.2556767 0.8056677 1 10
5.1652398 4.7780447 -1.1144392 18 3
6.9036565 6.3816757 1.1543465 0 11
6.0095992 5.5532732 -1.004691 19 4
6.970428 6.4366341 1.5027097 1 12
6.4869847 5.9881158 -0.77237415 26 5
6.9973807 6.4547391 1.8504658 1 13
3.8959332 3.5662136 -1.4152226 9 0
6.5723386 6.0140085 0.15550095 21 8
4.255456 3.8912165 -1.3312603 15 1
7.0421643 6.4371443 0.50001782 2 9
4.7892957 4.3747611 -1.2608659 8 2
6.8543639 6.256701 0.81194282 1 10
5.2603884 4.8000288 -1.1278926 17 3
6.9968085 6.3800135 1.1626337 0 11
5.995399 5.4630504 -0.99591631 19 4
7.0929379 6.4608698 1.5196046 1 12
6.5757799 5.985599 -0.77795213 26 5
7.0800323 6.4400768 1.8603877 1 13
3.9258506 3.5447927 -1.4172932 9 0
6.6705842 6.0188804 0.15682732 15 8
4.3180189 3.8947935 -1.342508 23 1
7.0305576 6.3370109 0.49604025 2 9
4.7832513 4.3083701 -1.2513254 14 2
6.9234443 6.2338967 0.81508046 1 10
5.2306275 4.7063732 -1.1144392 15 3
7.0854597 6.3708315 1.1699458 0 11
6.0737848 5.4592705 -1.0027411 18 4
7.1584454 6.4296746 1.5239848 1 12
6.6618886 5.9794707 -0.78318143 27 5
7.1587753 6.4232025 1.8695467 1 13
3.9620469 3.5275736 -1.4214342 10 0
6.7363448 5.993432 0.15738581 7 8
4.3349133 3.8554852 -1.3393586 23 1
7.1313548 6.338192 0.50001782 2 9
4.8689909 4.3244157 -1.2658269 10 2
7.0144734 6.2277398 0.82065845 1 10
5.3579235 4.7536473 -1.1344628 16 3
7.1891818 6.3738837 1.1796954 0 11
6.1756277 5.4733534 -1.0132217 20 4
7.2475214 6.4188328 1.5333707 1 12
6.74823 5.9724302 -0.78841084 33 5
7.2534366 6.4172988 1.8825216 1 13
3.9720597 3.487082 -1.4162579 11 0
6.8922644 6.0464854 0.16003856 7 8
4.3661194 3.8289828 -1.3407084 14 1
7.2054691 6.3145823 0.50211126 2 9
4.8842926 4.2773833 -1.2620108 10 2
7.1087475 6.2232423 0.82658505 1 10
5.4474788 4.7655482 -1.1463519 12 3
7.2962751 6.3784127 1.1899325 0 11
6.1852903 5.4052844 -1.0085907 19 4
7.3576236 6.425251 1.547137 1 12
6.8468032 5.9749565 -0.79503471 33 5
7.3454027 6.4078026 1.8947334 1 13
7.2867208 6.3476591 2.2310646 2 14
4.0079904 3.4693835 -1.4203991 11 0
4.3219872 3.7372274 -1.319113 22 1
7.370276 6.3685918 0.51048499 2 9
4.9615874 4.2842369 -1.2742226 10 2
7.1912341 6.2073102 0.83111715 1 10
5.4776239 4.7248206 -1.1457262 12 3
7.3646808 6.3480592 1.1938322 0 11
6.3131065 5.4397187 -1.0232152 16 4
7.4771452 6.4381785 1.5627805 1 12
6.9366784 5.9685955 -0.80061269 28 5
7.4256783 6.3870959 1.9038923 1 13
4.055625 3.4613843 -1.4286813 10 0
4.4310169 3.7777648 -1.3443075 16 1
7.4145608 6.3169789 0.51048499 2 9
4.9898796 4.2482243 -1.2738409 6 2
7.3072267 6.2189341 0.83948416 1 10
5.5586262 4.7274194 -1.155738 12 3
7.4390717 6.3221998 1.198707 0 11
6.3509264 5.3955154 -1.0232152 18 4
7.5610633 6.4190607 1.5709151 1 12
7.0470223 5.9805436 -0.808631 28 5
7.5359693 6.3909707 1.9206835 1 13
4.0663877 3.4217918 -1.4240224 12 0
4.4841337 3.7693088 -1.3524057 14 1
7.518548 6.3177619 0.51467186 2 9
5.0517578 4.2419353 -1.2822365 8 2
7.42067 6.2266841 0.84750247 1 10
5.5437589 4.6501193 -1.146039 11 3
7.5732141 6.347929 1.2133312 0 11
6.4584417 5.4096808 -1.0344272 12 4
7.665163 6.4181719 1.5834299 1 12
7.1252747 5.9618845 -0.81281441 34 5
7.628602 6.3784981 1.9328952 1 13
4.1267495 3.4248769 -1.4369633 10 0
4.5396919 3.7635744 -1.3614038 19 1
7.6547518 6.3415689 0.52095217 2 9
5.0691509 4.1965485 -1.2791836 8 2
7.4813004 6.1912708 0.84959412 1 10
5.6598129 4.680542 -1.1632469 11 3
7.6295867 6.3050194 1.2152811 0 11
6.3781915 5.2671318 -1.0156592 20 4
7.7006431 6.356957 1.5815526 1 12
7.2282004 5.9627099 -0.81978685 28 5
7.700212 6.3475676 1.9397644 1 13
4.1661053 3.4074895 -1.4421397 10 0
4.5725431 3.7359245 -1.3632034 15 1
7.7308774 6.311893 0.5230456 2 9
5.1241817 4.1821599 -1.2856711 10 2
7.621141 6.2156515 0.86040151 1 10
5.7023487 4.6474094 -1.1651241 11 3
7.7165112 6.2867088 1.222106 0 11
6.3886366 5.2011695 -1.0115156 16 4
7.7980342 6.3440752 1.5921901 3 12
7.3407569 5.9699283 -0.82780522 28 5
7.8327065 6.3654695 1.9618982 1 13
4.2093425 3.3940854 -1.448869 8 0
4.6076193 3.7112455 -1.3659029 17 1
7.8400984 6.3103681 0.5274418 2 9
5.163156 4.1527677 -1.2879608 12 2
7.6954002 6.1872673 0.86388773 1 10
5.7808523 4.6446033 -1.1745101 11 3
7.8789425 6.3257813 1.24063 0 11
6.545547 5.2533574 -1.0305272 15 4
7.8945284 6.3314996 1.6028277 1 12
7.4019423 5.9322023 -0.82989693 35 5
7.9137268 6.3400917 1.9710571 1 13
4.2374706 3.3682241 -1.4504219 10 0
4.6181531 3.666872 -1.3614038 21 1
7.9434195 6.30265 0.53141934 2 9
5.207406 4.1288185 -1.291777 12 2
7.8071132 6.1878414 0.87155735 1 10
5.8131371 4.6041327 -1.1745101 12 3
7.9602675 6.3001928 1.2464797 0 11
6.5369172 5.1718144 -1.0234588 9 4
8.0036182 6.3276906 1.6159682 1 12
7.5244737 5.9446044 -0.83896118 29 5
7.9732003 6.2968612 1.9748732 1 13
4.27913 3.3528571 -1.4566337 9 0
4.6774011 3.6609662 -1.3713017 19 1
8.0658875 6.3085637 0.53665298 2 9
5.2515702 4.1044555 -1.2955931 12 2
7.9474645 6.2092381 0.88236475 1 10
5.8793912 4.5901833 -1.1813933 13 3
8.0040569 6.2444663 1.2464797 0 11
6.6542587 5.1895361 -1.0361333 18 4
8.0943441 6.3080835 1.6253543 1 12
7.6119132 5.929987 -0.84419054 29 5
8.1114683 6.3146057 1.9981518 2 13
4.3146663 3.3323462 -1.4607747 10 0
4.7213621 3.6425047 -1.3767005 16 1
8.1877165 6.3145051 0.54188651 2 9
5.3104892 4.0925798 -1.3032255 11 2
8.0064011 6.1657629 0.88410783 1 10
5.9543295 4.5837941 -1.1901536 15 3
8.1187534 6.2455163 1.2576917 1 11
6.7280979 5.1719894 -1.0419829 10 4
8.184082 6.2889547 1.6347404 1 12
7.717916 5.9264517 -0.85133731 24 5
8.2051973 6.2960687 2.0103636 2 13
7.7763381 5.9648428 -0.51362509 11 6
7.8979464 6.0493646 -0.17365146 11 7
4.364912 3.3239694 -1.4700923 10 0
7.7609591 5.905849 0.17023078 46 8
4.7522488 3.6150045 -1.3785001 15 1
8.2316008 6.2571902 0.54188651 2 9
5.3576903 4.0696583 -1.3078048 9 2
8.1592607 6.1954637 0.89630961 1 10
6.049129 4.5898776 -1.2026683 12 3
8.2254295 6.2366586 1.2674413 1 11
6.785295 5.1428599 -1.0453953 9 4
8.2403851 6.2412062 1.6372433 1 12
7.7406044 5.8605504 -0.84941983 36 5
8.3151836 6.2910104 2.0267732 2 13
7.725389 5.8405452 -0.50755417 34 6
7.7394695 5.8448243 -0.16928835 47 7
4.400372 3.3026924 -1.4742333 10 0
7.7881837 5.8432846 0.16995154 54 8
4.7742519 3.5794015 -1.3776002 18 1
8.3539124 6.2609048 0.54712015 2 9
5.3601251 4.014266 -1.301699 9 2
8.2342167 6.1622252 0.89979583 1 10
6.102376 4.5651627 -1.2070485 10 3
8.3312883 6.2280679 1.2771908 0 11
6.8369379 5.1072445 -1.0478327 9 4
8.3808117 6.2582459 1.6566411 1 12
7.8388162 5.8492641 -0.85569507 36 5
8.4470377 6.2985253 2.0481439 1 13
7.9003954 5.8801961 -0.1719062 10 7
4.4382801 3.2841549 -1.4794097 9 0
4.8204455 3.5630379 -1.383899 15 1
5.4417253 4.0163865 -1.314674 11 2
8.3593407 6.1675444 0.90886009 1 10
6.1563597 4.5388565 -1.2114286 10 3
8.435297 6.2144957 1.2864529 0 11
8.4370241 6.2089553 1.6591442 1 12
8.0399714 5.9124322 -0.87312621 30 5
8.5213518 6.2641387 2.0557761 1 13
4.4642215 3.2553663 -1.480445 9 0
4.8546538 3.5361822 -1.3865983 21 1
8.582613 6.2470908 0.55633128 2 9
5.4632816 3.9736788 -1.3131475 11 2
8.495656 6.1769948 0.91897017 1 10
6.2102685 4.5120249 -1.2158087 12 3
8.5202427 6.1857772 1.2927902 1 11
6.9854274 5.0696249 -1.0597758 11 4
8.547328 6.1986094 1.6722846 1 12
8.1084805 5.8760295 -0.87608945 24 5
8.6252918 6.2482619 2.0702777 1 13
4.4993887 3.2331414 -1.484586 10 0
4.8982182 3.5158427 -1.3919971 22 1
8.7266436 6.2591887 0.56282091 2 9
5.5228047 3.9583151 -1.3207799 13 2
8.5709686 6.1407371 0.92245638 1 10
6.3026524 4.5122557 -1.2276978 10 3
8.6407118 6.1815882 1.3044896 0 11
6.6298966 4.741292 -1.0007912 11 4
8.6707497 6.1962171 1.6879282 1 12
8.207674 5.8609653 -0.88236475 12 5
8.7390118 6.2380819 2.087069 1 13
4.5407705 3.2150471 -1.4907978 9 0
4.9640107 3.5108178 -1.4036945 17 1
8.7375078 6.1750584 0.56072748 2 9
5.5711498 3.9343877 -1.3257409 13 2
8.695014 6.1382036 0.93117195 1 10
6.3598242 4.4863667 -1.2327038 10 3
8.74856 6.1668577 1.3142391 1 11
7.13342 5.0264826 -1.0714754 11 4
8.733182 6.1491756 1.6916825 1 12
8.3591948 5.8814826 -0.89421791 12 5
8.8080425 6.1949911 2.0931747 1 13
4.5821199 3.1965296 -1.4970094 11 0
5.0107856 3.4916723 -1.4099932 20 1
5.6178193 3.9088533 -1.3303204 13 2
6.4185653 4.4610229 -1.2380226 9 3
7.2237778 5.0150533 -1.0797625 11 4
8.4360771 5.8479533 -0.89805281 12 5
17.545139 12.148831 -1.1184195 19 6
4.6202431 3.1754067 -1.5021858 9 0
5.0639586 3.4764583 -1.4180914 17 1
8.9710989 6.1541491 0.57014793 4 9
5.648212 3.8717556 -1.3310837 13 2
8.9491529 6.132206 0.94912601 4 10
6.4544449 4.4194489 -1.2389611 10 3
8.9452162 6.1203303 1.3308133 6 11
7.2717237 4.9734612 -1.0817124 12 4
8.9078865 6.087944 1.7088903 9 12
8.5852852 5.8630791 -0.90955734 12 5
8.9715099 6.1245389 2.1114926 18 13
8.9013824 6.0721169 -0.56470507 10 6
4.6646948 3.1582372 -1.5094327 10 0
8.9852076 6.0788722 0.18935861 23 8
5.1010175 3.4497564 -1.4216906 15 1
8.9972963 6.0801864 0.56910127 6 9
5.704391 3.8520057 -1.3379527 13 2
9.006608 6.0796123 0.95069486 1 10
6.5146184 4.3941636 -1.2445928 10 3
9.0519209 6.101006 1.3403192 0 11
7.3326082 4.940321 -1.0856122 14 4
8.6789112 5.838583 -0.91513532 13 5
9.1101656 6.126399 2.1340079 5 13
17.646744 11.858118 -1.1142327 9 6
4.6962733 3.1320255 -1.5125386 10 0
5.1606574 3.437829 -1.4315885 15 1
5.7540278 3.8273129 -1.3432955 13 2
9.1848812 6.1070399 0.96498835 1 10
6.5648785 4.3616972 -1.2483472 11 3
9.2265987 6.1255002 1.3598183 2 11
7.456234 4.9482875 -1.0987741 13 4
9.2109728 6.1081796 1.7505019 3 12
8.8124685 5.8394814 -0.92489672 13 5
9.2885647 6.1526341 2.1656821 2 13
9.2451143 6.1192055 -0.58103383 9 6
4.760004 3.1267419 -1.5259972 9 0
5.1943064 3.408134 -1.4342879 21 1
9.3619204 6.1379457 0.58668613 2 9
5.8118095 3.8074906 -1.3505462 18 2
9.3339653 6.1126318 0.97614431 1 10
6.6199632 4.331984 -1.2530402 14 3
9.3954096 6.143497 1.3783424 1 11
7.5404463 4.9286947 -1.1060863 10 4
9.4733582 6.1873879 1.7921134 3 12
8.8163099 5.7538643 -0.92106187 13 5
9.4266624 6.1498508 2.1878161 5 13
4.8044262 3.1081228 -1.5332441 9 0
5.2277956 3.3781314 -1.4369874 20 1
9.5689745 6.1786098 0.59694397 2 9
5.8580451 3.7795961 -1.3551255 18 2
9.5237541 6.1423483 0.99148369 1 10
6.5022659 4.1904254 -1.2251948 7 3
9.5582342 6.1551418 1.3958915 1 11
7.4978895 4.8265066 -1.0948743 10 4
9.6110191 6.1820173 1.809947 3 12
8.9937019 5.780508 -0.93535542 13 5
9.5684671 6.1475673 2.2107131 6 13
4.8390422 3.0828097 -1.5373851 9 0
5.2775574 3.3582909 -1.4441857 21 1
9.7601929 6.2059608 0.6061551 2 9
5.8710327 3.7301843 -1.3520726 13 2
9.6841354 6.1504827 1.0036855 1 10
6.6481128 4.2190213 -1.2470957 10 3
9.7216759 6.1648054 1.4134407 2 11
7.6051736 4.820807 -1.1055988 13 4
9.7941217 6.203557 1.836228 3 12
9.0597734 5.7362094 -0.93814445 13 5
9.6874714 6.1289005 2.2282674 3 13
4.8719025 3.056138 -1.5410087 8 0
5.3339014 3.3420591 -1.4531839 21 1
9.8868418 6.1923895 0.61138868 2 9
5.9628558 3.7317963 -1.3673373 11 2
9.8687334 6.1714659 1.0183277 2 10
6.8039794 4.2532496 -1.2708738 9 3
9.962079 6.2225876 1.442202 1 11
7.6588516 4.7802076 -1.1085237 7 4
9.924943 6.1921697 1.85281 3 12
9.1604662 5.7107658 -0.94441962 13 5
4.912312 3.0350924 -1.5472202 8 0
5.3532095 3.3036277 -1.452284 21 1
10.048834 6.1965971 0.6187157 2 9
6.0021329 3.6983185 -1.3703903 11 2
9.9614086 6.1354899 1.0235571 1 10
6.8435993 4.2118607 -1.272751 9 3
10.123647 6.2256737 1.4592637 1 11
7.6540051 4.7050977 -1.1031613 10 4
10.05041 6.1733856 1.8681406 3 12
9.2646389 5.6862783 -0.95104349 13 5
4.9614415 3.0177882 -1.5560201 10 0
5.4294381 3.2985535 -1.4666809 16 1
10.204528 6.1947012 0.62562406 2 9
6.061377 3.6766894 -1.3780226 8 2
10.184586 6.1753001 1.042034 2 10
6.9235206 4.1946883 -1.282137 12 3
10.299319 6.2350321 1.4782752 1 11
7.873486 4.764596 -1.1299726 11 4
10.225114 6.182795 1.8925444 3 12
9.3893719 5.6729808 -0.959759 13 5
4.9956474 2.991019 -1.5601612 10 0
5.4724021 3.272573 -1.4720796 16 1
10.364112 6.1929736 0.63274175 2 9
6.1172414 3.6523964 -1.3848917 10 2
10.412221 6.214325 1.0608597 1 10
7.0001435 4.1745772 -1.2908974 9 3
10.479018 6.2442746 1.4977744 2 11
7.8417492 4.6709099 -1.1207105 15 4
10.346109 6.1577382 1.9069364 3 12
9.4561472 5.6235867 -0.96254802 13 5
5.0430365 2.9717624 -1.5684435 11 0
5.5152693 3.2461505 -1.4774785 22 1
10.565481 6.2136154 0.64237159 2 9
6.1696715 3.6255186 -1.3909976 8 2
10.5172 6.1778059 1.0671349 1 10
6.9745989 4.0936117 -1.2808856 12 3
10.628521 6.2332268 1.5128862 2 11
8.0471296 4.7174511 -1.1453282 9 4
10.532023 6.1692262 1.9332174 3 12
9.632741 5.6379423 -0.97649294 13 5
5.0703449 2.9403591 -1.5705141 10 0
5.56815 3.2251482 -1.4855767 17 1
10.674292 6.1777205 0.64634913 2 9
6.2560158 3.6177394 -1.4047359 12 2
10.753263 6.2159114 1.0866578 2 10
7.0714302 4.0843396 -1.2934003 11 3
10.781815 6.2223778 1.5284854 2 11
8.1297321 4.6899223 -1.1523966 11 4
10.698058 6.1665759 1.9557439 3 12
9.678771 5.5745382 -0.9771902 13 5
5.1041708 2.9125519 -1.5746551 10 0
10.209356 5.8209534 0.20513558 41 8
5.6379366 3.2132149 -1.4981741 16 1
10.80394 6.1524668 0.65158272 2 9
6.2947702 3.5817432 -1.4077889 10 2
10.914163 6.2076702 1.098511 1 10
7.22686 4.1070976 -1.3165526 9 3
10.983802 6.2371349 1.5509094 1 11
8.1933508 4.6506906 -1.1567839 11 4
10.838788 6.1472864 1.9735774 3 12
9.8457232 5.5795221 -0.99008924 14 5
10.1682 5.7552371 -0.61233073 36 6
10.22714 5.7815294 -0.20506579 36 7
5.1412268 2.8863018 -1.5798315 11 0
10.249745 5.749537 0.20513558 41 8
5.6670308 3.1775887 -1.4999737 15 1
11.03481 6.1823211 0.66288728 2 9
6.3401775 3.549221 -1.4123683 10 2
11.120671 6.2227778 1.1148963 1 10
7.2484574 4.0526915 -1.3153011 10 3
11.110262 6.2067723 1.5626088 2 11
8.3712063 4.6746759 -1.177258 10 4
10.998743 6.1369181 1.9948525 3 12
9.9505644 5.5475173 -0.9967131 14 5
5.1680164 2.8540747 -1.5819021 11 0
5.7129655 3.1511245 -1.5062722 19 1
11.224633 6.1861162 0.67167974 2 9
6.4387527 3.5455899 -1.4287778 7 2
11.317439 6.2295408 1.1302357 1 10
7.3423491 4.0381598 -1.3271902 10 3
11.299459 6.209363 1.5830829 1 11
8.396677 4.6122971 -1.176283 10 4
11.129635 6.1084552 2.0108089 3 12
9.926158 5.4434304 -0.99043781 14 5
5.2234631 2.837292 -1.5927725 9 0
5.7759337 3.1334691 -1.5170699 14 1
11.344806 6.1494813 0.67628533 2 9
6.4788852 3.5089674 -1.4322125 10 2
11.497321 6.22436 1.143832 1 10
7.3321376 3.9661257 -1.320307 9 3
11.48573 6.2077274 1.6030694 1 11
8.2784729 4.4724193 -1.1553215 13 4
11.311069 6.1056781 2.0358384 3 12
10.104208 5.4496584 -1.0043827 14 5
5.2141762 2.7852824 -1.5839727 10 0
5.8217397 3.1059108 -1.5233686 15 1
11.553137 6.1584377 0.68612444 2 9
6.5656042 3.4968784 -1.4459506 8 2
11.660086 6.2076092 1.1556851 1 10
7.3962703 3.9343262 -1.3268772 13 3
11.654998 6.1944695 1.6206186 2 11
8.3024788 4.4107938 -1.1543465 12 4
11.505217 6.1071391 2.0630579 3 12
10.177211 5.3976555 -1.007869 14 5
5.2899337 2.7784567 -1.6010547 9 0
5.8881516 3.0887256 -1.535066 15 1
11.737368 6.1518111 0.69449818 2 9
6.5115924 3.4099715 -1.4287778 14 2
11.897305 6.2276998 1.1748594 1 10
7.4813204 3.9128058 -1.337202 9 3
11.83871 6.1864953 1.6401178 2 11
7.8896723 4.1211185 -1.0929244 1 4
11.650897 6.0805874 2.0815172 3 12
10.476107 5.4628139 -1.0336671 14 5
5.328084 2.7512081 -1.6067487 10 0
5.9407458 3.0636232 -1.5431641 17 1
11.939819 6.1520514 0.7039187 2 9
6.6556807 3.4264333 -1.4551095 9 2
12.057417 6.2046576 1.1863639 1 10
7.5330501 3.8731265 -1.3415821 9 3
12.026402 6.1780748 1.6601044 2 11
8.7146702 4.4748855 -1.2028506 9 4
11.79676 6.0523014 2.0999765 3 12
10.552994 5.409544 -1.0375019 14 5
5.3609428 2.7209387 -1.6108898 11 0
5.9863238 3.0344095 -1.5494629 15 1
12.071566 6.1136646 0.70915228 2 9
6.7109728 3.3958366 -1.4619786 9 2
12.232006 6.1868744 1.199263 1 10
7.3941827 3.7366877 -1.3121724 24 3
12.207455 6.1637588 1.679116 2 11
8.2548037 4.166183 -1.1353348 6 4
12.016868 6.0596347 2.1315763 4 12
10.721231 5.4039426 -1.050401 15 5
5.4247551 2.7058656 -1.6243484 11 0
6.0387597 3.0081837 -1.557561 15 1
12.29169 6.120378 0.71961951 2 9
6.7233844 3.3448343 -1.4596889 11 2
12.417635 6.1722684 1.213208 1 10
7.0603242 3.5078492 -1.2486601 6 3
12.355814 6.1334748 1.6937402 2 11
7.5260978 3.7327154 -1.0315022 3 4
12.172878 6.0347228 2.1519127 7 12
10.808684 5.3537292 -1.0552818 15 5
5.4638619 2.6790836 -1.63056 11 0
6.0748467 2.9747224 -1.5616102 14 1
12.513524 6.1221905 0.73008668 2 9
6.792429 3.3202343 -1.4696109 11 2
12.649113 6.1803207 1.2316849 1 10
7.6722155 3.7453108 -1.3522196 11 3
12.558908 6.1253901 1.7156768 2 11
7.5263505 3.6692219 -1.0280899 3 4
12.397628 6.0386958 2.1841383 4 12
10.934443 5.3236399 -1.0639973 15 5
5.5067987 2.6526105 -1.6378069 11 0
6.1218081 2.9449112 -1.5683587 10 1
12.601706 6.0593743 0.73280811 2 9
6.8254914 3.2790205 -1.4719007 9 2
12.8105 6.1487637 1.2431895 1 10
7.0029383 3.3597558 -1.2302008 3 3
12.757836 6.1152701 1.7371258 1 11
9.0950823 4.3556824 -1.2381927 12 4
12.556041 6.0104599 2.2047877 1 12
11.007291 5.2643661 -1.0674834 15 5
5.5535812 2.6263511 -1.6460892 10 0
6.1268659 2.8935394 -1.5643097 15 1
12.898664 6.0861564 0.74746221 2 9
6.858222 3.233088 -1.4738088 6 2
13.001962 6.1265755 1.257483 1 10
7.9084802 3.7231388 -1.3844452 13 3
12.942433 6.0874882 1.7561374 1 11
9.068531 4.2634611 -1.2303931 11 4
11.059108 5.1922393 -1.0688781 15 5
5.5857987 2.5940256 -1.6502303 11 0
6.1822748 2.8670928 -1.5733078 13 1
6.9531121 3.220154 -1.4894551 9 2
13.203536 6.1092877 1.2728225 1 10
7.9856358 3.6932645 -1.3935183 9 3
13.174582 6.0875177 1.7819737 2 11
9.2656908 4.2774253 -1.2530607 9 4
11.11318 5.1232467 -1.0706211 15 5
5.6736307 2.5880163 -1.6709359 10 0
6.2069664 2.8273714 -1.5746574 16 1
13.224947 6.0185919 0.76148826 2 9
7.0111661 3.187789 -1.4970875 11 2
13.36816 6.0753212 1.2846756 1 10
8.0615864 3.6602948 -1.4022788 9 3
13.365001 6.0626316 1.8019602 2 11
8.3508472 3.7863588 -1.1258291 4 4
11.162313 5.0540624 -1.0720155 15 5
12.65097 5.7174487 -0.72757453 26 6
12.709496 5.7358875 -0.24339128 21 7
5.6774564 2.5420258 -1.6667948 11 0
6.2336712 2.7871485 -1.576457 21 1
13.447949 6.0099297 0.77195543 2 9
7.0828991 3.1623995 -1.5077728 9 2
13.584925 6.0597701 1.3014096 1 10
8.1440496 3.631073 -1.4122906 9 3
13.558274 6.0393734 1.8224343 2 11
8.6291704 3.840153 -1.1597089 2 4
11.328416 5.0342669 -1.084566 16 5
12.716978 5.6433558 -0.72914463 17 6
12.749228 5.6470251 -0.24339128 21 7
5.6910887 2.5017691 -1.6657594 10 0
6.1936121 2.7188067 -1.5616102 23 1
13.789554 6.0474458 0.78912163 2 9
7.1389694 3.1278474 -1.5150236 11 2
13.780214 6.0318913 1.3160516 1 10
8.2162523 3.5947189 -1.4204252 9 3
13.716518 5.9954548 1.8380336 1 11
8.9886847 3.9251895 -1.204313 4 4
11.494782 5.0123911 -1.0971165 16 5
5.6911054 2.4533331 -1.660583 11 0
6.2612376 2.6952202 -1.5737575 15 1
13.898524 5.9770274 0.79288983 2 9
7.2134795 3.0991564 -1.5260904 9 2
13.907245 5.9692769 1.32407 1 10
8.2599192 3.5436208 -1.4235538 11 3
13.93058 5.9706573 1.860945 1 11
9.6862593 4.1475315 -1.2937651 13 4
11.607299 4.9629059 -1.1044376 17 5
5.7316484 2.4223223 -1.6673124 9 0
6.3844981 2.6942923 -1.599852 14 1
14.154425 5.9674225 0.80503178 2 9
7.2783604 3.0670185 -1.5352492 7 2
14.179955 5.9694443 1.3460333 1 10
8.3433332 3.5089295 -1.4335656 9 3
14.147601 5.9471068 1.884344 0 11
9.7589025 4.098259 -1.2996148 13 4
11.766603 4.9341488 -1.1162907 17 5
5.8015389 2.405452 -1.6828415 7 0
6.4134917 2.6552474 -1.6025513 14 1
14.348713 5.9375639 0.81382424 2 9
7.3353534 3.0324092 -1.5428816 10 2
14.419144 5.9549227 1.3648589 1 10
8.3773775 3.4580395 -1.4354428 11 3
14.418986 5.946023 1.915055 0 11
8.7324018 3.5992372 -1.1597089 1 4
12.032082 4.9494438 -1.1382539 18 5
5.8173647 2.3669217 -1.6828415 7 0
6.4616532 2.6251221 -1.6101997 14 1
7.3594642 2.9838803 -1.5436448 9 2
14.651393 5.9344335 1.3829873 1 10
8.4995966 3.4409642 -1.4523377 11 3
14.656034 5.9273825 1.941135 1 11
9.9536715 4.0215445 -1.318139 19 4
12.120925 4.8897915 -1.1434834 18 5
5.7928782 2.3087826 -1.6709359 6 0
6.4929471 2.5838599 -1.613349 17 1
14.819971 5.8915892 0.83580536 2 9
7.4682107 2.9659235 -1.5619626 10 2
14.900903 5.9117289 1.4025102 1 10
8.5717449 3.3989863 -1.4604723 11 3
14.98229 5.9349408 1.9786707 2 11
10.157546 4.0196066 -1.3412941 10 4
12.140781 4.7970738 -1.1420889 18 5
5.8218484 2.2721872 -1.6745592 5 0
6.4858503 2.5274258 -1.6070504 25 1
15.28238 5.9491401 0.85946119 2 9
7.5240083 2.9259255 -1.5692132 10 2
15.287222 5.9418106 1.4349321 1 10
8.6529341 3.3597262 -1.4701713 13 3
15.390824 5.9697151 2.026931 2 11
5.8953133 2.253561 -1.6911237 4 0
6.4669242 2.4681869 -1.5980524 32 1
15.62587 5.9575629 0.87641799 2 9
7.5827799 2.8880048 -1.5772274 10 2
15.749157 5.9951253 1.4743265 1 10
8.7186432 3.315388 -1.4773673 11 3
15.810692 6.0059247 2.0766537 3 11
5.9145212 2.2137034 -1.6921589 4 0
6.7377348 2.517797 -1.6605887 14 1
7.6137948 2.8391125 -1.579517 10 2
16.033327 5.9754901 1.496987 1 10
8.811924 3.2806296 -1.4892563 9 3
16.192726 6.0220175 2.1212578 4 11
10.40138 3.8661754 -1.3624994 13 4
15.116701 5.5978355 -0.84480709 26 6
15.190593 5.6161561 -0.28269407 29 7
5.9116921 2.1657131 -1.6869825 4 0
6.7130542 2.4553015 -1.6502409 20 1
7.739903 2.8262784 -1.6016507 9 2
16.722279 6.0996404 1.5572987 1 10
8.8897266 3.2408705 -1.4986424 11 3
16.55603 6.0291791 2.1634247 1 11
10.484082 3.8138247 -1.3698115 13 4
15.38353 5.5778685 -0.85757709 8 6
5.9699397 2.1410754 -1.6994059 5 0
6.7571316 2.4194038 -1.6569895 14 1
7.7520509 2.7695327 -1.6001244 10 2
17.232502 6.1531711 1.6008766 1 10
8.9642315 3.1973107 -1.5074027 12 3
10.47118 3.726557 -1.364693 16 4
12.972915 4.6092405 -1.2044923 20 5
15.753388 5.5878477 -0.87599933 17 6
5.9778156 2.0957439 -1.6973354 4 0
6.7577181 2.3651953 -1.6529404 15 1
7.8267975 2.7347734 -1.6115729 9 2
17.712505 6.1820273 1.6413169 1 10
9.0167255 3.1434865 -1.5124085 10 3
10.652546 3.7075262 -1.3849233 16 4
13.098877 4.5512629 -1.213208 21 5
16.087355 5.5770307 -0.89232814 17 6
6.0142293 2.0614796 -1.703547 4 0
6.8625655 2.3482466 -1.6745356 19 1
18.092169 6.1837516 1.0020244 2 9
7.8833265 2.6913824 -1.6192051 10 2
18.166307 6.1984715 1.6793169 2 10
9.1095037 3.104677 -1.5242976 9 3
10.819118 3.6810222 -1.4032037 10 4
13.153749 4.4650974 -1.2152996 21 5
16.398287 5.5568967 -0.90740091 18 6
6.0394659 2.023124 -1.7066529 4 0
6.9009705 2.3076961 -1.6799345 15 1
7.8832994 2.6300714 -1.6153891 10 2
18.681662 6.2290497 1.7228948 2 10
9.2509022 3.0809572 -1.5443213 10 3
10.970761 3.6473603 -1.4195342 12 4
13.229986 4.3882122 -1.2194831 21 5
16.504938 5.46488 -0.91116911 9 6
6.0681319 1.9857148 -1.710794 4 0
6.8946848 2.2521975 -1.6745356 18 1
19.126116 6.240303 1.0543603 2 9
8.0134659 2.6114697 -1.6382861 7 2
19.194515 6.2514925 1.766124 1 10
9.2872133 3.0211873 -1.5468242 10 3
10.931762 3.5498409 -1.4112471 19 4
13.191317 4.2759461 -1.213208 21 5
17.013979 5.501925 -0.93712771 9 6
6.0744848 1.9409536 -1.7087234 4 0
6.9566536 2.2188158 -1.6857833 14 1
8.0684719 2.5687711 -1.6459185 9 2
19.678186 6.2574196 1.8065642 1 10
9.4016943 2.9878106 -1.5624677 12 3
11.069817 3.5094254 -1.4258715 13 4
13.623553 4.3111792 -1.250162 22 5
17.466217 5.5171328 -0.95994622 18 6
6.0432963 1.8857503 -1.6963001 9 0
6.9678741 2.1702528 -1.6848834 13 1
8.146203 2.5310245 -1.6581303 9 2
20.142744 6.2544832 1.8452613 1 10
9.5128851 2.950192 -1.5774853 10 3
11.180676 3.4610014 -1.4370835 14 4
13.87034 4.2829771 -1.2700335 23 5
17.574928 5.4168272 -0.96381903 18 6
17.65081 5.4300966 -0.32234594 35 7
6.0821886 1.851387 -1.703547 7 0
6.8989511 2.0960593 -1.6646378 23 1
8.10355 2.4558702 -1.6459185 9 2
20.662626 6.2581 1.8888392 1 10
9.5408115 2.8859949 -1.5787368 10 3
11.291984 3.4092541 -1.4482955 16 4
14.151725 4.2618842 -1.2930425 24 5
17.893484 5.3785229 -0.97920585 18 6
6.1283011 1.8187768 -1.7128645 9 0
6.9190197 2.0495079 -1.6659875 23 1
7.9962325 2.3625262 -1.6207317 15 2
20.942757 6.1836562 1.9104539 3 10
9.6592541 2.8483663 -1.595006 9 3
11.395493 3.3538728 -1.4585325 18 4
14.334071 4.2078786 -1.3069874 24 5
18.032181 5.2832346 -0.98475343 18 6
6.2410622 1.8049308 -1.740817 4 0
7.0099249 2.0233111 -1.6844335 17 1
20.977879 6.0470233 1.1441689 4 9
8.1106377 2.3348835 -1.6405759 10 2
21.487074 6.1816196 1.9561234 5 10
9.751049 2.8015957 -1.606895 11 3
11.52167 3.3037877 -1.4716942 13 4
14.359267 4.1066098 -1.3066388 24 5
18.34903 5.2372422 -1.0000356 18 6
6.2978282 1.7749876 -1.7532402 4 0
7.0610528 1.9861057 -1.6934315 15 1
8.0658531 2.2626531 -1.6283641 13 2
21.904667 6.1406279 1.9902885 4 10
9.815546 2.7479386 -1.6144038 9 3
11.666251 3.2594719 -1.4872936 13 4
14.582653 4.0633225 -1.3244187 25 5
18.578602 5.1662755 -1.0106075 18 6
6.3100677 1.7309743 -1.7532402 3 0
7.0709877 1.9357291 -1.6925317 21 1
8.3806953 2.2879868 -1.6886597 9 2
22.173815 6.0494328 2.0108571 2 10
9.8687963 2.6886973 -1.6200355 12 3
11.771091 3.2003472 -1.4977744 10 4
14.779886 4.0072985 -1.339758 26 5
18.895693 5.1126065 -1.0258895 19 6
6.3798614 1.702319 -1.7692871 2 0
7.076797 1.8843118 -1.6907321 19 1
8.3983622 2.2299223 -1.6890413 10 2
9.9904404 2.6470506 -1.6369305 10 3
11.881975 3.139359 -1.5089864 16 4
14.8075 3.9040248 -1.339758 26 5
19.104761 5.026309 -1.03531 19 6
6.3918796 1.6566222 -1.7692871 2 0
7.1429267 1.847285 -1.7033294 21 1
8.4289331 2.1751611 -1.6920942 10 2
10.104778 2.6001055 -1.6525738 9 3
11.886299 3.0518818 -1.5067927 19 4
14.938619 3.8272486 -1.3491708 26 5
19.411156 4.9586768 -1.0499641 19 6
18.85079 4.7980003 5.2120981 3 15
6.3826809 1.6067734 -1.763593 2 0
7.2501493 1.8211136 -1.7258245 15 1
8.457613 2.1181278 -1.6947654 10 2
10.099689 2.523751 -1.6488196 12 3
12.16927 3.0341377 -1.5399412 14 4
15.197647 3.7779379 -1.3700883 27 5
19.507336 4.8384175 -1.0533136 19 6
6.3730998 1.5571309 -1.757899 2 0
7.3478847 1.7912227 -1.7460701 14 1
8.4989023 2.0655262 -1.7001083 10 2
10.216886 2.477391 -1.6650885 11 3
12.317495 2.9799194 -1.5560279 14 4
15.320496 3.695096 -1.3788038 27 5
20.014444 4.8161254 -1.0788535 9 6
6.3875751 1.5134913 -1.7589344 2 0
7.390554 1.7470539 -1.7532685 12 1
8.5876408 2.0237045 -1.7149915 12 2
10.287775 2.4186618 -1.673849 10 3
12.459756 2.9224124 -1.5713835 10 4
15.63629 3.6588266 -1.4049505 28 5
20.718618 4.8328176 -1.1149653 19 6
6.4205799 1.4740479 -1.7651459 2 0
7.4101691 1.697156 -1.7550682 11 1
8.6146154 1.9682645 -1.7176627 9 2
10.36178 2.3617487 -1.683235 11 3
12.55922 2.8533874 -1.5813768 15 4
15.801354 3.5812836 -1.4175009 28 5
21.056887 4.760829 -1.1313989 20 6
6.3946352 1.4223409 -1.7553109 2 0
7.4672089 1.6568078 -1.7658658 10 1
8.6818199 1.919945 -1.728348 10 2
10.466749 2.3089266 -1.6976269 11 3
12.722305 2.7971818 -1.5994134 12 4
15.950526 3.4981909 -1.4286568 29 5
21.468126 4.6965046 -1.1517051 10 6
6.4027605 1.3761395 -1.7547932 2 0
7.4617248 1.5996548 -1.7618166 9 1
8.7026911 1.8609297 -1.7298744 10 2
10.5371 2.2454972 -1.7063874 10 3
12.865792 2.7347095 -1.6150126 11 4
16.290308 3.4536998 -1.4568955 29 5
21.251059 4.4899154 -1.1383072 10 6
6.4008622 1.3290527 -1.7516873 2 0
7.4574437 1.5443654 -1.7582175 7 1
8.715785 1.798607 -1.7298744 10 2
10.521562 2.165508 -1.7013814 11 3
12.896238 2.6472178 -1.6164751 18 4
16.579481 3.3942337 -1.4806018 30 5
22.162514 4.521102 -1.1854095 10 6
6.4289265 1.2881292 -1.7568637 2 0
7.4623108 1.4911194 -1.7568678 8 1
26.968098 5.3838725 1.4412278 7 9
8.7836618 1.7503698 -1.7409414 12 2
10.532183 2.0930748 -1.7007557 12 3
12.933876 2.5609822 -1.6189125 18 4
16.727869 3.3031144 -1.4917578 31 5
22.639568 4.4581232 -1.2092748 20 6
6.4261656 1.2421392 -1.753758 2 0
7.4416714 1.4343891 -1.7496693 9 1
8.9518385 1.7189902 -1.7718524 7 2
10.54266 2.0187473 -1.70013 11 3
13.126498 2.5063863 -1.640849 18 4
17.044115 3.2420981 -1.5179044 31 5
23.074368 4.3766437 -1.2308371 20 6
6.4137888 1.1933588 -1.7480639 2 0
7.4591675 1.3838233 -1.7514689 9 1
9.040843 1.6707276 -1.7871171 7 2
10.579807 1.9493967 -1.7038844 11 3
13.133914 2.4128916 -1.6396303 20 4
17.164328 3.1409521 -1.5266199 32 5
23.4541 4.2792468 -1.2494687 10 6
6.4257674 1.1492332 -1.7490991 2 0
7.4763207 1.333083 -1.7532685 7 1
9.1122103 1.6182115 -1.7989473 4 2
10.717647 1.8975285 -1.7239079 19 3
13.27987 2.3415964 -1.655717 20 4
23.943747 4.1960759 -1.273962 21 6
6.4052653 1.0983247 -1.7413346 11 0
7.4856687 1.2795496 -1.7532685 7 1
9.0807066 1.5473019 -1.7905518 4 2
10.732898 1.8211168 -1.7242209 19 3
13.438775 2.2730014 -1.67351 18 4
24.288311 4.077539 -1.2907095 10 6
6.422308 1.0551497 -1.7439228 9 0
7.4790339 1.2247429 -1.7496693 7 1
9.0314798 1.4724888 -1.7787216 4 2
10.74925 1.7467765 -1.7248467 18 3
13.724734 2.222924 -1.7071459 18 4
17.81642 2.8760612 -1.5789135 33 5
24.923546 4.005497 -1.3229485 10 6
6.4715042 1.0168821 -1.7553109 3 0
7.4720006 1.170084 -1.7460701 7 1
9.068449 1.4152173 -1.7840642 4 2
10.885813 1.6929961 -1.7448702 14 3
13.904704 2.1525631 -1.72762 14 4
18.229881 2.8123641 -1.6137757 34 5
25.167379 3.869138 -1.3344623 10 6
6.4534402 0.96908194 -1.7485816 2 0
7.4759369 1.1186233 -1.7451702 6 1
9.04704 1.3472464 -1.7779584 4 2
11.010698 1.6337738 -1.7630166 16 3
13.946527 2.0619314 -1.7310323 19 4
25.656197 3.7611313 -1.3589556 11 6
6.4351873 0.9204489 -1.7418523 2 0
7.4372621 1.0598062 -1.7343726 15 1
35.029335 4.9791718 1.8542631 4 9
9.0134592 1.2779899 -1.7695627 4 2
11.178312 1.5789676 -1.7880461 17 3
13.872124 1.9520686 -1.720064 21 4
26.208004 3.6553133 -1.3867983 22 6
30.880501 4.2960134 7.1979837 7 14
6.4414563 0.87550038 -1.7418523 2 0
7.4502735 1.0086428 -1.7357224 25 1
9.0416193 1.2176576 -1.773379 4 2
11.349606 1.5224304 -1.8137014 9 3
13.903122 1.8575479 -1.7222577 16 4
26.743725 3.5398738 -1.4138037 22 6
6.4301677 0.8282848 -1.7371935 2 0
7.48806 0.96056914 -1.7429208 15 1
9.0789099 1.1598123 -1.7791032 4 2
11.371464 1.446631 -1.8155787 4 3
13.94923 1.7646759 -1.7264012 20 4
19.289282 2.4299607 -1.7009314 37 5
27.01293 3.3885782 -1.426783 11 6
37.360455 4.6733556 8.6925583 1 14
6.4605856 0.78753877 -1.7439228 2 0
7.5157042 0.9121635 -1.7478697 7 1
9.0536499 1.0924076 -1.7726158 4 2
11.35775 1.364386 -1.8118242 5 3
14.345273 1.7156532 -1.7739303 19 4
28.099041 3.3257372 -1.4828871 11 6
37.190128 4.3951735 8.6457691 3 14
37.078072 4.3556876 10.003356 0 15
6.4927955 0.74550128 -1.7511697 1 0
7.510272 0.85834402 -1.7451702 6 1
36.935284 4.2147789 1.9482585 5 9
9.0296659 1.0272055 -1.7665098 4 2
36.905563 4.1852908 3.2495146 2 10
11.333405 1.2832663 -1.8065054 6 3
36.900795 4.1651826 4.5596199 4 11
14.573893 1.6398786 -1.8007416 12 4
36.834248 4.1381412 5.8706732 6 12
19.716953 2.2081313 -1.7357937 38 5
36.691067 4.0961032 7.1763263 2 13
28.474348 3.1737907 -1.5015187 11 6
36.879025 4.097538 8.5665855 4 14
36.84705 4.0809836 -0.64710033 136 7
36.870686 4.0770702 9.9396877 2 15
6.4593053 0.6971429 -1.740817 2 0
7.5140038 0.80699521 -1.7447205 5 1
37.023384 3.9631968 1.9513987 2 9
9.0209999 0.96247512 -1.7634568 25 2
37.02037 3.9432704 3.2571843 0 10
11.344052 1.2043214 -1.8068182 5 3
14.722903 1.5552363 -1.8178033 13 4
19.93004 2.0912187 -1.7532248 38 5
29.071888 3.0350666 -1.5318736 11 6
37.201351 3.8706458 8.6349707 3 14
36.967422 3.8267431 9.9583216 1 15
6.4486384 0.65048045 -1.7366759 2 0
7.5155764 0.75412875 -1.7438205 5 1
9.043128 0.90103042 -1.7665098 22 2
11.308937 1.1208096 -1.7999352 4 3
14.940831 1.4728614 -1.8433958 10 4
29.211639 2.843643 -1.5381539 11 6
37.215828 3.6097078 8.6322718 3 14
6.4453282 0.60472578 -1.7346053 2 0
7.4934936 0.69911104 -1.737522 4 1
9.0687466 0.83968556 -1.770326 4 2
11.312553 1.0414689 -1.7993095 4 3
15.0318 1.3759378 -1.8533891 7 4
31.581974 2.851959 -1.6618761 10 6
6.4647903 0.56105047 -1.7387464 2 0
7.5214896 0.64878923 -1.7429208 5 1
9.0939484 0.77803123 -1.7741421 4 2
11.32742 0.96314168 -1.8005608 5 3
14.983677 1.2661226 -1.8463207 5 4
32.269878 2.687093 -1.6970459 9 6
6.4685497 0.51590091 -1.7387464 2 0
7.5064096 0.59472078 -1.7384217 4 1
9.0678434 0.71206546 -1.7680362 4 2
11.280695 0.8798905 -1.7921134 19 3
14.948608 1.1581126 -1.8409585 4 4
33.411041 2.5473938 -1.7560809 7 6
6.4893346 0.47199374 -1.7434052 2 0
7.5103784 0.54230529 -1.7384217 4 1
9.0647602 0.64817822 -1.7665098 4 2
11.292475 0.80152911 -1.7930521 20 3
14.920687 1.051205 -1.8365711 4 4
33.790649 2.3391824 -1.7751312 7 6
6.5021095 0.42731154 -1.7459934 1 0
7.5139809 0.4898597 -1.7384217 3 1
9.0514307 0.58374554 -1.7630752 3 2
11.307651 0.7233091 -1.7946163 4 3
14.927662 0.94702059 -1.8365711 4 4
35.121803 2.1850572 -1.8442147 5 6
6.481792 0.38054913 -1.7397816 2 0
7.5133271 0.43716392 -1.737522 3 1
9.0768461 0.52177984 -1.7672729 4 2
11.292704 0.64322585 -1.7914877 4 3
14.910125 0.84144056 -1.8336463 4 4
36.049557 1.9902322 -1.8921545 4 6
6.4688568 0.33449346 -1.7356406 1 0
