# .PCD v0.7 - Point Cloud Data file format
VERSION 0.7
FIELDS x y z intensity ring
SIZE 4 4 4 4 2
TYPE F F F F U
COUNT 1 1 1 1 1
WIDTH 1331
HEIGHT 1
VIEWPOINT 0 0 0 1 0 0 0
POINTS 1331
DATA ascii
7.2165484 -2.3838508 -1.7546182 2 1
8.7391167 -2.8935709 -1.7894068 3 2
10.953347 -3.6330805 -1.8277806 2 3
14.618483 -4.857255 -1.8914124 3 4
6.1044164 -2.0602951 -1.7263231 2 0
7.1738853 -2.4254355 -1.7483196 2 1
8.7192183 -2.9529886 -1.7894068 3 2
10.928365 -3.7075529 -1.8277806 2 3
14.582337 -4.9585533 -1.8911686 2 4
6.1340785 -2.116924 -1.7387464 2 0
32.947639 -11.383389 0.60846072 208 8
7.1424756 -2.4691164 -1.7447205 2 1
8.6427393 -2.9945059 -1.7779584 3 2
10.872355 -3.7733932 -1.8227745 2 3
14.550123 -5.0583482 -1.8914124 3 4
6.1264372 -2.1622674 -1.740817 2 0
32.974838 -11.651101 0.61045027 199 8
7.1471114 -2.5267141 -1.7501192 1 1
8.6068172 -3.0495248 -1.7749053 3 2
10.815962 -3.8386331 -1.8177687 2 3
14.499492 -5.1544838 -1.8894625 3 4
59.168892 -21.11565 -3.2924554 9 6
6.0603113 -2.1866271 -1.7263231 2 0
7.0999742 -2.5659506 -1.7429208 3 1
8.6185455 -3.1215713 -1.7817745 3 2
10.7889 -3.914048 -1.8177687 2 3
14.427705 -5.2427015 -1.8848314 2 4
6.0775247 -2.2409122 -1.7356406 2 0
7.0965123 -2.620856 -1.74652 3 1
8.5744486 -3.173486 -1.777195 3 2
10.772426 -3.9933932 -1.819646 2 3
14.374003 -5.3370786 -1.8826377 3 4
6.0255747 -2.2696669 -1.7252878 2 0
7.0671024 -2.6662076 -1.7438205 3 1
8.5006657 -3.2138293 -1.7665098 3 2
10.699947 -4.0517116 -1.812137 2 3
14.262152 -5.4091396 -1.8728882 6 4
5.987946 -2.3033547 -1.7190762 2 0
7.037406 -2.7112765 -1.7411212 3 1
8.4963369 -3.2801671 -1.770326 3 2
10.700879 -4.1377106 -1.817143 2 3
14.177762 -5.490653 -1.8667948 4 4
6.0184722 -2.3634617 -1.7325348 2 0
7.0128655 -2.7582004 -1.7397714 3 1
8.4659243 -3.3365233 -1.7687995 3 2
10.657033 -4.2065134 -1.81464 2 3
14.201852 -5.6143107 -1.8750819 2 4
6.0161719 -2.4111705 -1.7366759 1 0
6.973546 -2.7991068 -1.7348225 3 1
8.4794483 -3.4087164 -1.7764318 3 2
10.628153 -4.2789559 -1.81464 2 3
14.147583 -5.7073798 -1.873132 2 4
5.9817376 -2.4447563 -1.7314996 1 0
6.952528 -2.8457708 -1.7343726 3 1
8.4045849 -3.4469714 -1.7657466 3 2
10.561477 -4.3380389 -1.8083826 2 3
14.102899 -5.80128 -1.8724008 2 4
45.458328 -18.71801 7.7863698 0 12
5.9395604 -2.4760499 -1.7242525 1 0
6.9306931 -2.8934882 -1.7339227 4 1
8.3628149 -3.496526 -1.7619303 3 2
10.538993 -4.412879 -1.8096341 2 3
14.065717 -5.9011316 -1.8728882 2 4
5.9185739 -2.5159438 -1.7232174 1 0
6.9157028 -2.9440923 -1.7352724 3 1
8.3628616 -3.5670629 -1.7672729 3 2
10.492613 -4.4819732 -1.8071312 3 3
14.046078 -6.008553 -1.8758131 2 4
5.9256811 -2.567956 -1.7304642 1 0
6.8645911 -2.9791121 -1.7276241 4 1
8.3707981 -3.6379893 -1.7741421 3 2
10.447371 -4.5469832 -1.8046281 3 3
14.016526 -6.11202 -1.8775192 2 4
5.9009953 -2.6051099 -1.7283937 2 0
6.8619771 -3.0336485 -1.7321231 4 1
8.370327 -3.7074707 -1.7794847 3 2
10.397316 -4.6117992 -1.8014996 3 3
13.9492 -6.196003 -1.8741069 2 4
5.90733 -2.6573381 -1.7356406 2 0
6.8228636 -3.0734756 -1.7276241 4 1
8.3191881 -3.7545092 -1.7741421 3 2
10.361266 -4.6826458 -1.8008738 3 3
13.883902 -6.2834139 -1.8711821 2 4
5.872828 -2.6912706 -1.7309818 2 0
6.8047829 -3.1226587 -1.728524 4 1
8.2963409 -3.8141363 -1.7749053 3 2
10.321146 -4.7515626 -1.7996223 3 3
13.807247 -6.3652282 -1.8667948 2 4
5.8538966 -2.7322049 -1.7309818 2 0
6.7792859 -3.1684382 -1.7276241 5 1
8.2179489 -3.8478198 -1.7638384 3 2
10.276991 -4.8184695 -1.7977451 3 3
13.789428 -6.4741197 -1.8704509 3 4
37.172886 -17.508083 -2.1534157 0 6
5.8451481 -2.7779815 -1.7340877 2 0
6.7675591 -3.2207136 -1.7303236 4 1
8.1979752 -3.9084775 -1.765365 3 2
10.22884 -4.8832898 -1.7952422 3 3
13.715239 -6.556531 -1.866551 3 4
37.125385 -17.80344 -2.1578119 0 6
5.7873549 -2.8002093 -1.7226996 2 0
6.7273722 -3.2593842 -1.7258245 4 1
37.194714 -18.036722 2.1663947 0 9
8.1033735 -3.9330389 -1.7508634 3 2
10.17318 -4.9442196 -1.7914877 3 3
13.633432 -6.634748 -1.8616763 3 4
5.7988601 -2.8559077 -1.7320172 2 0
6.7184353 -3.3131657 -1.7294236 5 1
8.1144428 -4.0086451 -1.759259 3 2
10.140185 -5.0159965 -1.7918006 4 3
13.574329 -6.723597 -1.8599701 2 4
43.408569 -21.519878 7.673737 0 12
5.7407851 -2.8772779 -1.7206291 2 0
6.6812081 -3.3529954 -1.7258245 4 1
8.0764427 -4.058496 -1.7569693 3 2
10.104043 -5.0840139 -1.7914877 3 3
13.507561 -6.8083711 -1.857289 2 4
5.7090192 -2.910146 -1.7170056 3 0
6.6564946 -3.3975089 -1.7253746 3 1
8.0653944 -4.1237187 -1.7607856 3 2
10.068304 -5.154429 -1.7914877 3 3
13.476803 -6.9083047 -1.8594825 2 4
5.6937089 -2.952599 -1.7185585 2 0
6.6395316 -3.4474888 -1.7271742 3 1
7.9911227 -4.1563702 -1.7508634 3 2
10.004042 -5.2099938 -1.7864817 4 3
13.437047 -7.0068107 -1.8607013 2 4
32.844254 -17.17786 -1.9425015 7 6
5.6900444 -3.0012894 -1.7237349 2 0
6.6015162 -3.4864764 -1.723575 3 1
7.9376163 -4.1992044 -1.7455208 3 2
9.9360046 -5.2630649 -1.7808502 3 3
13.457952 -7.1376519 -1.8704509 3 4
44.536053 -23.640371 7.9859805 0 12
32.86813 -17.483652 -1.9510847 6 6
5.6689529 -3.0409398 -1.7237349 2 0
6.5684319 -3.5278683 -1.7213255 4 1
7.8811831 -4.2382584 -1.7394148 3 2
9.9173431 -5.3399391 -1.7839788 3 3
13.40954 -7.2323737 -1.8706945 4 4
32.381168 -17.508434 -1.9292083 3 6
5.6362495 -3.0729828 -1.7201115 3 0
6.5408449 -3.5706284 -1.7204256 4 1
7.8858542 -4.3120136 -1.7470472 3 2
9.8295746 -5.3815341 -1.7749057 4 3
13.40352 -7.3473368 -1.876788 3 4
5.5960732 -3.101954 -1.7144175 2 0
6.5225739 -3.6199872 -1.7222252 4 1
7.8727183 -4.3765011 -1.7508634 3 2
9.7710533 -5.4384975 -1.7711512 8 3
13.390048 -7.4619904 -1.8821504 3 4
31.240911 -17.459953 -1.8756162 5 6
5.5911117 -3.1504295 -1.7195939 2 0
6.4801702 -3.6558597 -1.7177262 3 1
7.831718 -4.425561 -1.7485738 3 2
9.7018986 -5.4890704 -1.7655195 5 3
13.37908 -7.5787692 -1.888 3 4
34.014919 -19.32316 -2.050209 2 6
5.5589237 -3.1836255 -1.716488 2 0
6.4612522 -3.7048881 -1.7195259 4 1
7.800631 -4.4801283 -1.7485738 3 2
9.6838913 -5.5684848 -1.769274 4 3
13.344769 -7.6828823 -1.8906811 4 4
5.5565977 -3.2340169 -1.7226996 2 0
6.436913 -3.7508867 -1.7199757 3 1
7.7623816 -4.5305185 -1.7470472 3 2
9.6430759 -5.6349583 -1.7689612 4 3
13.295947 -7.7788668 -1.8914124 3 4
29.721107 -17.437271 -1.8059046 6 6
5.5072799 -3.2569959 -1.7144175 2 0
6.3938022 -3.7858043 -1.7154768 3 1
7.6840773 -4.5552182 -1.736362 3 2
9.6214828 -5.7105474 -1.7720897 4 3
13.306158 -7.9100451 -1.9006745 3 4
5.4816704 -3.2924178 -1.7133821 2 0
6.3812451 -3.837271 -1.7190759 3 1
7.6823611 -4.6269841 -1.7432311 3 2
9.608448 -5.7938995 -1.7770958 2 3
13.262205 -8.0065889 -1.9021369 3 4
5.4816389 -3.3446934 -1.7206291 2 0
6.3177152 -3.8593774 -1.7091781 3 1
7.6398234 -4.674356 -1.7409414 3 2
9.5812407 -5.8690915 -1.7795987 2 3
13.209372 -8.1010561 -1.9026244 3 4
27.766951 -17.075663 -1.7083505 8 6
5.4318824 -3.3665974 -1.7123468 2 0
6.3055205 -3.9126363 -1.7132272 5 1
7.6253467 -4.738977 -1.7451392 4 2
9.5433884 -5.9379253 -1.7802243 2 3
13.142383 -8.18678 -1.9011619 2 4
28.856552 -18.024572 -1.7830863 7 6
5.3869934 -3.3910577 -1.7056175 2 0
6.2797003 -3.9576001 -1.7136772 3 1
7.5505719 -4.7658987 -1.7355988 3 2
9.52174 -6.0170679 -1.7839788 2 3
13.09833 -8.2868214 -1.9031119 2 4
28.83795 -18.29406 -1.7897853 7 6
5.3827205 -3.4410698 -1.7118292 2 0
6.2437119 -3.9960916 -1.7114276 4 1
7.5220737 -4.8216729 -1.7367436 4 2
9.4828272 -6.0855293 -1.7846047 3 3
13.086922 -8.4081068 -1.9099365 2 4
5.326159 -3.4575262 -1.7014765 2 0
6.2254658 -4.0459552 -1.7141271 3 1
7.477561 -4.8652673 -1.7340722 3 2
9.4345636 -6.1456232 -1.7833531 3 3
13.004626 -8.4840794 -1.9065242 2 4
5.3525095 -3.5266497 -1.7175232 2 0
6.1945281 -4.0860901 -1.7132272 2 1
7.4270325 -4.9065304 -1.7302561 3 2
9.3848391 -6.2069793 -1.7821016 4 3
13.007817 -8.6129503 -1.9155425 2 4
26.559896 -17.63299 -1.6707733 19 6
5.3341813 -3.5682273 -1.7195939 2 0
6.1593747 -4.1248984 -1.7114276 2 1
7.4268374 -4.9812255 -1.73827 4 2
9.3511171 -6.2789536 -1.7839788 4 3
12.939134 -8.6980162 -1.9143238 3 4
26.525579 -17.878262 -1.6764255 19 6
5.2755785 -3.5825882 -1.7087234 2 0
6.1336503 -4.1699901 -1.7123275 3 1
7.3610482 -5.0119591 -1.7310193 3 2
9.2907324 -6.3329563 -1.7808502 3 3
12.922367 -8.8183451 -1.9209048 4 4
26.508915 -18.137445 -1.6833339 19 6
5.2472587 -3.6171379 -1.7076882 2 0
6.1075969 -4.2149224 -1.7132272 4 1
7.3161883 -5.0565286 -1.7287296 3 2
9.262538 -6.4089031 -1.7839788 3 3
12.839274 -8.893651 -1.9177362 13 4
26.501396 -18.405233 -1.690975 27 6
5.2313752 -3.6603277 -1.710794 2 0
6.0684462 -4.2507505 -1.7105279 3 1
7.3048172 -5.1243939 -1.7344538 4 2
9.2046375 -6.4643283 -1.7814759 3 3
12.918153 -9.0823984 -1.9389415 9 4
26.45878 -18.650785 -1.6965225 18 6
5.227746 -3.7124197 -1.7180409 3 0
6.0259166 -4.2839789 -1.7069286 2 1
7.2624674 -5.1707115 -1.7329274 4 2
9.1689367 -6.5353107 -1.7833531 3 3
12.891596 -9.1988821 -1.9445474 10 4
27.050776 -19.352173 -1.7431015 8 6
5.1922975 -3.742048 -1.7149351 3 0
6.0021834 -4.3305039 -1.7087282 2 1
7.202322 -5.2040391 -1.727203 3 2
9.1230879 -6.5991631 -1.7833531 3 3
12.872081 -9.3212566 -1.9513721 8 4
25.16626 -18.270937 -1.6298466 10 6
5.1426563 -3.7610998 -1.7071705 2 0
5.9749494 -4.3746033 -1.709628 2 1
7.1651502 -5.2517819 -1.7268214 4 2
9.0620308 -6.6494212 -1.7802243 3 3
12.86908 -9.4567366 -1.9608778 5 4
29.811237 -21.954657 -1.9403034 3 6
5.1246943 -3.8017724 -1.7097588 3 0
5.941905 -4.412848 -1.7087282 2 1
7.1629686 -5.3274527 -1.7352172 4 2
9.0090513 -6.7078047 -1.778973 3 3
12.944472 -9.6485119 -1.9823269 5 4
5.0825944 -3.8258383 -1.7045823 3 0
5.8922777 -4.4401493 -1.7033294 4 1
7.0654149 -5.3299747 -1.7203341 3 2
8.9631853 -6.7689714 -1.778973 3 3
12.936963 -9.7841482 -1.991589 6 4
31.021017 -23.512117 -2.0399511 1 6
5.0595055 -3.8626902 -1.7056175 3 0
5.861918 -4.4801536 -1.7033294 5 1
7.0451813 -5.3922954 -1.7245318 4 2
8.9078703 -6.8253736 -1.7774086 4 3
12.923617 -9.9130564 -1.999876 5 4
26.986635 -20.752508 -1.7841328 7 6
5.0324159 -3.8979175 -1.7056175 3 0
5.8304977 -4.5209684 -1.7033294 5 1
6.991859 -5.429307 -1.7207156 9 2
8.8646832 -6.8910336 -1.7783473 3 3
12.907362 -10.04449 -2.0081632 5 4
25.184494 -19.647984 -1.6740181 19 6
5.0081191 -3.9353426 -1.7066529 3 0
5.8033891 -4.5651765 -1.7046791 6 1
6.9198561 -5.4512591 -1.71232 9 2
8.8132553 -6.9503045 -1.7777214 3 3
12.933525 -10.210618 -2.0232751 5 4
25.403782 -20.10593 -1.6978832 9 6
4.97297 -3.9641886 -1.7040646 2 0
5.7683301 -4.6031489 -1.7037793 7 1
6.9102011 -5.5202913 -1.719189 4 2
8.7749987 -7.0175357 -1.7795987 3 3
12.973486 -10.390005 -2.0408242 5 4
29.397179 -23.593729 -1.9754732 2 6
4.9308476 -3.9858022 -1.6988882 2 0
5.720201 -4.6288218 -1.6988304 5 1
6.8867469 -5.5807595 -1.7230054 4 2
8.716589 -7.0711584 -1.7777214 2 3
12.99184 -10.550654 -2.0549612 10 4
28.990124 -23.601671 -1.9591444 3 6
4.9118652 -4.0274777 -1.7019941 2 0
5.6892524 -4.6698794 -1.6992803 6 1
6.8491354 -5.6299486 -1.723387 3 2
8.6578588 -7.1243081 -1.7758442 2 3
12.988347 -10.699154 -2.0661731 10 4
29.074135 -24.00951 -1.9761013 2 6
4.8687749 -4.0493174 -1.6968178 2 0
29.158485 -24.26808 0.66217923 13 8
5.6595073 -4.7119775 -1.7001802 6 1
29.088783 -24.235861 1.9842656 5 9
6.8096642 -5.6776266 -1.723387 3 2
8.6412764 -7.2124238 -1.7827275 2 3
13.026065 -10.883757 -2.0842097 6 4
26.057943 -21.826488 -1.7814115 7 6
4.8625374 -4.1018939 -1.7045823 3 0
5.6205177 -4.7463441 -1.6983805 7 1
6.7458758 -5.7047439 -1.717281 3 2
8.593729 -7.2751288 -1.7833531 4 3
13.051229 -11.060417 -2.1005402 8 4
24.945997 -21.193195 -1.715468 8 6
4.8249745 -4.1282048 -1.7014765 3 0
5.5902057 -4.788002 -1.6992803 6 1
6.7356892 -5.7772632 -1.7249134 3 2
8.5607157 -7.3503881 -1.7871076 3 3
13.080581 -11.243132 -2.1178455 5 4
27.024647 -23.285927 -1.8695451 5 6
4.7916598 -4.1579905 -1.6999235 2 0
5.5507588 -4.8218002 -1.6974807 7 1
27.38518 -23.79718 1.9013655 3 9
6.7050972 -5.8307066 -1.727203 3 2
8.5224028 -7.4188643 -1.7896105 2 3
13.121478 -11.438531 -2.1373446 5 4
27.11521 -23.687462 -1.8869207 4 6
4.7632465 -4.1905098 -1.6999235 2 0
5.5119596 -4.8543191 -1.6956811 7 1
26.960649 -23.760647 1.8833618 3 9
6.664228 -5.8773746 -1.727203 3 2
8.4555941 -7.4651065 -1.7864817 2 3
13.206934 -11.672186 -2.164156 5 4
26.721949 -23.674864 -1.8710105 5 6
4.7425241 -4.2313776 -1.7030294 2 0
5.4692154 -4.8848925 -1.6929817 7 1
26.583826 -23.751989 1.8682891 7 9
6.6182146 -5.9173665 -1.7256767 3 2
8.4281359 -7.5435677 -1.7914877 2 3
13.4119 -12.021139 -2.2114413 5 4
4.7143002 -4.2656794 -1.703547 3 0
5.4349794 -4.9229555 -1.6929817 7 1
26.191208 -23.74041 1.8525884 8 9
6.5698848 -5.9592972 -1.7241502 3 2
8.3827152 -7.6116519 -1.793365 2 3
13.337934 -12.123826 -2.2131476 8 4
25.975431 -23.668993 -1.8417026 5 6
4.6659017 -4.2815075 -1.6968178 2 0
5.4119596 -4.9713249 -1.6965809 7 1
25.842501 -23.755075 1.839609 13 9
6.5483489 -6.0236259 -1.7294928 3 2
8.3526211 -7.6913977 -1.7983708 2 3
13.209182 -12.176281 -2.2058353 9 4
25.604197 -23.659988 -1.8270483 6 6
4.6358981 -4.3139768 -1.6968178 2 0
5.3685665 -5.0010157 -1.6938814 7 1
25.436438 -23.711563 1.8224429 13 9
6.5090094 -6.0718732 -1.7302561 3 2
8.3044977 -7.7549157 -1.7996223 3 3
13.00349 -12.155686 -2.1856048 5 4
25.225618 -23.638771 -1.8117663 6 6
4.6070728 -4.3475623 -1.6973354 3 0
5.3250222 -5.030344 -1.691182 7 1
25.097351 -23.716791 1.809673 14 9
6.4532638 -6.1025476 -1.7264398 3 2
8.268734 -7.827559 -1.8033768 3 3
12.918311 -12.24617 -2.1856048 6 4
24.832447 -23.589832 -1.7950188 6 6
4.5662055 -4.3681378 -1.6931943 3 0
5.290659 -5.0664735 -1.691182 7 1
24.714859 -23.684143 1.793972 15 9
6.4105034 -6.1474509 -1.7264398 3 2
8.2167368 -7.8878293 -1.8040025 2 3
12.817481 -12.317314 -2.1826801 5 4
24.494547 -23.596346 -1.7824582 7 6
4.5411458 -4.4052887 -1.6952648 3 0
5.2635474 -5.1114316 -1.6938814 7 1
24.369707 -23.673687 1.7805742 16 9
6.3769574 -6.1991544 -1.7287296 3 2
24.446606 -23.781588 2.9838638 1 10
8.2024956 -7.9821506 -1.8127627 3 3
12.719805 -12.395412 -2.1807303 6 4
24.170465 -23.603449 -1.7705256 7 6
4.5083003 -4.4333887 -1.6942296 3 0
5.2286339 -5.1471405 -1.6938814 7 1
24.016026 -23.658228 1.7667575 16 9
6.3167467 -6.2269835 -1.7241502 3 2
36.166637 -35.665146 4.4438968 1 10
8.1606302 -8.0530949 -1.8158915 3 3
36.211342 -35.759129 6.2487292 1 11
12.607543 -12.458796 -2.176343 6 4
23.695721 -23.465244 -1.747707 8 6
4.487402 -4.4764504 -1.6983706 3 0
5.186152 -5.178916 -1.6920818 7 1
23.668108 -23.651588 1.7535686 17 9
6.2897816 -6.2875862 -1.7287296 3 2
8.1083784 -8.1168747 -1.817143 3 3
12.497824 -12.524025 -2.1724429 5 4
23.482111 -23.588911 -1.7443576 8 6
4.4682646 -4.5200334 -1.7030294 2 0
5.138916 -5.2039032 -1.6884826 7 1
23.348097 -23.65987 1.7420549 18 9
6.2501426 -6.3380251 -1.7302561 3 2
8.0764685 -8.1986132 -1.8227745 2 3
12.41844 -12.619461 -2.1739056 5 4
23.126572 -23.558432 -1.7301222 8 6
4.3988419 -4.5123849 -1.6885355 2 0
5.0997419 -5.2368598 -1.6875829 7 1
22.997038 -23.623611 1.7278193 18 9
6.2123318 -6.3860502 -1.7317824 3 2
8.0425024 -8.2760649 -1.8277806 2 3
12.296858 -12.671659 -2.1680558 5 4
22.78228 -23.525911 -1.7163056 8 6
4.3840942 -4.5589314 -1.6947472 2 0
5.0599284 -5.2672348 -1.686233 5 1
22.668343 -23.613567 1.715468 19 9
6.1431341 -6.4037628 -1.7249134 3 2
8.0009298 -8.349123 -1.8315349 2 3
12.199339 -12.743595 -2.1661057 5 4
22.451956 -23.511055 -1.7037449 9 6
4.3229151 -4.558588 -1.6833591 2 0
5.0297337 -5.3095055 -1.6884826 7 1
22.332684 -23.591394 1.7024889 19 9
6.1414518 -6.4921327 -1.7371252 3 2
7.9750099 -8.4392357 -1.8390437 2 3
12.09645 -12.814017 -2.1636686 5 4
22.133921 -23.504375 -1.6920216 9 6
4.3081384 -4.6069994 -1.6900884 3 0
4.9925442 -5.3444896 -1.6884826 7 1
22.00662 -23.57445 1.6901376 20 9
6.087944 -6.5262356 -1.7348354 3 2
46.354321 -49.708923 5.9464622 19 10
7.9132056 -8.4918146 -1.8384181 2 3
12.001285 -12.892341 -2.1626935 5 4
21.806198 -23.482698 -1.6794609 19 6
4.2837286 -4.6454849 -1.6931943 3 0
4.9630327 -5.3878131 -1.691182 7 1
21.685999 -23.550329 1.6777864 21 9
6.0194516 -6.5415196 -1.7279664 3 2
7.8846307 -8.5774755 -1.8453012 3 3
11.897564 -12.961186 -2.1602564 5 4
21.492062 -23.462688 -1.6675284 9 6
4.2338104 -4.6545281 -1.6859473 4 0
21.485756 -23.63739 0.5575695 51 8
4.9078975 -5.401279 -1.6848834 8 1
21.370686 -23.53554 1.666063 21 9
5.9815526 -6.5921073 -1.7302561 3 2
7.829864 -8.6381655 -1.8465527 3 3
11.793077 -13.024213 -2.1573315 6 4
21.009113 -23.259407 -1.6426165 10 6
4.2012124 -4.6839724 -1.6859473 4 0
21.190872 -23.634201 0.554079 52 8
4.8687696 -5.4339595 -1.6844335 10 1
21.063412 -23.516808 1.6545491 22 9
5.9155941 -6.6092634 -1.7241502 3 2
7.8077507 -8.7324944 -1.8553129 3 3
11.664845 -13.064762 -2.1505065 6 4
20.911423 -23.470467 -1.6474314 20 6
4.1692328 -4.7124605 -1.6859473 5 0
4.8355408 -5.4713545 -1.6857833 15 1
20.933096 -23.702206 1.6572706 22 9
5.8667107 -6.6474571 -1.723387 3 2
7.766192 -8.8090153 -1.860006 4 3
11.570398 -13.137901 -2.1495316 5 4
20.915791 -23.807943 -1.6608294 20 6
4.1235328 -4.7268939 -1.680771 5 0
4.7908244 -5.4976335 -1.6835337 9 1
20.927134 -24.031527 1.6700405 21 9
5.8330474 -6.7030606 -1.727203 3 2
7.7019124 -8.8600368 -1.8593802 5 3
11.452368 -13.188381 -2.1446569 5 4
20.892916 -24.119442 -1.6723434 19 6
4.1005106 -4.767283 -1.6849121 4 0
4.748517 -5.5265112 -1.682184 7 1
20.91238 -24.355844 1.6823918 21 9
5.7861094 -6.7436199 -1.727203 3 2
7.6411572 -8.9150906 -1.8596932 9 3
11.349687 -13.255948 -2.1427069 5 4
20.890055 -24.45911 -1.6857414 9 6
4.06463 -4.7928472 -1.6838769 3 0
20.950636 -24.72163 0.56563246 48 8
4.7249355 -5.5773697 -1.6875829 6 1
20.899275 -24.687222 1.6951618 20 9
5.7388887 -6.7838497 -1.727203 3 2
7.5889316 -8.9802876 -1.8621961 9 3
11.244062 -13.31969 -2.1402695 5 4
20.780542 -24.677685 -1.6907655 9 6
4.0360279 -4.8270345 -1.6859473 4 0
4.6771388 -5.5997505 -1.6844335 5 1
20.652189 -24.743589 1.6890908 20 9
5.6863608 -6.817719 -1.7256767 3 2
7.5563993 -9.0694733 -1.869705 6 3
11.100004 -13.336833 -2.1305199 5 4
20.482725 -24.67156 -1.6805077 19 6
4.0022306 -4.8550935 -1.6859473 4 0
20.438143 -24.811092 0.56109488 50 8
4.6391702 -5.6337705 -1.6848834 3 1
20.349499 -24.729853 1.6784142 21 9
5.6261559 -6.8420863 -1.7218604 3 2
7.5405455 -9.1800098 -1.8815941 4 3
11.011665 -13.420138 -2.131495 5 4
20.178425 -24.653219 -1.6696218 9 6
3.960928 -4.8739204 -1.6828415 4 0
4.5984983 -5.6645079 -1.6844335 4 1
20.063114 -24.731722 1.6689938 29 9
5.5967975 -6.9040742 -1.7275848 4 2
7.5123248 -9.2769489 -1.8906672 4 3
10.902724 -13.478167 -2.1285703 5 4
19.860336 -24.613182 -1.6574799 10 6
3.9340525 -4.9105005 -1.6859473 4 0
4.5758877 -5.7177739 -1.6907321 1 1
19.762733 -24.712084 1.6583172 22 9
5.5472355 -6.9414439 -1.727203 3 2
7.4707928 -9.3584995 -1.8966117 9 3
10.800938 -13.54464 -2.1271076 5 4
19.586069 -24.623062 -1.6488968 10 6
3.8981419 -4.9341326 -1.6849121 4 0
4.5392766 -5.7518477 -1.6916319 2 1
19.467916 -24.686068 1.6476408 22 9
5.4974279 -6.9759579 -1.7264398 3 2
7.4044757 -9.4060316 -1.895986 9 3
10.686406 -13.589759 -2.1227205 5 4
19.299677 -24.604944 -1.6388483 10 6
3.8564782 -4.9520812 -1.6818062 4 0
19.250593 -24.737381 0.54713297 55 8
4.5014038 -5.7864738 -1.6925317 2 1
19.187229 -24.682615 1.6384296 31 9
5.4582276 -7.0265703 -1.7294928 3 2
7.3458953 -9.4668579 -1.8978633 11 3
10.591273 -13.664031 -2.1227205 5 4
19.027258 -24.609516 -1.6302652 10 6
3.8171079 -4.972754 -1.6797357 4 0
4.441925 -5.7930155 -1.6853334 2 1
18.902693 -24.670107 1.6287998 31 9
5.4233637 -7.0832105 -1.7340722 3 2
7.306026 -9.5524302 -1.9047463 11 3
10.47875 -13.715555 -2.1193082 5 4
18.746035 -24.59878 -1.6208447 10 6
3.7916229 -5.0116057 -1.6838769 4 0
4.4001994 -5.822329 -1.6848834 3 1
18.628897 -24.667591 1.6200074 24 9
5.3666859 -7.1114969 -1.7317824 3 2
7.2736444 -9.6489468 -1.9138194 8 3
10.37319 -13.775689 -2.1173582 5 4
18.437107 -24.546997 -1.6089121 11 6
3.7473054 -5.0255642 -1.6797357 4 0
18.429615 -24.73423 0.53840673 58 8
4.3606095 -5.8544693 -1.6853334 5 1
18.351292 -24.65605 1.6107962 33 9
5.3122211 -7.142489 -1.7302561 3 2
7.2614727 -9.7740173 -1.9285244 7 3
10.269669 -13.838208 -2.1158957 5 4
17.768583 -24.004097 -1.5651593 24 6
3.7075529 -5.0453758 -1.6776651 5 0
18.201635 -24.778521 0.53666151 59 8
4.3196311 -5.8847694 -1.6853334 5 1
18.071972 -24.629026 1.600957 33 9
5.2843771 -7.2069807 -1.7371252 3 2
7.2391305 -9.8837748 -1.9404132 6 3
10.149372 -13.877519 -2.1110208 5 4
17.90147 -24.531052 -1.5915366 11 6
3.6821914 -5.0830107 -1.6818062 5 0
4.2829018 -5.9187717 -1.6866829 6 1
17.798946 -24.6154 1.5919553 34 9
5.2201371 -7.2246013 -1.7325459 3 2
7.2011657 -9.9773197 -1.9488608 5 3
10.040745 -13.926958 -2.1080961 5 4
17.652819 -24.548407 -1.5846282 23 6
3.6286576 -5.0834355 -1.6735239 4 0
17.621653 -24.704645 0.52968055 61 8
4.2460027 -5.9548745 -1.6884826 6 1
17.564079 -24.651224 1.586303 25 9
5.1650181 -7.2544713 -1.7310193 3 2
7.1782765 -10.093352 -1.9616885 6 3
9.9225798 -13.967589 -2.1037087 5 4
17.51334 -24.716679 -1.5875591 11 6
3.5997488 -5.1181254 -1.6766298 5 0
4.1987252 -5.9763989 -1.686233 4 1
17.554512 -25.005365 1.6011664 25 9
5.1300321 -7.3128533 -1.736362 3 2
7.12464 -10.167485 -1.9663814 5 3
9.8066139 -14.010499 -2.0998089 5 4
17.484417 -25.044685 -1.6007477 11 6
3.5749331 -5.1590099 -1.6818062 5 0
4.1524644 -5.9991565 -1.6844335 5 1
17.529488 -25.344135 1.6149831 24 9
5.0855508 -7.3581791 -1.7386516 3 2
7.082665 -10.259243 -1.974516 5 3
9.6972942 -14.062278 -2.0973716 5 4
17.442701 -25.360319 -1.6130991 11 6
3.5322948 -5.1742692 -1.6787004 5 0
4.1049919 -6.019949 -1.682184 3 1
17.536566 -25.73658 1.6321492 23 9
5.0495267 -7.4162235 -1.7439942 3 2
7.0519724 -10.368876 -1.9860923 7 3
9.5966539 -14.126349 -2.0968843 5 4
17.437759 -25.736105 -1.6292185 21 6
3.4982417 -5.2020092 -1.6797357 4 0
4.0661244 -6.0533133 -1.6835337 3 1
17.514626 -26.084175 1.646594 22 9
4.9989295 -7.4504223 -1.7439942 3 2
6.9999275 -10.444531 -1.991411 8 3
9.4779282 -14.163305 -2.0924966 5 4
17.435186 -26.113327 -1.6455473 10 6
3.4542153 -5.2128167 -1.6755946 5 0
4.0463386 -6.1133509 -1.6925317 2 1
17.512789 -26.479015 1.6637602 22 9
4.9381347 -7.4720364 -1.7409414 3 2
6.9518709 -10.531062 -1.998607 9 3
9.3703756 -14.21092 -2.0900595 5 4
17.9142 -27.240667 -1.7086645 17 6
3.4198501 -5.2400403 -1.6766298 4 0
3.9993045 -6.1349201 -1.6907321 2 1
17.480442 -26.825178 1.6779956 21 9
4.9428673 -7.5910277 -1.7607856 3 2
6.937109 -10.665903 -2.0151892 5 3
9.2622871 -14.262672 -2.0881095 5 4
17.523104 -27.045172 -1.6888814 9 6
3.382014 -5.2599473 -1.6755946 4 0
3.9616654 -6.1685591 -1.6925317 2 1
17.484755 -27.245764 1.6966273 20 9
4.8749146 -7.6022124 -1.7554429 3 2
6.9146843 -10.79558 -2.0305195 4 3
9.1414547 -14.2886 -2.0827472 5 4
17.443447 -27.338587 -1.699558 9 6
3.33901 -5.2736368 -1.6724888 3 0
3.8987141 -6.164773 -1.6839837 1 1
17.465387 -27.627506 1.7129561 19 9
4.8628983 -7.6982913 -1.7699443 3 2
6.9000716 -10.935951 -2.0480404 6 3
9.0224333 -14.321837 -2.0783601 5 4
17.450386 -27.764448 -1.7186083 8 6
3.3030367 -5.2962422 -1.6724888 3 0
3.872117 -6.2159791 -1.6907321 3 1
17.432508 -28.006495 1.7288661 12 9
4.7696347 -7.6687036 -1.7554429 3 2
6.8517022 -11.02916 -2.0564878 4 3
8.9163656 -14.369426 -2.0764101 5 4
16.854656 -27.23682 -1.6786236 19 6
3.2760894 -5.3356352 -1.6776651 3 0
3.8204777 -6.2295699 -1.687133 5 1
17.428577 -28.440859 1.7481257 11 9
4.7446866 -7.7486954 -1.7661282 3 2
6.8106098 -11.135708 -2.0674381 4 3
8.80445 -14.412688 -2.0737288 3 4
16.959204 -27.838234 -1.7083505 8 6
3.220773 -5.3286166 -1.6683476 4 0
3.7839446 -6.2677674 -1.6902822 7 1
17.409107 -28.859409 1.7663386 11 9
4.6783137 -7.7614536 -1.7615488 3 2
6.7714205 -11.247291 -2.0793271 4 3
12.40431 -20.619772 2.9546006 30 11
8.6933861 -14.456791 -2.0712914 3 4
12.38474 -20.611668 3.8085539 38 12
3.1815186 -5.347652 -1.6673124 5 0
3.7361133 -6.2873306 -1.6884826 6 1
17.387705 -29.272593 1.7843423 10 9
4.6394038 -7.8167524 -1.7668914 3 2
6.7188816 -11.333904 -2.0868361 6 3
12.225224 -20.638826 2.9453385 19 11
8.5811272 -14.498339 -2.0686104 5 4
12.18984 -20.603683 3.7916589 30 12
17.369909 -29.417768 -1.7904133 7 6
3.1479743 -5.3741841 -1.6688653 6 0
3.6951981 -6.31598 -1.6893824 7 1
17.364357 -29.703634 1.8031832 10 9
4.5688767 -7.8218288 -1.7607856 3 2
6.6276488 -11.360059 -2.0830817 6 3
12.061848 -20.691086 2.9407074 7 11
8.4662495 -14.528971 -2.0647106 6 4
11.981098 -20.577322 3.7713227 27 12
17.338715 -29.838787 -1.8086262 6 6
3.1113434 -5.3977036 -1.6693829 5 0
3.651015 -6.3416228 -1.6893824 7 1
17.357738 -30.173849 1.824327 4 9
4.5082893 -7.8433213 -1.7584958 3 2
6.5383434 -11.38892 -2.079953 6 3
11.934881 -20.805782 2.9450948 2 11
8.3626385 -14.584278 -2.0642233 5 4
11.781175 -20.562767 3.753489 30 12
17.324287 -30.298943 -1.8291419 6 6
3.0716791 -5.4159322 -1.6683476 9 0
3.6028111 -6.3601747 -1.6875829 7 1
4.4592214 -7.8848577 -1.7607856 3 2
6.460619 -11.437727 -2.0805786 6 3
12.20011 -21.616404 3.0477087 10 11
8.2450104 -14.61464 -2.0603232 5 4
11.589802 -20.560194 3.7381585 26 12
17.302315 -30.756845 -1.8494482 5 6
3.0272048 -5.4254355 -1.6647241 6 0
3.5659106 -6.3987899 -1.691182 7 1
4.4059749 -7.9192271 -1.7615488 3 2
6.3911653 -11.501546 -2.0840201 8 3
12.173206 -21.924932 3.0791512 7 11
8.1408567 -14.668374 -2.0598357 5 4
11.408624 -20.573229 3.7259564 36 12
17.267048 -31.201933 -1.8689172 5 6
2.9883256 -5.4447432 -1.6642065 5 0
3.5174048 -6.4166932 -1.6893824 7 1
4.3562369 -7.9601259 -1.7638384 3 2
6.3107138 -11.545884 -2.0840201 8 3
12.033168 -22.033773 3.0825634 5 11
8.0249367 -14.700456 -2.0564234 6 4
11.202288 -20.53792 3.7053072 44 12
17.205395 -31.609409 -1.8860834 4 6
2.9741001 -5.5096726 -1.6776651 4 0
3.4669743 -6.4308004 -1.6866829 7 1
4.3168459 -8.017251 -1.7699443 3 2
6.2273002 -11.579873 -2.0824559 7 3
11.807743 -21.975277 3.0630643 2 11
7.9146023 -14.74213 -2.0544736 5 4
11.023937 -20.542332 3.6924796 34 12
17.250071 -32.211735 -1.9149728 4 6
2.9274676 -5.5127277 -1.6724888 4 0
3.4304256 -6.4680233 -1.6902822 7 1
4.2497458 -8.0263729 -1.765365 3 2
6.1407666 -11.612588 -2.0805786 7 3
11.622513 -21.997499 3.0547774 2 11
7.7992396 -14.767576 -2.0505736 5 4
10.831394 -20.526197 3.6758976 42 12
17.277891 -32.812065 -1.9434437 3 6
2.8835459 -5.5227551 -1.6693829 4 0
3.3851874 -6.4918141 -1.6902822 7 1
17.284311 -33.160442 1.9597725 6 9
4.1877599 -8.0411825 -1.7623119 3 2
6.058846 -11.648861 -2.0796399 8 3
11.507296 -22.143038 3.0640395 2 11
7.6886363 -14.80757 -2.0486238 5 4
10.651389 -20.522303 3.6621313 44 12
17.228664 -33.265881 -1.9633311 3 6
2.8476517 -5.5456924 -1.6704183 4 0
3.3391421 -6.5112376 -1.6893824 8 1
17.194468 -33.557594 1.9761013 2 9
4.135098 -8.0772133 -1.7638384 3 2
5.9773755 -11.690875 -2.0796399 8 3
11.339783 -22.198082 3.0606267 2 11
7.5732231 -14.831273 -2.044724 5 4
10.468356 -20.51874 3.648365 37 12
17.231598 -33.848114 -1.9905459 2 6
2.8106074 -5.5688858 -1.6714535 4 0
3.2936044 -6.5343904 -1.6893824 7 1
4.0803733 -8.1093912 -1.7646016 3 2
5.8964987 -11.734084 -2.079953 9 3
11.172069 -22.251871 3.0572145 2 11
7.4588132 -14.862494 -2.0417993 5 4
10.292981 -20.527754 3.6371019 52 12
17.128925 -34.235516 -2.0062468 2 6
2.7776694 -5.6004872 -1.6750768 6 0
3.2513652 -6.5642099 -1.691182 7 1
4.0254006 -8.141201 -1.765365 3 2
5.8126874 -11.77142 -2.0793271 9 3
10.998886 -22.29372 3.0523398 2 11
7.3443356 -14.89284 -2.0388744 5 4
10.105766 -20.510511 3.6214583 47 12
17.109797 -34.802353 -2.0324149 1 6
2.7342725 -5.6110592 -1.6724888 7 0
3.2054601 -6.5867481 -1.691182 7 1
3.9647424 -8.1578169 -1.7630752 3 2
5.7298398 -11.805383 -2.0783885 8 3
10.846882 -22.368071 3.0523398 2 11
7.2419162 -14.947322 -2.0393617 5 4
9.9297628 -20.504154 3.6083179 50 12
17.068892 -35.324432 -2.0560706 0 6
2.6926787 -5.622571 -1.6704183 5 0
3.1605518 -6.6084142 -1.691182 7 1
3.9178448 -8.2065582 -1.7676547 3 2
5.643033 -11.836182 -2.0768242 9 3
10.719483 -22.504181 3.0606267 2 11
7.1348858 -14.985515 -2.0378993 5 4
9.7456436 -20.487352 3.5933001 45 12
17.029106 -35.879383 -2.0814011 0 6
2.6550045 -5.6447282 -1.6714535 5 0
3.1110253 -6.6232629 -1.6893824 8 1
3.8621247 -8.2372637 -1.768418 3 2
5.5476995 -11.848453 -2.0721312 8 3
10.459498 -22.359104 3.0308907 2 11
7.0334592 -15.042154 -2.0388744 5 4
9.5722809 -20.490459 3.5820367 57 12
17.02459 -36.525993 -2.1119652 0 6
2.6147223 -5.6613727 -1.6709359 6 0
3.061446 -6.637742 -1.6875829 7 1
3.7946711 -8.2426262 -1.7638384 3 2
5.4565969 -11.868946 -2.0690024 8 3
10.214492 -22.238564 3.0048108 42 11
6.9150229 -15.062023 -2.0349743 5 4
9.3993492 -20.492149 3.5707734 55 12
17.008537 -37.167 -2.1421108 0 6
2.5775287 -5.6847672 -1.6724888 5 0
3.0150318 -6.6589527 -1.6875829 8 1
3.7742269 -8.3512125 -1.7813929 3 2
5.3662896 -11.890546 -2.0661867 7 3
10.070415 -22.334665 3.0082233 32 11
6.7982826 -15.084594 -2.0315621 5 4
9.2236176 -20.48522 3.5582585 42 12
16.953251 -37.740307 -2.1682787 0 6
2.533066 -5.6920328 -1.6693829 4 0
2.9668872 -6.6762776 -1.6866829 7 1
3.7030964 -8.3486452 -1.775287 3 2
5.2719469 -11.902433 -2.0618064 6 3
6.6783538 -15.099011 -2.0271747 5 4
9.0436544 -20.466 3.5438669 52 12
19.976482 -45.314156 -2.5953405 0 6
2.5002251 -5.725512 -1.6740416 6 0
2.9233224 -6.7039728 -1.6884826 7 1
3.6587243 -8.4024563 -1.7813929 3 2
5.1931725 -11.943479 -2.0627451 8 3
9.8841066 -22.753601 3.0460026 2 11
6.5648766 -15.127056 -2.0247374 6 4
8.8789835 -20.46909 3.533855 38 12
19.591427 -45.273113 -2.5852919 0 6
2.455868 -5.7299681 -1.6704183 5 0
2.8760886 -6.7201328 -1.6875829 8 1
3.5907214 -8.4061279 -1.7768134 3 2
5.1003647 -11.957639 -2.0589907 8 3
9.7250147 -22.822052 3.0460026 2 11
6.4570928 -15.160434 -2.0232751 5 4
8.7002888 -20.446966 3.5194631 38 12
10.982445 -25.873024 -1.473048 11 6
2.4232919 -5.7647829 -1.6755946 4 0
2.8275955 -6.7364535 -1.6866829 7 1
3.5197594 -8.3977833 -1.7699443 3 2
5.0089402 -11.968388 -2.0549233 9 3
9.5357552 -22.807135 3.0352783 5 11
6.344974 -15.190488 -2.0213251 6 4
8.5304699 -20.432796 3.5069482 40 12
10.693974 -25.677992 -1.4577659 23 6
2.3781047 -5.7668557 -1.6714535 4 0
2.7831609 -6.7591481 -1.6875829 8 1
3.4752257 -8.4566536 -1.777195 4 2
12.184505 -29.664637 2.8057177 2 10
4.9207649 -11.9921 -2.0530462 9 3
9.3793106 -22.880497 3.0362532 2 11
6.2308941 -15.207609 -2.0179126 5 4
8.3651657 -20.43701 3.4975624 35 12
8.736927 -21.366541 -2.0195727 32 5
8.6791191 -21.256929 -1.2033083 41 6
2.3406825 -5.7904816 -1.6735239 4 0
2.7359054 -6.7784133 -1.6875829 7 1
3.4095008 -8.4643202 -1.7737606 3 2
4.8383985 -12.029827 -2.0536718 7 3
9.2193489 -22.945419 3.0362532 2 11
6.1230955 -15.247052 -2.0174253 6 4
8.1928644 -20.421577 3.4850476 38 12
2.3044691 -5.8174582 -1.6766298 3 0
2.6885166 -6.797349 -1.6875829 8 1
3.3517683 -8.4915676 -1.7745237 3 2
11.844444 -30.022768 2.8236718 12 10
4.7427096 -12.033908 -2.048666 7 3
9.0894775 -23.086802 3.0464902 2 11
6.0106883 -15.27465 -2.0154753 6 4
8.0284157 -20.42312 3.4756613 38 12
2.2610044 -5.8262005 -1.6745592 3 0
8.5096865 -21.95064 0.41093436 44 8
2.6409967 -6.8159523 -1.6875829 8 1
3.2987764 -8.5312414 -1.7779584 4 2
11.831358 -30.613934 2.8714333 11 10
4.6600041 -12.070409 -2.0492916 7 3
8.8923674 -23.057087 3.0343032 2 11
5.8896251 -15.279196 -2.0106006 6 4
7.8558288 -20.401247 3.4625208 36 12
2.2120395 -5.8201733 -1.6683476 4 0
8.3278437 -21.934732 0.40953818 44 8
2.5961142 -6.8415112 -1.6893824 7 1
3.2572131 -8.6018 -1.7878804 4 2
11.789422 -31.150457 2.913965 10 10
4.5616517 -12.065693 -2.0430343 6 3
8.7199602 -23.08889 3.0304034 2 11
5.7800093 -15.312514 -2.0096257 6 4
7.6964827 -20.411234 3.4550118 36 12
2.1807852 -5.8608222 -1.6755946 3 0
8.1480312 -21.92111 0.4082118 43 8
2.5469317 -6.8558154 -1.6884826 7 1
3.184118 -8.5893526 -1.7806298 4 2
11.572355 -31.23387 2.9141393 2 10
4.4779935 -12.099098 -2.0433471 8 3
8.1799536 -22.125151 2.896347 2 11
5.6543894 -15.302217 -2.0030446 7 4
7.5346479 -20.412579 3.4462516 38 12
2.1358495 -5.8650131 -1.6724888 3 0
7.9715552 -21.913567 0.40702501 43 8
2.5003386 -6.8770919 -1.6893824 7 1
3.1254144 -8.6150637 -1.7813929 4 2
11.299687 -31.164053 2.9001944 2 10
4.3893819 -12.118921 -2.0414701 8 3
8.0286684 -22.191051 2.8975658 9 11
5.5427003 -15.328249 -2.0013385 5 4
7.3651142 -20.390368 3.4337368 38 12
7.6790018 -21.282614 -1.9794812 33 5
7.637187 -21.201487 -1.1810133 51 6
2.102633 -5.901619 -1.6787004 3 0
7.788877 -21.88579 0.40548921 43 8
2.4496553 -6.8870354 -1.6875829 7 1
3.0730736 -8.6588764 -1.7859724 4 2
11.0632 -31.189602 2.8953137 2 10
4.3020301 -12.141822 -2.0402186 8 3
8.0033627 -22.613346 2.9453385 19 11
5.4302573 -15.351599 -1.9993886 6 4
7.2015243 -20.381689 3.4237251 36 12
2.0562954 -5.9015594 -1.6745592 4 0
7.7423792 -22.245583 0.41114378 44 8
2.4027956 -6.9076509 -1.6884826 7 1
3.0189853 -8.6986656 -1.7897884 4 2
4.211339 -12.15476 -2.0374026 7 3
7.9777427 -23.051357 2.9950612 17 11
5.3151641 -15.366623 -1.9964637 5 4
7.0461588 -20.394125 3.4174676 40 12
7.8426661 -22.763842 -1.26182 10 6
2.0194054 -5.9285717 -1.6781827 2 0
2.3513756 -6.9150324 -1.686233 5 1
22.739178 -66.91069 3.7036068 26 9
2.9483473 -8.6855507 -1.7829194 4 2
4.1183643 -12.153211 -2.0323968 6 3
7.9288507 -23.424774 3.0364966 10 11
5.1899538 -15.350701 -1.989639 6 4
6.8831472 -20.370501 3.4055786 38 12
8.1594381 -24.21731 -1.3392773 44 6
8.1601086 -24.275293 -0.44702592 31 7
1.9747312 -5.9293499 -1.6745592 2 0
2.3097858 -6.9475203 -1.6902822 7 1
8.0675411 -24.29438 1.34158 68 9
2.9030907 -8.7525072 -1.7924597 4 2
8.054615 -24.297985 2.2395539 45 10
4.0359025 -12.189168 -2.0336483 6 3
7.724607 -23.357052 3.0206537 2 11
5.0747557 -15.35363 -1.9854957 7 4
6.7234302 -20.365534 3.3968184 36 12
7.9664397 -24.201591 -1.3352997 54 6
1.9273131 -5.9246206 -1.6693829 2 0
7.9614887 -24.488392 0.4494693 50 8
2.264838 -6.974597 -1.6929817 7 1
7.9192519 -24.401922 1.3445108 25 9
2.8440535 -8.7739334 -1.7928416 7 2
7.913631 -24.442713 2.2477465 17 10
3.9431107 -12.186284 -2.0286424 7 3
7.5715485 -23.42798 3.0230913 2 11
4.9607348 -15.367904 -1.9828143 6 4
6.5688834 -20.361946 3.3886838 36 12
1.8957179 -5.9652185 -1.6771475 2 0
2.2167225 -6.9879937 -1.6925317 5 1
2.7803621 -8.786087 -1.791315 7 2
3.8567483 -12.209749 -2.0280166 7 3
7.3970556 -23.446194 3.0187037 2 11
4.8655667 -15.431604 -1.9867141 5 4
6.4123297 -20.362089 3.3811748 36 12
1.850021 -5.9653916 -1.6735239 2 0
2.1684601 -7.0051603 -1.6929817 6 1
2.7276444 -8.8334208 -1.7970392 12 2
9.7114496 -31.469816 2.8813689 2 10
3.7655976 -12.217498 -2.0248878 7 3
7.2355289 -23.50485 3.0196788 2 11
4.7833982 -15.54868 -1.9974388 5 4
6.2491331 -20.338385 3.3699117 36 12
1.8060921 -5.9707651 -1.6714535 2 0
2.114996 -7.0052037 -1.6893824 7 1
2.6664762 -8.8541279 -1.7974207 15 2
9.4915123 -31.536848 2.8813689 2 10
3.6807816 -12.245381 -2.0252008 8 3
7.0632677 -23.528173 3.0162666 2 11
4.6747332 -15.581696 -1.9974388 6 4
6.0933871 -20.336102 3.3624029 34 12
1.7643644 -5.9832287 -1.6714535 2 0
2.0649385 -7.0160599 -1.6884826 8 1
2.5995064 -8.8494701 -1.7928416 24 2
9.2711163 -31.602341 2.8813689 2 10
3.5951214 -12.262568 -2.0239494 8 3
6.892911 -23.541412 3.0118792 2 11
4.5719686 -15.634908 -2.0001199 7 4
5.9426317 -20.335392 3.3555195 36 12
1.7262666 -6.0043831 -1.6740416 2 0
2.0214343 -7.0449381 -1.6920818 7 1
2.5322616 -8.848526 -1.7890252 24 2
9.0448341 -31.626404 2.8778825 2 10
3.5105102 -12.291167 -2.024575 8 3
6.7316632 -23.600416 3.0133417 2 11
4.4670563 -15.681721 -2.0020697 8 4
5.7864594 -20.326984 3.3473849 38 12
1.691064 -6.044488 -1.6818062 3 0
1.9678258 -7.0479603 -1.6893824 7 1
2.4767489 -8.8886833 -1.7936047 18 2
8.8065424 -31.648085 2.8740478 2 10
3.4214087 -12.312167 -2.0239494 8 3
6.5593033 -23.620058 3.0099294 2 11
4.3521628 -15.693395 -1.9996324 7 4
5.6292577 -20.325989 3.3405018 38 12
1.6473019 -6.0505548 -1.6802533 2 0
1.9216404 -7.0728102 -1.6920818 7 1
2.4161615 -8.9175491 -1.7958944 16 2
8.5739269 -31.666489 2.870213 2 10
3.3302174 -12.316684 -2.0208206 8 3
6.3776956 -23.620396 3.0040796 2 11
4.2414622 -15.719563 -1.9991449 7 4
5.4718013 -20.307573 3.3311157 36 12
8.4108076 -31.323946 -1.6997674 9 6
1.6015604 -6.0488348 -1.6766298 3 0
1.8712204 -7.0822849 -1.691182 7 1
2.355906 -8.9356861 -1.796276 10 2
7.9864006 -30.334469 2.74436 31 10
3.2432873 -12.327604 -2.0189433 8 3
6.2177796 -23.667099 3.0045671 2 11
4.1285968 -15.737269 -1.9976823 7 4
5.3294377 -20.329063 3.328613 38 12
7.9172382 -30.307981 -1.6416745 41 6
1.5526422 -6.0296631 -1.6683476 2 0
7.8162937 -30.398409 0.54786599 55 8
1.8220003 -7.091083 -1.6902822 6 1
7.7933555 -30.375128 1.643454 61 9
2.2915175 -8.9443083 -1.7947495 10 2
7.7639236 -30.326366 2.7387819 34 10
3.1561682 -12.346118 -2.0183177 8 3
6.0396352 -23.659922 2.9982297 2 11
4.0194182 -15.757314 -1.9967074 7 4
5.1786098 -20.331316 3.3229811 40 12
7.6956329 -30.323795 -1.639581 42 6
1.5222261 -6.0872092 -1.6812886 2 0
1.7724509 -7.1036301 -1.6902822 6 1
7.6328063 -30.613512 1.6535023 7 9
2.2315311 -8.9635096 -1.7955128 9 2
7.5794139 -30.490042 2.7487178 11 10
3.0701528 -12.359647 -2.0170662 8 3
5.8698454 -23.665804 2.9938426 2 11
3.9117017 -15.794624 -1.9979262 6 4
5.0249133 -20.304733 3.3129694 38 12
1.4693596 -6.0504971 -1.6683476 2 0
1.7258933 -7.1231055 -1.6920818 3 1
2.165674 -8.9655113 -1.7928416 10 2
7.6157265 -31.551916 2.8397083 10 10
2.9833286 -12.378858 -2.0167532 9 3
5.7100596 -23.729364 2.9967675 2 11
3.7985311 -15.797724 -1.9950013 6 4
4.8701282 -20.285538 3.3042092 34 12
1.4288546 -6.0681295 -1.6704183 2 0
1.6743398 -7.1273928 -1.6902822 3 1
2.1119828 -9.0186434 -1.8004738 6 2
7.4583659 -31.873976 2.8639376 2 10
2.885602 -12.351295 -2.0089316 8 3
5.5424571 -23.760916 2.9957924 2 11
3.6881516 -15.823856 -1.9950013 6 4
4.7221217 -20.292109 3.299829 36 12
1.3821605 -6.0591221 -1.6652418 2 0
1.6232442 -7.1332083 -1.6889325 4 1
2.0441923 -9.0121069 -1.796276 7 2
2.7975593 -12.363433 -2.0076802 8 3
5.3869381 -23.845503 3.0016422 2 11
3.5762789 -15.84341 -1.9942701 7 4
4.5760002 -20.305309 3.2967005 36 12
1.3448247 -6.0912604 -1.6714535 2 0
1.5742438 -7.1481729 -1.6898323 3 1
1.9962822 -9.0871735 -1.8084878 4 2
6.9972477 -31.904943 2.8576624 2 10
2.7116489 -12.37447 -2.0064287 8 3
5.2160196 -23.842833 2.9967675 2 11
3.4638896 -15.860232 -1.9932952 7 4
4.4292593 -20.297386 3.2904429 38 12
7.2773809 -33.489388 -1.7960654 27 6
1.3033322 -6.1002731 -1.6714535 2 0
1.5218955 -7.1415691 -1.6857833 3 1
1.9270844 -9.0740032 -1.8031452 4 2
6.7708211 -31.908957 2.8538277 2 10
2.6227369 -12.381504 -2.0045516 8 3
5.0436883 -23.851475 2.993355 5 11
3.3533916 -15.871789 -1.9918326 8 4
4.275219 -20.269827 3.2810569 38 12
9.8699608 -46.998913 -2.5168364 1 6
1.2622744 -6.1167917 -1.6735239 2 0
1.4743598 -7.1634722 -1.6884826 3 1
1.8672487 -9.0965242 -1.8050531 4 2
6.5438895 -31.93593 2.8520846 2 10
2.5383978 -12.39907 -2.0045516 8 3
4.8772478 -23.865807 2.9909177 7 11
3.2440913 -15.902596 -1.9928077 8 4
4.1308379 -20.267488 3.276051 36 12
9.5188465 -46.912327 -2.508672 0 6
1.2198542 -6.1214533 -1.6724888 2 0
1.4274645 -7.1828985 -1.6907321 3 1
1.8086559 -9.1343746 -1.8100141 4 2
6.3194003 -31.944548 2.8489468 2 10
2.4471836 -12.393233 -2.000797 8 3
4.7036042 -23.864216 2.9865303 7 11
3.1288686 -15.88925 -1.9884202 7 4
3.9854333 -20.276451 3.2729223 36 12
9.1795998 -46.918839 -2.5055318 0 6
1.1800039 -6.1449971 -1.6766298 2 0
1.373253 -7.1716352 -1.6857833 3 1
1.7463133 -9.1544933 -1.8115407 4 2
6.0805655 -31.905684 2.8416257 2 10
2.3606043 -12.410016 -2.000797 8 3
4.5294809 -23.85747 2.9816556 7 11
3.010468 -15.871699 -1.9835457 7 4
3.8966913 -20.583271 3.3179753 6 12
8.8311119 -46.871864 -2.49967 0 6
1.1356708 -6.1454864 -1.6745592 2 0
1.3242116 -7.1867971 -1.687133 4 1
1.6823603 -9.1664619 -1.8115407 4 2
5.8519244 -31.916002 2.8388369 2 10
2.2710638 -12.410648 -1.998294 8 3
4.3563972 -23.853355 2.9772682 7 11
2.9003017 -15.896234 -1.9840331 8 4
3.8643699 -21.222149 3.4165289 6 12
8.4929981 -46.873417 -2.4965301 1 6
1.0971308 -6.1779928 -1.6812886 2 0
1.2719675 -7.1843529 -1.6844335 4 1
1.6176448 -9.1741161 -1.8107775 4 2
5.6255136 -31.936457 2.8370938 2 10
2.1836834 -12.422309 -1.9976684 8 3
4.0141492 -22.882109 2.8524742 2 11
2.7851424 -15.892632 -1.9811082 8 4
3.8308027 -21.904362 3.521966 7 12
8.1477509 -46.82925 -2.4910872 1 6
1.0513775 -6.1702662 -1.6771475 2 0
1.2243909 -7.2084279 -1.6880326 4 1
1.5535579 -9.1851864 -1.8107775 4 2
5.402422 -31.974951 2.8370938 2 10
2.0962493 -12.433356 -1.9970427 8 3
3.8575976 -22.92915 2.8549113 2 11
2.6695189 -15.88428 -1.9776958 7 4
3.7950795 -22.629963 3.6342859 7 12
7.8179927 -46.869225 -2.4902496 1 6
1.0004969 -6.1297898 -1.6642065 2 0
1.1749772 -7.2225699 -1.6893824 3 1
1.4966573 -9.2304316 -1.8176465 4 2
5.1682444 -31.945017 2.831167 2 10
2.0096786 -12.435637 -1.9951655 8 3
3.7640069 -23.342913 2.9031718 6 11
2.5598218 -15.910369 -1.9786707 8 4
3.7497215 -23.332041 3.7428513 2 12
7.48492 -46.834579 -2.4856441 1 6
0.96262616 -6.1612711 -1.6709359 2 0
1.1251869 -7.2265496 -1.6884826 3 1
1.4345869 -9.256176 -1.8206996 4 2
4.9439793 -31.93614 2.8273323 2 10
1.9197985 -12.42984 -1.9920367 8 3
3.719461 -24.137701 2.9987173 5 11
2.4478421 -15.903881 -1.9757458 7 4
6.635715 -43.466061 -2.3043525 0 6
0.91816527 -6.1582875 -1.6683476 2 0
1.0755695 -7.2400117 -1.6898323 3 1
1.3660855 -9.2288256 -1.8134488 3 2
4.7156639 -31.934399 2.8241947 2 10
1.8322643 -12.423078 -1.9889081 8 3
3.6856873 -25.050163 3.1088874 5 11
2.3344464 -15.904872 -1.9737961 7 4
6.8160067 -46.779167 -2.4774797 1 6
0.88003194 -6.1911716 -1.6755946 2 0
1.024624 -7.2355881 -1.687133 3 1
1.3062816 -9.2711859 -1.8199363 4 2
4.4976282 -31.961813 2.8238461 2 10
1.7452186 -12.43361 -1.9885952 6 3
3.6362247 -25.971743 3.220032 3 11
2.2277822 -15.932188 -1.9752585 8 4
6.4821324 -46.774174 -2.4747584 1 6
0.8360132 -6.191421 -1.6740416 2 0
0.97616386 -7.2580156 -1.6907321 3 1
1.2360578 -9.2392168 -1.8119223 3 2
4.2664709 -31.933186 2.8186166 2 10
1.6599388 -12.45724 -1.9904724 6 3
3.5913281 -27.023684 3.3472638 3 11
2.1159799 -15.943417 -1.974771 8 4
6.1523104 -46.794521 -2.4735022 1 6
0.79472959 -6.2124362 -1.6781827 2 0
0.92645466 -7.2723856 -1.6925317 3 1
1.1757203 -9.2807322 -1.8184099 4 2
4.0464325 -31.985914 2.8207085 2 10
1.5699636 -12.445006 -1.9867179 6 3
3.5383558 -28.127422 3.4808326 3 11
2.003633 -15.949923 -1.9737961 7 4
5.8126597 -46.733273 -2.4680593 1 6
0.75203454 -6.223587 -1.6797357 3 0
0.87147152 -7.2438502 -1.6844335 2 1
1.113456 -9.2963152 -1.8199363 4 2
1.4838146 -12.443636 -1.9848408 6 3
3.4879007 -29.337519 3.627563 3 11
1.8917651 -15.959579 -1.9733087 7 4
5.4874306 -46.712246 -2.4649191 0 6
0.70746821 -6.2093678 -1.6745592 3 0
0.82258397 -7.2534876 -1.6853334 4 1
1.0494078 -9.3116665 -1.8214628 4 2
3.4660213 -30.803209 2.7119379 3 10
1.3933824 -12.422282 -1.9798348 7 3
1.7817681 -15.960248 -1.9718461 7 4
5.1524172 -46.67001 -2.4607322 0 6
0.66451204 -6.2179971 -1.6755946 3 0
0.77357358 -7.2745557 -1.6889325 5 1
0.98352307 -9.295166 -1.8168833 4 2
1.3087956 -12.431479 -1.9798348 6 3
1.6682363 -15.952555 -1.9694086 7 4
4.8264041 -46.624538 -2.4565454 1 6
0.62063503 -6.2069974 -1.6714535 3 0
0.72076124 -7.2466865 -1.6812842 3 1
0.92207962 -9.3369732 -1.8237525 4 2
1.2198515 -12.418688 -1.9763933 8 3
1.5549011 -15.944056 -1.9669714 7 4
4.4409518 -46.036827 -2.4238877 0 6
0.57548988 -6.2035856 -1.6693829 4 0
0.67049849 -7.2691236 -1.6853334 5 1
0.85633594 -9.3373175 -1.8226075 3 2
1.1305976 -12.423165 -1.9757676 8 3
1.4446259 -15.966384 -1.9684337 7 4
3.9988427 -44.806179 -2.3575256 1 6
0.53249669 -6.2113018 -1.6704183 4 0
0.61973411 -7.2736273 -1.6853334 5 1
0.79131609 -9.3647261 -1.8268054 4 2
1.0433441 -12.42485 -1.974829 7 3
1.3313105 -15.954321 -1.9657527 6 4
0.49063635 -6.234127 -1.6755946 4 0
0.57000262 -7.2913756 -1.6884826 7 1
0.72831506 -9.3796816 -1.8287135 3 2
0.95814037 -12.423784 -1.9735774 7 3
1.2182322 -15.941455 -1.9630717 7 4
3.4752581 -46.111767 -2.4234691 0 6
0.44763744 -6.2296147 -1.6735239 4 0
0.52091402 -7.3028622 -1.6902822 7 1
0.66405958 -9.4021616 -1.8321481 4 2
0.87193525 -12.438053 -1.974829 7 3
1.1085932 -15.933535 -1.9611217 7 4
0.4031356 -6.2171655 -1.6693829 4 0
0.47066814 -7.3179893 -1.6929817 7 1
0.59890246 -9.4144068 -1.8336746 4 2
0.78433377 -12.432009 -1.9729517 7 3
0.997949 -15.950792 -1.9623404 6 4
2.8200939 -45.976383 -2.4140487 0 6
0.35860711 -6.2005415 -1.6642065 4 0
0.41778353 -7.2899675 -1.6857833 7 1
0.53494054 -9.4497204 -1.8397803 4 2
0.69619697 -12.413514 -1.9691973 7 3
0.88601661 -15.947459 -1.9611217 7 4
2.5213709 -46.405773 -2.435611 1 6
0.31629193 -6.222188 -1.6693829 4 0
0.36668569 -7.2888141 -1.6848834 8 1
0.4699288 -9.4728336 -1.8435967 4 2
0.60922831 -12.412153 -1.9682587 8 3
0.77601051 -15.981014 -1.964534 8 4
2.1957309 -46.388332 -2.4338315 1 6
0.27233753 -6.2126646 -1.6662771 3 0
0.31579125 -7.2911963 -1.6848834 7 1
0.4014442 -9.4209614 -1.8329114 4 2
0.52197886 -12.402288 -1.9660686 7 3
0.66343582 -15.962243 -1.9616091 8 4
1.8697439 -46.350643 -2.4311101 1 6
0.22966957 -6.2337193 -1.6714535 3 0
0.26473993 -7.2893286 -1.6839837 6 1
0.33815217 -9.4470196 -1.8374907 4 2
0.43726984 -12.397656 -1.964817 7 3
0.55184495 -15.962517 -1.9611217 8 4
1.5526565 -46.316387 -2.4287026 1 6
0.18613163 -6.1984501 -1.6616182 2 0
0.21483032 -7.2812223 -1.6817341 5 1
0.27241746 -9.4570007 -1.8390172 4 2
0.35031632 -12.386585 -1.9626271 8 3
0.44362113 -15.981779 -1.9630717 8 4
1.2282683 -46.288166 -2.4267139 1 6
0.1436103 -6.2324314 -1.6704183 2 0
0.16412418 -7.2883892 -1.6830838 8 1
0.20613152 -9.4468946 -1.8367275 4 2
0.2632443 -12.361081 -1.9582468 8 3
0.33178911 -15.972578 -1.9616091 8 4
0.90501338 -46.291615 -2.4265046 1 6
0.09994188 -6.2236238 -1.66783 2 0
0.11335871 -7.2971516 -1.6848834 7 1
0.14046712 -9.4677353 -1.8405437 4 2
0.17708407 -12.372493 -1.9598112 7 3
0.22005244 -15.958625 -1.9596591 7 4
0.58111221 -46.240887 -2.4235737 1 6
0.0563333 -6.2067838 -1.6631712 2 0
0.06237977 -7.2938676 -1.6839837 7 1
0.07453718 -9.4900789 -1.8447415 4 2
0.090429828 -12.335896 -1.9538667 8 3
0.10839355 -15.924042 -1.9552718 7 4
0.25813079 -46.21785 -2.4222128 1 6
0.013048963 -6.2302079 -1.6693829 3 0
0.011458324 -7.2941256 -1.6839837 7 1
0.0082427217 -9.4452133 -1.8359643 4 2
0.0043109655 -12.34808 -1.9557439 8 3
-0.0027817732 -15.946246 -1.957953 6 4
-0.064523116 -46.21653 -2.4221084 1 6
-0.030389763 -6.2185569 -1.6662771 2 0
-0.039422374 -7.2862325 -1.682184 7 1
-0.056013051 -9.4391613 -1.8348193 4 2
-0.079738542 -12.347823 -1.9557439 8 3
-0.11395124 -15.924003 -1.9552718 7 4
-0.072649002 -6.21241 -1.6647241 2 0
-0.089111745 -7.2935901 -1.6839837 8 1
-0.12168126 -9.4208727 -1.8313849 4 2
-0.1657283 -12.331164 -1.953241 8 3
-0.22228274 -15.918889 -1.9547845 7 4
-0.74829084 -49.276688 -2.5827796 0 6
-0.11540476 -6.178916 -1.6559243 4 0
-0.1399536 -7.2888932 -1.6830838 7 1
-0.18776086 -9.4354954 -1.8344377 4 2
-0.25185236 -12.331681 -1.9535539 7 3
-0.33357841 -15.924887 -1.9557593 7 4
-1.0907778 -49.202374 -2.5792208 1 6
-0.15893538 -6.1934099 -1.6600655 4 0
-0.19063222 -7.2799468 -1.6812842 8 1
-0.25188619 -9.3691912 -1.8218443 4 2
-0.33663717 -12.282231 -1.9460449 6 3
-0.44391558 -15.892406 -1.9521034 6 4
-1.4341321 -49.189568 -2.5790117 1 6
-0.20305073 -6.2191806 -1.6673124 3 0
-0.24145117 -7.2784381 -1.6812842 7 1
-0.31572065 -9.3692217 -1.8222259 7 2
-0.42090768 -12.299397 -1.9491737 7 3
-0.55457562 -15.880984 -1.9511282 6 4
-1.7683421 -49.162693 -2.5781741 1 6
-0.24431221 -6.19063 -1.6600655 4 0
-0.2911433 -7.28052 -1.682184 7 1
-0.37984321 -9.3354034 -1.8161201 7 2
-0.50643802 -12.288265 -1.9479222 7 3
-0.6633237 -15.892709 -1.9530783 6 4
-2.1120338 -49.161129 -2.5788021 1 6
-0.28860086 -6.2119303 -1.6662771 3 0
-0.34214586 -7.2822037 -1.6830838 8 1
-0.4422617 -9.3090687 -1.8115407 15 2
-0.58931035 -12.268748 -1.9454193 6 3
-0.77338803 -15.869845 -1.9508847 7 4
-0.33005449 -6.1943893 -1.662136 3 0
-0.3906585 -7.2602468 -1.6785848 8 1
-0.50958902 -9.3488817 -1.8199363 13 2
-0.67494798 -12.264335 -1.9454193 7 3
-0.88084239 -15.854304 -1.9496659 6 4
-2.7971234 -49.258942 -2.5857105 1 6
-0.37422144 -6.2073607 -1.6662771 3 0
-0.44204479 -7.2690139 -1.6812842 7 1
-0.57008809 -9.2942476 -1.8100141 24 2
-0.7581678 -12.255513 -1.9447935 7 3
-0.98951775 -15.816069 -1.9457661 5 4
-3.1227174 -49.087273 -2.5777555 1 6
-0.41594675 -6.1969595 -1.6642065 4 0
-0.49203849 -7.2736135 -1.6830838 7 1
-0.634157 -9.2782888 -1.8077245 27 2
