# .PCD v0.7 - Point Cloud Data file format
VERSION 0.7
FIELDS x y z intensity ring
SIZE 4 4 4 4 2
TYPE F F F F U
COUNT 1 1 1 1 1
WIDTH 1305
HEIGHT 1
VIEWPOINT 0 0 0 1 0 0 0
POINTS 1305
DATA ascii
-6.1408443 2.3253303 -1.759452 7 0
-7.0824809 2.6861389 -1.7487694 9 1
-32.237434 12.23941 1.8071609 4 9
-8.5354176 3.2440045 -1.7749053 7 2
-10.722398 4.0816226 -1.817143 8 3
-14.065349 5.3625941 -1.8482705 19 4
-24.408112 9.3400822 -1.3696321 11 6
-6.1100464 2.3625729 -1.7553109 7 0
-7.0726418 2.7390375 -1.751019 10 1
-8.4942589 3.296411 -1.7710892 7 2
-10.701007 4.1592426 -1.8183944 8 3
-14.079366 5.4808221 -1.8550954 15 4
-23.735847 9.2733154 -1.3355091 10 6
-6.0862155 2.4023325 -1.7532402 9 0
-7.0497236 2.7869124 -1.7501192 11 1
-8.4965935 3.3657546 -1.7764318 7 2
-10.690071 4.2411332 -1.8215232 8 3
-14.073964 5.592175 -1.8594825 18 4
-17.785038 7.0811195 -1.6747848 36 5
-23.269806 9.2789993 -1.3128999 21 6
-6.065712 2.4433217 -1.752205 7 0
-7.0264807 2.8346045 -1.7492194 11 1
-8.4910917 3.4323459 -1.780248 7 2
-10.638229 4.3067627 -1.8177687 8 3
-13.891091 5.6321125 -1.840471 16 4
-17.321693 7.0371313 -1.635739 35 5
-16.881184 6.8684688 -0.95513123 27 6
-6.0520802 2.4870758 -1.7532402 7 0
-6.9993124 2.8806212 -1.7474198 11 1
-8.4596615 3.4885471 -1.7787216 7 2
-10.627986 4.3892231 -1.8212101 9 3
-13.743203 5.6841931 -1.8260905 20 4
-16.886839 6.9947577 -1.5991336 51 5
-22.237772 9.2293787 -1.26182 21 6
-6.0310078 2.5277719 -1.752205 7 0
-6.9736414 2.927151 -1.7460701 9 1
-8.446579 3.5506165 -1.7810113 7 2
-10.586939 4.4568653 -1.819333 9 3
-13.836707 5.8363156 -1.8438834 16 4
-16.518242 6.9775753 -1.5688033 33 5
-21.887482 9.2591372 -1.2454911 10 6
-6.0154376 2.569524 -1.7527226 6 0
-6.9750552 2.9837484 -1.7514689 9 1
-23.297335 9.9756193 1.328182 6 9
-8.4251947 3.611043 -1.7817745 9 2
-10.559199 4.5322237 -1.8199588 9 3
-13.70809 5.8951278 -1.8321838 19 4
-20.84664 8.9909267 -1.1898057 10 6
-5.9774151 2.6040165 -1.7470287 7 0
-6.9535255 3.0335846 -1.7514689 9 1
-8.3997803 3.6697717 -1.7817745 10 2
-10.519258 4.6044989 -1.8187072 9 3
-13.499335 5.9173651 -1.8097599 18 4
-19.83839 8.724966 -1.1357951 10 6
-5.9555588 2.6441154 -1.7459934 7 0
-6.9410806 3.0860157 -1.7537185 10 1
-8.3517838 3.7201989 -1.777195 10 2
-10.45258 4.6625328 -1.8127627 8 3
-13.470385 6.0171285 -1.811466 20 4
-19.711382 8.8338461 -1.1320268 20 6
-5.958076 2.6951835 -1.752205 9 0
-6.8962913 3.1239431 -1.7478697 9 1
-8.347723 3.7866943 -1.7817745 9 2
-10.409809 4.7286716 -1.8108855 8 3
-13.258209 6.0337338 -1.7885547 20 4
-19.821592 9.0457573 -1.141866 10 6
-5.9466119 2.7389076 -1.7542756 9 0
-6.8907943 3.178158 -1.7519189 10 1
-8.3139563 3.8415842 -1.780248 7 2
-10.356824 4.7921057 -1.8074441 9 3
-13.193419 6.1129875 -1.785386 19 4
-14.568901 6.7595663 -1.4051249 28 5
-14.516459 6.7475543 -0.83894545 43 6
-5.9238472 2.7787151 -1.7532402 9 0
-6.8790216 3.2311568 -1.7546182 10 1
-8.2840595 3.8964171 -1.7794847 7 2
-10.273926 4.8389239 -1.7986836 10 3
-13.175554 6.2168055 -1.7887983 18 4
-14.542971 6.8713245 -1.4072165 28 5
-14.376313 6.8017912 -0.83350253 17 6
-5.887363 2.8106489 -1.7480639 9 0
-6.8639016 3.2812681 -1.7564179 10 1
-8.2672815 3.9592421 -1.7817745 7 2
-10.279081 4.9293208 -1.8055668 9 3
-13.081039 6.2814221 -1.7817299 20 4
-14.089161 6.7867126 -0.81958115 35 6
-5.8641219 2.8499944 -1.7470287 9 0
-6.833818 3.3256962 -1.7546182 10 1
-8.2464972 4.0203032 -1.783301 7 2
-10.230217 4.99403 -1.8030639 12 3
-12.831774 6.2723393 -1.7537 16 4
-13.804723 6.7688403 -0.8057645 35 6
-5.8406196 2.8891499 -1.7459934 9 0
-6.806942 3.3715925 -1.7537185 13 1
-8.2393341 4.0882483 -1.7878804 7 2
-10.195103 5.0653286 -1.8030639 12 3
-12.869428 6.402442 -1.7649119 13 4
-13.531958 6.7526808 -0.79257584 35 6
-5.8341112 2.936805 -1.7501343 9 0
-6.7780161 3.4164021 -1.7523687 14 1
-8.2218304 4.1495442 -1.79017 7 2
-10.169203 5.1390615 -1.8046281 14 3
-12.987357 6.5746131 -1.7873359 11 4
-13.27018 6.7352571 -0.7799105 26 6
-5.8105474 2.9746866 -1.7490991 9 0
-6.7719469 3.4713473 -1.7568678 13 1
-17.17857 8.8134279 1.0118635 2 9
-8.1717052 4.1960788 -1.7855908 9 2
-10.080375 5.1828308 -1.7952422 13 3
-12.875237 6.6283364 -1.7780739 13 4
-16.838448 8.6835289 -1.6575279 36 5
-13.034723 6.7306032 -0.76881528 26 6
-5.7827845 3.0116098 -1.7470287 9 0
-6.7613707 3.525748 -1.7604669 14 1
-8.1613512 4.2630262 -1.7897884 6 2
-9.9704275 5.2146306 -1.7821016 14 3
-12.707307 6.654521 -1.7612559 10 4
-16.752716 8.7879105 -1.6550876 36 5
-12.78054 6.7127752 -0.75656861 35 6
-5.782105 3.0627577 -1.7532402 9 0
-6.7434778 3.5765178 -1.7622666 10 1
-8.1209898 4.3143711 -1.7874987 6 2
-9.911108 5.2720475 -1.7780343 19 3
-12.564178 6.6917453 -1.7478503 12 4
-12.37222 6.6089263 -0.73511088 26 6
-5.7537789 3.0993853 -1.7511697 9 0
-6.7114849 3.619807 -1.7604669 11 1
-8.0854912 4.3681598 -1.7863539 7 2
-9.9174995 5.3646059 -1.785856 17 3
-12.304199 6.6639605 -1.7181141 18 4
-12.325493 6.6866255 -1.2268041 54 5
-12.345086 6.7056231 -0.73626232 35 6
-16.637709 9.0485811 -0.33058348 37 7
-5.7421675 3.1450469 -1.7542756 9 0
-6.6928854 3.6703222 -1.7622666 11 1
-8.0547972 4.4245024 -1.7863539 7 2
-9.9074984 5.448946 -1.7908621 18 3
-12.292153 6.7688484 -1.7229888 12 4
-12.107403 6.6863976 -0.72485304 26 6
-5.7200708 3.1850581 -1.7542756 9 0
-6.6636944 3.7150598 -1.7613667 14 1
-8.0031443 4.4691396 -1.7817745 7 2
-9.8588734 5.5121946 -1.7889848 18 3
-12.617014 7.0629721 -1.7753928 10 4
-11.985895 6.7206712 -1.2022263 20 5
-11.907166 6.6847234 -0.71564192 26 6
-5.6842456 3.2173011 -1.7501343 9 0
-6.6443772 3.7653337 -1.7631663 14 1
-7.9256496 4.4987364 -1.7714708 10 2
-9.7583227 5.5457506 -1.7777214 18 3
-11.709902 6.6629658 -1.6542546 7 4
-11.773681 6.7074189 -1.1854924 30 5
-11.697147 6.6746383 -0.7058028 26 6
-5.6649957 3.2588317 -1.7511697 9 0
-6.6145511 3.8096836 -1.7622666 13 1
-7.8676319 4.5368886 -1.765365 12 2
-9.7203474 5.6120448 -1.7777214 11 3
-12.226751 7.0705032 -1.7342008 14 4
-11.547247 6.6856284 -1.167364 29 5
-11.499385 6.6659584 -0.69659162 26 6
-5.6626978 3.3090131 -1.7573814 9 0
-6.581738 3.8506825 -1.7604669 12 1
-7.8120542 4.577806 -1.7600222 12 2
-9.5821133 5.6217899 -1.759575 19 3
-12.096184 7.1053014 -1.7225015 7 4
-11.380084 6.6953578 -1.1551622 38 5
-11.301129 6.6568732 -0.68738055 26 6
-5.6294923 3.3425474 -1.7542756 9 0
-6.5513458 3.8945448 -1.7595671 13 1
-7.8085818 4.6493077 -1.7665098 13 2
-9.4679747 5.6440439 -1.7458088 18 3
-11.180355 6.6727672 -1.5986823 12 4
-11.179152 6.6826377 -1.1394742 27 5
-11.106995 6.6473989 -0.67837876 26 6
-5.612637 3.3857574 -1.7563461 9 0
-6.5340071 3.9462302 -1.7622666 13 1
-7.8095293 4.7240314 -1.7741421 13 2
-9.492548 5.7488904 -1.7576978 19 3
-10.997704 6.6683173 -1.579183 19 4
-11.00397 6.6799984 -1.1262265 27 5
-10.913553 6.6355419 -0.66937697 26 6
-14.81105 9.0158844 -0.30265963 32 7
-5.5658021 3.4107282 -1.7490991 9 0
-6.4996524 3.9876752 -1.7604669 12 1
-7.8006134 4.7914658 -1.7794847 13 2
-9.3421412 5.7450757 -1.7370484 18 3
-10.810596 6.6585274 -1.5589528 21 4
-10.787479 6.6520824 -1.1087954 25 5
-10.742371 6.6320353 -0.66163123 26 6
-14.468815 8.9465885 -0.29693523 31 7
-5.552299 3.4546571 -1.752205 9 0
-6.4756675 4.033884 -1.7613667 14 1
-7.7802982 4.8541188 -1.7825377 15 2
-9.4157333 5.8813162 -1.7583237 8 3
-10.640474 6.6540689 -1.5409162 21 4
-10.615823 6.6489697 -1.0958962 33 5
-10.570594 6.6283493 -0.65388548 26 6
-5.5443769 3.503655 -1.7573814 9 0
-6.4473481 4.0789938 -1.7613667 11 1
-7.7296367 4.8978119 -1.7787216 13 2
-9.1976299 5.8347435 -1.7251595 17 3
-10.453001 6.6387963 -1.5204421 20 4
-10.454832 6.6502032 -1.0840431 32 5
-10.385921 6.6140099 -0.64530241 26 6
-5.5295372 3.548537 -1.7604873 7 0
-6.4252725 4.128119 -1.7631663 13 1
-7.6473775 4.920845 -1.7676547 10 2
-9.0869265 5.853879 -1.712019 15 3
-10.243427 6.6090336 -1.4967993 19 4
-10.193927 6.5846577 -1.0617312 31 5
-10.051026 6.4998131 -0.62729883 25 6
-5.5104771 3.5922332 -1.7625577 7 0
-6.3988328 4.1761203 -1.7640662 11 1
-7.6539264 5.0009584 -1.777195 15 2
-9.1638145 5.9966321 -1.7345455 16 3
-10.001101 6.5520182 -1.4680382 37 4
-10.017762 6.5704312 -1.0481349 52 5
-10.030968 6.5891118 -0.6289736 35 6
-5.4820414 3.628485 -1.7615224 7 0
-6.3825159 4.2293038 -1.7676654 11 1
-7.6359386 5.0675426 -1.7813929 12 2
-9.0921135 6.0407825 -1.728914 15 3
-9.9418955 6.6128817 -1.4660883 20 4
-9.9384813 6.6181197 -1.0446488 22 5
-12.749672 8.5029726 -0.80314767 17 6
-5.4501629 3.6623569 -1.759452 9 0
-6.3528357 4.2737575 -1.7676654 13 1
-7.6208091 5.1325617 -1.7859724 12 2
-8.9492369 6.0340624 -1.709516 14 3
-9.7737455 6.5999236 -1.4480517 19 4
-9.7797937 6.6114655 -1.0327955 14 5
-12.61872 8.5403032 -0.79854208 8 6
-5.4187236 3.6950169 -1.7573814 7 0
-6.3203793 4.3147035 -1.7667656 13 1
-7.5556183 5.1656947 -1.7791032 10 2
-8.8971128 6.0896983 -1.7076389 14 3
-9.6237936 6.5944824 -1.4324524 15 4
-12.647687 8.6892614 -0.80419439 17 6
-5.3959718 3.7349555 -1.7584167 9 0
-6.2772884 4.3498435 -1.7631663 14 1
-19.729355 13.681634 1.2582612 5 9
-7.4903383 5.1981692 -1.772234 12 2
-8.8965616 6.1809678 -1.7157733 10 3
-12.452378 8.6836691 -0.79561126 8 6
-12.663052 8.8404408 -0.26956987 26 7
-5.3729281 3.7747555 -1.759452 9 0
-6.259521 4.4025288 -1.7667656 13 1
-7.4233713 5.2288523 -1.7649832 13 2
-8.7563314 6.174624 -1.6970013 13 3
-11.463858 8.0928564 -1.7229888 2 4
-12.138058 8.5815077 -1.3005379 24 5
-12.306679 8.7103891 -0.79016834 17 6
-5.3558826 3.818903 -1.7625577 9 0
-6.2127719 4.4347992 -1.7622666 14 1
-7.3930745 5.2851171 -1.7665098 22 2
-8.7162247 6.2379007 -1.6976269 13 3
-11.323169 8.1125727 -1.7103145 1 4
-12.003871 8.6224785 -0.77457225 17 6
-5.3275256 3.8550682 -1.76204 6 0
-6.1753469 4.4734912 -1.7604669 12 1
-7.3814235 5.3550477 -1.7726158 18 2
-16.939205 12.29351 1.8311421 3 10
-8.6596775 6.2893128 -1.695124 14 3
-11.211669 8.1517324 -1.7020274 1 4
-12.018586 8.7480459 -1.3005379 24 5
-11.928856 8.6954832 -0.7736302 26 6
-5.3238401 3.9093173 -1.7698047 9 0
-6.1533875 4.5234179 -1.7631663 14 1
-7.2862973 5.3621101 -1.7584958 12 2
-8.6532469 6.3750591 -1.7023201 10 3
-11.087397 8.1803074 -1.6917903 1 4
-11.684773 8.6305056 -1.270905 23 5
-11.885453 8.7883511 -0.77467692 26 6
-11.929161 8.8335571 -0.25909844 24 7
-5.2878113 3.9385412 -1.7666988 7 0
-6.1162062 4.5605388 -1.7613667 14 1
-10.934578 8.1592903 0.71501392 4 9
-7.2423911 5.4081502 -1.7569693 12 2
-8.59587 6.4258537 -1.6998171 9 3
-10.961528 8.2032537 -1.6810659 1 4
-11.47437 8.5995512 -1.2545198 22 5
-11.561804 8.6745367 -0.75751072 17 6
-5.2509384 3.9683723 -1.763593 7 0
-6.0842175 4.6031284 -1.7613667 12 1
-7.2122841 5.4645061 -1.7588774 13 2
-8.4689608 6.4236302 -1.6835479 9 3
-10.866049 8.2507658 -1.6752161 1 4
-11.515554 8.7566309 -1.2656757 23 5
-11.408789 8.6848745 -0.75143975 17 6
-11.408608 8.6941757 -0.25037223 23 7
-5.2415028 4.0190406 -1.7698047 9 0
-6.0627551 4.6537967 -1.7645161 16 1
-7.1646204 5.5075455 -1.7565877 13 2
-8.3894672 6.4560966 -1.6766648 9 3
-10.704392 8.2464705 -1.6591294 1 4
-11.155034 8.6153679 -0.73866975 26 6
-11.347636 8.7736082 -0.25037223 23 7
-5.19807 4.0436721 -1.7646283 7 0
-6.0147443 4.6840343 -1.760017 16 1
-7.1259961 5.5574303 -1.7565877 16 2
-8.2165146 6.4148259 -1.6510096 11 3
-10.527695 8.2280941 -1.6406052 1 4
-11.156828 8.732357 -1.239529 22 5
-14.465289 11.334085 -0.96308637 9 6
-5.1666789 4.0774703 -1.763593 9 0
-5.9696627 4.716248 -1.7564179 21 1
-7.0500731 5.5778065 -1.7474288 18 2
-10.881323 8.6120691 1.2140795 2 10
-8.1405621 6.4475012 -1.6447523 9 3
-10.535327 8.3531866 -1.6508422 1 4
-10.902111 8.6564064 -1.2179143 21 5
-10.755353 8.5490637 -0.72003812 8 6
-5.1531687 4.1255136 -1.7687694 9 0
-5.9365931 4.7578082 -1.7564179 16 1
-7.0354581 5.6465526 -1.7535348 15 2
-8.0799503 6.4918046 -1.6416235 10 3
-10.340631 8.3170519 -1.6293933 2 4
-10.40695 8.3823614 -1.1691071 19 5
-10.665867 8.6001234 -0.71804935 17 6
-5.1069703 4.1458836 -1.7625577 7 0
-5.8828974 4.7809 -1.7501192 22 1
-6.9146347 5.6273899 -1.7329274 15 2
-7.8609896 6.4044137 -1.6059564 12 3
-10.157637 8.2843637 -1.6094066 3 4
-10.434465 8.5192451 -1.1785198 19 5
-10.512762 8.5954037 -0.71166438 26 6
-10.712962 8.7684536 -0.24164602 21 7
-5.0928149 4.193716 -1.7677342 9 0
-5.8824582 4.8491244 -1.760017 14 1
-6.8337708 5.6393375 -1.722242 15 2
-7.7380219 6.3923535 -1.5896872 24 3
-7.7042933 6.3735447 -1.2277118 22 4
-7.7047119 6.3806882 -0.87521797 42 5
-10.417109 8.6361704 -0.70915228 26 6
-10.599173 8.7996035 -0.24045926 21 7
-5.0552535 4.2208557 -1.7646283 9 0
-5.8493152 4.8890524 -1.760017 14 1
-6.7882137 5.6818671 -1.7207156 13 2
-7.7083483 6.4589038 -1.5928159 33 3
-7.7124434 6.4692116 -1.235999 31 4
-7.7087984 6.4753294 -0.88079596 18 5
-10.29389 8.655983 -0.70486069 17 6
-10.386049 8.7427654 -0.23696879 20 7
-5.0227156 4.2535472 -1.763593 9 0
-5.8284197 4.9411097 -1.7640662 14 1
-6.7932792 5.7672386 -1.732164 15 2
-7.6705928 6.5189586 -1.5943803 13 3
-10.068739 8.5782614 -1.157254 19 5
-10.198257 8.6978273 -0.70245332 17 6
-10.330843 8.8202534 -0.23710839 20 7
-4.9987612 4.2935424 -1.7656636 9 0
-5.7686625 4.9600806 -1.7564179 16 1
-6.7989726 5.8542342 -1.7439942 12 2
-7.6727767 6.6136198 -1.6043921 2 3
-9.7795773 8.4385233 -1.5860078 1 4
-9.9256811 8.5736628 -1.1474924 28 5
-10.076865 8.716548 -0.69826639 26 6
-9.9364395 8.6041784 -0.22942933 19 7
-4.9715772 4.3308749 -1.7666988 9 0
-5.6810203 4.954124 -1.7402214 21 1
-6.7175555 5.8642268 -1.733309 12 2
-7.4297523 6.4928117 -1.5627805 1 3
-10.806761 9.4506111 1.7627183 3 11
-9.5829916 8.386323 -1.5635839 12 4
-9.757679 8.5482225 -1.1349421 18 5
-12.675164 11.115822 -0.88353568 8 6
-4.9217114 4.3467102 -1.759452 7 0
-5.6471682 4.9926777 -1.7402214 17 1
-6.6544042 5.891459 -1.7275848 13 2
-7.3029366 6.4724593 -1.5455726 14 3
-9.6147814 8.5304022 -1.5782082 7 4
-9.7960691 8.7034721 -1.1464466 18 5
-9.7736549 8.6927185 -0.68549639 17 6
-9.816865 8.7403593 -0.22942933 19 7
-4.8970022 4.3861198 -1.7615224 9 0
-5.5773525 5.0007582 -1.7294236 21 1
-6.6247969 5.9482665 -1.7306377 10 2
-7.1973362 6.4691472 -1.532745 24 3
-9.519577 8.5654507 -1.5723584 13 4
-9.7646742 8.7983208 -1.1499329 18 5
-9.4635744 8.5360012 -0.66791159 17 6
-9.6813946 8.7416763 -0.2276841 18 7
-4.866262 4.4202008 -1.7615224 7 0
-5.6172786 5.1077466 -1.7528186 20 1
-6.5802064 5.9917259 -1.7298744 10 2
-7.0658655 6.4407215 -1.5142858 18 3
-9.4214239 8.5969095 -1.5660212 13 4
-9.7016172 8.8618956 -1.1495842 18 5
-12.068218 11.039125 -0.85715836 17 6
-12.198085 11.169655 -0.28869772 30 7
-4.8296018 4.4488292 -1.759452 7 0
-5.5900788 5.1547647 -1.7555181 22 1
-6.5161877 6.0150709 -1.7237686 10 2
-6.9725342 6.4430866 -1.5036483 21 3
-8.1489592 7.5407348 -1.3632306 2 4
-9.589818 8.8833752 -1.1436577 18 5
-9.45189 8.7648077 -0.67555261 17 6
-11.976209 11.121187 -0.28527704 29 7
-4.8161511 4.4974222 -1.7656636 9 0
-5.544898 5.1833787 -1.7523687 26 1
-6.4525371 6.0402908 -1.7180443 10 2
-13.580182 12.717004 1.6277206 1 10
-6.8726091 6.4402795 -1.4917592 21 3
-9.1615086 8.5972118 -1.5426223 11 4
-11.842119 11.136056 -0.85192472 8 6
-11.898273 11.204529 -0.28527704 29 7
-4.7642102 4.5131707 -1.7584167 9 0
-5.509079 5.2242656 -1.7528186 22 1
-6.3902788 6.0662661 -1.7127017 10 2
-6.7776718 6.443018 -1.4811217 19 3
-8.9660912 8.5323267 -1.5197108 12 4
-11.666248 11.1135 -1.409657 28 5
-11.525123 10.994418 -0.83475858 17 6
-4.7256207 4.5396299 -1.7558285 10 0
-5.4359517 5.2274785 -1.7411212 20 1
-6.342463 6.1077523 -1.7115568 10 2
-6.6642618 6.4243712 -1.466104 20 3
-6.6422343 6.4098496 -1.1333849 9 4
-11.55112 11.158684 -1.4051249 28 5
-11.374878 11.003786 -0.82942033 17 6
-11.525198 11.160894 -0.28004134 28 7
-4.7034988 4.5819459 -1.759452 9 0
-5.3881631 5.2544174 -1.737522 15 1
-6.2698355 6.1206121 -1.7031612 10 2
-6.5638661 6.41436 -1.4535893 18 3
-6.5391536 6.3991404 -1.1233917 19 4
-11.141424 10.925737 -0.81780171 26 6
-4.6680779 4.6097832 -1.757899 10 0
-5.3605876 5.299192 -1.7402214 17 1
-6.199049 6.1366091 -1.6955289 9 2
-6.4824457 6.4238749 -1.4454547 27 3
-6.4475293 6.3959684 -1.1151046 31 4
-11.272634 11.198116 -1.3901341 27 5
-11.011064 10.949735 -0.81382424 17 6
-4.6494341 4.6559291 -1.7630754 10 0
-5.3757615 5.3889117 -1.7573177 18 1
-13.639467 13.682379 1.0124915 2 9
-6.1338859 6.1574845 -1.6894228 7 2
-58.459248 58.704613 7.24822 50 10
-6.3747368 6.4059658 -1.4313755 19 3
-62.046604 62.394081 10.804206 45 11
-6.3607335 6.398591 -1.1077924 25 4
-10.893798 10.973947 -1.3528314 26 5
-10.993418 11.085903 -0.81822044 26 6
-10.939094 11.042678 -0.2713151 27 7
-4.603261 4.67451 -1.757899 10 0
-5.351675 5.4402022 -1.7618166 15 1
-6.0467243 6.1553383 -1.677211 10 2
-6.291121 6.4108357 -1.4226153 20 3
-6.265883 6.3918076 -1.0990179 29 4
-10.869884 11.103835 -1.3594552 26 5
-10.681159 10.922483 -0.80063552 26 6
-10.822608 11.078727 -0.27033779 26 7
-4.5543642 4.6899018 -1.7516873 12 0
-5.2484345 5.4102931 -1.7402214 18 1
-5.9653578 6.1579185 -1.6665258 10 2
-57.30125 59.171612 7.2063856 50 10
-6.1885147 6.3949809 -1.4094746 20 3
-6.163157 6.375453 -1.0887808 24 4
-10.717378 11.102042 -1.3500425 26 5
-10.485416 10.873142 -0.79163373 26 6
-10.714481 11.122327 -0.26956987 26 7
-4.5241852 4.7243729 -1.7527226 12 0
-5.19976 5.4355354 -1.7366221 14 1
-5.9520559 6.2306476 -1.6749215 10 2
-57.112419 59.806511 7.234972 50 10
-6.102807 6.3951554 -1.4000887 18 3
-6.0856271 6.3838401 -1.0829312 27 4
-10.730276 11.271835 -1.361547 26 5
-10.409249 10.946082 -0.79163373 26 6
-10.636569 11.19686 -0.26956987 26 7
-4.496398 4.7614608 -1.7547932 11 0
-5.1429639 5.4518595 -1.7303236 19 1
-5.8518739 6.2120266 -1.6588935 7 2
-6.0174007 6.3944464 -1.3907026 19 3
-5.9919643 6.3740993 -1.0741564 29 4
-10.261325 10.931022 -1.3116939 24 5
-10.338045 11.024311 -0.79205245 26 6
-10.353079 11.051933 -0.26433414 25 7
-4.4235511 4.7503219 -1.739264 11 0
-5.118052 5.5018988 -1.7348225 19 1
-5.8324132 6.2786226 -1.6657627 9 2
-5.9390187 6.4001007 -1.3828808 14 3
-5.8960361 6.3604569 -1.0648944 29 4
-10.039804 10.85719 -0.77499092 17 6
-10.180688 11.02112 -0.2618908 25 7
-4.4033461 4.7953176 -1.7444404 10 0
-5.0505357 5.5059013 -1.7249247 20 1
-5.7566133 6.284441 -1.6566037 9 2
-6.0395498 6.6002555 -1.4169836 7 3
-5.8193455 6.3662972 -1.0590447 27 4
-7.79737 8.5422049 -1.0118781 14 5
-10.199263 11.185289 -0.7933085 8 6
-4.369761 4.825942 -1.7444404 11 0
-5.0538058 5.5872741 -1.7393216 15 1
-5.6757531 6.2836814 -1.6459185 7 2
-6.2354922 6.9106479 -1.4742386 5 3
-10.76214 11.935798 1.9733087 7 11
-5.7495074 6.3787532 -1.0544137 39 4
-9.4532328 10.513626 -0.74097258 17 6
-4.3565507 4.8793864 -1.7527226 11 0
-5.0224605 5.6311455 -1.742021 18 1
-5.5455651 6.2263932 -1.6207317 10 2
-5.5791521 6.2707114 -1.3293802 9 3
-5.5755987 6.2733283 -1.0305272 34 4
-5.5718613 6.2779408 -0.73437428 51 5
-9.765172 11.014259 -0.7714321 17 6
-9.8415775 11.112153 -0.25909844 24 7
-4.3504643 4.9415822 -1.7641107 10 0
-4.9753036 5.6572914 -1.7393216 17 1
-5.5201001 6.2856078 -1.6260743 22 2
-5.4909472 6.2590189 -1.3187426 29 3
-5.4911094 6.2658186 -1.0229713 28 4
-5.5147743 6.3016949 -0.73263115 51 5
-9.4764042 10.840069 -0.75457984 26 6
-4.265204 4.9134789 -1.7434052 10 0
-4.8986626 5.6491909 -1.7262744 24 1
-5.4555206 6.3002458 -1.6199685 19 2
-53.601116 61.922474 7.1652479 50 10
-5.4768395 6.3315639 -1.3259387 21 3
-5.4900608 6.353569 -1.0310147 36 4
-5.5305195 6.4094305 -0.74064946 10 5
-9.4891682 11.008835 -0.76169759 26 6
-4.2220025 4.9328632 -1.7397816 13 0
-4.8502393 5.6728854 -1.7231251 21 1
-5.4394507 6.371026 -1.6283641 10 2
-6.0016503 7.0369673 -1.4648525 6 3
-5.4108148 6.3509412 -1.0244337 29 4
-7.2197018 8.4831152 -0.97457546 13 5
-9.4793377 11.153952 -0.76714051 8 6
-11.480679 13.523191 -0.30964059 33 7
-4.1675301 4.9385939 -1.7314996 14 0
-4.6824064 5.5546284 -1.677235 32 1
-5.4756265 6.5025125 -1.6524061 6 2
-6.694953 7.958962 -1.6472552 1 3
-5.3305922 6.346004 -1.0176091 29 4
-9.16712 10.936575 -0.74788088 8 6
-4.1338172 4.9668469 -1.7314996 13 0
-4.7665806 5.7332239 -1.7213255 22 1
-5.4564323 6.5723023 -1.6604201 7 2
-5.7300363 6.9092169 -1.4216765 4 3
-5.2556152 6.3439221 -1.0115156 34 4
-7.0992842 8.5815563 -0.97440118 13 5
-11.200017 13.552929 -0.92142695 9 6
-9.1315174 11.061666 -0.25037223 23 7
-4.1125212 5.0120134 -1.7371935 12 0
-4.721498 5.7603326 -1.7195259 17 1
-5.3930078 6.5889664 -1.6550773 7 2
-6.5256581 7.9813166 -1.6328632 1 3
-5.1747828 6.3358722 -1.0044472 31 4
-5.1704764 6.3396277 -0.71572298 15 5
-7.0077176 8.6015062 -0.58145255 19 6
-6.9940853 8.5939579 -0.19340758 19 7
-4.1235995 5.0976763 -1.7568637 12 0
-4.6787186 5.790123 -1.718626 17 1
-5.3123565 6.5836749 -1.6443919 10 2
-6.4598613 8.0143757 -1.6303602 1 3
-5.0880966 6.3192749 -0.99616015 28 4
-5.0848927 6.3243289 -0.70997071 29 5
-6.8111773 8.4804821 -0.57004327 20 6
-4.0855017 5.1233196 -1.7558285 11 0
-6.8728204 8.6248608 0.19250005 12 8
-4.6333251 5.8165488 -1.7168264 14 1
-5.2308216 6.5760441 -1.6333251 12 2
-6.3816333 8.0314398 -1.6247286 1 3
-5.0241094 6.3297644 -0.99226028 30 4
-5.0096774 6.3206387 -0.7056129 48 5
-6.6575837 8.4088192 -0.56208825 20 6
-6.7592936 8.5464725 -0.19019634 13 7
-4.0448589 5.1456418 -1.753758 11 0
-4.5829763 5.8364921 -1.7132272 19 1
-5.1738825 6.5984979 -1.6298906 15 2
-6.2986107 8.041584 -1.6178455 1 3
-4.9492154 6.3255987 -0.98616678 21 4
-4.9384427 6.3209181 -0.70177799 48 5
-6.6859632 8.5668831 -0.56951994 20 6
-6.6502843 8.5303717 -0.18880014 31 7
-4.0206718 5.189024 -1.7589344 11 0
-4.5349646 5.8590965 -1.7105279 18 1
-5.0772686 6.5692124 -1.6138625 13 2
-6.1819568 8.0071802 -1.6022019 1 3
-4.8746266 6.3206992 -0.98007339 29 4
-4.8674498 6.3205128 -0.69794315 48 5
-8.3455105 10.848611 -0.71731669 8 6
-6.5808206 8.5639048 -0.18852089 19 7
-3.9620693 5.1877961 -1.7490991 13 0
-4.5010419 5.8999095 -1.7132272 17 1
-5.0776782 6.6654077 -1.6287457 10 2
-6.1498303 8.081583 -1.6084594 1 3
-4.7847323 6.2945232 -0.97081131 23 4
-4.7955027 6.3178363 -0.69393402 57 5
-6.3895183 8.4270391 -0.55423784 31 6
-3.9083278 5.1921782 -1.7413346 12 0
-4.459743 5.9311891 -1.7132272 18 1
-5.0380974 6.7101121 -1.6310353 10 2
-6.062448 8.0832291 -1.6003247 1 3
-4.7192502 6.2991753 -0.96642399 19 4
-4.7178588 6.3064928 -0.6890533 57 5
-6.3233576 8.4618406 -0.55360979 31 6
-8.2213945 11.013794 -0.23990077 21 7
-3.8880985 5.2410588 -1.7485816 11 0
-4.3857398 5.9183397 -1.7006299 15 1
-4.9899616 6.7435431 -1.6306537 10 2
-5.9988241 8.1158247 -1.5984476 1 3
-4.6574721 6.3080139 -0.9627679 13 4
-7.3744435 9.9951496 1.96732 3 12
-4.6335201 6.28475 -0.68312669 55 5
-6.2428136 8.4768295 -0.55172575 31 6
-3.8217707 5.2275271 -1.735123 12 0
-4.3466139 5.951961 -1.7015297 18 1
-4.8745131 6.6846242 -1.6081383 12 2
-5.925736 8.1351528 -1.5940675 1 3
-6.2262306 8.5570984 -1.2993711 12 4
-7.3672194 10.132664 1.984215 1 12
-4.5707908 6.2911568 -0.68033773 55 5
-7.8481255 10.813925 -0.70025522 17 6
-6.1912489 8.5403185 -0.18412289 18 7
-3.7942159 5.2666202 -1.739264 11 0
-4.2844667 5.9536901 -1.6934315 15 1
-4.8895912 6.804585 -1.6287457 6 2
-5.8526711 8.1538582 -1.5896872 1 3
-6.0899973 8.4938812 -1.2832843 13 4
-4.5093646 6.2986116 -0.67772305 60 5
-9.5767193 13.391422 -0.86281061 8 6
-6.108232 8.5507879 -0.18342479 12 7
-3.7752476 5.3181849 -1.7475463 11 0
-4.2405429 5.9802766 -1.6925317 15 1
-4.440361 6.2713461 -1.4936529 6 2
-5.7385716 8.1138792 -1.5740438 1 3
-6.0076423 8.5037651 -1.2784096 18 4
-4.4331245 6.2843528 -0.67284232 58 5
-6.0017948 8.5175486 -0.54607344 21 6
-6.0714064 8.625927 -0.18412289 12 7
-3.715883 5.3127503 -1.7371935 12 0
-4.1986895 6.0097356 -1.6925317 16 1
-4.3908544 6.2941422 -1.4917448 19 2
-5.6546817 8.1148472 -1.566535 1 3
-5.8857555 8.4558887 -1.2650038 23 4
-4.3720479 6.2882094 -0.6700533 58 5
-5.8875127 8.4804897 -0.54104918 32 6
-3.6655509 5.3194718 -1.7309818 12 0
-4.1256971 5.9939532 -1.6799345 15 1
-39.903885 57.995457 3.6893713 25 9
-4.3278913 6.2947626 -1.4848757 19 2
-5.879344 8.573719 -1.2764597 16 4
-4.3032713 6.2824168 -0.66621852 58 5
-3.6270871 5.3411036 -1.7299466 12 0
-4.0738621 6.0057697 -1.6754354 17 1
-4.2596159 6.2890639 -1.4764801 21 2
-4.997663 7.3870726 -1.4126034 2 3
-42.255154 62.504501 9.2637768 25 11
-4.2325406 6.2702775 -0.6618607 52 5
-5.748816 8.5293922 -0.53906041 21 6
-3.5821919 5.3550549 -1.7263231 14 0
-4.0015202 5.9886951 -1.6628381 21 1
-4.1883755 6.2754536 -1.466558 26 2
-5.4776025 8.2164278 -1.564032 1 3
-5.7407765 8.6242199 -1.2720723 15 4
-7.3559179 11.054798 2.1031051 1 12
-4.1666026 6.266489 -0.65837449 56 5
-7.1801381 10.81106 -0.68015814 17 6
-3.5818057 5.4341555 -1.7439228 9 0
-3.9735231 6.035326 -1.668237 21 1
-4.129364 6.2815738 -1.4612154 22 2
-39.348122 59.878986 6.2685895 28 10
-5.411437 8.2412558 -1.561529 1 3
-41.378448 63.064564 9.2613392 25 11
-5.6383924 8.5966997 -1.2623228 11 4
-7.3283753 11.181879 2.1174972 3 12
-4.1118345 6.2787595 -0.65663135 56 5
-10.41619 15.923676 -0.99720943 9 6
-3.5237951 5.4282417 -1.7340877 11 0
-3.9153883 6.0383925 -1.6614884 23 1
-4.0512671 6.2575126 -1.4490036 26 2
-36.99577 57.164856 5.9572692 20 10
-5.325881 8.2357063 -1.5533944 1 3
-39.812386 61.611263 9.0068769 22 11
-5.6062431 8.6792088 -1.2686601 19 4
-4.0387464 6.2621031 -0.65192497 59 5
-8.6628475 13.447254 -0.83831745 8 6
-3.477489 5.4396892 -1.7299466 11 0
-3.8616006 6.0475135 -1.6565396 21 1
-3.9948175 6.2657781 -1.4444242 26 2
-35.137348 55.133339 5.7198572 13 10
-5.2682557 8.2726879 -1.5533944 1 3
-5.5401864 8.7097607 -1.2674413 21 4
-3.9724989 6.2548265 -0.64826441 55 5
-6.9264693 10.918587 -0.67764604 17 6
-3.4301655 5.4491196 -1.7252878 13 0
-3.8317344 6.0941224 -1.6619384 20 1
-3.9363627 6.270236 -1.4390815 26 2
-5.1851864 8.2691002 -1.5458857 1 3
-5.3485875 8.5396147 -1.2372177 21 4
-3.9107764 6.2536898 -0.6453011 59 5
-6.8268013 10.929405 -0.67534322 17 6
-3.3798931 5.4554615 -1.7195939 12 0
-3.7736712 6.0981851 -1.6556398 21 1
-44.350731 71.725922 4.4195628 216 9
-3.8728182 6.2681804 -1.4322125 28 2
-34.459118 55.794071 5.737288 14 10
-5.0885348 8.2454758 -1.5346223 1 3
-5.3112998 8.6165361 -1.2428237 16 4
-3.8440411 6.2435141 -0.64146626 61 5
-5.1878719 8.4393625 -0.51917273 22 6
-3.3366947 5.4706783 -1.7170056 13 0
-3.7249231 6.114397 -1.6529404 18 1
-33.217903 54.547985 3.3470941 9 9
-3.811693 6.2642078 -1.4253433 26 2
-5.001513 8.2292795 -1.5252361 9 3
-37.388248 61.565464 8.844059 20 11
-5.2942681 8.7246838 -1.2530607 14 4
-3.792098 6.256568 -0.64007175 57 5
-5.0837622 8.3975954 -0.51446253 11 6
-6.5798402 10.886033 -0.22202952 17 7
-3.2993822 5.4932623 -1.7170056 14 0
-3.7213154 6.2031097 -1.6700366 15 1
-32.64114 54.453087 3.3272064 8 9
-3.7376034 6.2401381 -1.4138948 28 2
-4.9459677 8.2673864 -1.525862 9 3
-5.0555482 8.4606056 -1.2101626 5 4
-3.7310438 6.25144 -0.63693416 61 5
-5.0659075 8.5015116 -0.5186494 11 6
-3.256036 5.5078473 -1.7144175 18 0
-3.6244147 6.1383238 -1.6457419 20 1
-32.182457 54.526077 3.3182046 8 9
-3.6750956 6.2316132 -1.4062624 24 2
-32.916695 55.859123 5.6724439 12 10
-4.9036145 8.3246889 -1.5302421 10 3
-35.075851 59.59449 8.4906378 15 11
-6.3609285 10.815965 -1.5406723 14 4
-3.6671271 6.2429767 -0.63344789 66 5
-7.7438331 13.199046 -0.80199623 17 6
-6.340178 10.823878 -0.21895789 17 7
-3.2155545 5.5248742 -1.7128645 12 0
-3.5864661 6.169591 -1.6475415 15 1
-31.750851 54.663067 3.3129709 8 9
-3.625591 6.2469287 -1.4039726 26 2
-32.473724 55.97504 5.6616373 11 10
-4.859252 8.3826437 -1.5346223 11 3
-7.2780247 12.565364 1.7829487 2 11
-6.1797371 10.673475 -1.5143486 10 4
-3.6015174 6.2304773 -0.6296131 64 5
-6.1915021 10.723998 -0.6489659 17 6
-3.184586 5.5605993 -1.7170056 12 0
-3.5587881 6.2215438 -1.65474 17 1
-31.368458 54.8834 3.3129709 8 9
-3.5682607 6.2482204 -1.39863 28 2
-32.510834 56.95134 5.737288 14 10
-4.8378029 8.4815674 -1.5465113 9 3
-6.059866 10.637019 -1.5031366 19 4
-3.540205 6.2242932 -0.62647545 56 5
-6.1066232 10.749593 -0.64791918 17 6
-7.6350527 13.456513 -0.27005854 26 7
-3.1532748 5.5961604 -1.7211467 13 0
-3.4999745 6.2190647 -1.6475415 16 1
-3.5130124 6.25244 -1.3940506 26 2
-4.7552705 8.4737902 -1.5390024 10 3
-33.361847 59.498741 8.3755932 13 11
-6.0174913 10.736207 -1.51118 10 4
-3.4919162 6.2378154 -0.62542957 60 5
-6.0304537 10.79022 -0.64781451 17 6
-6.0438437 10.827498 -0.21644475 24 7
-3.103827 5.599452 -1.7154527 10 0
-3.4508085 6.2331181 -1.6448421 16 1
-3.4437718 6.2281008 -1.3833653 26 2
-31.521729 57.05442 5.702775 13 10
-4.7757888 8.6477566 -1.5646578 9 3
-32.574368 59.032707 8.2785845 12 11
-5.8599653 10.628455 -1.4902185 16 4
-3.4329059 6.2341175 -0.62264061 64 5
-7.2966571 13.267078 -0.79351783 26 6
-5.9507871 10.837874 -0.21581645 16 7
-3.051765 5.5950103 -1.7076882 13 0
-3.3933852 6.2290821 -1.6376437 19 1
-3.388952 6.2312946 -1.3787858 24 2
-4.6521268 8.5645866 -1.5436954 13 3
-32.187965 59.307529 8.2854099 12 11
-3.3703229 6.2228928 -0.61915439 62 5
-5.8506989 10.816126 -0.64446503 8 6
-5.9015913 10.923872 -0.21672398 16 7
-2.9925423 5.5787253 -1.6963001 9 0
-3.3479779 6.2491837 -1.6367439 19 1
-3.3249962 6.2167158 -1.3703903 30 2
-31.998331 59.852112 5.9377465 19 10
-4.6489964 8.7031412 -1.5627805 9 3
-31.806786 59.593849 8.2941847 12 11
-3.2600894 6.1107378 -0.85040432 23 4
-3.2724741 6.1442761 -0.60904431 56 5
-7.085382 13.320054 -0.79069173 17 6
-2.9688444 5.6285295 -1.7050999 10 0
-3.2379622 6.146544 -1.6039009 42 1
-7.3499994 13.964126 0.8270129 2 9
-3.2212024 6.1250944 -1.3452035 31 2
-31.177383 59.30864 5.8620949 17 10
-3.2194941 6.1296344 -1.0966057 36 3
-31.620577 60.253887 8.3551197 13 11
-3.2118163 6.1228013 -0.84894192 38 4
-3.2028372 6.1134634 -0.60381496 60 5
-6.9588947 13.305481 -0.78692347 17 6
-2.9134696 5.6182494 -1.6957825 10 0
-3.1770511 6.1343894 -1.594903 40 1
-3.1758304 6.1399021 -1.343677 24 2
-30.656433 59.319546 5.8418746 16 10
-3.1749794 6.1461401 -1.0956671 28 3
-31.328066 60.697037 8.3868046 14 11
-3.1744518 6.1556602 -0.85040432 23 4
-3.1746755 6.1640143 -0.60660398 60 5
-5.5224876 10.736381 -0.63274175 17 6
-2.8962231 5.6792541 -1.7082058 11 0
-3.1785581 6.2409611 -1.6169481 29 1
-3.1666999 6.228426 -1.3581785 26 2
-29.710375 58.461124 5.737288 14 10
-4.5110688 8.88412 -1.5781111 8 3
-32.992626 65.031975 8.9537411 21 11
-5.4317141 10.715754 -1.4751067 11 4
-3.1459661 6.2144675 -0.60939294 56 5
-7.8786783 15.583617 -0.91514659 18 6
-2.8529134 5.6946521 -1.7066529 7 0
-3.1904945 6.3768268 -1.6461918 15 1
-3.0985694 6.2012076 -1.3474932 13 2
-3.1027646 6.2204604 -1.1009859 9 3
-5.3904061 10.820932 -1.4843687 9 4
-3.0900803 6.2113056 -0.60695255 56 5
-7.7420888 15.58951 -0.91221577 27 6
-2.8071148 5.7022977 -1.7030294 12 0
-3.1312823 6.369216 -1.6385435 20 1
-3.0740087 6.2637582 -1.3562704 5 2
-28.968702 59.054173 5.7547188 14 10
-3.0383976 6.1993999 -1.093477 15 3
-3.0308921 6.2005072 -0.60381496 52 5
-6.4778199 13.27561 -0.77415353 17 6
-7.7708354 15.946687 -0.30964059 33 7
-2.766396 5.720017 -1.7025118 9 0
-3.0697896 6.3558254 -1.6295455 20 1
-3.662467 7.5930786 -1.6386677 10 2
-28.228767 58.576523 5.6888294 12 10
-2.9866993 6.2003617 -1.0900354 21 3
-6.0482712 12.578609 -1.7137268 6 4
-2.9771812 6.1999631 -0.60172325 56 5
-6.3518977 13.245559 -0.769862 26 6
-2.7232506 5.729991 -1.6999235 10 0
-3.0206065 6.3642497 -1.6263962 23 1
-3.5849922 7.5670109 -1.6276009 9 2
-2.9408054 6.2157049 -1.0890969 36 3
-5.0975189 10.788755 -1.4651133 7 4
-2.9270256 6.206181 -0.60032874 52 5
-6.250761 13.271511 -0.76881528 17 6
-2.6603041 5.6998467 -1.6854297 12 0
-3.0016234 6.4399376 -1.6403431 19 1
-3.5502999 7.6310129 -1.6359965 9 2
-27.40164 58.924034 5.6853433 12 10
-2.8798611 6.1984634 -1.0825267 36 3
-4.9869847 10.748449 -1.4548763 6 4
-2.8685555 6.1939211 -0.59719115 50 5
-4.9674459 10.740687 -0.62018114 17 6
-2.6124015 5.700717 -1.6802533 12 0
-3.0036273 6.5635114 -1.6664374 21 1
-3.5001981 7.6627584 -1.6375229 7 2
-27.122032 59.40387 5.713233 13 10
-2.8274994 6.1986475 -1.0790851 33 3
-5.1052041 11.207532 -1.5121549 4 4
-2.8114793 6.1806593 -0.59405357 54 5
-2.5685768 5.7100067 -1.6776651 14 0
-2.9497468 6.5665441 -1.6619384 17 1
-24.176928 53.846325 3.0933692 0 9
-3.4246554 7.6344576 -1.6264559 10 2
-24.095932 53.766418 5.1547389 0 10
-2.779588 6.2051306 -1.076895 37 3
-4.8493943 10.846025 -1.4587761 1 4
-2.761766 6.1855803 -0.59265906 50 5
-7.0351629 15.778996 -0.90541214 18 6
-5.9131713 13.287441 -0.25386271 23 7
-2.5577488 5.790976 -1.6963001 9 0
-2.9159911 6.611433 -1.668237 22 1
-3.3918436 7.7048974 -1.636378 10 2
-23.748655 53.972958 5.1589227 0 10
-2.7179198 6.1827912 -1.069699 39 3
-5.5007505 12.531049 -1.6803347 16 4
-2.7105169 6.1864629 -0.59091592 50 5
-6.8808022 15.727087 -0.89965516 9 6
-5.8626184 13.419005 -0.25560796 24 7
-2.5203307 5.8157821 -1.6983706 9 0
-2.8395798 6.5618787 -1.6506908 24 1
-23.224611 53.720322 3.0672014 0 9
-3.3371921 7.7265863 -1.6359965 10 2
-2.6676486 6.1852903 -1.0668832 40 3
-5.4005704 12.539975 -1.6764348 7 4
-2.6593962 6.1869292 -0.58917278 54 5
-6.7346101 15.690314 -0.8948403 26 6
-2.4721098 5.8154564 -1.6931943 9 0
-2.8074057 6.613832 -1.6587892 23 1
-22.281347 52.542534 2.9910002 0 9
-3.3015492 7.7930818 -1.6451553 9 2
-22.798559 53.840603 5.1153445 0 10
-2.6128578 6.1764741 -1.0621902 39 3
-5.363102 12.696234 -1.6922778 7 4
-2.6068504 6.1833138 -0.58708107 52 5
-5.58184 13.259241 -0.75395191 26 6
-2.4314499 5.8325734 -1.6931943 9 0
-2.7933667 6.7106314 -1.6781349 19 1
-3.248569 7.8195667 -1.6459185 7 2
-22.585634 54.392227 5.1526475 0 10
-2.5605915 6.1726694 -1.0584357 39 3
-5.2462273 12.665508 -1.6832595 9 4
-2.5560076 6.1829505 -0.585338 56 5
-6.4661093 15.66466 -0.88814127 17 6
-2.3778 5.8150139 -1.6833591 11 0
-2.7653029 6.772789 -1.6889325 16 1
-3.1900818 7.8287716 -1.6432471 10 2
-21.957855 53.913635 5.0930328 0 10
-2.5080936 6.1643395 -1.0540556 30 3
-5.1509562 12.685271 -1.6810659 10 4
-2.4988897 6.1632767 -0.58185172 52 5
-5.3782635 13.284953 -0.75112569 17 6
-5.4482007 13.484762 -0.25386271 23 7
-2.3404381 5.8426399 -1.6864649 10 0
-2.7095304 6.7743106 -1.6844335 15 1
-3.1193302 7.8107414 -1.6348516 10 2
-21.544916 54.002762 5.0867577 1 10
-2.4595304 6.1711197 -1.0521784 30 3
-5.0483251 12.68588 -1.6764348 9 4
-2.455801 6.180572 -0.58185172 49 5
-5.2941041 13.350949 -0.7526958 8 6
-2.3010061 5.862433 -1.6875002 11 0
-2.6579075 6.7821736 -1.6817341 19 1
-3.0683634 7.8456612 -1.6375229 10 2
-21.001999 53.728767 5.0470147 0 10
-2.4120767 6.1770992 -1.0503011 32 3
-21.816185 55.926704 7.3709021 0 11
-4.9430528 12.678275 -1.6708289 10 4
-2.4068105 6.182713 -0.58045721 56 5
-5.1241055 13.190243 -0.74160057 17 6
-5.1870775 13.37308 -0.25037223 23 7
-2.2690322 5.9017963 -1.6942296 9 0
-2.6230617 6.833313 -1.6898323 15 1
-3.0226171 7.8865294 -1.6417207 10 2
-20.565151 53.714054 5.0320239 0 10
-2.3615026 6.171236 -1.0465467 37 3
-21.718493 56.815613 7.4683976 2 11
-4.8459234 12.690222 -1.667904 10 4
-2.3522317 6.1695781 -0.57766825 49 5
-5.0739942 13.329344 -0.74746221 17 6
-2.2185955 5.8899856 -1.6864649 10 0
-2.5881526 6.8820162 -1.6974807 14 1
-2.9681785 7.9092765 -1.6421022 9 2
-20.15707 53.74086 5.021565 0 10
-2.31282 6.1727719 -1.0440438 37 3
-21.140396 56.482475 7.4050255 1 11
-4.7469182 12.689444 -1.6635166 11 4
-2.2958641 6.1503839 -0.57435632 43 5
-5.8401275 15.670139 -0.87641799 17 6
-2.1680651 5.8799548 -1.6792181 12 0
-2.5205207 6.8468833 -1.6844335 19 1
-2.9074697 7.9150639 -1.6390493 9 2
-19.753933 53.805462 5.0145926 1 10
-2.2601445 6.1628051 -1.0396636 39 3
-20.78656 56.740517 7.4196501 1 11
-4.6486521 12.69618 -1.6601044 11 4
-2.2515059 6.162519 -0.57400775 43 5
-5.7032185 15.635474 -0.87223113 8 6
-2.1204057 5.8767757 -1.6740416 11 0
-2.4885094 6.9083147 -1.6952311 12 1
-20.069525 55.775764 3.1065578 0 9
-2.8481607 7.9240818 -1.6367596 10 2
-20.215763 56.274647 5.2314363 1 10
-2.2077274 6.1524024 -1.0352834 37 3
-20.389929 56.884251 7.4196501 1 11
-4.5384851 12.668521 -1.6523046 11 4
-2.2014551 6.1551895 -0.57191598 43 5
-5.5898886 15.663627 -0.87160313 8 6
-2.0773976 5.8859706 -1.6724888 21 0
-2.4078388 6.8336205 -1.672736 21 1
-19.738497 56.050491 3.1143038 0 9
-2.8045809 7.9729185 -1.6428655 9 2
-19.714081 56.106133 5.2028489 0 10
-2.160562 6.1523771 -1.0327804 37 3
-20.259834 57.756016 7.5151958 2 11
-4.4538703 12.711137 -1.6537671 11 4
-2.153825 6.1572437 -0.57069582 50 5
-4.6073713 13.193475 -0.73238945 17 6
-2.0473735 5.9291916 -1.680771 12 0
-2.3746047 6.8885407 -1.682184 14 1
-2.733526 7.9477468 -1.6337067 9 2
-2.1111426 6.1486278 -1.0296518 34 3
-19.768543 57.640675 7.4820476 2 11
-4.3839798 12.789983 -1.6601044 12 4
-2.1118639 6.171762 -0.57069582 50 5
-5.3611369 15.703295 -0.86961436 17 6
-5.3794422 15.783935 -0.29107124 30 7
-1.9818395 5.8719535 -1.660583 14 0
-2.3096595 6.8550878 -1.6700366 17 1
-18.923016 56.196167 3.1076047 0 9
-2.6943855 8.0108299 -1.6428655 10 2
-2.0642114 6.1478744 -1.0271488 36 3
-19.772127 58.955837 7.6351147 4 11
-4.308454 12.861687 -1.6654665 12 4
-2.0548244 6.1447849 -0.56686091 47 5
-5.2509618 15.72995 -0.86909097 17 6
-1.9484826 5.9054875 -1.6662771 13 0
-2.2568486 6.8521414 -1.6655376 21 1
-18.570179 56.44833 3.1143038 0 9
-2.6371677 8.0257139 -1.6421022 9 2
-18.9921 57.832848 5.3255644 2 10
-2.0138528 6.1396117 -1.0233943 38 3
-19.206781 58.624599 7.5746679 3 11
-4.2368679 12.939767 -1.6718037 11 4
-2.0118756 6.1589808 -0.56686091 54 5
-5.1236806 15.713057 -0.86616015 17 6
-1.916684 5.9483676 -1.6745592 12 0
-2.1946325 6.8232079 -1.65474 16 1
-2.5942736 8.0850544 -1.6504979 9 2
-18.574503 57.922283 5.3217292 2 10
-1.9649186 6.1347079 -1.0202657 35 3
-4.1597333 13.010626 -1.6771661 12 4
-1.9639854 6.157691 -0.56546646 52 5
-4.9411502 15.52007 -0.85359955 17 6
-1.8704756 5.9468598 -1.6704183 12 0
-2.1457798 6.8346434 -1.6538402 15 1
-2.5401092 8.1104641 -1.6520243 7 2
-18.255404 58.324345 5.3468304 3 10
-1.9232183 6.1520486 -1.0208914 35 3
-18.515381 59.300133 7.6278028 4 11
-4.0770731 13.065881 -1.6805785 11 4
-1.9185833 6.1636419 -0.56476921 52 5
-6.381743 20.539917 -1.1272119 10 6
-1.8209786 5.933917 -1.6631712 13 0
-2.0968714 6.8457308 -1.6529404 15 1
-17.442385 57.015835 3.1247709 0 9
-2.4753978 8.1017122 -1.6466817 9 2
-1.8733102 6.1426501 -1.0171371 38 3
-18.151834 59.595055 7.6492519 4 11
-3.9857628 13.094024 -1.6805785 12 4
-1.8673991 6.1501961 -0.56232882 48 5
-4.7315025 15.612393 -0.85496026 17 6
-1.7756306 5.9335299 -1.6595478 10 0
-1.9921417 6.6697454 -1.6070504 20 1
-16.954849 56.837643 3.1084421 0 9
-2.4198983 8.1225595 -1.6474451 10 2
-17.60075 59.11586 5.3963351 4 10
-1.8247505 6.1366444 -1.0140083 42 3
-17.82011 60.005768 7.6858125 4 11
-3.8953755 13.125339 -1.6810659 13 4
-1.815937 6.1344261 -0.5597142 42 5
-6.0603914 20.512091 -1.1209316 9 6
-1.7222637 5.9049816 -1.6481597 12 0
-1.7908458 6.1521044 -1.4792781 14 1
-2.3538272 8.1072044 -1.6409575 12 2
-16.971088 58.491039 5.3283534 2 10
-1.779665 6.1416445 -1.0127568 42 3
-17.683292 61.105026 7.810607 6 11
-3.7986915 13.13505 -1.6788722 16 4
-1.7669923 6.125896 -0.55779672 45 5
-5.9258833 20.58461 -1.1226064 9 6
-1.6878605 5.9410195 -1.6548891 13 0
-1.7398785 6.1363344 -1.4725296 25 1
-2.3201427 8.2046738 -1.6573671 7 2
-1.7335256 6.1425128 -1.0108796 42 3
-17.064562 60.546791 7.7238359 5 11
-3.7106662 13.174624 -1.6805785 12 4
-17.187515 61.105553 10.053732 6 12
-1.7198622 6.1186013 -0.55605364 48 5
-4.4083605 15.725365 -0.85590225 8 6
-1.6453133 5.9489341 -1.6538538 9 0
-1.6990702 6.1558452 -1.4743292 42 1
-2.2506859 8.1710644 -1.6474451 10 2
-1.6832974 6.1236939 -1.0058737 42 3
-16.817038 61.262627 7.8003702 6 11
-3.6359184 13.263386 -1.6886218 10 4
-15.813992 57.72702 9.4799299 1 12
-1.6771044 6.1304593 -0.55605364 45 5
-5.6104689 20.550678 -1.1164308 19 6
-1.6052871 5.9618602 -1.6543714 10 0
-1.649547 6.1390371 -1.4675807 38 1
-2.1864727 8.1600294 -1.6421022 13 2
-15.850592 59.196556 5.3614726 3 10
-1.6374433 6.1238465 -1.0039965 40 3
-3.5030756 13.128635 -1.6683915 13 4
-1.6311911 6.130466 -0.55500776 46 5
-4.8164353 18.139706 -0.98360205 9 6
-1.5631342 5.9710541 -1.6538538 9 0
-1.6041827 6.1409774 -1.4653312 40 1
-2.1314311 8.1826944 -1.6436287 7 2
-15.366701 59.035824 5.337069 2 10
-1.5896816 6.1160107 -1.0008678 40 3
-3.4033613 13.122027 -1.6644917 14 4
-14.870747 57.418228 9.3942032 0 12
-1.5848604 6.1282015 -0.55378759 40 5
-5.2930441 20.510979 -1.1101505 19 6
-1.5233179 5.9893093 -1.6559243 9 0
-1.5560014 6.1312485 -1.4603822 38 1
-2.061254 8.1459856 -1.6333251 10 2
-1.5430766 6.1116376 -0.99836493 42 3
-3.3184588 13.172416 -1.667904 15 4
-14.408837 57.279263 9.3547821 0 12
-1.5387391 6.1214571 -0.55221879 50 5
-4.5248208 18.054073 -0.97543764 18 6
-1.4698871 5.9529109 -1.6429834 12 0
-1.511758 6.1362867 -1.4590325 40 1
-1.9827913 8.066411 -1.6146259 10 2
-14.303471 58.277145 5.2499132 0 10
-1.4986171 6.1104884 -0.99648768 40 3
-13.863253 56.611568 7.1564121 0 11
-3.2273662 13.199117 -1.6683915 15 4
-14.716264 60.23138 9.8203316 4 12
-1.4931325 6.1204367 -0.55117291 46 5
-4.9946246 20.519909 -1.1068009 19 6
-1.4248323 5.9439907 -1.6378069 11 0
-1.4690508 6.142643 -1.4581327 42 1
-1.9209688 8.0571384 -1.6100464 10 2
-1.4522673 6.1054268 -0.9939847 40 3
-13.508057 56.876934 7.1778612 0 11
-3.1282804 13.18215 -1.6635166 19 4
-13.460131 56.807419 9.2465296 0 12
-1.4477681 6.1149473 -0.5497784 43 5
-14.060215 59.478817 11.880151 7 13
-4.8319778 20.472635 -1.1024047 39 6
-1.3841779 5.9575562 -1.6388422 11 0
-1.4226139 6.1375608 -1.4545335 42 1
-1.8643116 8.062376 -1.6085199 9 2
-13.207273 57.206955 5.136611 0 10
-1.4080111 6.103622 -0.99210751 36 3
-13.206137 57.338974 7.224659 0 11
-3.0317273 13.184323 -1.6610793 19 4
-13.026254 56.693653 9.2133656 0 12
-1.4068244 6.1326737 -0.55047566 50 5
-4.6804924 20.452482 -1.0995785 29 6
-1.3497587 5.9991155 -1.6476421 9 0
-1.3788745 6.1435413 -1.4536338 45 1
-1.788141 7.9931269 -1.5921104 6 2
-12.844081 57.461098 5.1512532 0 10
-1.3625774 6.1058288 -0.99085599 33 3
-12.665985 56.850731 7.1515374 0 11
-2.9568629 13.282673 -1.6708289 16 4
-12.760798 57.417904 9.3159866 0 12
-1.3534093 6.0997915 -0.54664081 50 5
-5.0588508 22.856733 -1.2268596 20 6
-1.304968 5.9951787 -1.6440187 11 0
-1.3318162 6.1339741 -1.4491347 45 1
-1.7239906 7.9670391 -1.584478 6 2
-12.459455 57.627258 5.1582255 0 10
-1.3165834 6.0997453 -0.98835307 36 3
-12.247877 56.840748 7.1393509 0 11
-2.886622 13.407785 -1.6839907 14 4
-12.387029 57.633057 9.3366356 0 12
-1.3124636 6.1168833 -0.54733807 43 5
-4.5004029 21.028299 -1.1270026 10 6
-1.2559234 5.9701152 -1.6347013 12 0
-1.2841585 6.1202359 -1.4437358 58 1
-1.6659172 7.9673505 -1.5821884 6 2
-1.2731605 6.1049204 -0.98772728 36 3
-11.837808 56.862675 7.1315508 0 11
-2.7634375 13.285736 -1.6661978 9 4
-12.092 58.236473 9.4204845 1 12
-1.2681103 6.1180935 -0.54664081 46 5
-4.7206254 22.835165 -1.2220447 10 6
-1.2195992 6.0052414 -1.6419481 10 0
-1.2394686 6.1195021 -1.4414864 52 1
-1.6106422 7.980711 -1.58257 7 2
-11.788317 58.463562 5.2178402 0 10
-1.2273909 6.0981684 -0.98522437 40 3
-11.799518 58.730541 7.3553033 0 11
-2.6327233 13.115917 -1.6425551 12 4
-11.671971 58.253616 9.4098473 0 12
-1.2245855 6.12289 -0.54629219 46 5
-12.336722 61.739101 12.238108 13 13
-4.5126476 22.624689 -1.2090654 20 6
-1.1739324 5.9946513 -1.6367717 10 0
-1.1952221 6.1203556 -1.4396867 47 1
-1.5462673 7.9474363 -1.5737926 6 2
-11.307644 58.172832 5.1847205 0 10
-1.1840382 6.1027093 -0.98459864 40 3
-2.551657 13.188546 -1.6493798 13 4
-1.1757116 6.0939136 -0.54298031 39 5
-11.90166 61.804459 12.234292 13 13
-4.3640127 22.704678 -1.2116822 20 6
-4.3924403 22.917307 -0.40730426 35 7
-1.1299022 5.9913101 -1.6336659 11 0
-1.1531823 6.1323814 -1.4405866 52 1
-1.5055183 8.0291739 -1.5879126 7 2
-10.915934 58.32869 5.1916933 0 10
-1.1417419 6.1067448 -0.98397291 40 3
-2.462429 13.221651 -1.6513296 12 4
-10.965235 58.933353 9.4943218 2 12
-1.1313206 6.0921783 -0.54210871 36 5
-11.136447 60.086922 11.878624 7 13
-4.2195573 22.788841 -1.214613 20 6
-1.0835758 5.9684501 -1.6253836 11 0
-1.1072513 6.1170774 -1.4351877 52 1
-1.4469929 8.0259638 -1.5852412 4 2
-10.530628 58.468311 5.1976194 0 10
-1.0948901 6.0912356 -0.98021847 45 3
-10.683805 59.556911 7.4293995 1 11
-2.380779 13.285002 -1.6571795 10 4
-10.27323 57.441193 9.2421494 0 12
-1.0880585 6.0960054 -0.54176009 45 5
-10.751343 60.296627 11.905337 7 13
-4.0564985 22.796116 -1.2134616 10 6
-1.0375683 5.9511285 -1.6186544 14 0
-1.0618495 6.1092987 -1.4315885 49 1
-1.4177129 8.190629 -1.6157707 4 2
-10.410761 60.209167 5.3457847 3 10
-1.0540181 6.1084642 -0.98178285 46 3
-10.100677 58.659725 7.3085051 0 11
-2.2691293 13.191743 -1.6435301 11 4
-10.299059 59.999653 9.6419954 2 12
-1.0454767 6.1034527 -0.54176009 48 5
-10.289042 60.130264 11.858017 7 13
-3.9147449 22.926254 -1.2189045 10 6
-1.0058733 6.0172944 -1.6347013 11 0
-1.0178915 6.1088743 -1.4297889 47 1
-9.6645908 58.127167 3.0881357 0 9
-1.3531066 8.1557808 -1.6069933 7 2
-9.7706108 58.955582 5.2282987 0 10
-1.0084467 6.0981331 -0.97896701 41 3
-9.7490835 59.081356 7.3523779 0 11
-2.1776237 13.21118 -1.6440176 11 4
-9.6350012 58.58091 9.4029636 0 12
-1.0005823 6.0968399 -0.54053992 51 5
-10.208843 62.273643 12.266348 14 13
-3.7171931 22.724382 -1.2067626 20 6
-0.95956421 5.9974637 -1.6274542 12 0
-0.96969509 6.0811915 -1.4216906 56 1
-9.22717 57.995975 3.0776687 0 9
-0.95263624 6.0011301 -1.1811076 27 2
-0.9491834 5.9996643 -0.96207207 35 3
-9.371665 59.371513 7.3801641 0 11
-0.94326919 5.9826112 -0.7436468 25 4
-9.2313194 58.681873 9.4085951 0 12
-0.94285649 6.0072308 -0.53199863 57 5
-9.8000221 62.510185 12.299167 14 13
-4.2442827 27.134375 -1.4393436 11 6
-0.92204893 6.0326624 -1.6352189 21 0
-0.91841406 6.0300174 -1.4081936 77 1
-8.8820915 58.453892 3.0986028 0 9
-0.90836042 5.9921069 -1.1780548 36 2
-9.5574036 63.120674 5.585288 9 10
-0.90668178 6.0022388 -0.96144634 33 3
-8.9249973 59.223499 7.3538404 0 11
-0.90177804 5.9910135 -0.74389052 27 4
-9.0508127 60.272507 9.6532593 2 12
-0.89958042 5.9977465 -0.53060412 54 5
-4.0641947 27.226557 -1.4426931 11 6
-0.87183565 5.9835134 -1.6202073 15 0
-0.87405741 6.020854 -1.4045944 66 1
-0.87148964 6.025353 -1.1833974 31 2
-8.8143196 61.091637 5.4001698 4 10
-0.87116081 6.0454197 -0.96739089 30 3
-8.5476532 59.463646 7.3762641 0 11
-0.87007427 6.067903 -0.7526651 10 4
-8.4599943 59.073425 9.4517717 1 12
-0.86557567 6.0591063 -0.53548485 42 5
-3.5872145 25.205074 -1.334253 10 6
-0.83055305 5.9854832 -1.6191721 15 0
-0.84319115 6.1000185 -1.4216906 56 1
-1.1335093 8.2426987 -1.6172972 6 2
-8.3674021 60.925194 5.3802981 4 10
-0.83134741 6.0689678 -0.97020662 39 3
-8.3139658 60.85144 7.5410318 3 11
-1.817462 13.319621 -1.6505985 9 4
-8.2413044 60.555984 9.6795406 3 12
-0.82646996 6.0886936 -0.53757662 48 5
-4.0405698 29.884699 -1.5804414 11 6
-0.78572321 5.9681506 -1.6129603 19 0
-0.7990672 6.0941629 -1.4189912 52 1
-1.0764406 8.2543058 -1.6180604 10 2
-0.78844613 6.0707068 -0.96958095 39 3
-7.8634415 60.711136 7.5166578 2 11
-1.7068528 13.196147 -1.6337806 11 4
-7.7379808 59.989037 9.5800476 2 12
-0.78369147 6.0923386 -0.53740233 30 5
-3.8216996 29.832933 -1.5762545 11 6
-0.74451602 5.9773245 -1.6139956 14 0
-0.75602281 6.0957251 -1.4180914 47 1
-1.0123008 8.2090101 -1.6077567 9 2
-0.74508232 6.0682201 -0.96832943 35 3
-7.4611464 60.941879 7.5385942 2 11
-1.6243203 13.286557 -1.6435301 10 4
-7.3070669 59.943546 9.5644045 1 12
-0.74161762 6.1016169 -0.5377509 30 5
-3.3973691 28.074377 -1.4820497 11 6
-0.7025429 5.9804578 -1.6134779 12 0
-0.71344823 6.1008549 -1.4180914 52 1
-0.96494389 8.3016815 -1.6245478 10 2
-6.570507 56.614292 4.9863544 0 10
-0.70224881 6.0693488 -0.9677037 33 3
-1.5322107 13.303488 -1.6442614 9 4
-7.1425786 62.206779 9.9173203 11 12
-0.69537699 6.0749745 -0.53496194 27 5
-3.2302306 28.351416 -1.4954478 23 6
-0.65992922 5.9775362 -1.6114074 12 0
-0.67084169 6.1056867 -1.4180914 56 1
-0.90909439 8.327733 -1.6283641 7 2
-6.2778854 57.601578 5.0693264 0 10
-0.65772635 6.0544658 -0.96457505 35 3
-1.4380174 13.30202 -1.6427989 9 4
-0.65422809 6.0915661 -0.53600776 21 5
-3.0606751 28.639391 -1.5094738 11 6
-0.62234938 6.0223517 -1.6222779 11 0
-0.62660229 6.0947132 -1.4144921 56 1
-0.83937114 8.2205973 -1.6062301 9 2
-5.8351908 57.247578 5.0344644 0 10
-0.61524254 6.0569444 -0.96426219 31 3
-6.3351665 62.585773 7.7238359 5 11
-1.3405266 13.26631 -1.637193 10 4
-0.60890013 6.0682316 -0.53356743 20 5
