# .PCD v0.7 - Point Cloud Data file format
VERSION 0.7
FIELDS x y z intensity ring
SIZE 4 4 4 4 2
TYPE F F F F U
COUNT 1 1 1 1 1
WIDTH 1294
HEIGHT 1
VIEWPOINT 0 0 0 1 0 0 0
POINTS 1294
DATA ascii
4.7207284 -5.2300358 -1.8878261 3 0
5.8997808 -6.5431781 -2.0340075 7 1
7.1122279 -7.8989305 -2.0660799 10 2
9.6434193 -10.721385 -2.2839434 10 3
10.176101 -11.325532 -1.869476 3 4
4.694376 -5.2744098 -1.8919673 3 0
7.4793577 -8.4094095 0.19644429 114 8
5.8902125 -6.6249847 -2.0466046 7 1
7.0699463 -7.9630718 -2.069896 10 2
7.5471883 -8.509573 -1.8014996 18 3
7.5311227 -8.5004196 -1.3944291 16 4
7.5330458 -8.5145597 -0.99462134 21 5
7.5073071 -8.4944248 -0.59411782 19 6
7.5662746 -8.5701838 -0.19955082 35 7
4.6625366 -5.3128614 -1.8940378 3 0
7.4929833 -8.5441103 0.19836405 116 8
5.8463869 -6.6688743 -2.0475044 9 1
7.4570112 -8.5120783 0.5930711 126 9
6.988317 -7.9826908 -2.0622637 10 2
7.4566894 -8.5207062 0.99061215 110 10
7.4862962 -8.5605679 -1.8011867 16 3
7.4891372 -8.5849581 -0.9967131 21 5
7.4688172 -8.5707207 -0.59579259 18 6
7.4931288 -8.6077137 -0.19920176 21 7
4.627861 -5.3482041 -1.8950732 3 0
7.4933186 -8.6657915 0.19996966 111 8
5.79459 -6.70363 -2.0457051 9 1
7.4587665 -8.6349688 0.59799069 125 9
6.9426804 -8.0431728 -2.0653167 10 2
9.4696617 -10.982328 -2.296771 8 3
10.356436 -12.023477 -1.9484472 15 4
4.5954261 -5.3862605 -1.8971437 4 0
7.4819379 -8.7757196 0.20129606 114 8
5.7451215 -6.7409539 -2.044805 9 1
7.4526916 -8.7506924 0.60238689 125 9
6.8583674 -8.0585537 -2.056921 12 2
9.3607731 -11.010545 -2.2889495 9 3
10.215703 -12.02891 -1.9377227 13 4
4.5626855 -5.4241252 -1.8992143 4 0
7.4786582 -8.8937855 0.20283188 113 8
5.6903987 -6.771946 -2.0421057 9 1
7.4469099 -8.8654499 0.60678315 125 9
6.7907333 -8.0900116 -2.0531049 12 2
7.6584706 -9.1334829 -1.8878514 12 3
10.083051 -12.042098 -1.9284606 14 4
4.5305934 -5.4610033 -1.9012847 5 0
7.4801984 -9.0227528 0.2045771 112 8
5.6416855 -6.8075218 -2.0412059 9 1
7.4434352 -8.9879818 0.61159807 124 9
6.731586 -8.1341991 -2.0523417 12 2
7.5945206 -9.1867256 -1.8878514 12 3
9.7986078 -11.86555 -1.8894625 16 4
4.497251 -5.4984808 -1.9033554 4 0
7.4727087 -9.1428795 0.20611292 114 8
5.5915565 -6.8437238 -2.0403061 9 1
7.4360843 -9.1078005 0.61620361 124 9
6.6560192 -8.1581774 -2.0466175 10 2
9.1725178 -11.254637 -2.299587 9 3
9.0713396 -11.142399 -1.7641808 3 4
4.4854321 -5.5628285 -1.9147433 3 0
7.4664106 -9.2664537 0.20771854 111 8
5.5460877 -6.8856282 -2.0412059 9 1
7.4386921 -9.2419529 0.62175119 123 9
6.5964403 -8.2013855 -2.0458541 9 2
9.0665045 -11.28452 -2.2927039 9 3
8.9349318 -11.132694 -1.7527251 4 4
4.4536996 -5.6030812 -1.9178492 3 0
7.4637251 -9.3966455 0.20946379 124 8
5.4978824 -6.9241791 -2.0412059 9 1
7.4261289 -9.3593721 0.62614745 123 9
6.5451231 -8.2549295 -2.0477622 12 2
8.9286327 -11.273211 -2.2776861 9 3
8.8040323 -11.127858 -1.7422442 6 4
4.4130735 -5.6302257 -1.9168139 3 0
7.4378166 -9.4960346 0.21054582 123 8
5.4458179 -6.9553037 -2.0394061 9 1
7.434864 -9.5025101 0.63232309 124 9
6.4609699 -8.2637167 -2.038985 10 2
8.8857365 -11.377316 -2.2864466 11 3
8.6743584 -11.118662 -1.7315198 6 4
8.7670202 -11.253626 -1.2480702 22 5
4.3783855 -5.6670122 -1.9188845 7 0
7.4556618 -9.6569443 0.21295427 126 8
5.4114165 -7.0116653 -2.044805 8 1
7.4159117 -9.6158638 0.63640529 121 9
6.4103122 -8.3179512 -2.0412748 10 2
7.5818186 -9.8487473 -1.9685715 9 3
7.5715723 -9.8460989 -1.5250732 9 4
7.5669718 -9.8650341 -0.65158272 8 6
4.3457379 -5.7066622 -1.9219903 22 0
7.4413443 -9.7787781 0.21449009 126 8
5.357615 -7.0430698 -2.0430055 8 1
7.4199123 -9.7612143 0.64258093 124 9
6.3900862 -8.412529 -2.0534863 15 2
7.4675045 -9.8416386 -1.9566824 12 3
7.470274 -9.8560038 -1.5184922 13 4
7.4997702 -9.9056883 -1.0870063 16 5
7.4605775 -9.8682318 -0.6483379 17 6
7.516325 -9.9527969 -0.21770133 16 7
4.3081117 -5.7399521 -1.9230256 37 0
7.4214149 -9.8915854 0.21585137 130 8
5.3211732 -7.0974517 -2.0479543 10 1
7.4071984 -9.8834124 0.64729118 122 9
6.3467994 -8.4746857 -2.0580659 10 2
7.4618735 -9.9744911 -1.9729517 3 3
7.4796934 -10.012878 -1.5345789 1 4
7.5019255 -10.053616 -1.0974652 16 5
7.4394946 -9.9954033 -0.21749189 16 7
4.2654939 -5.7644844 -1.9214727 19 0
7.4258895 -10.042844 0.21801546 127 8
5.2773733 -7.1397758 -2.0497539 10 1
7.4139624 -10.037702 0.65399015 122 9
6.3189583 -8.5614376 -2.0683696 12 2
8.1657257 -11.075721 -2.1794453 7 3
8.167099 -11.089734 -1.6910591 6 4
9.1860952 -12.505352 -0.81319618 8 6
4.2422204 -5.8175359 -1.9292372 5 0
7.4227233 -10.186562 0.22000504 128 8
5.2170739 -7.1622682 -2.0457051 9 1
7.4013 -10.168343 0.65911913 131 9
6.2982988 -8.6593256 -2.0813446 10 2
8.0208607 -11.039768 -2.161299 9 3
8.0311813 -11.066152 -1.6788722 6 4
8.1371241 -11.228614 -1.213208 21 5
9.0376682 -12.485048 -0.80775326 8 6
4.2060127 -5.8532863 -1.9313078 4 0
7.4237404 -10.338841 0.22216913 124 8
5.1714897 -7.2048473 -2.0475044 9 1
7.3976474 -10.313896 0.6651901 129 9
6.2399793 -8.7062759 -2.0821078 12 2
7.3663378 -10.289191 -2.0042386 2 3
7.9167786 -11.07028 -1.6710726 6 4
7.9427524 -11.123003 -1.1957767 20 5
9.124259 -12.791739 -0.82345402 8 6
4.1650472 -5.8825064 -1.9313078 4 0
7.4114399 -10.475304 0.22398418 126 8
5.1255665 -7.2471395 -2.0493042 9 1
7.3715706 -10.430532 0.66937697 102 9
6.1722512 -8.7400045 -2.0798182 12 2
7.816977 -11.08127 -2.1478455 8 3
7.7981377 -11.066862 -1.662298 11 4
7.8075819 -11.09671 -1.1870612 20 5
4.1371417 -5.9304538 -1.9375196 4 0
5.0982437 -7.3163218 -2.0587521 10 1
6.1335101 -8.8151121 -2.0874505 12 2
7.6830568 -11.054469 -2.1322021 8 3
7.661819 -11.036239 -1.6496235 13 4
7.7886367 -11.231459 -1.1957767 20 5
4.1087694 -5.9782963 -1.9437311 4 0
5.0624833 -7.374227 -2.0650506 10 1
6.087801 -8.8777056 -2.0924115 10 2
7.5674458 -11.047839 -2.1209388 8 3
7.5588107 -11.051773 -1.6440176 9 4
4.0831485 -6.0285182 -1.9509782 4 0
5.0078044 -7.4020596 -2.0632513 13 1
6.0762267 -8.9948244 -2.109966 10 2
7.4603024 -11.056189 -2.1124914 9 3
7.4390306 -11.037124 -1.634268 9 4
4.0388184 -6.0536628 -1.9499428 4 0
4.9614091 -7.4449477 -2.0655005 14 1
6.0720139 -9.1252871 -2.1305733 10 2
7.3304486 -11.029036 -2.0974736 9 3
7.3167796 -11.020983 -1.6242748 10 4
8.8531923 -13.370643 -0.84041083 8 6
3.9985795 -6.0849404 -1.9509782 4 0
4.9200077 -7.4956956 -2.0699997 14 1
6.0501294 -9.2314949 -2.1454566 10 2
7.2197337 -11.028708 -2.0877745 8 3
7.2048969 -11.018628 -1.6164751 10 4
3.9664977 -6.1289258 -1.9561545 4 0
4.8612099 -7.520041 -2.0673003 13 1
6.0323796 -9.3460846 -2.1622477 12 2
7.1200867 -11.043977 -2.0812044 9 3
7.0880318 -11.006907 -1.6074568 9 4
3.9256899 -6.1597252 -1.9571897 4 0
4.812778 -7.5603709 -2.0690999 13 1
5.9238076 -9.3200378 -2.1466014 9 2
6.9962268 -11.020036 -2.0674381 9 3
6.9791236 -11.00583 -1.6001446 9 4
3.8887522 -6.1967993 -1.9602956 4 0
4.7516003 -7.5805755 -2.0655005 11 1
5.8904448 -9.4084005 -2.1576684 10 2
6.8948689 -11.025531 -2.0596163 8 3
6.8705788 -11.00377 -1.5928324 9 4
8.267581 -13.272096 -0.81947649 8 6
3.8627341 -6.2494183 -1.9685777 4 0
4.7080812 -7.6260085 -2.0690999 12 1
5.8081355 -9.422554 -2.1515625 10 2
6.7794104 -11.011159 -2.0480404 7 3
6.7632833 -10.997862 -1.5852765 7 4
7.5941715 -12.382855 -0.76127887 8 6
3.8531539 -6.3323445 -1.9861774 4 0
4.6648483 -7.6753445 -2.0735989 13 1
5.7350826 -9.4511232 -2.148891 9 2
6.6747279 -11.012608 -2.039593 8 3
8.1276455 -13.425624 -1.9269981 12 4
7.4786367 -12.387696 -0.75834811 8 6
3.8723834 -6.4651575 -2.0193064 4 0
4.6071491 -7.7010341 -2.071799 11 1
5.4686213 -9.1555214 -2.0729489 6 2
6.5703568 -11.013135 -2.0311453 7 3
7.9910407 -13.410418 -1.9167612 19 4
7.4776769 -12.583833 -0.76714051 8 6
3.8704851 -6.5629191 -2.0415647 6 0
4.5645137 -7.7490063 -2.0762982 14 1
5.6460299 -9.6003752 -2.1649189 7 2
6.4652262 -11.006504 -2.0217593 4 3
7.866426 -13.407998 -1.9087178 21 4
7.4120188 -12.668918 -0.769234 8 6
3.8266935 -6.5907826 -2.0420823 7 0
4.5057969 -7.7697825 -2.0735989 14 1
5.554975 -9.5944099 -2.1549969 7 2
7.1565433 -12.375534 -2.2642329 5 3
7.7329268 -13.393824 -1.8989682 29 4
7.3256135 -12.719076 -0.769234 8 6
3.7823071 -6.6230302 -2.0436354 6 0
4.452014 -7.8052101 -2.0744987 15 1
5.4606481 -9.5851917 -2.1443117 9 2
7.519978 -13.221431 -2.409091 9 3
7.6009936 -13.380167 -1.8894625 21 4
7.2777247 -12.847634 -0.77383947 8 6
3.7482803 -6.6711688 -2.0503645 9 0
4.4107671 -7.8598933 -2.0807972 14 1
5.3708072 -9.5863409 -2.135916 10 2
6.2120838 -11.101563 -2.0148761 2 3
7.5728226 -13.555526 -1.9065242 14 4
8.6740274 -15.545818 -1.5574731 33 5
7.1742435 -12.873704 -0.77237409 8 6
3.6873677 -6.6741467 -2.0431178 7 0
4.3657084 -7.9117293 -2.0861959 13 1
5.3274412 -9.6665888 -2.1454566 10 2
7.3094649 -13.284881 -2.4015822 9 3
7.5669146 -13.769856 -1.9291918 10 4
8.5633707 -15.602502 -1.5571245 33 5
7.1068912 -12.970251 -0.77509558 8 6
3.6319458 -6.6780901 -2.036906 9 0
4.3224411 -7.957634 -2.0906951 12 1
5.2933407 -9.7613049 -2.1584315 10 2
7.1948557 -13.28443 -2.3928218 9 3
7.5717573 -13.997832 -1.9540532 22 4
8.4009867 -15.550272 -1.5463171 32 5
7.043469 -13.05929 -0.77760774 8 6
3.5888805 -6.7100964 -2.0389764 9 0
4.2612734 -7.977303 -2.0879958 14 1
4.785975 -8.9708681 -1.9763998 7 2
7.1711459 -13.458617 -2.4153483 9 3
7.5633464 -14.218597 -1.977452 23 4
8.3053074 -15.633175 -1.5487574 32 5
6.9862413 -13.166916 -0.78116655 8 6
3.543123 -6.7343702 -2.0389764 9 0
4.2132196 -8.0181999 -2.091145 17 1
4.7077255 -8.9745054 -1.9699122 6 2
7.0870981 -13.5276 -2.4187901 4 3
7.5538192 -14.436844 -2.0006073 18 4
6.925559 -13.275575 -0.78472537 8 6
3.4871473 -6.7417817 -2.0338001 7 0
4.1535625 -8.0404921 -2.0893452 16 1
4.6420283 -8.9976187 -1.968004 10 2
6.9450912 -13.478949 -2.4015822 6 3
7.5454631 -14.669284 -2.0254686 17 4
6.8587384 -13.36861 -0.78744686 8 6
3.4341707 -6.7515864 -2.029659 7 0
4.1005015 -8.072053 -2.0902452 17 1
4.623498 -9.1173553 -1.987085 10 2
4.6749101 -9.2307158 -1.6388077 3 3
7.5431805 -14.920016 -2.0527673 15 4
6.7958174 -13.476801 -0.79100567 17 6
3.3874967 -6.7794442 -2.0306942 7 0
4.040895 -8.0977011 -2.0893452 21 1
4.4879274 -9.0053272 -1.9557924 9 2
4.5964193 -9.2391729 -1.6344275 9 3
7.550128 -15.196311 -2.0834785 3 4
6.7630329 -13.653947 -0.79854208 8 6
3.3434904 -6.809865 -2.0327649 7 0
3.9928432 -8.1432114 -2.0938444 15 1
4.4570336 -9.1059799 -1.9706753 4 2
4.7989955 -9.8176422 -1.7307911 2 3
5.3294792 -10.917378 -1.4916809 15 4
5.3206325 -10.913746 -1.0622542 15 5
3.3025823 -6.846961 -2.036906 9 0
3.9274397 -8.1533308 -2.0893452 17 1
4.5089931 -9.3731794 -2.0218122 4 2
6.2495327 -13.008802 -2.2858207 2 3
10.115714 -21.094223 -2.8724608 17 4
3.260864 -6.8797565 -2.0400119 7 0
3.8835225 -8.2045345 -2.095644 18 1
4.8015718 -10.162393 -2.1847632 9 2
4.6277733 -9.8078451 -1.7176507 3 3
10.004898 -21.23262 -2.8819664 14 4
3.206234 -6.8883419 -2.0358706 7 0
3.8310792 -8.2420492 -2.0983434 15 1
4.4099078 -9.5046768 -2.0366955 9 2
6.0839009 -13.130638 -2.292078 7 3
9.818078 -21.21908 -2.8707545 12 4
3.157264 -6.9088001 -2.0353529 6 0
3.7847726 -8.2934151 -2.1046422 18 1
4.6600275 -10.23023 -2.1851447 12 2
4.4445786 -9.7708111 -1.70013 4 3
9.6894054 -21.330482 -2.8766043 14 4
3.1192336 -6.953588 -2.0420823 7 0
3.7124426 -8.2876234 -2.0965438 15 1
4.5644555 -10.208745 -2.173696 10 2
5.9950085 -13.427145 -2.3289967 7 3
9.5628881 -21.448372 -2.8834291 14 4
3.065942 -6.9645863 -2.0389764 7 0
3.6497879 -8.3026342 -2.0938444 18 1
4.478086 -10.206203 -2.1664453 19 2
5.8519735 -13.356492 -2.3095987 7 3
9.502039 -21.718296 -2.9107275 15 4
3.0279701 -7.0106492 -2.0462234 7 0
3.6040845 -8.3565416 -2.1010427 17 1
4.447865 -10.332791 -2.1866713 10 2
5.7351823 -13.342576 -2.3002126 7 3
9.477026 -22.079618 -2.9502134 15 4
2.9774456 -7.0280604 -2.0451882 9 0
3.5836194 -8.4712381 -2.123538 15 1
4.3290386 -10.253263 -2.1633925 10 2
5.6549397 -13.413235 -2.3055315 4 3
9.2949219 -22.079378 -2.9414387 15 4
2.929791 -7.0522428 -2.0462234 7 0
3.5423124 -8.5392504 -2.1343358 14 1
4.3335266 -10.462058 -2.2011726 10 2
5.6072989 -13.557288 -2.3236778 5 3
9.0890484 -22.018957 -2.9248645 15 4
2.8860941 -7.0827565 -2.0493293 9 0
3.4943881 -8.5884342 -2.1406343 14 1
4.2603822 -10.492058 -2.2011726 10 2
5.3989534 -13.316017 -2.2758088 6 3
8.9255524 -22.04719 -2.9204772 15 4
2.8423095 -7.117085 -2.0534704 9 0
3.4271266 -8.5945196 -2.1361351 15 1
4.1928401 -10.536138 -2.2042258 12 2
5.8777299 -14.792627 -2.5210981 10 3
8.7875223 -22.149561 -2.9258394 15 4
2.7967775 -7.1475492 -2.0565763 9 0
3.340095 -8.5492592 -2.1190388 21 1
4.102066 -10.521254 -2.1950669 12 2
5.7542539 -14.781757 -2.5123379 13 3
8.6341162 -22.214067 -2.926327 15 4
2.7481935 -7.170507 -2.0576115 9 0
3.3137598 -8.6597319 -2.1406343 15 1
4.0180082 -10.522123 -2.1893425 10 2
5.6973634 -14.943392 -2.5329874 10 3
8.5028362 -22.336882 -2.9346142 15 4
2.6912792 -7.1714315 -2.0524352 7 0
3.2197196 -8.5932369 -2.1185889 14 1
3.9857049 -10.660254 -2.2122397 7 2
5.5777016 -14.942087 -2.526104 10 3
8.3626328 -22.43848 -2.9402201 18 4
2.6571343 -7.2335663 -2.0648584 9 0
3.164346 -8.6283121 -2.1217382 17 1
3.8988764 -10.648421 -2.2042258 10 2
5.4487381 -14.905496 -2.5135894 10 3
8.2323084 -22.569046 -2.9497259 15 4
2.6026063 -7.2369423 -2.0607173 7 0
3.09764 -8.6276417 -2.1163394 23 1
3.8310626 -10.693863 -2.2080419 12 2
5.3392234 -14.92829 -2.5110862 13 3
8.0671492 -22.592777 -2.9455824 18 4
2.5584309 -7.273159 -2.0658937 7 0
3.0554121 -8.7005405 -2.1289368 15 1
3.7399976 -10.667817 -2.1973565 10 2
5.2400985 -14.971746 -2.5123379 12 3
7.9157696 -22.667286 -2.9480195 18 4
2.5088487 -7.2944965 -2.0669291 7 0
2.9920659 -8.7142859 -2.1271372 14 1
3.6845622 -10.755596 -2.20995 16 2
5.0816941 -14.859331 -2.4873083 9 3
7.7663116 -22.748297 -2.951432 18 4
2.4566324 -7.3081713 -2.0658937 7 0
2.9385962 -8.7571316 -2.1325359 14 1
3.61624 -10.801536 -2.2141476 10 2
5.042325 -15.087419 -2.5195339 9 3
7.6481476 -22.92436 -2.9672751 15 4
2.4115794 -7.3434982 -2.0710702 7 0
2.8688896 -8.7515087 -2.1262374 15 1
3.5383022 -10.819055 -2.2126212 12 2
4.3483462 -13.319525 -2.2191796 8 3
7.4842281 -22.96587 -2.9658124 15 4
2.3567138 -7.3491178 -2.0679643 7 0
2.785147 -8.7007971 -2.1091411 20 1
3.4687612 -10.85598 -2.2152925 15 2
4.8296237 -15.142332 -2.5173438 10 3
7.3315382 -23.042152 -2.9689813 18 4
2.3112552 -7.3797369 -2.0721054 9 0
2.7444654 -8.7790728 -2.123538 17 1
3.3788598 -10.834949 -2.2061336 10 2
4.1748557 -13.412163 -2.2248113 5 3
7.2257705 -23.256447 -2.9901865 14 4
2.2551625 -7.3809128 -2.0679643 7 0
2.6751506 -8.7719221 -2.1172395 17 1
3.3124642 -10.882113 -2.2110946 12 2
4.6307235 -15.241503 -2.5229752 10 3
7.0735965 -23.340521 -2.9945736 16 4
2.2037668 -7.3923893 -2.0669291 7 0
2.617604 -8.7973986 -2.1190388 18 1
3.2213302 -10.854156 -2.2007911 13 2
4.5017629 -15.197699 -2.5104606 11 3
6.9318538 -23.461676 -3.0038357 16 4
2.15189 -7.4116797 -2.0679643 7 0
2.5480769 -8.7934446 -2.1136403 15 1
3.1503854 -10.893355 -2.2042258 12 2
4.4131546 -15.29975 -2.5220368 9 3
6.7558126 -23.467531 -2.9984736 16 4
13.815671 -48.212738 -2.6284168 0 6
2.1064024 -7.4488297 -2.0741758 9 0
2.4813321 -8.792264 -2.1091411 16 1
3.052141 -10.843806 -2.1897242 10 2
4.3003578 -15.309265 -2.5185952 10 3
3.0049496 -10.719168 -1.3668866 3 4
2.050247 -7.4484525 -2.0700347 7 0
2.4188576 -8.8056145 -2.1082413 15 1
2.9632077 -10.809422 -2.1786571 13 2
2.9648631 -10.837712 -1.7795987 24 3
2.9310875 -10.743715 -1.3673741 19 4
2.0035002 -7.4771638 -2.0741758 7 0
2.3618851 -8.8331709 -2.1109407 15 1
2.9043629 -10.892445 -2.1912506 10 2
4.0863304 -15.357557 -2.5170307 11 3
6.316906 -23.790798 -3.0223601 11 4
1.9580685 -7.5171418 -2.081423 9 0
2.2932971 -8.8230391 -2.1046422 15 1
2.8326819 -10.92956 -2.1946852 13 2
3.9824767 -15.399097 -2.5192208 10 3
6.1407404 -23.795876 -3.0174851 16 4
1.9036465 -7.5231366 -2.0793524 9 0
2.224966 -8.8123817 -2.0983434 15 1
2.7251599 -10.825319 -2.1698802 10 2
3.8801696 -15.447601 -2.5226626 9 3
5.9739847 -23.836243 -3.0172415 19 4
1.8473932 -7.5212345 -2.0752113 9 0
2.1671028 -8.8428421 -2.1019428 15 1
2.6570065 -10.866502 -2.1744595 12 2
3.7800808 -15.494764 -2.526104 10 3
5.8116531 -23.894726 -3.0194352 14 4
1.799739 -7.5486684 -2.0793524 9 0
2.1149781 -8.8915129 -2.1100409 17 1
2.5706623 -10.84085 -2.1656821 13 2
3.6663613 -15.497708 -2.5223496 10 3
1.7461267 -7.5572844 -2.0783172 9 0
2.0563538 -8.9212532 -2.1136403 20 1
2.5168977 -10.954202 -2.1847632 13 2
3.0337667 -13.2355 -2.1506615 24 3
3.0788929 -13.464742 -1.6959339 37 4
10.308635 -45.336983 -2.4366577 0 6
1.6958549 -7.5806022 -2.081423 7 0
1.9965693 -8.9468031 -2.1163394 17 1
2.4360988 -10.952342 -2.1809468 15 2
2.9412916 -13.256357 -2.1506615 34 3
2.9873903 -13.497539 -1.6973963 31 4
3.084058 -13.968959 -1.2515564 22 5
1.6461595 -7.6073618 -2.0855639 9 0
1.9381717 -8.9795723 -2.1208386 15 1
2.356535 -10.945639 -2.1763675 16 2
2.8406227 -13.227787 -2.1428397 29 3
2.883532 -13.473419 -1.6917903 41 4
1.5943404 -7.6183901 -2.0855639 9 0
1.8762096 -8.9887428 -2.1199389 14 1
2.2804623 -10.963746 -2.1767492 10 2
2.7453973 -13.233756 -2.1406496 23 3
2.7821672 -13.45823 -1.6874031 19 4
1.5359628 -7.6106672 -2.0803876 9 0
1.8087643 -8.9866533 -2.1163394 16 1
2.2069564 -10.994799 -2.1798022 10 2
2.6494677 -13.247252 -2.1397109 26 3
2.6858134 -13.465644 -1.6859406 49 4
8.6504498 -43.647991 -2.3319857 0 6
1.4768898 -7.5908642 -2.0721054 9 0
1.746724 -9.0028887 -2.1172395 19 1
2.0991621 -10.859959 -2.1500359 12 2
2.574492 -13.356589 -2.1544156 6 3
2.5879951 -13.464574 -1.6835033 45 4
1.4259938 -7.6123829 -2.0752113 9 0
1.6816826 -9.0033703 -2.1145399 17 1
2.0223179 -10.858555 -2.1469829 12 2
2.462239 -13.259215 -2.1359563 13 3
2.4928482 -13.476456 -1.682772 31 4
2.5158894 -13.640945 -1.2135565 31 5
8.1323519 -44.222763 -2.3564789 0 6
1.3755167 -7.6295171 -2.0772817 9 0
1.6148443 -8.9839201 -2.1073413 15 1
1.9336603 -10.800904 -2.132863 18 2
2.8402724 -15.913019 -2.5602069 9 3
2.3979306 -13.475523 -1.6805785 45 4
2.484235 -14.003023 -1.2442354 22 5
1.3261729 -7.6617765 -2.0834932 9 0
1.5520855 -8.9949751 -2.1073413 15 1
1.8567693 -10.794469 -2.1290469 19 2
2.7435765 -16.000126 -2.5711572 11 3
2.3064682 -13.507588 -1.6825283 21 4
1.2733581 -7.6668148 -2.0824583 9 0
1.4933699 -9.0207129 -2.1109407 18 1
1.7762554 -10.776174 -2.122941 19 2
2.6394937 -16.065674 -2.578666 10 3
2.2471945 -13.722793 -1.7073896 42 4
1.2155577 -7.648807 -2.0752113 9 0
1.4297473 -9.0270681 -2.1100409 15 1
1.6930304 -10.73789 -2.113019 16 2
2.5272696 -16.083708 -2.578666 10 3
3.8828478 -24.795345 -3.0815885 12 4
1.1615504 -7.653286 -2.0741758 9 0
1.3678573 -9.0445366 -2.1118405 15 1
1.6180271 -10.749447 -2.113019 19 2
2.3844523 -15.897794 -2.5461278 10 3
3.7122896 -24.839518 -3.0837822 17 4
6.0454459 -40.791866 -2.1611612 0 6
1.1125177 -7.6918006 -2.0824583 9 0
1.3013469 -9.0307198 -2.1064417 17 1
1.5397969 -10.725231 -2.1061497 19 2
2.294085 -16.038807 -2.5661514 13 3
3.5421462 -24.888412 -3.0867069 17 4
1.0580271 -7.6838846 -2.0783172 9 0
1.2467326 -9.0895662 -2.118139 20 1
1.4648857 -10.73572 -2.1061497 22 2
2.1937666 -16.140554 -2.5799174 10 3
3.386502 -25.01424 -3.0993814 17 4
5.3948216 -40.218102 -2.1266196 0 6
1.0033572 -7.6834216 -2.0762465 9 0
1.1862611 -9.1212387 -2.123538 18 1
1.3912717 -10.741549 -2.1053865 22 2
2.081321 -16.135523 -2.5767887 10 3
3.2148242 -25.060898 -3.1023064 17 4
5.0619588 -39.790264 -2.1021261 0 6
0.9472416 -7.6593966 -2.0679643 7 0
1.1255772 -9.1407061 -2.1262374 16 1
1.314339 -10.735411 -2.1023335 21 2
1.9753177 -16.204561 -2.5855491 10 3
3.03931 -25.078789 -3.1018188 17 4
4.8316951 -40.221237 -2.1230607 0 6
0.89598209 -7.6966815 -2.0762465 9 0
1.0561012 -9.1136827 -2.118139 20 1
1.238461 -10.736523 -2.1008072 19 2
1.7171171 -14.97797 -2.387816 2 3
2.8769817 -25.211819 -3.1157119 12 4
4.3994923 -38.976662 -2.0556519 0 6
0.84138829 -7.6950669 -2.0741758 9 0
0.99287158 -9.1247072 -2.1190388 18 1
1.1594905 -10.725592 -2.0969911 18 2
1.6241298 -15.097614 -2.4050238 4 3
2.6992095 -25.215496 -3.1137619 12 4
4.2025132 -39.717476 -2.0931246 0 6
0.78843325 -7.7084413 -2.0762465 9 0
0.92914599 -9.1314163 -2.1190388 19 1
1.0860611 -10.729328 -2.0962276 19 2
1.5341916 -15.236073 -2.4253602 3 3
2.5351572 -25.354216 -3.1286299 15 4
3.8451545 -38.866657 -2.0468595 2 6
0.73741311 -7.7290139 -2.0803876 9 0
0.86807328 -9.1491699 -2.1217382 20 1
1.0103961 -10.728831 -2.0947013 21 2
1.4430736 -15.409656 -2.4513285 8 3
2.3660145 -25.408438 -3.133261 13 4
3.5777459 -38.936314 -2.0491624 2 6
0.68207598 -7.7185788 -2.0762465 9 0
0.80452102 -9.1588898 -2.1226382 17 1
0.93410683 -10.719977 -2.0916483 19 2
0.9243412 -10.672516 -1.6966884 5 3
2.1890862 -25.430273 -3.1339924 15 4
3.342644 -39.394184 -2.0719807 1 6
0.62942737 -7.7385564 -2.0803876 9 0
0.73459673 -9.0904722 -2.1055419 22 1
0.85924453 -10.726237 -2.0916483 21 2
0.84949708 -10.674769 -1.6960627 8 3
2.0072753 -25.391504 -3.1274114 12 4
3.0991569 -39.822773 -2.0933337 0 6
0.5753867 -7.7427621 -2.0803876 9 0
0.67857224 -9.1964388 -2.1289368 15 1
0.78564078 -10.724006 -2.0901217 22 2
0.77595782 -10.668484 -1.6941855 8 3
1.8332406 -25.450438 -3.1330175 15 4
3.0042193 -42.325287 -2.2237549 0 6
0.52098024 -7.7214417 -2.0736582 11 0
0.6164788 -9.208621 -2.1307364 18 1
0.70945626 -10.70964 -2.0863059 24 2
0.70029294 -10.6559 -1.6913697 9 3
1.6620315 -25.49402 -3.1369171 15 4
2.490386 -38.932896 -2.0445566 1 6
0.46776125 -7.7364607 -2.0767641 10 0
0.54984474 -9.1737957 -2.1217382 17 1
0.63304621 -10.686893 -2.0809629 24 2
0.62657839 -10.672362 -1.6932468 10 3
0.61470491 -10.564659 -1.2993711 4 4
2.3300562 -40.907463 -2.1473446 0 6
0.41343075 -7.7337513 -2.0752113 9 0
0.48681629 -9.1968708 -2.1262374 20 1
0.55883443 -10.698895 -2.0824895 24 2
0.55185193 -10.67253 -1.6926211 20 3
0.54408032 -10.630152 -1.306927 19 4
0.35933927 -7.7345195 -2.0746937 10 0
0.42385116 -9.2272997 -2.1325359 16 1
0.48377356 -10.69469 -2.0809629 25 2
0.47530341 -10.630734 -1.685425 15 3
1.1370476 -25.73345 -3.1627536 15 4
0.30502957 -7.7291174 -2.072623 10 0
0.35775504 -9.1871939 -2.1226382 19 1
0.40894878 -10.693884 -2.0801997 24 2
0.4010753 -10.633794 -1.685425 17 3
0.96157515 -25.853834 -3.1766467 13 4
0.25131354 -7.7387824 -2.0746937 10 0
0.29373208 -9.1933632 -2.123538 17 1
0.33440402 -10.700401 -2.0809629 16 2
0.32682765 -10.636334 -1.685425 16 3
0.77818125 -25.764675 -3.164947 13 4
0.19723129 -7.7384162 -2.0741758 9 0
0.23002942 -9.2146702 -2.128037 16 1
0.25940856 -10.6907 -2.0786731 24 2
0.25247034 -10.634408 -1.6847994 16 3
0.60004181 -25.844893 -3.1742091 13 4
0.14298865 -7.7280164 -2.0710702 9 0
0.16583343 -9.2238455 -2.1298366 14 1
0.18470052 -10.688325 -2.0779099 27 2
0.1780909 -10.62801 -1.6835479 16 3
0.42217651 -26.00724 -3.1937082 13 4
0.088834085 -7.7114401 -2.0664113 10 0
0.10147986 -9.2286758 -2.1307364 14 1
0.11003701 -10.685428 -2.0771468 25 2
0.10385171 -10.625045 -1.6829221 19 3
0.24177665 -26.136595 -3.2093077 11 4
0.034934554 -7.69835 -2.0627878 9 0
0.036704879 -9.1434164 -2.1109407 20 1
0.035435978 -10.685936 -2.0771468 28 2
0.029793739 -10.668969 -1.6898053 28 3
0.059324063 -26.145584 -3.2102826 11 4
-0.017492747 -7.7100005 -2.0658937 9 0
-0.025456082 -9.1161718 -2.1046422 15 1
-0.037314277 -10.689856 -2.0779099 15 2
-0.042739972 -10.647196 -1.6863638 18 3
-0.11873198 -26.165234 -3.2127199 13 4
-0.071532704 -7.7328715 -2.0721054 9 0
-0.089288801 -9.1352587 -2.1091411 18 1
-0.11177815 -10.673629 -2.0748572 28 2
-0.11698348 -10.638737 -1.6851122 23 3
-0.30087093 -26.118114 -3.207114 8 4
-0.12551659 -7.7321839 -2.0721054 9 0
-0.15430345 -9.2084532 -2.1262374 17 1
-0.18601604 -10.656885 -2.0718043 25 2
-0.19128853 -10.639635 -1.685425 27 3
-0.20788941 -11.235685 -1.3798048 9 4
-0.66797578 -33.864929 -1.7751312 7 6
-0.17886566 -7.7040801 -2.0648584 9 0
-0.21923435 -9.2344275 -2.1325359 14 1
-0.25883675 -10.667149 -2.0740941 25 2
-0.26390049 -10.645987 -1.6866766 25 3
-0.28647459 -11.239912 -1.380536 10 4
-0.23188148 -7.7219939 -2.0700347 9 0
-0.281966 -9.2288246 -2.1316364 15 1
-0.33268788 -10.645457 -2.0702777 25 2
-0.33765242 -10.626115 -1.6838609 23 3
-0.36323214 -11.245639 -1.381511 13 4
-1.1388456 -33.972267 -1.7814115 7 6
-0.28635633 -7.7356315 -2.0741758 9 0
-0.34733889 -9.2519474 -2.137485 13 1
-0.40663403 -10.682184 -2.0779099 27 2
-0.4111158 -10.653179 -1.6885538 26 3
-0.44017261 -11.203157 -1.3766363 7 4
-1.3198285 -32.718452 -1.7160962 17 6
-0.33866525 -7.7257833 -2.0721054 9 0
-0.40970138 -9.2357416 -2.1343358 16 1
-0.48102179 -10.675162 -2.0771468 27 2
-0.48601869 -10.661889 -1.6904311 26 3
-0.51861447 -11.247495 -1.382486 10 4
-0.39239699 -7.7193723 -2.0710702 9 0
-0.47356817 -9.2209787 -2.1316364 16 1
-0.55326742 -10.663798 -2.0756204 27 2
-0.55857944 -10.658334 -1.6904311 25 3
-0.59733468 -11.247563 -1.3829734 10 4
-1.8012727 -33.259548 -1.7456136 8 6
-0.44448635 -7.7088075 -2.0689995 9 0
-0.53677422 -9.2253227 -2.1334357 16 1
-0.62816167 -10.667516 -2.0771468 24 2
-0.63250643 -10.646287 -1.6891795 29 3
-0.67774606 -11.274824 -1.3868732 11 4
-0.49913788 -7.6977181 -2.0669291 9 0
-0.60112292 -9.1959658 -2.1275871 15 1
-0.70287657 -10.666788 -2.0779099 27 2
-0.7091971 -10.649372 -1.6904311 27 3
-0.7567085 -11.273779 -1.3873608 13 4
-2.2788992 -33.34235 -1.7514753 7 6
-0.55369669 -7.7056074 -2.0700347 9 0
-0.66657436 -9.2090387 -2.1316364 17 1
-0.77918959 -10.661485 -2.0779099 27 2
-0.78410649 -10.652042 -1.6916825 26 3
-0.83510232 -11.264262 -1.3868732 13 4
-2.5488379 -33.81955 -1.7774339 7 6
-0.60686994 -7.693851 -2.0679643 9 0
-0.72683877 -9.1536531 -2.1199389 23 1
-0.85174078 -10.655934 -2.0779099 25 2
-0.8567518 -10.648428 -1.6919955 22 3
-2.1243622 -26.174723 -3.2244194 13 4
-2.790437 -33.94075 -1.784761 7 6
-0.65724623 -7.6664443 -2.0617526 9 0
-0.79113764 -9.171792 -2.1253376 19 1
-0.92679286 -10.657553 -2.0794365 24 2
-0.93227613 -10.655962 -1.6941855 26 3
-2.3066528 -26.207113 -3.230269 13 4
-2.9278913 -32.806408 -1.7261447 8 6
-0.71075118 -7.6616693 -2.0617526 9 0
-0.85695851 -9.1854477 -2.1298366 21 1
-1.0000474 -10.658814 -2.0809629 24 2
-1.0055285 -10.657235 -1.695437 25 3
-2.501579 -26.316847 -3.2458682 11 4
-3.1564803 -32.841385 -1.7290756 16 6
-0.76403433 -7.6681871 -2.0648584 9 0
-0.91946214 -9.1794024 -2.1298366 16 1
-1.0752225 -10.659387 -2.0824895 24 2
-1.0759199 -10.610649 -1.6891795 13 3
-2.6669633 -26.164921 -3.2292941 11 4
-3.4188824 -33.140396 -1.7460325 8 6
-0.81591022 -7.6472988 -2.0607173 9 0
-0.98373067 -9.174696 -2.1302865 14 1
-1.1500329 -10.655524 -2.0832527 24 2
-1.1520987 -10.622519 -1.6923083 12 3
-2.8413911 -26.070675 -3.220032 11 4
-3.681669 -33.401592 -1.7611051 7 6
-0.86884177 -7.6375775 -2.0596819 9 0
-1.0457667 -9.1501808 -2.1262374 16 1
-1.2239459 -10.643335 -2.0824895 24 2
-3.3202858 -28.828579 2.5388467 15 10
-1.228949 -10.637765 -1.6960627 10 3
-3.0697794 -26.450489 -3.269511 19 4
-0.92260355 -7.6351614 -2.0607173 9 0
-1.1072725 -9.123311 -2.1217382 16 1
-1.299648 -10.646225 -2.0847793 24 2
-1.3007805 -10.609319 -1.692934 8 3
-3.9176781 -31.86097 3.9414988 3 11
-3.2643111 -26.509193 -3.2795043 13 4
-0.97441381 -7.6170373 -2.0576115 9 0
-1.1714349 -9.1192245 -2.1226382 17 1
-1.3734381 -10.632998 -2.0840161 24 2
-4.1173339 -31.832224 2.8081579 5 10
-1.3758322 -10.607815 -1.6941855 8 3
-3.4062324 -26.155054 -3.2385561 11 4
-1.0296341 -7.6253653 -2.0617526 9 0
-1.2314056 -9.0837889 -2.1163394 21 1
-3.796169 -27.966801 1.4791189 15 9
-1.448429 -10.642856 -2.0878322 24 2
-4.2847834 -31.40196 2.7727728 5 10
-1.9459145 -14.242498 -2.2767475 5 3
-3.6341221 -26.461033 -3.2795043 11 4
-1.0815138 -7.6181803 -2.0617526 9 0
-1.2965065 -9.0983477 -2.1217382 17 1
-4.0017724 -28.012774 1.4829918 31 9
-1.5210249 -10.620824 -2.0855424 21 2
-4.1324897 -28.820017 2.5472138 12 10
-1.5295471 -10.64063 -1.7026329 2 3
-3.8181181 -26.463188 -3.2829168 14 4
-1.1335326 -7.6028008 -2.0596819 9 0
-1.3599923 -9.0890751 -2.1217382 20 1
-1.5974677 -10.625478 -2.0885954 24 2
-4.8777728 -32.405773 2.8670752 7 10
-2.0490961 -13.581082 -2.1753781 5 3
-4.5247531 -29.918547 3.7153091 11 11
-3.972163 -26.233727 -3.2578115 16 4
-4.4492283 -29.143879 -1.5450623 11 6
-1.1847935 -7.58325 -2.0565763 9 0
-1.4252237 -9.09091 -2.1244378 17 1
-4.7022247 -29.925247 1.5875591 8 9
-1.6734413 -10.625703 -2.0908849 24 2
-4.5341702 -28.757542 2.5470393 3 10
-2.1139498 -13.377183 -2.1450298 3 3
-4.7378602 -29.913677 3.7187216 11 11
-4.1356206 -26.081842 -3.242456 11 4
-1.2358354 -7.5633545 -2.0534704 9 0
-1.4880241 -9.0768929 -2.123538 15 1
-4.7575412 -28.957514 1.5379446 17 9
-1.7501335 -10.629258 -2.0939381 22 2
-5.3005896 -32.157585 2.8513875 2 10
-1.7649295 -10.684222 -1.7151477 4 3
-4.3419466 -26.199209 -3.2607362 5 4
-4.9521794 -29.816792 4.7872081 11 12
-1.2912062 -7.569777 -2.0576115 7 0
-1.5493842 -9.0547581 -2.1208386 15 1
-5.0703025 -29.569271 1.5722769 8 9
-1.8262918 -10.62839 -2.0962276 22 2
-4.9220705 -28.614855 2.5402412 12 10
-1.8381341 -10.663853 -1.7138962 24 3
-1.8399328 -10.641004 -1.3259385 19 4
-5.5123281 -31.649462 -1.6836479 9 6
-1.3501071 -7.5948153 -2.0669291 9 0
-1.6064034 -9.0091887 -2.1127403 15 1
-5.6736293 -31.787323 1.6922308 6 9
-1.90205 -10.63504 -2.100044 22 2
-5.6485467 -31.519552 2.8015342 18 10
-4.7087326 -26.143848 -3.2617114 13 4
-5.5335007 -30.692425 4.9395752 10 12
-5.6692348 -31.288906 -1.6664816 9 6
-1.3996657 -7.5740514 -2.0638232 7 0
-1.6705297 -9.0133734 -2.1163394 15 1
-5.8997841 -31.770504 1.693487 20 9
-1.9748137 -10.61378 -2.0985174 22 2
-3.0582891 -16.389278 -2.640614 11 3
-4.8862109 -26.109241 -3.2614677 11 4
-5.7348938 -30.585094 4.9286251 7 12
-5.8875341 -31.248566 -1.6664816 9 6
-1.4466786 -7.5337405 -2.055541 7 0
-1.7319403 -8.9938374 -2.1145399 15 1
-5.1950555 -26.952223 1.4385062 7 9
-2.0499909 -10.615515 -2.1015704 24 2
-5.7268395 -29.599928 2.6376815 3 10
-3.1712773 -16.375839 -2.6418655 12 3
-5.6400156 -29.069546 3.6358504 11 11
-5.0657177 -26.060852 -3.2597616 16 4
-5.8127356 -29.737642 -1.5879778 11 6
-1.5032059 -7.5502439 -2.0627878 9 0
-1.7931184 -8.9818411 -2.1145399 15 1
-5.6557121 -28.278395 1.5113579 16 9
-2.1286778 -10.624043 -2.1061497 22 2
-5.6030197 -27.938862 2.4930029 3 10
-2.741569 -13.645827 -2.2044747 4 3
-5.858881 -29.109251 3.6458437 15 11
-5.2473001 -26.047174 -3.2624426 13 4
-6.40693 -31.746241 5.1294866 5 12
-5.8709965 -28.96034 -1.5486212 24 6
-1.5550991 -7.5357819 -2.0617526 9 0
-1.8541993 -8.9614697 -2.1127403 15 1
-5.8124218 -28.067137 1.5021467 8 9
-2.2041349 -10.624687 -2.1092029 22 2
-6.0817084 -29.264563 2.615021 3 10
-3.3863013 -16.280275 -2.6337309 4 3
-6.3516684 -30.483459 3.8232853 13 11
-5.427393 -26.002132 -3.2614677 13 4
-6.0706592 -29.058622 4.7017951 12 12
-6.2187243 -29.663883 5.8914189 6 13
-1.6063567 -7.5250225 -2.0617526 7 0
-1.9155619 -8.9505472 -2.1131902 14 1
-6.5173187 -30.400583 1.6294278 7 9
-2.2799029 -10.616718 -2.1107292 24 2
-6.2966709 -29.296511 2.6216447 6 10
-3.4237924 -15.902842 -2.5764761 14 3
-6.7974234 -31.51922 3.9590476 9 11
-5.603837 -25.962648 -3.261224 19 4
-6.1377091 -28.388035 4.6001124 11 12
-1.6580189 -7.509851 -2.0607173 9 0
-1.9737905 -8.9179287 -2.1086912 15 1
-7.101162 -32.031273 1.7194456 6 9
-2.358222 -10.61971 -2.1145453 22 2
-6.2244053 -28.007076 2.5100853 6 10
-3.1093602 -13.967726 -2.2664227 4 3
-5.5549359 -24.892178 -3.1315548 7 4
-6.6123924 -29.582142 4.8009744 11 12
-6.7048273 -29.922073 5.9604917 3 13
-1.709548 -7.4943256 -2.0596819 9 0
-2.035567 -8.9020329 -2.1082413 21 1
-2.4366922 -10.622122 -2.1183615 24 2
-6.5887446 -28.69891 2.5761492 6 10
-3.4126456 -14.840866 -2.411907 4 3
-6.726254 -29.204365 3.6797233 11 11
-5.982729 -25.955381 -3.2704859 16 4
-6.6756654 -28.915491 4.7002306 8 12
-6.8214874 -29.476696 5.8811154 8 13
-6.6389275 -28.642307 -1.5408753 11 6
-1.7618265 -7.4822083 -2.0596819 9 0
-2.1021419 -8.9065704 -2.1127403 15 1
-2.5171218 -10.631598 -2.1237042 22 2
-7.3553295 -31.042645 2.7910755 2 10
-3.5271161 -14.862808 -2.4194157 4 3
-7.2017169 -30.30002 3.8240166 6 11
-6.1665392 -25.92457 -3.2719483 19 4
-7.217505 -30.295929 4.9326921 10 12
-6.9139333 -28.976786 -2.6063054 18 5
-7.1233187 -29.831272 5.9616365 9 13
-6.8405843 -28.603029 -1.541294 23 6
-1.8176649 -7.484745 -2.0638232 9 0
-2.1605821 -8.8765306 -2.1091411 15 1
-7.4251046 -30.459013 1.6430352 7 9
-2.5940769 -10.62521 -2.125994 15 2
-6.9311061 -28.367994 2.5548835 12 10
-3.5894744 -14.668971 -2.3918834 8 3
-7.7088609 -31.455954 3.9765971 2 11
-6.3539958 -25.907879 -3.2753608 19 4
-7.439672 -30.288925 4.939888 6 12
-7.1868591 -29.193665 5.8440986 10 13
-1.8679979 -7.4643769 -2.0617526 9 0
-2.2196536 -8.8498888 -2.1064417 15 1
-2.763979 -10.98763 -2.2023175 19 2
-7.15768 -28.432907 2.5651677 6 10
-3.6864817 -14.622485 -2.3884416 7 3
-7.1799107 -28.437344 3.6012394 7 11
-6.5371437 -25.872511 -3.2765794 13 4
-7.1416593 -28.223562 4.611063 11 12
-7.3673296 -29.051435 5.8257804 10 13
-7.5077095 -29.561684 -1.5984449 11 6
-1.9248841 -7.469861 -2.0669291 9 0
-2.2804091 -8.8304052 -2.1055419 16 1
-2.7973027 -10.800817 -2.168735 9 2
-7.2385368 -27.929008 2.5242045 6 10
-3.3994038 -13.097365 -2.1431525 2 3
-6.6596394 -25.603388 -3.2483058 11 4
-7.491385 -28.759876 4.7071137 16 12
-7.881371 -30.192244 6.0654368 8 13
-7.5249815 -28.78586 -1.5592976 12 6
-1.9710453 -7.4338331 -2.0607173 9 0
-2.3580151 -8.8745375 -2.1199389 15 1
-2.8859115 -10.838441 -2.1801836 21 2
-8.6370649 -32.39222 2.9329648 2 10
-3.9137137 -14.667605 -2.404398 13 3
-7.7947407 -29.171812 3.7075095 3 11
-6.8731103 -25.68667 -3.2648799 13 4
-7.6997466 -28.755922 4.7149353 12 12
-7.6790633 -28.598755 5.7559447 4 13
-7.8109307 -29.069592 -1.5775106 11 6
-2.0226152 -7.4239726 -2.0617526 9 0
-2.4183667 -8.8582821 -2.1199389 21 1
-2.994683 -10.939219 -2.2046072 7 2
-4.1550236 -15.146655 -2.4876211 8 3
-7.9035578 -28.772131 3.6636367 11 11
-7.0467429 -25.635464 -3.2643926 13 4
-8.315176 -30.146948 6.0787935 3 13
-7.8998876 -28.602364 -1.5551107 24 6
-2.0733531 -7.4059501 -2.0607173 7 0
-2.4843607 -8.8561926 -2.123538 18 1
-3.0725746 -10.923715 -2.2057521 12 2
-4.1754613 -14.814971 -2.437875 6 3
-7.8195472 -27.707523 3.5349424 7 11
-7.2034178 -25.507318 -3.2543991 16 4
-8.1289806 -28.746359 4.7315173 4 12
-8.4799414 -29.927605 6.0463557 5 13
-8.079751 -28.477345 -1.5513426 12 6
-2.1282079 -7.4024353 -2.0638232 9 0
-2.547745 -8.8442507 -2.1248875 14 1
-3.1487617 -10.901999 -2.2057521 10 2
-8.370822 -28.963455 2.6376815 3 10
-3.6236811 -12.521721 -2.0646224 5 3
-8.9011993 -30.718164 3.9268742 6 11
-7.3735776 -25.429714 -3.2509868 19 4
-8.7425528 -30.111689 4.9661694 30 12
-8.4885073 -29.179611 5.9070654 4 13
-8.3621473 -28.707878 -1.5670433 24 6
-2.1765532 -7.3762798 -2.0607173 9 0
-2.6160576 -8.8486738 -2.1302865 13 1
-3.2052667 -10.81387 -2.1923954 7 2
-8.508235 -28.686554 2.6178098 6 10
-4.258749 -14.340522 -2.3693566 8 3
-8.984169 -30.213837 3.870327 3 11
-7.5531955 -25.385231 -3.2519619 16 4
-8.8352442 -29.656143 4.9010925 24 12
-2.2279963 -7.3609052 -2.0607173 9 0
-2.6788993 -8.8339243 -2.1311862 14 1
-9.6064377 -31.638359 1.7328436 6 9
-3.3240819 -10.933985 -2.2213984 9 2
-8.4925919 -27.917374 2.5529659 6 10
-4.4076805 -14.471063 -2.3959506 9 3
-8.8960886 -29.17062 3.7445579 10 11
-7.7163281 -25.286312 -3.2461121 19 4
-9.36415 -30.647894 5.0756736 3 12
-2.2781858 -7.3414812 -2.0596819 9 0
-2.7416635 -8.8187284 -2.132086 14 1
-3.4655702 -11.126666 -2.2652845 10 2
-9.0669012 -29.074711 2.6645253 3 10
-4.9462137 -15.851232 -2.6299765 4 3
-9.1820526 -29.389816 3.7806311 3 11
-7.792511 -24.911644 -3.2049201 10 4
-8.9496231 -28.523392 5.8108978 12 13
-9.0462866 -28.813854 -1.5827441 11 6
-2.3316147 -7.3368511 -2.0627878 9 0
-2.7844818 -8.7460127 -2.1190388 20 1
-9.8706913 -30.966276 1.7033262 6 9
-3.3551414 -10.513051 -2.1450748 16 2
-9.0179176 -28.239851 2.5935805 16 10
-4.05515 -12.683534 -2.1090496 5 3
-9.2950172 -29.037628 3.743583 7 11
-7.9880476 -24.92469 -3.2136948 13 4
-9.9052572 -30.888313 5.1376214 5 12
-2.385253 -7.3236523 -2.0638232 7 0
-2.8409512 -8.7073383 -2.1145399 15 1
-10.290479 -31.50238 1.7368212 6 9
-3.6187546 -11.071596 -2.2641397 9 2
-5.1519709 -15.725288 -2.6209035 4 3
-9.2254257 -28.142048 3.6363378 11 11
-8.2058105 -25.00223 -3.2310002 19 4
-2.4351006 -7.3031564 -2.0627878 7 0
-2.8843842 -8.6355381 -2.1019428 16 1
-9.9869614 -29.865202 1.6503623 7 9
-3.6068892 -10.773611 -2.2084234 10 2
-9.901 -29.556679 2.727103 17 10
-5.2716761 -15.718903 -2.6259093 5 3
-9.5466213 -28.432865 3.6826482 7 11
-8.3908348 -24.961689 -3.2334378 16 4
-2.4885468 -7.2892013 -2.0638232 9 0
-2.9473648 -8.6183643 -2.1028426 15 1
-10.115015 -29.543549 1.6365455 7 9
-3.7558212 -10.963614 -2.252691 10 2
-9.9461355 -29.000723 2.6823051 6 10
-4.8663402 -14.173045 -2.3734241 3 3
-8.5003319 -24.714783 -3.2090638 19 4
-2.5304651 -7.250206 -2.0576115 7 0
-3.006602 -8.5999422 -2.1032922 14 1
-3.7842288 -10.800018 -2.2244515 7 2
-10.76556 -30.707251 2.8468552 2 10
-4.5937343 -13.08835 -2.1969659 9 3
-10.800135 -30.737114 4.0002398 11 11
-8.6960144 -24.735004 -3.2193007 16 4
-2.5829673 -7.2378211 -2.0591643 6 0
-3.0501685 -8.5328674 -2.0920448 15 1
-10.380392 -29.023232 1.6154017 24 9
-3.8867729 -10.855337 -2.2412426 10 2
-10.97564 -30.62009 2.8458092 2 10
-5.5629759 -15.511199 -2.6099527 4 3
-8.9154863 -24.804461 -3.2363627 19 4
-2.6341581 -7.2255173 -2.0607173 7 0
-3.1121895 -8.522892 -2.0947442 15 1
-3.9557157 -10.809502 -2.2374265 9 2
-4.643229 -12.667665 -2.1368952 7 3
-9.063591 -24.687296 -3.2290504 16 4
-2.6804917 -7.1960893 -2.0576115 7 0
-3.16889 -8.4936543 -2.0929446 16 1
-3.9199321 -10.489918 -2.1767492 12 2
-4.8366737 -12.922523 -2.1853898 14 3
-9.1687956 -24.444988 -3.2056515 16 4
-2.7307842 -7.1812892 -2.0586467 7 0
-3.2210813 -8.4573183 -2.0893452 20 1
-3.9587674 -10.372419 -2.1580498 15 2
-5.8698068 -15.35542 -2.6036956 10 3
-9.3264542 -24.359768 -3.2027266 15 4
-2.779454 -7.1584477 -2.0576115 9 0
-3.2814586 -8.4382572 -2.0902452 19 1
-4.107358 -10.540261 -2.1988828 10 2
-4.1540718 -10.643663 -1.8096341 7 3
-4.1613121 -10.645755 -1.4034475 7 4
-2.8307846 -7.1424618 -2.0586467 9 0
-3.3402874 -8.415143 -2.0902452 18 1
-4.2004309 -10.560586 -2.2091868 22 2
-4.2056155 -10.557513 -1.7999352 17 3
-4.2171421 -10.570349 -1.397354 16 4
-2.877682 -7.1153612 -2.0565763 9 0
-3.4048076 -8.4060678 -2.0938444 16 1
-4.270741 -10.528111 -2.2084234 9 2
-6.2208996 -15.31256 -2.6177747 13 3
-9.8345604 -24.159107 -3.2027266 13 4
-2.934885 -7.1170402 -2.0627878 9 0
-3.4604588 -8.379096 -2.0929446 17 1
-4.2713208 -10.322075 -2.1714065 10 2
-5.2371173 -12.637282 -2.1666176 8 3
-9.9135561 -23.886257 -3.1754279 18 4
-2.974015 -7.0714464 -2.055541 9 0
-3.5218968 -8.3619165 -2.0947442 15 1
-4.4460135 -10.540583 -2.2236881 10 2
-5.2991853 -12.544931 -2.1569188 6 3
-10.112562 -23.893248 -3.1856649 15 4
-3.0236011 -7.0545907 -2.0565763 9 0
-3.5725832 -8.3234243 -2.091145 16 1
-4.4838138 -10.426324 -2.2061336 10 2
-5.0647192 -11.760149 -2.0280166 2 3
-10.258674 -23.774677 -3.1793277 15 4
-3.0693626 -7.0221529 -2.0534704 9 0
-3.6211128 -8.2726536 -2.0848465 15 1
-4.5541286 -10.389373 -2.204989 12 2
-5.2146716 -11.873723 -2.0539849 8 3
-10.486737 -23.844213 -3.1983392 15 4
-11.655117 -26.4132 -1.5130327 11 6
-3.1214554 -7.0076132 -2.055541 9 0
-3.6819537 -8.2542896 -2.0866458 17 1
-4.6299577 -10.360105 -2.2057521 10 2
-5.4273529 -12.127318 -2.1043568 9 3
-10.628592 -23.716078 -3.1910272 15 4
-11.757325 -26.149029 -1.5025654 11 6
-3.162318 -6.9680586 -2.0503645 7 0
-3.7314267 -8.2106438 -2.0821469 19 1
-4.7239542 -10.38017 -2.216819 15 2
-5.5179658 -12.108071 -2.1074855 10 3
-10.735362 -23.513088 -3.1737218 13 4
-12.2726 -26.805681 -1.5450623 11 6
-3.2048113 -6.9358501 -2.0472586 7 0
-3.7806818 -8.1709061 -2.0785477 15 1
-4.7905245 -10.334468 -2.2141476 12 2
-5.5524578 -11.961748 -2.0887132 9 3
-10.885955 -23.41967 -3.1710405 18 4
-12.189335 -26.140108 -1.5115672 11 6
-3.2547996 -6.9168034 -2.0482941 9 0
-3.8409536 -8.1513643 -2.0803473 15 1
-4.8372984 -10.251907 -2.2034624 12 2
-5.643877 -11.945108 -2.0924675 9 3
-11.091654 -23.432812 -3.1832275 15 4
-12.462891 -26.258621 -1.5232905 23 6
-3.2967989 -6.8840346 -2.0451882 7 0
-3.8778114 -8.0863733 -2.0704496 15 1
-4.8169365 -10.026766 -2.1622477 12 2
-5.0711813 -10.541849 -1.85281 3 3
-11.285357 -23.428308 -3.192977 7 4
-12.539895 -25.95158 -1.5105206 11 6
-3.3464713 -6.8643231 -2.0462234 9 0
-3.9410093 -8.0731144 -2.0740488 17 1
-4.9575424 -10.137513 -2.1935403 10 2
-5.6537323 -11.545807 -2.0361512 11 3
-6.3098602 -12.86866 -1.7597934 11 4
-12.623802 -25.66626 -1.4990066 11 6
-3.3822904 -6.816566 -2.0389764 9 0
-3.9886041 -8.0279531 -2.0695498 15 1
-5.0448155 -10.13605 -2.2007911 16 2
-5.831121 -11.700535 -2.0705669 7 3
-11.260365 -22.565075 -3.0964565 17 4
-12.90101 -25.773968 -1.5105206 11 6
-3.424572 -6.7824397 -2.0358706 9 0
-4.0304837 -7.972085 -2.0623512 17 1
-5.0471549 -9.9657221 -2.1714065 12 2
-5.9090905 -11.652493 -2.0693154 7 3
-6.3406286 -12.487258 -1.7195766 2 4
-13.102386 -25.725986 -1.5130327 11 6
-3.4647756 -6.7446208 -2.0317297 7 0
-4.0913877 -7.9541512 -2.0650506 15 1
-5.1255956 -9.9476967 -2.1752226 12 2
-5.9866729 -11.603934 -2.0680637 7 3
-11.60986 -22.47444 -3.1059625 10 4
-13.549966 -26.151709 -1.5435969 11 6
-3.5225141 -6.7408137 -2.0379412 9 0
-4.1323633 -7.8977675 -2.0578523 14 1
-5.2013888 -9.9282293 -2.1786571 10 2
-6.0783668 -11.587405 -2.0724442 9 3
-11.877277 -22.603714 -3.135211 10 4
-13.623403 -25.860958 -1.5318736 11 6
-3.5592525 -6.6996202 -2.0327649 9 0
-4.1997538 -7.8952637 -2.0646007 14 1
-5.2899613 -9.9280605 -2.1866713 10 2
-6.1572514 -11.541203 -2.0718184 10 3
-6.666872 -12.480701 -1.7373695 11 4
-14.19221 -26.490555 -1.5749985 12 6
-3.5930808 -6.6508141 -2.0255179 9 0
-4.263113 -7.8811784 -2.0686498 17 1
-5.3218861 -9.8262243 -2.1721697 12 2
-6.2836924 -11.587585 -2.0877745 14 3
-12.048519 -22.181381 -3.0993814 17 4
-18.292139 -33.592003 -2.0045719 2 6
-3.6412847 -6.6289544 -2.0265532 9 0
-4.3236651 -7.8614697 -2.0713491 17 1
-5.417644 -9.8343172 -2.1824734 13 2
-6.3931637 -11.590755 -2.096535 14 3
-12.218435 -22.124529 -3.1032813 17 4
-18.45657 -33.323963 -1.9964075 2 6
-3.6742887 -6.5797582 -2.0193064 9 0
-4.3841491 -7.8412986 -2.0740488 16 1
-5.4525909 -9.7363043 -2.169117 12 2
-6.4961452 -11.585472 -2.1037309 12 3
-12.436733 -22.152935 -3.1193678 17 4
-18.731878 -33.270878 -2.001013 2 6
-3.7334836 -6.5774679 -2.0265532 9 0
-4.4253049 -7.7867813 -2.06775 16 1
-5.5583076 -9.7645416 -2.1839998 13 2
-6.6022992 -11.584459 -2.1118655 10 3
-12.66782 -22.200054 -3.1383796 18 4
-3.77352 -6.5412025 -2.0234473 9 0
-4.4737091 -7.745573 -2.0650506 21 1
-5.5882807 -9.663599 -2.1698802 10 2
-6.7067342 -11.583698 -2.1200001 10 3
-12.95594 -22.341185 -3.1710405 18 4
-3.8199105 -6.5186996 -2.0244827 9 0
-5.6217885 -9.5668011 -2.1569052 12 2
-6.517983 -11.078605 -2.0358384 13 3
-13.109728 -22.255899 -3.1715281 18 4
-5.677722 -9.5131407 -2.1534703 7 2
-6.6206026 -11.079764 -2.0442858 12 3
-13.307594 -22.235378 -3.1817651 18 4
-2.8718438 -4.7494574 -1.4871743 1 0
-3.0323179 -5.0010409 -1.13684 80 2
-6.4845757 -10.682047 -1.9792091 10 3
-13.444209 -22.120529 -3.1783528 18 4
-2.842241 -4.627234 -1.4550807 1 0
-2.8195124 -4.5848446 -1.2426296 2 1
-6.5592084 -10.641024 -1.9798348 12 3
-13.611863 -22.048094 -3.1815214 10 4
-15.498881 -25.045919 -1.5435969 11 6
-2.817627 -4.5126514 -1.2282327 1 1
-6.5830188 -10.514607 -1.964817 18 3
-6.592464 -10.517443 -1.5240982 18 4
-6.6359916 -10.574577 -1.0922357 16 5
-14.76146 -23.486233 -1.4537884 11 6
-2.8542807 -4.5010996 -1.2304822 0 1
-7.6997509 -12.095509 -1.7605247 9 4
-14.633071 -22.933973 -1.4257362 22 6
-2.8848526 -4.4815664 -1.2304822 1 1
-7.7959108 -12.064492 -1.7636933 7 4
-15.180532 -23.429657 -1.4631041 23 6
-2.9086063 -4.4498992 -1.2273329 1 1
-7.8538103 -11.969939 -1.7578436 3 4
-7.8341694 -11.921851 -1.2480702 22 5
-15.00893 -22.814194 -1.4311792 11 6
-2.774133 -4.1849074 -1.3453414 61 0
-2.8652484 -4.3174496 -1.1962898 0 1
-7.8249283 -11.746305 -1.7329822 7 4
-15.396359 -23.050991 -1.4527416 23 6
-2.8539426 -4.2359271 -1.1791934 0 1
-7.7099085 -11.400339 -1.6898406 9 4
-7.8590827 -11.603454 -1.226107 21 5
-15.472844 -22.818964 -1.4448912 23 6
-2.8768446 -4.2062488 -1.176494 0 1
-7.8746934 -11.470615 -1.7083646 9 4
-7.8814578 -11.46759 -1.2173914 21 5
-15.087085 -21.919044 -1.394544 11 6
-2.8325446 -4.0846171 -1.331883 1 0
-2.8816905 -4.1508446 -1.1665962 0 1
-7.9069161 -11.346957 -1.6981276 5 4
-7.9909606 -11.454775 -1.2219235 21 5
-15.572147 -22.297255 -1.4253175 11 6
-2.8002517 -3.9799247 -1.3039304 1 0
-2.9008987 -4.1183887 -1.1629969 0 1
-8.0389757 -11.370676 -1.7098271 9 4
-8.1283007 -11.480012 -1.2306391 21 5
-15.445609 -21.790419 -1.3997777 22 6
-2.8594031 -4.0042987 -1.3184243 1 0
-2.9205136 -4.0853539 -1.1593977 0 1
-7.5129132 -10.470748 -1.5823517 1 4
-8.2431278 -11.471526 -1.2358683 22 5
-15.688332 -21.808519 -1.4079419 22 6
-7.5986838 -10.435695 -1.5850328 4 4
-8.3585739 -11.466674 -1.2414464 22 5
-15.800164 -21.643618 -1.4043832 22 6
-2.8732908 -3.9029384 -1.1189066 0 1
-7.7150016 -10.441465 -1.5940511 7 4
-8.4597502 -11.436873 -1.244584 22 5
-15.835391 -21.384691 -1.394544 22 6
-2.889297 -3.8692372 -1.1148574 2 1
-7.8204198 -10.434773 -1.6011195 9 4
-8.5852318 -11.442772 -1.2515564 22 5
-15.794736 -21.021332 -1.3780059 11 6
-2.8985851 -3.8256733 -1.1081089 1 1
-7.9339309 -10.433647 -1.6094066 9 4
-8.6721487 -11.392069 -1.2526023 22 5
-16.301847 -21.391487 -1.4095122 11 6
-2.8865621 -3.756408 -1.0937121 1 1
-8.0508318 -10.439137 -1.6186688 9 4
-8.7665339 -11.354856 -1.2550427 22 5
-16.184471 -20.932705 -1.3866937 11 6
-2.9067247 -3.7284808 -1.0914625 1 1
-8.1614342 -10.431143 -1.6262246 7 4
-8.9193058 -11.387488 -1.2655014 23 5
-16.610023 -21.183552 -1.4107682 22 6
-2.986532 -3.7748291 -1.1112581 2 1
-2.9504704 -3.723902 -0.92351556 3 2
-8.2753696 -10.422221 -1.6340244 7 4
-16.535992 -20.773697 -1.3915086 22 6
-2.9579232 -3.6854966 -1.0910126 0 1
-2.9536154 -3.6761847 -0.91664648 3 2
-8.4027157 -10.432219 -1.6447488 10 4
-9.2044554 -11.415363 -1.2829325 23 5
-16.912848 -20.952839 -1.4111868 22 6
-2.9673736 -3.6500502 -1.2604488 1 0
-2.947269 -3.6214449 -1.0779655 2 1
-2.9804482 -3.6569967 -0.91702807 4 2
-3.2043262 -3.9274929 -0.80282182 1 3
-8.5061798 -10.414757 -1.651086 6 4
-16.906879 -20.648813 -1.3986262 22 6
-2.9288709 -3.5517423 -1.2335316 1 0
-2.9439447 -3.5662165 -1.0676178 6 1
-2.9846413 -3.6103766 -0.91054058 9 2
-3.2518175 -3.9293761 -0.80782765 1 3
-9.3304977 -11.234652 -0.76536107 8 6
-3.0025494 -3.5859179 -1.0797651 1 1
-3.0160806 -3.5969737 -0.91244864 13 2
-3.2537706 -3.8763185 -0.8015703 1 3
-8.7982721 -10.459395 -1.1957767 20 5
-17.36338 -20.612377 -1.4124429 22 6
-2.9909272 -3.5217938 -1.0667179 15 1
-3.0354073 -3.5703783 -0.91092217 9 2
-3.3031247 -3.8811593 -0.80720192 1 3
-8.9150457 -10.449251 -1.2017034 20 5
-17.415079 -20.390438 -1.4053252 22 6
-3.0466189 -3.5382726 -1.0779655 7 1
-3.0705163 -3.5609941 -0.91397518 9 2
-3.3120699 -3.837069 -0.80282182 1 3
-9.0719919 -10.487779 -1.213208 21 5
-17.642 -20.366491 -1.4121288 22 6
-3.1063128 -3.5533147 -0.91740966 10 2
-3.3381107 -3.8144362 -0.80282182 1 3
-18.089939 -20.5986 -1.4367268 22 6
-3.0809045 -3.4798803 -1.0730165 30 1
-3.1479754 -3.5506394 -0.92237073 7 2
-3.3646591 -3.791039 -0.80282182 1 3
-18.17486 -20.406178 -1.4321213 11 6
-3.1285574 -3.4843874 -1.0811148 14 1
-3.1923759 -3.5504751 -0.92809504 6 2
-3.3434675 -3.7146015 -0.7915585 1 3
-18.515009 -20.498158 -1.4476128 23 6
-3.2718761 -3.5970058 -1.3028952 1 0
-3.1672394 -3.4783111 -1.0860636 9 1
-3.2210536 -3.532454 -0.92923987 4 2
-19.005716 -20.748379 -1.474618 11 6
-3.2759504 -3.5513566 -1.2946129 1 0
-3.2152426 -3.4818852 -1.094162 6 1
-3.2629642 -3.5286191 -0.93420094 4 2
-3.4433143 -3.7197437 -0.80282182 1 3
-18.804844 -20.243504 -1.4480314 11 6
-3.2716286 -3.4973629 -1.2832248 1 0
-3.3660133 -3.5944855 -1.1369027 1 1
-3.2794611 -3.4971607 -0.93191117 4 2
-3.4691992 -3.6956141 -0.80282182 1 3
-18.910099 -20.073931 -1.4453099 11 6
-3.3695555 -3.5482883 -1.1297042 1 1
-3.322736 -3.4940989 -0.93725383 4 2
-3.4949141 -3.6713054 -0.80282182 1 3
-3.403178 -3.5376608 -1.3153185 5 0
-3.3861339 -3.5162566 -1.1270047 0 1
-3.3593137 -3.4835355 -0.94068843 4 2
-3.5067399 -3.6326048 -0.79969311 1 3
-3.4385834 -3.5248792 -1.3194594 3 0
-3.3997066 -3.4813783 -1.1234056 0 1
