# .PCD v0.7 - Point Cloud Data file format
VERSION 0.7
FIELDS x y z intensity ring
SIZE 4 4 4 4 2
TYPE F F F F U
COUNT 1 1 1 1 1
WIDTH 1273
HEIGHT 1
VIEWPOINT 0 0 0 1 0 0 0
POINTS 1273
DATA ascii
4.1735415 -12.649238 -0.23250096 19 7
2.6513832 -8.1167116 -2.2879603 10 0
3.769196 -11.559185 -2.8069394 15 1
2.8599207 -8.7914858 -1.7970392 7 2
3.4964662 -10.767411 -1.7930521 14 3
3.7650833 -11.61532 -1.4992368 9 4
3.6917014 -11.416103 -1.0497037 15 5
4.1923118 -12.987399 -0.71522325 17 6
4.6137881 -14.318733 -0.26258892 25 7
2.6034589 -8.162631 -2.2957251 9 0
3.6813114 -11.562934 -2.8015404 15 1
2.793721 -8.7962694 -1.7939863 9 2
3.4737446 -10.957264 -1.8205845 18 3
3.6647377 -11.580759 -1.4914372 16 4
3.6443031 -11.544195 -1.0591166 15 5
3.9688845 -12.595363 -0.69209075 17 6
4.7837071 -15.209 -0.27829608 28 7
2.560189 -8.2248774 -2.3081484 9 0
3.6213131 -11.655349 -2.8177371 13 1
2.7287569 -8.804307 -1.7916965 7 2
3.3539624 -10.8416 -1.7974323 17 3
3.5457299 -11.482775 -1.4755942 19 4
3.5788698 -11.618864 -1.0636487 15 5
4.1995678 -13.659387 -0.74892759 17 6
4.5776839 -14.917034 -0.27236226 27 7
2.4942875 -8.2148228 -2.3003838 10 0
3.5686798 -11.775458 -2.8406818 10 1
2.6581352 -8.7930737 -1.7855908 9 2
3.3318312 -11.042521 -1.8268418 18 3
3.4551759 -11.473034 -1.4712068 19 4
3.7108982 -12.353399 -1.1284926 18 5
3.8081279 -12.701203 -0.6949169 17 6
4.4562321 -14.891155 -0.2713151 27 7
2.4324906 -8.2172165 -2.2962427 10 0
3.4725823 -11.753365 -2.8294344 11 1
2.5894687 -8.7869358 -1.7806298 6 2
3.6470683 -12.399665 -2.0471017 18 3
3.4292321 -11.681634 -1.4948496 21 4
3.6188838 -12.351604 -1.1260523 18 5
4.0868745 -13.985082 -0.76358169 8 6
4.31633 -14.799043 -0.26908121 26 7
2.3750653 -8.2339983 -2.2962427 10 0
3.390445 -11.777321 -2.8294344 9 1
2.5312252 -8.8100185 -1.7817745 7 2
3.4613082 -12.071015 -1.9889081 12 3
3.3546913 -11.730101 -1.4980181 18 4
3.6791174 -12.890022 -1.1727676 19 5
4.123455 -14.4755 -0.78880757 17 6
4.3025327 -15.144281 -0.27480558 27 7
2.3226235 -8.2629929 -2.2998662 9 0
3.3070414 -11.78887 -2.826735 11 1
2.4648986 -8.8104591 -1.77834 6 2
3.4120128 -12.220457 -2.0095575 18 3
3.2705078 -11.737366 -1.4960682 14 4
3.664788 -13.187984 -1.1975199 20 5
4.0794072 -14.709867 -0.80000746 26 6
4.1460123 -14.980491 -0.2713151 27 7
2.2582533 -8.2547817 -2.2931368 11 0
3.2205555 -11.796629 -2.8231356 10 1
2.4048772 -8.8331356 -1.7794847 7 2
3.2489281 -11.958039 -1.9626271 17 3
3.2103033 -11.84038 -1.5063052 5 4
3.5008676 -12.947827 -1.1734649 19 5
3.9287462 -14.560586 -0.79037774 17 6
2.2114973 -8.3114176 -2.3045249 12 0
3.1331203 -11.79999 -2.8186367 10 1
2.3371224 -8.8269339 -1.7749053 7 2
3.1966512 -12.09884 -1.982025 17 3
3.4569962 -13.149228 -1.1895015 20 5
3.7874703 -14.436973 -0.78221327 8 6
2.145196 -8.2948589 -2.2957251 9 0
3.0467687 -11.80648 -2.8150375 7 1
2.2754419 -8.8430357 -1.7749053 7 2
3.0973713 -12.063462 -1.9726388 16 3
3.1525683 -12.305182 -1.5596839 12 4
3.8883569 -15.254629 -0.82502413 17 6
2.0848827 -8.3002653 -2.2931368 10 0
2.9656925 -11.833134 -2.8163872 6 1
2.2050836 -8.8244228 -1.7680362 7 2
3.0030415 -12.044541 -1.9660686 7 3
3.1173832 -12.531088 -1.5855203 9 4
3.2926493 -13.265255 -1.1957767 20 5
3.5720932 -14.434159 -0.77928245 8 6
2.0342064 -8.3446474 -2.301419 10 0
2.8797855 -11.840295 -2.8132379 9 1
2.1472821 -8.8487654 -1.7699443 6 2
3.096694 -12.790427 -2.0843329 24 3
3.3818822 -14.043355 -1.2637583 23 5
3.7621148 -15.658292 -0.84396976 26 6
1.9920368 -8.4203386 -2.318501 9 0
2.7950957 -11.842553 -2.8091888 12 1
2.0818577 -8.8482523 -1.7668914 6 2
3.0267353 -12.894429 -2.0977864 10 3
3.2302225 -13.804637 -1.7407818 21 4
1.9213794 -8.389184 -2.306078 9 0
2.7055073 -11.841352 -2.8042397 11 1
2.0252702 -8.885541 -1.7714708 4 2
3.065244 -13.491716 -2.1913342 22 3
3.1758955 -14.012707 -1.7641808 20 4
3.2338097 -14.30297 -1.2829325 23 5
3.4350009 -15.242297 -0.81884843 17 6
1.849386 -8.3420401 -2.2895133 21 0
2.6244578 -11.867563 -2.8060396 11 1
1.9544507 -8.8672123 -1.7649832 4 2
2.9009891 -13.194453 -2.1397109 19 3
2.8976831 -13.212398 -1.6608355 14 4
3.4855874 -15.932892 -1.4269139 29 5
1.8077054 -8.4321938 -2.3107367 10 0
2.5456176 -11.904654 -2.8105385 10 1
1.8924114 -8.8726301 -1.7634568 4 2
2.8719456 -13.49985 -2.1860156 16 3
2.8971832 -13.665355 -1.7151892 20 4
3.0337923 -14.346727 -1.2829325 23 5
1.7502683 -8.4443026 -2.3107367 11 0
2.4676833 -11.936972 -2.8141377 10 1
2.6222456 -12.729461 -2.5263112 4 2
2.7744486 -13.504092 -2.1835127 25 3
2.9750483 -14.51903 -1.8197533 16 4
3.1155837 -15.245466 -1.3613727 26 5
3.1998055 -15.713508 -0.84041083 8 6
1.6886222 -8.4430552 -2.3071132 9 0
1.7641534 -8.8689966 -1.7577326 12 2
2.7478077 -13.852059 -2.2367003 14 3
2.7746961 -14.038959 -1.7571123 9 4
2.835696 -14.387193 -1.2829325 23 5
3.1251311 -15.899543 -0.84920329 8 6
1.6087961 -8.3465128 -2.2776077 11 0
1.7122487 -8.9083242 -2.0942943 25 1
1.7032287 -8.8948898 -1.760404 13 2
2.6878877 -14.077041 -2.2698643 17 3
2.8388715 -14.910164 -1.8636261 19 4
2.9650986 -15.632505 -1.3920516 28 5
1.5536588 -8.3746367 -2.2822666 13 0
1.6886517 -9.128931 -2.1433337 15 1
1.675953 -9.0957775 -1.7978026 9 2
2.5924017 -14.111007 -2.2723672 16 3
2.7093189 -14.790984 -1.8463207 21 4
2.859467 -15.672423 -1.3937947 28 5
1.5049903 -8.4404325 -2.2972779 11 0
2.1248949 -11.953252 -2.8028903 6 1
2.3838773 -13.464665 -2.6579695 21 2
2.5034392 -14.18323 -2.2811277 19 3
2.4934959 -14.170235 -1.7666181 18 4
1.4538482 -8.4964342 -2.3097014 10 0
2.0276315 -11.887115 -2.7839942 5 1
2.2871881 -13.465496 -2.6549165 22 2
2.3819361 -14.067922 -2.2598526 16 3
2.4113569 -14.287126 -1.7790488 29 4
2.6331024 -15.667594 -1.3899598 27 5
1.4029359 -8.5578499 -2.3236775 9 0
1.4446186 -8.8411121 -2.0681999 3 1
2.2618513 -13.903571 -2.7381091 21 2
2.4215152 -14.934368 -2.3962634 17 3
2.3593762 -14.599523 -1.8158534 19 4
2.5314646 -15.716627 -1.3927487 28 5
1.3377717 -8.5330811 -2.3143599 9 0
1.3777481 -8.8182516 -2.0605516 4 1
2.142391 -13.759575 -2.7068167 17 2
2.1801736 -14.050624 -2.2520308 7 3
2.2719407 -14.709805 -1.8275528 16 4
1.2902477 -8.6126795 -2.3335128 12 0
1.321721 -8.8544073 -2.0668504 3 1
2.0428202 -13.750893 -2.7022371 19 2
2.0415335 -13.791931 -2.2082293 24 3
1.2244958 -8.5930033 -2.325748 9 0
1.2550396 -8.8404865 -2.0614514 3 1
1.9374235 -13.698727 -2.6892622 24 2
1.7971772 -12.771407 -2.0427215 17 3
2.190352 -15.624734 -1.9372352 13 4
1.166808 -8.6185732 -2.3304069 11 0
1.1938117 -8.8528957 -2.0623512 3 1
1.8189892 -13.560465 -2.6594958 16 2
1.6655947 -12.46645 -1.9920367 18 3
1.7431654 -13.099286 -1.6225686 9 4
1.1044004 -8.6092625 -2.325748 9 0
1.1304959 -8.8494158 -2.0596519 3 1
1.7251569 -13.560846 -2.6572063 15 2
1.5821891 -12.489256 -1.9939139 18 3
1.8394922 -14.602067 -1.8070788 3 4
1.0520566 -8.6683598 -2.3397241 11 0
1.0700009 -8.8549709 -2.059202 3 1
1.531161 -12.746082 -2.4954002 9 2
1.4930841 -12.484306 -1.991411 13 3
1.5452564 -12.978178 -1.6047755 12 4
1.5315391 -12.939908 -1.1399971 18 5
0.9838388 -8.6083155 -2.3216069 9 0
1.0077159 -8.8583527 -2.0583022 3 1
1.4498599 -12.824741 -2.5087569 3 2
1.4041237 -12.478722 -1.9889081 15 3
1.4382664 -12.842665 -1.5867389 19 4
0.91547918 -8.5381413 -2.3009014 9 0
0.9439888 -8.8477316 -2.0542529 4 1
1.3816036 -13.035639 -2.5480635 10 2
1.3190447 -12.507864 -1.9920367 14 3
1.3454669 -12.82278 -1.5830829 20 4
1.3837674 -13.277094 -1.167887 19 5
0.86297357 -8.615448 -2.3200541 11 0
0.88335633 -8.8657417 -2.0569522 4 1
1.3058336 -13.19931 -2.5782113 6 2
1.2382686 -12.58361 -2.0026743 9 3
1.259395 -12.867422 -1.5874703 20 4
1.3006766 -13.385584 -1.1766025 19 5
0.81086564 -8.7078209 -2.3433478 10 0
0.8189249 -8.8445263 -2.0506537 4 1
1.2716789 -13.839576 -2.701474 11 2
1.1487722 -12.574243 -1.9998584 12 3
1.1740234 -12.925324 -1.5935637 19 4
1.201473 -13.33084 -1.1710246 19 5
0.7530371 -8.7479143 -2.3526652 10 0
0.75715852 -8.8500271 -2.0506537 5 1
1.1627462 -13.703355 -2.673234 8 2
1.1160657 -13.235462 -2.1037309 9 3
1.0807753 -12.897599 -1.5891764 19 4
1.0915483 -13.136377 -1.1532447 19 5
0.6887508 -8.7125158 -2.3417947 13 0
0.69612008 -8.8648119 -2.0529034 3 1
0.9753511 -12.532823 -2.4435 7 2
1.0079572 -13.040071 -2.0715053 13 3
1.0159302 -13.233388 -1.629637 5 4
0.99847269 -13.095823 -1.1490613 18 5
0.63054627 -8.7537222 -2.35163 10 0
0.63449305 -8.8733425 -2.053803 3 1
0.93477988 -13.169753 -2.5663812 9 2
0.89848894 -12.753027 -2.0248878 6 3
0.87213707 -12.503492 -1.5389662 11 4
0.90702224 -13.102475 -1.1490613 18 5
0.57132494 -8.7635946 -2.3531828 11 0
0.57320005 -8.863843 -2.0506537 4 1
0.76210511 -11.914201 -2.3206191 13 2
0.79442763 -12.522419 -1.9873437 10 3
0.77973026 -12.428048 -1.5289729 18 4
0.81478852 -13.096557 -1.1480155 18 5
0.50815195 -8.7597437 -2.3511124 12 0
0.50986898 -8.8696632 -2.0511036 3 1
0.68013787 -11.940791 -2.3248169 10 2
0.68848825 -12.237862 -1.941352 17 3
0.71592385 -12.845449 -1.5796705 7 4
0.71630836 -12.974607 -1.1368595 18 5
0.44678822 -8.7592192 -2.3500772 12 0
0.44763997 -8.8671684 -2.0497539 3 1
0.59252661 -11.902214 -2.3164213 10 2
0.62130594 -12.613291 -2.0001712 5 3
0.59946311 -12.300916 -1.5121549 19 4
0.63032842 -13.122686 -1.1494099 18 5
0.38562748 -8.762125 -2.3500772 11 0
0.38606426 -8.8778658 -2.0515537 3 1
0.53770447 -12.567073 -2.4450266 16 2
0.53481817 -12.654819 -2.0061157 9 3
0.51332355 -12.29885 -1.5114237 21 4
0.51958269 -12.66094 -1.108621 17 5
0.55261135 -13.640077 -0.71543258 17 6
0.32144544 -8.6835222 -2.3283362 11 0
0.45356375 -12.428587 -2.8712754 3 1
0.45627722 -12.747101 -2.4793723 4 2
0.46017778 -13.047153 -2.0677509 5 3
0.4297266 -12.367602 -1.5194671 19 4
0.42507991 -12.485048 -1.0929331 25 5
0.45750603 -13.647594 -0.71564192 26 6
0.26203391 -8.7261047 -2.3392065 10 0
0.26270449 -8.9038162 -2.0565026 3 1
0.39429587 -13.688023 -2.6617856 13 2
0.35271767 -12.471494 -1.9760804 9 3
0.34381461 -12.386175 -1.521417 16 4
0.33650625 -12.435928 -1.088401 16 5
0.38245636 -14.413141 -0.75562662 26 6
0.20164184 -8.7508965 -2.3454182 10 0
0.28034043 -12.449294 -2.8748746 4 1
0.29388624 -13.468646 -2.6186628 10 2
0.26976338 -12.667195 -2.0067415 9 3
0.2625702 -12.640327 -1.5523719 10 4
0.24936047 -12.422038 -1.0870063 24 5
0.14057621 -8.7540226 -2.3459358 12 0
0.19438976 -12.5133 -2.8892715 4 1
0.17978509 -12.117836 -2.3557279 7 2
0.17569885 -12.27571 -1.9444805 13 3
0.17325024 -12.56444 -1.542866 3 4
0.16967373 -12.961376 -1.1340705 18 5
0.079809889 -8.7934265 -2.3562887 11 0
0.10709388 -12.522145 -2.8910708 5 1
0.096016355 -12.224809 -2.3763354 10 2
0.090096779 -12.290464 -1.9466707 11 3
0.086166255 -12.658641 -1.5543218 9 4
0.079242602 -12.611577 -1.1033916 17 5
0.018365657 -8.7686558 -2.3495593 15 0
0.019735994 -12.563514 -2.9005189 7 1
0.012875755 -12.293892 -2.3896918 10 2
0.0063135237 -12.059674 -1.9100651 13 3
-0.0021664104 -12.418738 -1.5248294 11 4
-0.0089021008 -12.751289 -1.1155934 17 5
-0.041330338 -8.7705097 -2.3500772 13 0
-0.047170628 -9.0089016 -2.0798974 3 1
-0.072625905 -12.238712 -2.3790066 4 2
-0.077863395 -12.057448 -1.9097521 11 3
-0.087280251 -12.501806 -1.5350664 23 4
-0.094524518 -12.308619 -1.0768963 16 5
-0.10242245 -8.7584171 -2.3469713 12 0
-0.10894345 -8.91677 -2.0587521 14 1
-0.11574806 -8.9615088 -1.7420862 13 2
-0.17557696 -13.063963 -2.0693154 9 3
-0.17028743 -12.195219 -1.4975306 16 4
-0.17992681 -12.271801 -1.0737587 16 5
-0.16511646 -8.8405437 -2.3692296 10 0
-0.17134124 -8.9235859 -2.0605516 16 1
-0.17748812 -8.9192619 -1.7340722 12 2
-0.26395288 -12.92417 -2.0474145 10 3
-0.25833204 -12.332659 -1.5145923 15 4
-0.26283485 -12.142761 -1.0626028 15 5
-0.22623636 -8.8160009 -2.3630178 10 0
-0.32678351 -12.479351 -2.8820729 6 1
-0.34543335 -12.848784 -2.4984531 4 2
-0.34627086 -12.633717 -2.0017357 7 3
-0.3372184 -12.072594 -1.4829062 12 4
-0.34885541 -12.184447 -1.0664377 15 5
-0.28777602 -8.8142061 -2.3630178 10 0
-0.41615924 -12.544935 -2.8978195 10 1
-0.4395113 -12.97556 -2.5236399 9 2
-0.44003063 -12.792876 -2.027391 6 3
-0.43022045 -12.319915 -1.5136174 16 4
-0.43192449 -12.125961 -1.0615569 15 5
-0.48371166 -13.382884 -0.70182526 26 6
-0.33935648 -8.561039 -2.2957251 9 0
-0.49958137 -12.438524 -2.8739748 12 1
-0.54098862 -13.238956 -2.5755401 15 2
-0.51609629 -12.469755 -1.9767061 11 3
-0.51281095 -12.235293 -1.5036241 28 4
-0.52420026 -12.301804 -1.077245 16 5
-0.56611246 -13.123769 -0.68842721 8 6
-0.39461589 -8.4619732 -2.2698431 9 0
-0.58429503 -12.389961 -2.863627 11 1
-0.63302535 -13.227012 -2.5740135 4 2
-0.61173075 -12.643424 -2.0048645 7 3
-0.58434862 -11.947886 -1.4687696 14 4
-0.6016283 -12.170593 -1.066089 15 5
-0.4473708 -8.3413382 -2.2382672 11 0
-0.67172754 -12.403092 -2.867676 16 1
-0.74244535 -13.577215 -2.6430862 10 2
-0.64921069 -11.75929 -1.8653249 11 3
-0.66929621 -11.971262 -1.4721818 19 4
-0.68702948 -12.174054 -1.0667863 15 5
-0.50646907 -8.376667 -2.24862 11 0
-0.75732219 -12.417686 -2.872175 19 1
-0.77665329 -12.589977 -2.4518957 4 2
-0.72981834 -11.730812 -1.8615704 9 3
-0.73709375 -11.748498 -1.4453706 19 4
-0.76266748 -12.021819 -1.0538872 22 5
-0.57430047 -8.5117044 -2.2858899 12 0
-0.83011401 -12.207951 -2.8249354 17 1
-0.91068047 -13.256062 -2.5827906 4 2
-0.83761531 -12.099856 -1.9210155 6 3
-0.82158214 -11.778712 -1.4497578 16 4
-0.84461671 -11.988378 -1.0514468 15 5
-0.64547455 -8.6654625 -2.3283362 11 0
-0.8991403 -11.986153 -2.7749963 6 1
-0.67561936 -8.9229717 -1.7394148 3 2
-0.90434736 -11.861294 -1.884097 12 3
-0.90318376 -11.764771 -1.4487829 18 4
-0.92582846 -11.950406 -1.0486579 15 5
-0.71286088 -8.7454643 -2.3511124 12 0
-0.89085674 -10.858925 -2.5154026 1 1
-0.73644 -8.9004288 -1.7359804 4 2
-1.0068017 -12.090919 -1.9216411 24 3
-0.97568113 -11.643446 -1.434646 19 4
-1.048488 -12.408216 -1.0894468 16 5
-1.0971612 -12.903667 -0.67869276 17 6
-0.77389836 -8.7402754 -2.3511124 13 0
-0.87362832 -9.8081541 -2.2733555 8 1
-0.80189413 -8.9322233 -1.7432311 4 2
-1.2155498 -13.460756 -2.1406496 7 3
-1.0608932 -11.679844 -1.4400083 16 4
-1.1166114 -12.222219 -1.0737587 16 5
-1.209371 -13.136345 -0.69135809 17 6
-0.83673632 -8.753891 -2.3562887 11 0
-0.92641985 -9.6388721 -2.2355635 7 1
-0.86097467 -8.9089708 -1.7397964 4 2
-0.94033414 -9.677227 -1.5399411 7 3
-0.9496206 -9.7024279 -1.1970007 7 4
-0.96816176 -9.8387175 -0.86493361 12 5
-0.96959734 -9.8006401 -0.51613724 11 6
-0.89689255 -8.7537575 -2.3578417 10 0
-1.0092676 -9.8167524 0.17225526 9 8
-0.99021035 -9.6148968 -2.2315145 14 1
-1.0131723 -9.8042622 0.51655596 6 9
-0.92659235 -8.9359407 -1.746284 6 2
-1.0215861 -9.8353167 0.86510789 5 10
-1.0317061 -9.8657084 1.2179623 5 11
-1.0367521 -9.8640337 1.5709151 5 12
-1.0194628 -9.6832905 -0.85186017 36 5
-1.048928 -9.9298649 1.9409093 4 13
-1.0253625 -9.6744633 -0.50985694 57 6
-1.0568258 -9.9547377 2.311147 2 14
-1.0388857 -9.7533331 -0.17120811 32 7
-0.96429294 -8.8048935 -2.3733706 10 0
-1.0725747 -9.7778502 0.17169677 18 8
-1.0607215 -9.6387424 -2.238713 9 1
-1.0781326 -9.7812567 0.51571852 14 9
-0.98868966 -8.9411345 -1.7485738 6 2
-1.0886858 -9.8140831 0.86388773 11 10
-1.0738893 -9.6653042 -1.540254 7 3
-1.0933373 -9.8091345 1.2118689 11 11
-1.0841876 -9.6963034 -1.1979758 9 4
-1.0992525 -9.8155222 1.5643448 14 12
-1.0845933 -9.6541576 -0.8499428 41 5
-1.1107494 -9.8559685 1.9279342 13 13
-1.0952232 -9.7029839 -0.51174104 11 6
-1.1197196 -9.8890257 2.2976501 9 14
-1.1123679 -9.7935295 -0.17204583 26 7
-1.1269395 -9.9063931 2.6715302 11 15
-1.0242027 -8.7981262 -2.3733706 10 0
-1.1435939 -9.7939587 0.17211564 9 8
-1.1510447 -9.8131647 0.51781195 6 9
-1.0499394 -8.9242649 -1.7466656 7 2
-1.1568619 -9.8183174 0.86493361 8 10
-1.3641362 -11.542789 -1.840921 12 3
-1.1655289 -9.8328047 1.2157687 8 11
-1.4635447 -12.310207 -1.5221483 18 4
-1.168218 -9.811532 1.5649706 7 12
-1.1614145 -9.7254848 -0.8569153 100 5
-1.1827976 -9.8752661 1.9332769 8 13
-1.1736389 -9.784338 -0.51645124 45 6
-1.1871003 -9.867425 2.2945008 8 14
-1.1869407 -9.837142 -0.17295335 10 7
-1.1976929 -9.9117098 2.6751537 9 15
-1.0873704 -8.79249 -2.3738885 11 0
-1.3020802 -10.48357 -2.4389195 27 1
-1.113431 -8.9264593 -1.7485738 6 2
-1.5059543 -12.005096 -1.9163225 14 3
-1.523895 -12.096829 -1.4970431 18 4
-1.5653603 -12.373737 -1.0911899 24 5
-1.2272419 -9.6469059 -0.50964761 57 6
-1.1484765 -8.7827682 -2.3733706 10 0
-1.3582405 -10.344769 -2.4087758 17 1
-1.1780494 -8.9241009 -1.7497185 7 2
-1.5310698 -11.551725 -1.845614 14 3
-1.5915393 -11.94394 -1.479494 15 4
-1.6464657 -12.306925 -1.0863092 24 5
-1.2956222 -9.6460199 -0.51006627 46 6
-1.2091817 -8.7590151 -2.3692296 10 0
-1.408958 -10.16685 -2.3696344 26 1
-1.2414037 -8.9234381 -1.751245 7 2
-1.5975531 -11.425049 -1.8271548 12 3
-1.7168258 -12.231342 -1.5165422 18 4
-1.7317882 -12.291184 -1.0859606 16 5
-1.865317 -13.172325 -0.69721967 8 6
-1.2678 -8.7546263 -2.3702648 10 0
-1.4934537 -10.274919 -2.3970783 24 1
-1.3049526 -8.9342089 -1.7550613 7 2
-1.638335 -11.175756 -1.7889848 19 3
-1.8126453 -12.319849 -1.5289729 20 4
-1.8002574 -12.176622 -1.0768963 16 5
-1.3288878 -8.7455626 -2.3702648 10 0
-1.5363612 -10.075447 -2.352988 23 1
-1.3655084 -8.9132366 -1.7527716 9 2
-1.7448305 -11.349527 -1.8187072 17 3
-1.930995 -12.459089 -1.103043 17 5
-2.1267183 -13.67462 -0.72527176 8 6
-1.3905182 -8.7398882 -2.3713002 10 0
-1.6257104 -10.183788 -2.380882 23 1
-1.432053 -8.930625 -1.7581142 7 2
-1.7907615 -11.130338 -1.7855432 11 3
-1.8319987 -11.348754 -1.4114909 16 4
-2.0141022 -12.421705 -1.1009513 17 5
-2.276011 -13.990624 -0.74285662 17 6
-1.4514982 -8.7299681 -2.3713002 10 0
-1.7461425 -10.468205 -2.4501667 21 1
-1.4953377 -8.926218 -1.759259 6 2
-1.8906848 -11.250032 -1.8068182 20 3
-1.9821391 -11.756543 -1.4638947 16 4
-2.1107512 -12.466273 -1.1061807 17 5
-1.5110887 -8.7120075 -2.3692296 10 0
-1.7323302 -9.9565878 -2.3331923 22 1
-1.5586317 -8.9213638 -1.760404 7 2
-1.9575841 -11.170404 -1.7961807 19 3
-1.9672478 -11.191075 -1.3951604 15 4
-2.2649136 -12.831875 -1.1399971 18 5
-2.5341518 -14.313451 -0.76180226 17 6
-1.5753077 -8.7202578 -2.3744061 10 0
-1.8421005 -10.166682 -2.385381 23 1
-1.6222808 -8.9179907 -1.7619303 9 2
-2.0376465 -11.168126 -1.7980579 15 3
-2.0349631 -11.120441 -1.3880919 10 4
-2.2176392 -12.071104 -1.0737587 16 5
-2.2891104 -12.423532 -0.66204989 8 6
-1.6354337 -8.7052498 -2.3733706 10 0
-1.9386503 -10.289543 -2.4173241 25 1
-1.6859601 -8.9141645 -1.7634568 7 2
-2.1089389 -11.118694 -1.7924262 17 3
-2.1559501 -11.334129 -1.4166094 13 4
-2.43115 -12.732461 -1.1340705 18 5
-2.327708 -12.156162 -0.6486519 26 6
-1.6961679 -8.6936197 -2.3733706 10 0
-2.0239067 -10.344608 -2.4335206 15 1
-1.7489082 -8.9060297 -1.76422 9 2
-2.1956706 -11.150216 -1.7999352 21 3
-2.2165661 -11.225323 -1.40491 19 4
-2.4765973 -12.496288 -1.1145476 17 5
-2.4016168 -12.084764 -0.64572108 26 6
-2.4616857 -12.353193 -0.21986541 17 7
-1.7541363 -8.6683121 -2.3697472 11 0
-1.8133898 -8.9051466 -1.7665098 10 2
-2.1833594 -10.693334 -1.728601 14 3
-2.2753706 -11.114282 -1.3929666 28 4
-2.4218354 -11.787819 -1.0528414 15 5
-2.4875362 -12.075529 -0.6461398 8 6
-2.5373492 -12.28479 -0.21895789 17 7
-1.8181773 -8.6728725 -2.3744061 10 0
-1.9304446 -9.1844501 -2.1667287 28 1
-1.8807824 -8.9172421 -1.7714708 6 2
-2.204829 -10.426588 -1.6879282 16 3
-2.3516712 -11.0923 -1.3922355 15 4
-2.5073862 -11.786214 -1.0542358 15 5
-2.5642796 -12.022708 -0.6442557 8 6
-2.6347597 -12.32153 -0.21993522 17 7
-1.8778608 -8.6561918 -2.3733706 10 0
-1.9953442 -9.1745567 -2.1676283 33 1
-1.943409 -8.9058123 -1.7718524 7 2
-2.304585 -10.534445 -1.7079517 15 3
-2.4418089 -11.133781 -1.3995476 19 4
-2.5673432 -11.667238 -1.0451716 15 5
-2.6885929 -12.187848 -0.65409482 17 6
-1.942474 -8.6617212 -2.3785472 10 0
-2.1679127 -9.6433296 -2.2819035 21 1
-2.0107195 -8.9150105 -1.7764318 9 2
-2.3998542 -10.614436 -1.7235951 17 3
-2.5282533 -11.155183 -1.4044224 19 4
-2.5453625 -11.194416 -1.0043827 14 5
-2.8339765 -12.433617 -0.66833019 8 6
-1.9976664 -8.6253653 -2.3723354 10 0
-2.2492852 -9.6887045 -2.2963004 41 1
-2.0720172 -8.8969316 -1.7756686 9 2
-2.41552 -10.347348 -1.6829221 18 3
-2.3392212 -9.9968615 -1.2606167 18 4
-2.6507704 -11.292753 -1.0148414 14 5
-2.7478008 -11.678632 -0.62876427 26 6
-2.0668132 -8.6487865 -2.3826883 10 0
-2.9878001 -12.483474 0.22405399 16 8
-2.3050678 -9.6234913 -2.2846029 29 1
-2.1404991 -8.9089746 -1.7810113 7 2
-2.4701235 -10.257255 -1.6710331 17 3
-2.4378319 -10.099927 -1.2757283 18 4
-2.4951277 -10.30575 -0.92768568 26 5
-2.8589387 -11.781443 -0.63535857 17 6
-2.9172783 -11.994449 -0.21546741 16 7
-2.1326871 -8.6566572 -2.3888998 10 0
-3.0691302 -12.439013 0.22363515 33 8
-2.3460336 -9.5012178 -2.2594085 28 1
-2.2054751 -8.9052477 -1.783301 9 2
-2.5445266 -10.251264 -1.6729103 9 3
-2.543746 -10.225213 -1.2937651 25 4
-2.605706 -10.450917 -0.94232786 26 5
-2.844697 -11.375615 -0.61452883 18 6
-3.0009441 -11.973789 -0.21546741 16 7
-2.1930699 -8.6415567 -2.3888998 10 0
-3.1547117 -12.421711 0.22370495 33 8
-2.400779 -9.4392815 -2.2486107 17 1
-2.2718582 -8.912859 -1.7878804 9 2
-2.6020217 -10.185858 -1.6650885 19 3
-2.4771221 -9.6687708 -1.2255182 15 4
-2.6954489 -10.498084 -0.94825441 27 5
-2.9205682 -11.350187 -0.61421484 18 6
-3.1024518 -12.022252 -0.21672398 16 7
-2.2332978 -8.5553989 -2.3692296 10 0
-3.0683866 -11.737722 0.21176751 14 8
-2.4980175 -9.549036 -2.278754 26 1
-2.336019 -8.904377 -1.7894068 9 2
-2.6524763 -10.089116 -1.652261 20 3
-2.7800703 -10.551971 -1.3398317 29 4
-2.728976 -10.328761 -0.93465823 19 5
-2.9920666 -11.30056 -0.61264473 9 6
-3.0047185 -11.324371 -0.20450729 14 7
-2.3180201 -8.6328878 -2.3951116 10 0
-3.3216076 -12.35328 0.22328609 16 8
-2.532722 -9.4128103 -2.2504103 21 1
-2.4052863 -8.9143877 -1.7947495 7 2
-2.6867554 -9.9368696 -1.6303602 20 3
-2.863533 -10.56871 -1.3444628 20 4
-2.8386283 -10.447891 -0.94720864 27 5
-2.7844162 -10.227192 -0.55549389 20 6
-3.182651 -11.665807 -0.21106941 15 7
-2.3710368 -8.5904236 -2.3878646 10 0
-2.6544764 -9.5977468 -2.2989998 22 1
-20.509958 -74.056908 4.0272522 41 9
-2.4753308 -8.9257565 -1.8004738 6 2
-2.7327909 -9.8341265 -1.616594 19 3
-2.8568397 -10.259698 -1.3076582 12 4
-2.8936152 -10.370755 -0.94197923 13 5
-2.9698267 -10.615265 -0.57768434 19 6
-3.1614573 -11.277464 -0.20443749 14 7
-2.4140873 -8.5141859 -2.3713002 10 0
-3.3322351 -11.74457 0.21309389 44 8
-2.7091677 -9.5358667 -2.2886522 27 1
-2.5403295 -8.9238071 -1.8035268 6 2
-2.8256733 -9.9064789 -1.6316116 18 3
-3.0834119 -10.78154 -1.3768799 20 4
-2.9406996 -10.262197 -0.93396091 19 5
-3.0188639 -10.514176 -0.57328814 30 6
-3.2578144 -11.316611 -0.20555446 14 7
-2.4719856 -8.4975567 -2.3713002 10 0
-3.7989018 -13.041914 0.23710839 18 8
-2.7789204 -9.5340443 -2.2927012 37 1
-2.6135814 -8.9435434 -1.8111591 6 2
-2.9336209 -10.019217 -1.6535125 17 3
-2.9500449 -10.04929 -1.2859653 19 4
-2.9762895 -10.119085 -0.92280495 26 5
-3.1000957 -10.519667 -0.57475352 19 6
-3.3435392 -11.316605 -0.20597331 22 7
-2.5393631 -8.5018635 -2.377512 10 0
-3.7226508 -12.455618 0.22691619 34 8
-2.8817105 -9.6296654 -2.3205953 27 1
-2.676517 -8.92696 -1.8115407 4 2
-2.8630812 -9.5250263 -1.5752953 18 3
-2.956017 -9.8155642 -1.2586666 15 4
-3.2195208 -10.670297 -0.97509843 13 5
-3.111104 -10.285013 -0.56313491 20 6
-3.4224627 -11.292987 -0.20597331 14 7
-2.5924318 -8.4636097 -2.3718178 11 0
-3.8116853 -12.42866 0.22691619 17 8
-2.930002 -9.5478334 -2.3057485 15 1
-2.7495649 -8.937602 -1.8176465 4 2
-2.9353259 -9.5236835 -1.5784239 17 3
-3.2969191 -10.670401 -1.371274 19 4
-3.12081 -10.08171 -0.92332792 32 5
-3.1851981 -10.270675 -0.56355363 20 6
-3.7620199 -12.100767 -0.22119181 17 7
-2.6569815 -8.4577436 -2.3754413 10 0
-3.8911636 -12.378855 0.22649734 17 8
-3.0245752 -9.6102705 -2.3259938 18 1
-2.824882 -8.9593811 -1.8260422 4 2
-3.0915096 -9.7811985 -1.6247286 18 3
-3.2484879 -10.259165 -1.3213075 20 4
-3.1941295 -10.069172 -0.92419946 19 5
-3.3015838 -10.382756 -0.57098538 10 6
-3.8682568 -12.142801 -0.22244836 17 7
-2.7062075 -8.4137154 -2.3681943 10 0
-3.659977 -11.365409 0.20841664 28 8
-3.1000795 -9.6209927 -2.3336422 28 1
-2.9042561 -8.9917517 -1.8367275 4 2
-3.1373391 -9.6960287 -1.614091 19 3
-3.0281036 -9.3417301 -1.2057754 21 4
-3.2662852 -10.058567 -0.92524534 13 5
-3.6577802 -11.237466 -0.61934376 26 6
-3.7450039 -11.485001 -0.21085998 15 7
-2.7781758 -8.4349842 -2.3795824 10 0
-3.709713 -11.256667 0.20688082 28 8
-3.1384723 -9.5121384 -2.3124969 23 1
-2.9752519 -9.0016003 -1.8428333 4 2
-3.0803246 -9.3031483 -1.552143 28 3
-3.2789547 -9.8799238 -1.2781658 19 4
-3.4206555 -10.288865 -0.94860309 20 5
-3.4672325 -10.410752 -0.57506758 19 6
-3.808629 -11.409259 -0.20995246 15 7
-2.8392267 -8.4268627 -2.3826883 10 0
-3.841897 -11.389658 0.20981283 14 8
-3.1476824 -9.3262234 -2.2724555 27 1
-3.0443122 -8.9992075 -1.8466495 4 2
-3.2440989 -9.5732727 -1.6009505 17 3
-3.3391092 -9.8366985 -1.2754847 21 4
-3.5899477 -10.551436 -0.97509843 13 5
-3.5275867 -10.350373 -0.57307881 30 6
-3.8874934 -11.386854 -0.21002226 15 7
-2.9282081 -8.4945021 -2.4075348 10 0
-4.1352911 -11.982574 0.22126161 16 8
-3.2387936 -9.3795443 -2.2909014 23 1
-3.125685 -9.031538 -1.8577164 4 2
-3.3639095 -9.7034369 -1.6266057 15 3
-3.4845409 -10.034428 -1.3042458 21 4
-3.5925279 -10.304749 -0.57192737 20 6
-3.8350377 -10.981859 -0.2030413 14 7
-2.939908 -8.3390293 -2.3692296 10 0
-4.2800727 -12.126898 0.22447285 33 8
-3.3353436 -9.4449062 -2.3124969 21 1
-3.1939003 -9.0243044 -1.8607695 6 2
-3.4738121 -9.7988749 -1.6466295 13 3
-3.5226245 -9.9200649 -1.2925464 28 4
-3.5558834 -9.9916019 -0.92786002 26 5
-3.6113977 -10.130795 -0.5636583 30 6
-3.7825 -10.593238 -0.19633958 13 7
-3.0072238 -8.3437452 -2.3764765 10 0
-4.3727727 -12.119294 0.22489171 16 8
-3.368114 -9.3297424 -2.2900016 17 1
-3.2655072 -9.0257864 -1.8657305 7 2
-3.5569429 -9.8152418 -1.6535125 17 3
-3.8471394 -10.598701 -1.3844359 14 4
-3.6064804 -9.9141073 -0.9229793 19 5
-3.7969074 -10.4206 -0.58124322 19 6
-3.9112089 -10.716852 -0.19913197 14 7
-3.0520461 -8.2862921 -2.3661237 10 0
-4.1791711 -11.334232 0.21085998 29 8
-3.4817283 -9.4376392 -2.3223946 23 1
-3.3406935 -9.0359135 -1.8725995 9 2
-3.5910807 -9.6975489 -1.637869 15 3
-3.544812 -9.5572338 -1.2515982 21 4
-3.5201128 -9.470356 -0.88393348 18 5
-3.9120719 -10.508016 -0.58762819 19 6
-3.9188583 -10.509413 -0.1957811 27 7
-3.1193447 -8.2900972 -2.3733706 8 0
-4.4428763 -11.795072 0.22000504 16 8
-3.5997598 -9.5516911 -2.3565874 16 1
-3.4134045 -9.038085 -1.8779422 9 2
-3.7027249 -9.788641 -1.6575798 34 3
-3.5361948 -9.3336258 -1.2255182 19 4
-3.7049489 -9.7584772 -0.91321784 19 5
-3.8838203 -10.21349 -0.57266009 30 6
-3.967932 -10.418261 -0.19459434 13 7
-3.1618998 -8.2284451 -2.3619826 10 0
-4.4116802 -11.46888 0.21449009 15 8
-3.6019597 -9.3590078 -2.3151963 15 1
-3.487721 -9.0433426 -1.8840481 9 2
-3.6300392 -9.3977013 -1.5956318 18 3
-3.7542601 -9.6840754 -0.90868574 12 5
-3.9687643 -10.221501 -0.57464886 19 6
-4.2942367 -11.042612 -0.20681101 22 7
-3.1988075 -8.1540165 -2.3469713 11 0
-4.5194135 -11.508532 0.21581645 15 8
-3.7128184 -9.4497137 -2.3439898 24 1
-3.5594013 -9.0406952 -1.8886275 10 2
-3.6542556 -9.2673826 -1.5777982 14 3
-3.7821014 -9.5769091 -1.2642727 16 4
-3.7118075 -9.3797388 -0.88253903 12 5
-4.1445227 -10.457205 -0.58951229 19 6
-4.5128717 -11.36922 -0.21351273 16 7
-3.2398577 -8.0920305 -2.3355832 11 0
-5.2855411 -13.188088 0.2479987 20 8
-3.8019073 -9.4814434 -2.3583868 24 1
-3.5916884 -8.9391127 -1.8725995 15 2
-3.7690101 -9.3662596 -1.5990733 28 3
-4.0714755 -10.102632 -1.3373944 9 4
-3.8040564 -9.4201059 -0.88881427 18 5
-4.3589554 -10.777961 -0.60929525 18 6
-4.5365815 -11.200284 -0.21092978 15 7
-3.2867744 -8.0459652 -2.3288538 10 0
-4.4056759 -10.774271 0.20318091 13 8
-3.7528973 -9.1733036 -2.2882023 16 1
-3.6242213 -8.8411579 -1.8573349 16 2
-3.8170526 -9.2976894 -1.5918773 22 3
-4.2679672 -10.380567 -1.3780986 19 4
-3.8833885 -9.4264774 -0.89195186 18 5
-4.4081931 -10.684492 -0.60573643 18 6
-3.3309765 -7.9942918 -2.3205717 9 0
-3.7800736 -9.0587559 -2.2661569 25 1
-3.7388663 -8.9424334 -1.8840481 13 2
-3.8009965 -9.0776739 -1.5587132 11 3
-4.0125422 -9.5688286 -1.2740222 21 4
-3.9815176 -9.476285 -0.89927298 25 5
-4.530704 -10.767595 -0.61222607 9 6
-4.4797525 -10.630933 -0.20136586 21 7
-3.3806617 -7.9566188 -2.3164306 7 0
-4.6542902 -10.943572 0.20757893 14 8
-3.8539045 -9.0572491 -2.2724555 25 1
-3.8628004 -9.0605917 -1.9145776 13 2
-3.9751947 -9.310709 -1.6034535 17 3
-4.0839291 -9.5515356 -1.2754847 9 4
-4.0962191 -9.5618057 -0.91008025 12 5
-4.438827 -10.346582 -0.59003562 28 6
-4.5980659 -10.702289 -0.20332053 14 7
-3.4299841 -7.9186416 -2.3122892 7 0
-4.5460296 -10.485168 0.19948101 39 8
-4.0884275 -9.4252262 -2.3718839 18 1
-3.9431767 -9.0730152 -1.922973 13 2
-4.1110463 -9.4457426 -1.6316116 24 3
-4.5129776 -10.354421 -1.3868732 19 4
-4.4274111 -10.143597 -0.96830028 13 5
-4.6653953 -10.66852 -0.6102373 18 6
-4.7609081 -10.87142 -0.20716007 15 7
-3.4781611 -7.8785977 -2.3076308 6 0
-4.825738 -10.925919 0.20848644 14 8
-4.0966072 -9.2663431 -2.3390412 15 1
-4.0056376 -9.0477619 -1.9233549 12 2
-4.1648374 -9.3940649 -1.6275443 22 3
-4.2241445 -9.5099106 -1.2776783 18 4
-4.2519574 -9.5590324 -0.91530961 13 5
-4.2949967 -9.6421928 -0.55319113 21 6
-4.7617126 -10.669916 -0.20394883 14 7
-3.5420067 -7.8776455 -2.3143599 7 0
-4.0483751 -8.9912519 -2.2765048 27 1
-4.0864654 -9.0589476 -1.9317504 10 2
-4.1351728 -9.1541338 -1.5909387 16 3
-4.1815987 -9.2440042 -1.2457485 21 4
-4.3778024 -9.6597757 -0.92786002 13 5
-4.7303329 -10.423126 -0.59987479 9 6
-3.5920894 -7.8421874 -2.311254 7 0
-4.2134171 -9.1859522 -2.3331923 21 1
-4.1578054 -9.0480375 -1.9355664 10 2
-4.238616 -9.2111788 -1.6059564 17 3
-4.4287992 -9.6112232 -1.2993711 25 4
-4.5019197 -9.7519836 -0.93971318 13 5
-4.6269903 -10.009134 -0.57789367 19 6
-4.8092494 -10.389115 -0.19983006 14 7
-3.6418483 -7.8064146 -2.3081484 7 0
-5.1516395 -11.03264 0.21253541 14 8
-4.2559996 -9.1104088 -2.3214948 15 1
-4.2250323 -9.0276804 -1.9374746 10 2
-4.3296432 -9.2386017 -1.6159682 16 3
-4.4123011 -9.4021635 -1.2752409 19 4
-4.6393723 -9.8725853 -0.95435536 13 5
-4.725678 -10.038027 -0.58145255 19 6
-4.8390274 -10.264848 -0.19808482 20 7
-3.6962585 -7.7807999 -2.3081484 7 0
-5.0549407 -10.6361 0.20555446 13 8
-4.240808 -8.9150562 -2.2792041 19 1
-4.294827 -9.0164375 -1.9412909 9 2
-4.3328981 -9.0841093 -1.5940675 16 3
-4.3545899 -9.1132088 -1.2401426 21 4
-4.6978641 -9.8183889 -0.95226365 20 5
-4.7524695 -9.9191723 -0.57642829 29 6
-4.8673043 -10.140676 -0.19633958 20 7
-3.7390459 -7.7345886 -2.3019366 9 0
-5.0924911 -10.524948 0.20408843 27 8
-4.4219608 -9.1350574 -2.3430901 16 1
-4.3799391 -9.0321646 -1.951213 10 2
-4.4635119 -9.1922436 -1.6184711 17 3
-4.4981155 -9.2511711 -1.263054 16 4
-4.7191815 -9.6886282 -0.94285083 19 5
-4.7979636 -9.8372831 -0.57360214 20 6
-5.0169516 -10.272621 -0.19955082 14 7
-3.7827172 -7.6874962 -2.2957251 7 0
-4.4976854 -9.1284351 -2.3493888 24 1
-4.4533162 -9.0224924 -1.9557924 10 2
-4.5625868 -9.2316952 -1.630986 15 3
-4.5837202 -9.2622423 -1.2689037 14 4
-4.7575002 -9.5965395 -0.93709856 33 5
-4.9491105 -9.969923 -0.58333665 29 6
-5.0066595 -10.072604 -0.19633958 13 7
-3.8259141 -7.6401725 -2.2895133 7 0
-4.5595574 -9.0933304 -2.348489 19 1
-4.5347018 -9.0280237 -1.9638064 10 2
-4.6624274 -9.2702065 -1.6435007 18 3
-4.7563076 -9.4445448 -1.2983961 21 4
-4.9078379 -9.7285252 -0.95330954 13 5
-5.0212941 -9.9404764 -0.58365065 19 6
-5.0551934 -9.9945793 -0.19550186 13 7
-3.8712656 -7.597784 -2.2848547 6 0
-4.6247005 -9.0647478 -2.3493888 24 1
-4.6154876 -9.0311098 -1.9714386 12 2
-4.6550422 -9.0967493 -1.6184711 13 3
-4.7451835 -9.2609415 -1.2776783 19 4
-4.8846574 -9.5167704 -0.9358784 13 5
-5.0640941 -9.8536634 -0.58061516 9 6
-4.9839373 -9.6852188 -0.19012651 19 7
-3.9210865 -7.5613136 -2.2822666 7 0
-6.1802545 -11.90766 0.23417638 36 8
-4.6319733 -8.9207363 -2.3205953 16 1
-4.6908631 -9.0187531 -1.9760182 10 2
-4.7054162 -9.0351744 -1.6134652 20 3
-4.6929297 -8.9996881 -1.2462361 25 4
-5.0468802 -9.6661158 -0.95400673 13 5
-5.0233998 -9.6047945 -0.5680545 30 6
-5.1904135 -9.9114876 -0.19529243 13 7
-3.964766 -7.5166678 -2.2770901 9 0
-5.4847021 -10.393868 0.20513558 13 8
-4.801527 -9.0915165 -2.3736835 20 1
-4.767745 -9.0161171 -1.9825056 10 2
-4.6836181 -8.8458185 -1.5853071 21 3
-4.9407344 -9.3156948 -1.29474 21 4
-5.2132893 -9.817173 -0.97248381 13 5
-5.0014586 -9.4063759 -0.55832005 41 6
-5.3666458 -10.076217 -0.19927157 14 7
-4.0140133 -7.4861016 -2.2760549 9 0
-5.5684757 -10.376471 0.20555446 27 8
-4.8725176 -9.0757923 -2.3781826 15 1
-4.85289 -9.0241117 -1.9916644 9 2
-4.7939582 -8.903347 -1.6015763 17 3
-5.2677975 -9.7711039 -1.3629869 10 4
-5.3500285 -9.9111996 -0.9853828 14 5
-5.0014577 -9.2500067 -0.55109769 21 6
-5.3684669 -9.916357 -0.19682825 13 7
-4.0587783 -7.4443288 -2.2719138 7 0
-4.9040132 -8.9833994 -2.362886 16 1
-4.936801 -9.0322142 -2.0008233 7 2
-5.0346303 -9.1997519 -1.6610212 8 3
-5.0877919 -9.2815018 -1.2996148 6 4
-5.3558197 -9.7583323 -0.97387826 27 5
-5.2864995 -9.6200857 -0.57527691 19 6
-5.6998458 -10.355138 -0.20632236 14 7
-4.0971842 -7.3945608 -2.2651844 6 0
-5.008532 -9.0281982 -2.3835814 18 1
-5.0235753 -9.0404329 -2.0103636 4 2
-5.0958509 -9.1592026 -1.6600827 18 3
-5.3382607 -9.583087 -1.3469001 13 4
-5.4412899 -9.7520227 -0.97701591 20 5
-5.3447652 -9.5672531 -0.57433486 30 6
-5.7604375 -10.298649 -0.20597331 14 7
-4.1610336 -7.3876595 -2.2719138 9 0
-5.9045377 -10.474593 0.20988265 28 8
-5.1269584 -9.091465 -2.4096758 15 1
-5.1309824 -9.0837736 -2.0279181 6 2
-5.1820364 -9.1629515 -1.6672788 19 3
-5.4424005 -9.5959482 -0.96516263 20 5
-5.4942694 -9.6755943 -0.58312726 19 6
-5.8756819 -10.33467 -0.20750912 22 7
-4.2057891 -7.346694 -2.2682903 6 0
-5.725019 -9.9924021 0.20101681 26 8
-5.1806126 -9.0385418 -2.4051766 16 1
-5.1708155 -9.0068693 -2.0187593 12 2
-5.1946902 -9.0374937 -1.6510096 20 3
-5.4101505 -9.4009466 -1.3317883 18 4
-5.6405988 -9.7855721 -0.98817176 14 5
-5.5976238 -9.6992769 -0.58689547 28 6
-5.6375484 -9.7566528 -0.19668862 13 7
-4.2472591 -7.3004551 -2.2631137 6 0
-5.98984 -10.287443 0.20778835 28 8
-5.2455473 -9.0055237 -2.4060764 16 1
-5.1910276 -8.8976326 -2.0023496 16 2
-5.291532 -9.0590019 -1.6616471 19 3
-5.4475899 -9.3149681 -1.3249637 22 4
-5.5557089 -9.484643 -0.96167642 20 5
-5.6712613 -9.6703005 -0.58752352 28 6
-5.8290496 -9.9274368 -0.20094702 14 7
-4.3010716 -7.2756143 -2.2646666 7 0
-6.0940952 -10.30045 0.20890529 14 8
-5.2527056 -8.8747711 -2.380882 23 1
-5.4031882 -9.1144981 -2.0595925 7 2
-5.3546448 -9.021841 -1.6616471 18 3
-5.3948536 -9.0787525 -1.2966899 16 4
-5.6527386 -9.5014 -0.9672544 20 5
-5.7294326 -9.6150284 -0.58658141 19 6
-5.9740295 -10.013581 -0.20352997 21 7
-4.3517604 -7.24541 -2.2646666 7 0
-6.1846647 -10.293012 0.2096034 28 8
-5.3958797 -8.9731569 -2.4173241 15 1
-5.578517 -9.2658882 -2.1023335 13 2
-5.3996143 -8.9581137 -1.6566411 19 3
-5.6325169 -9.3297682 -1.3381255 18 4
-5.5787659 -9.2298098 -0.94354802 13 5
-5.8402452 -9.6509924 -0.591187 19 6
-6.0251346 -9.9408484 -0.20290168 21 7
-4.3969541 -7.209024 -2.2625961 7 0
-6.1542683 -10.082314 0.20618272 28 8
-5.4527712 -8.9295683 -2.4155245 14 1
-5.612339 -9.1764708 -2.0908849 22 2
-5.5383568 -9.0448647 -1.6797936 18 3
-5.8282762 -9.5034361 -1.3688365 20 4
-5.9203715 -9.6422739 -0.98991495 56 5
-5.8771453 -9.5606432 -0.58815157 28 6
-6.1824551 -10.041581 -0.20583369 14 7
-4.4260383 -7.1412497 -2.2512081 7 0
-6.8841548 -11.103009 0.22803316 17 8
-5.5288596 -8.9101906 -2.4209232 15 1
-5.6783381 -9.1404018 -2.0916483 24 2
-5.7886949 -9.303546 -1.7354842 17 3
-6.0708117 -9.7455826 -1.4097847 16 4
-5.992815 -9.6091604 -0.99078649 14 5
-6.0036039 -9.6115103 -0.59390849 19 6
-6.1845479 -9.8896656 -0.20359977 14 7
-4.4654922 -7.0938287 -2.2460318 7 0
-6.8760266 -10.914723 0.22517094 33 8
-5.605474 -8.8944569 -2.427222 16 1
-6.0726414 -9.6208363 -2.2114763 13 2
-5.8535047 -9.262907 -1.7354842 14 3
-5.9879918 -9.4647503 -1.3751738 18 4
-6.0618854 -9.5704546 -0.99113512 14 5
-6.5573583 -10.336732 -0.64153421 8 6
-6.5471907 -10.308767 -0.2131637 15 7
-4.5169892 -7.0657368 -2.247067 7 0
-7.0148044 -10.968745 0.22726524 17 8
-5.6747861 -8.8665962 -2.4303713 17 1
-6.5828462 -10.273549 -2.3717558 9 2
-5.9121528 -9.216197 -1.7342327 15 3
-5.9766641 -9.3024693 -1.3576245 18 4
-6.0315475 -9.3770905 -0.97544706 13 5
-6.2253065 -9.6671944 -0.60259628 9 6
-6.827096 -10.585464 -0.21986541 25 7
-4.5544634 -7.018621 -2.2418907 7 0
-5.7424388 -8.8392029 -2.4335206 15 1
-5.9081297 -9.0803652 -2.1057682 3 2
-5.9353766 -9.1118021 -1.7223436 8 3
-6.0073171 -9.211688 -1.3503125 19 4
-6.0821652 -9.3157969 -0.97335529 13 5
-6.1155715 -9.3526955 -0.58563942 9 6
-6.9252777 -10.578902 -0.22070314 17 7
-4.6054754 -6.9898806 -2.2429259 7 0
-5.8083 -8.8054037 -2.4353201 16 1
-6.4241905 -9.7280111 -2.2660477 10 2
-5.9656687 -9.0234041 -1.7132704 6 3
-6.1207952 -9.2440081 -1.3612807 11 4
-6.1690683 -9.306324 -0.97684151 20 5
-6.4562931 -9.7285519 -0.61191207 18 6
-6.9015551 -10.383741 -0.2176315 16 7
-4.6572428 -6.9647942 -2.2449965 9 0
-5.9027905 -8.8174858 -2.449717 15 1
-6.2590752 -9.3355932 -2.1847632 13 2
-6.6329088 -9.8819866 -1.8850355 14 3
-6.1260028 -9.1164532 -1.3486063 21 4
-6.3985233 -9.5076637 -1.0026397 14 5
-6.6747117 -9.9068537 -0.62604278 17 6
-6.9027433 -10.23374 -0.21546741 16 7
-4.7046685 -6.9305129 -2.2444789 6 0
-5.9642043 -8.776062 -2.449717 14 1
-6.5958405 -9.6909266 -2.2786412 13 2
-6.4180951 -9.4191685 -1.805254 20 3
-6.4557347 -9.4637566 -1.4066161 21 4
-6.2939086 -9.2127028 -0.97614431 20 5
-12.543167 -18.353168 4.3210607 2 13
-6.3175082 -9.2368593 -0.58647674 9 6
-6.8904181 -10.063203 -0.21288446 23 7
-4.7255335 -6.8577299 -2.2315381 7 0
-6.0363936 -8.7502508 -2.454216 14 1
-6.7113209 -9.7140989 -2.2950509 12 2
-6.475831 -9.3627605 -1.8030639 16 3
-6.580411 -9.5033226 -1.4192905 21 4
-6.5919585 -9.5058088 -1.0120524 14 5
-6.6893706 -9.6355038 -0.61473817 18 6
-6.9239841 -9.9623079 -0.21176751 23 7
-4.7732925 -6.8245735 -2.2315381 7 0
-6.0928631 -8.7015095 -2.4524164 14 1
-6.7451587 -9.6187849 -2.2836022 12 2
-6.770308 -9.6439047 -1.8662634 17 3
-6.7630224 -9.6228094 -1.4441519 20 4
-6.5870581 -9.3585434 -1.0012451 28 5
-6.8853216 -9.7714272 -0.62646145 26 6
-7.5766239 -10.740553 -0.22942933 19 7
-4.7917461 -6.7501259 -2.2180793 4 0
-6.1512032 -8.6555862 -2.4515166 13 1
-6.7631931 -9.5026846 -2.2671926 16 2
-6.7618151 -9.4902258 -1.845614 16 3
-6.7355127 -9.4428406 -1.4241652 20 4
-6.6661301 -9.3317833 -1.0033369 14 5
-6.909224 -9.6613874 -0.62248397 26 6
-7.6514225 -10.687396 -0.22942933 19 7
-4.8523049 -6.7353182 -2.2242911 5 0
-6.2046409 -8.6029491 -2.4488173 15 1
-6.8040791 -9.4202223 -2.2587969 15 2
-6.8579984 -9.4844074 -1.8537486 16 3
-6.8140731 -9.4132767 -1.4268464 13 4
-7.035162 -9.7044249 -1.0486579 15 5
-7.3530736 -10.13179 -0.65608358 17 6
-4.8980675 -6.6997185 -2.2237732 6 0
-6.2714553 -8.5688581 -2.4515166 13 1
-7.0217195 -9.5799246 -2.308789 12 2
-6.8515916 -9.3375568 -1.8343508 19 3
-6.9019532 -9.3958731 -1.4314774 20 4
-7.0767641 -9.6197672 -1.0448231 15 5
-7.383359 -10.02553 -0.65252477 17 6
-4.9470239 -6.6684632 -2.2248087 6 0
-6.3566861 -8.5592842 -2.4614143 13 1
-7.1142054 -9.5653276 -2.3171847 10 2
-7.3696189 -9.8979149 -1.9544924 15 3
-6.9851761 -9.3713341 -1.4351336 19 4
-6.9911976 -9.3657598 -1.0225111 21 5
-6.9103808 -9.2473898 -0.60500371 18 6
-5.0143681 -6.6615477 -2.2341261 6 0
-11.375952 -15.101886 0.33002502 31 8
-6.3857942 -8.4742336 -2.449717 14 1
-11.428915 -15.155671 0.994802 18 9
-7.2671409 -9.6298256 -2.3450427 13 2
-11.502599 -15.23678 1.6702527 15 10
-7.4909325 -9.915575 -1.9682587 20 3
-11.558456 -15.288565 2.3532972 13 11
-7.1785541 -9.4917507 -1.4612136 21 4
-11.613564 -15.344749 3.0479696 15 12
-6.9657898 -9.2004089 -1.0096121 21 5
-11.723378 -15.473002 3.7734389 12 13
-9.0322075 -11.912443 -0.78346932 17 6
-11.782533 -15.534175 4.5012703 4 14
-5.0431643 -6.6033487 -2.2263615 7 0
-11.541614 -15.106732 0.33184007 31 8
-6.4471641 -8.4325428 -2.4506166 15 1
-11.543942 -15.093393 0.99584872 15 9
-7.2537661 -9.4772415 -2.3198559 16 2
-11.602631 -15.1482 1.6693811 13 10
-7.4933748 -9.779685 -1.9513638 12 3
-11.657419 -15.203236 2.3523221 12 11
-7.2929821 -9.5043993 -1.4709631 21 4
-11.697295 -15.238703 3.0426507 17 12
-7.3891115 -9.6192446 -1.0612082 15 5
-11.780861 -15.325408 3.757411 13 13
-7.5230122 -9.7829523 -0.6467678 8 6
-11.830084 -15.372775 4.4783254 12 14
-11.90531 -15.453783 5.2271099 13 15
-5.0891781 -6.570395 -2.2268791 6 0
-6.4482903 -8.316083 -2.4294713 18 1
-7.3342004 -9.4449797 -2.3244352 15 2
-7.4644756 -9.6023664 -1.9263341 8 3
-7.3989582 -9.507802 -1.4792502 10 4
-7.9459739 -10.196033 -1.1309329 18 5
-11.96336 -15.345505 3.7822161 2 13
-7.6132412 -9.7585382 -0.6486519 8 6
-12.005473 -15.377366 4.5039701 4 14
-12.046216 -15.41291 5.2416034 13 15
-5.1349239 -6.5347056 -2.2268791 6 0
-6.4543815 -8.2050018 -2.4101257 15 1
-7.4193983 -9.4182224 -2.3305411 15 2
-7.6145105 -9.6554937 -1.9476093 8 3
-7.4171805 -9.3951521 -1.4697444 16 4
-8.0960445 -10.240339 -1.1420889 18 5
-9.1524687 -11.564116 -0.77289748 17 6
-5.186439 -6.5062523 -2.2294674 7 0
-6.4264178 -8.0531197 -2.3786323 14 1
-7.4776134 -9.3569956 -2.3282516 18 2
-7.6336064 -9.5419426 -1.9354074 24 3
-8.0596066 -10.063633 -1.5830829 21 4
-7.6412945 -9.527669 -1.0685294 15 5
-11.707135 -14.592008 3.6364379 2 13
-9.3742714 -11.675927 -0.78472537 26 6
-5.2341642 -6.4728899 -2.2305026 7 0
-6.3917503 -7.8959732 -2.3453398 15 1
-7.5180311 -9.2740602 -2.3206191 13 2
-7.713728 -9.5052891 -1.9388491 18 3
-8.0345392 -9.8900242 -1.5645587 21 4
-8.1602726 -10.030482 -1.1312815 18 5
-9.7935696 -12.025235 -0.81277746 8 6
-11.045092 -13.547442 -0.30510297 32 7
-5.2902527 -6.4496346 -2.2351615 6 0
-6.4467187 -7.8511581 -2.3453398 13 1
-7.6773567 -9.3365974 -2.349622 13 2
-8.0008526 -9.7196302 -1.9939139 13 3
-7.9960823 -9.703476 -1.5438409 18 4
-8.0635405 -9.7749014 -1.108621 17 5
-11.001755 -13.317757 -0.90530741 27 6
-11.083325 -13.402202 -0.30356717 32 7
-11.830173 -14.295145 4.9719143 3 15
-5.3277359 -6.403635 -2.2320557 6 0
-6.4714398 -7.7700238 -2.334542 13 1
-7.798564 -9.353487 -2.3671765 9 2
-7.6668396 -9.1857166 -1.8950473 13 3
-11.403222 -13.652623 2.1841426 1 11
-8.0063419 -9.5788774 -1.5328728 20 4
-8.0881119 -9.6664181 -1.1026944 17 5
-11.128057 -13.285435 -0.90823823 27 6
-5.3201299 -6.3066807 -2.2108324 3 0
-6.4889741 -7.6841059 -2.3219447 14 1
-7.9752336 -9.4307346 -2.400759 10 2
-8.1315517 -9.6053772 -1.9932882 18 3
-8.167614 -9.6377392 -1.5511532 19 4
-8.085784 -9.5276861 -1.0932816 16 5
-11.581489 -13.641938 3.4784484 2 13
-5.258533 -6.14608 -2.1673508 3 0
-6.5247154 -7.6178942 -2.3156462 13 1
-8.1392937 -9.4895735 -2.4301436 12 2
-8.1006098 -9.4344721 -1.9695101 18 3
-8.2929239 -9.6482286 -1.5621214 21 4
-9.0463381 -10.509915 -1.213208 21 5
-5.2810531 -6.0858746 -2.1590683 4 0
-6.5777378 -7.5721593 -2.3156462 13 1
-8.233695 -9.4651041 -2.438539 10 2
-8.3634644 -9.6041222 -2.0170662 12 3
-8.1552877 -9.3551693 -1.5238544 16 4
-9.0225277 -10.335437 -1.2003088 20 5
-5.287674 -6.0082526 -2.1445746 4 0
-6.6252856 -7.5202055 -2.3138466 13 1
-8.2683983 -9.3720608 -2.4293802 10 2
-8.5584545 -9.6906023 -2.0477273 16 3
-8.4610138 -9.5701675 -1.5684586 27 4
-8.373353 -9.4576979 -1.1051347 17 5
-5.3140554 -5.9538951 -2.1383629 4 0
-6.6568532 -7.4505167 -2.3066483 14 1
-8.3742065 -9.3594666 -2.4412105 7 2
-8.5362778 -9.5305605 -2.0264523 14 3
-8.3990736 -9.3675022 -1.5448159 19 4
-8.4178762 -9.3752928 -1.1023458 17 5
-5.3373408 -5.8966007 -2.1311162 4 0
-6.7034698 -7.3980865 -2.3048484 14 1
-8.5198202 -9.3894625 -2.464489 12 2
-8.7248011 -9.6052561 -2.0552363 14 3
-8.4923134 -9.3394775 -1.5499344 11 4
-5.3705382 -5.850656 -2.1280103 4 0
-6.736495 -7.3310189 -2.2985499 12 1
-8.6516314 -9.4019909 -2.4835701 10 2
-8.8612366 -9.6196642 -2.0715053 18 3
-8.8089523 -9.5528631 -1.5955136 16 4
-5.3928246 -5.7932239 -2.1207633 4 0
-6.7821965 -7.2781072 -2.2967501 11 1
-8.7050047 -9.3284407 -2.4801354 18 2
-8.9389687 -9.5691118 -2.0740085 19 3
-9.2848997 -9.9290037 -1.6691227 19 4
-5.409266 -5.7301488 -2.1114457 4 0
-6.8074098 -7.2036729 -2.2882023 7 1
-8.756422 -9.2531843 -2.4763193 18 2
-8.9213257 -9.4175625 -2.0546105 13 3
-9.5807362 -10.103051 -1.7095833 13 4
-5.42242 -5.6643348 -2.1010931 4 0
-6.8629279 -7.1616001 -2.2900016 11 1
-8.8208055 -9.1918297 -2.4763193 10 2
-9.0744381 -9.4462252 -2.0746341 16 3
-9.715703 -10.10317 -1.7210391 24 4
-5.4483767 -5.6124802 -2.0959167 4 0
-6.8923864 -7.0925498 -2.2832532 10 1
-8.9833469 -9.2313271 -2.5037959 19 2
-9.6033068 -9.8580685 -2.1797581 15 3
-9.9121208 -10.164422 -1.7432193 15 4
-5.4616761 -5.5481486 -2.0860815 20 0
-6.9444695 -7.0470352 -2.284153 10 1
-9.2240829 -9.3472567 -2.5526428 13 2
-9.1526899 -9.2652016 -2.0627451 5 3
-9.7399664 -9.8493776 -1.7008086 31 4
-5.5125599 -5.5221891 -2.0907402 37 0
-6.9769683 -6.9818401 -2.278754 10 1
-9.4127102 -9.4061413 -2.586607 12 2
-9.8560457 -9.8388596 -2.2057261 24 3
-9.8000574 -9.7727299 -1.6993462 15 4
-5.5386076 -5.4713521 -2.0860815 14 0
-7.0005717 -6.9083252 -2.2706561 9 1
-9.5072765 -9.3721752 -2.5950024 10 2
-9.9044905 -9.7535257 -2.201659 18 3
-9.708106 -9.5467939 -1.6718037 10 4
-5.5591187 -5.4173455 -2.07987 5 0
-7.0502276 -6.8632312 -2.2715557 10 1
-9.5837345 -9.3165236 -2.5980554 10 2
-9.9553347 -9.6676292 -2.1979043 13 3
-23.144831 -22.452419 -3.9592917 7 4
-5.581481 -5.3636794 -2.0741758 4 0
-7.0895333 -6.805748 -2.2688563 10 1
-9.6866045 -9.2891207 -2.6087408 10 2
-10.240585 -9.8100824 -2.2460864 8 3
-10.276317 -9.8305597 -1.7461442 2 4
-5.6047673 -5.311296 -2.0689995 4 0
-7.1312108 -6.75073 -2.2670567 10 1
-9.7984819 -9.2627249 -2.6209526 12 2
-10.574784 -9.9861021 -2.3036542 14 3
-10.685475 -10.080051 -1.8036665 19 4
-10.746316 -10.123278 -1.291648 24 5
-10.75753 -10.123217 -0.77415353 17 6
-10.940601 -10.284693 -0.26210025 25 7
-5.6530032 -5.282588 -2.0731406 3 0
-7.1753192 -6.6981201 -2.2661569 10 1
-9.8830118 -9.2128372 -2.6262951 12 2
-10.671707 -9.9376125 -2.3095987 24 3
-10.713435 -9.9659977 -1.796598 28 4
-10.784615 -10.018176 -1.2878133 24 5
-10.811836 -10.032924 -0.77300215 26 6
-10.976935 -10.175438 -0.26126251 25 7
-5.6442833 -5.2011046 -2.0565763 4 0
-7.2247715 -6.6505041 -2.2670567 10 1
-9.9095116 -9.1090698 -2.6163731 10 2
-10.768473 -9.8882513 -2.3155432 16 3
-10.831025 -9.9352436 -1.8046414 19 4
-10.886613 -9.9722481 -1.291648 24 5
-10.931715 -10.00304 -0.77656096 26 6
-11.059515 -10.10935 -0.26154178 25 7
-5.6747355 -5.1563773 -2.0545056 4 0
-7.2623692 -6.5920444 -2.2643573 10 1
-9.5379295 -8.6454353 -2.5022693 10 2
-12.471392 -11.292515 -2.664705 10 3
-13.607482 -12.308255 -2.2528768 15 4
-5.6789436 -5.0882726 -2.0431178 4 0
-7.3111157 -6.5437832 -2.2652571 9 1
-9.6068363 -8.5864878 -2.504559 10 2
-12.748849 -11.382783 -2.7069423 11 3
-13.562715 -12.096679 -2.2314279 11 4
-5.7143269 -5.0485029 -2.0431178 3 0
-7.3595424 -6.4951634 -2.2661569 10 1
-9.5884848 -8.4504118 -2.4843333 10 2
-12.839868 -11.303946 -2.7094455 11 3
-13.502239 -11.874539 -2.2077851 15 4
-5.7232137 -4.9856443 -2.0338001 4 0
-7.3958888 -6.4359484 -2.2634575 9 1
-9.5879679 -8.3317585 -2.4690685 10 2
-12.772277 -11.08713 -2.6787841 12 3
-13.428832 -11.644737 -2.1824365 8 4
-5.752018 -4.9405336 -2.0317297 4 0
-7.4583864 -6.3993878 -2.2688563 9 1
-9.6176262 -8.2433043 -2.4621994 12 2
-13.003504 -11.133549 -2.7113225 12 3
-13.15976 -11.251418 -2.1258888 12 4
-5.7560334 -4.8762918 -2.0213768 4 0
-7.5077233 -6.3535075 -2.2706561 9 1
-9.7049322 -8.2013035 -2.4698317 10 2
-13.103555 -11.061609 -2.7160156 17 3
-13.289154 -11.206374 -2.1344197 10 4
-5.7899346 -4.8359895 -2.0213768 3 0
-7.5189772 -6.2734728 -2.2607579 8 1
-9.7438517 -8.1182699 -2.4652524 12 2
-13.12732 -10.925632 -2.7050653 11 3
-13.402174 -11.142515 -2.1400259 13 4
-5.7996941 -4.7758021 -2.0130947 4 0
-7.3669405 -6.0598931 -2.202271 7 1
-9.7881508 -8.0400801 -2.4621994 12 2
-13.100957 -10.749769 -2.684103 21 3
-12.954576 -10.618309 -2.0566673 1 4
-5.823895 -4.7278905 -2.0099888 3 0
-7.3636594 -5.9714913 -2.1887739 7 1
-9.8396006 -7.9707966 -2.4614363 10 2
-13.161543 -10.6504 -2.6815999 12 3
-13.80194 -11.152678 -2.1787803 10 4
