# .PCD v0.7 - Point Cloud Data file format
VERSION 0.7
FIELDS x y z intensity ring
SIZE 4 4 4 4 2
TYPE F F F F U
COUNT 1 1 1 1 1
WIDTH 1279
HEIGHT 1
VIEWPOINT 0 0 0 1 0 0 0
POINTS 1279
DATA ascii
-2.3013499 -8.0843058 -2.2522435 9 0
-3.0270402 -10.612447 -2.5477955 8 1
-5.9463787 -20.819752 1.1347483 11 9
-3.9175355 -13.698158 -2.769402 8 2
-5.3697338 -18.738829 -3.0873909 12 3
-6.9059658 -24.052275 -3.0725703 17 4
-4.8634377 -16.905132 -1.5389961 32 5
-5.0166798 -17.392094 -0.94864166 9 6
-2.3490624 -8.038373 -2.2439611 7 0
-3.098865 -10.583575 -2.5459962 8 1
-6.0317974 -20.587126 1.124281 15 9
-4.010685 -13.671175 -2.769402 8 2
-5.4776611 -18.635511 -3.0764406 13 3
-5.2365441 -17.769354 -2.2745697 2 4
-4.9700527 -16.83255 -1.5355098 32 5
-5.1009531 -17.24263 -0.9423613 27 6
-2.4015048 -8.0147963 -2.2418907 9 0
-3.1697118 -10.558504 -2.5450962 8 1
-6.1472039 -20.450792 1.1191522 14 9
-4.1082935 -13.650361 -2.7709284 9 2
-5.5591536 -18.43606 -3.0498466 19 3
-5.74718 -19.023579 -2.4400682 10 4
-4.9003263 -16.179623 -1.479033 30 5
-5.097096 -16.797602 -0.91996151 9 6
-2.453995 -7.9867554 -2.2387848 9 0
-3.2444935 -10.539843 -2.5459962 8 1
-6.0739288 -19.7069 1.0807376 9 9
-4.2092772 -13.640108 -2.7747445 8 2
-5.9171643 -19.162619 1.7546195 10 10
-5.7023115 -18.443983 -3.0576684 16 3
-7.5226331 -24.286701 -3.1218054 10 4
-4.8382769 -15.581798 -1.4274367 29 5
-4.9692206 -15.973969 -0.87673205 17 6
-5.6351724 -18.081343 -0.33058348 37 7
-2.5062106 -7.9583731 -2.2356789 9 0
-6.079946 -19.283127 0.35292256 34 8
-3.3109579 -10.494635 -2.5405972 8 1
-6.1283422 -19.401196 1.0662929 12 9
-4.3044004 -13.61039 -2.7747445 8 2
-5.8752732 -18.566175 1.7037203 16 10
-5.7879753 -18.268139 -3.0351417 10 3
-7.5064297 -23.648943 -3.0464902 7 4
-4.9393954 -15.533315 -1.4260423 29 5
-4.9471736 -15.520245 -0.85370415 17 6
-2.5569642 -7.9259739 -2.2315381 7 0
-3.3769522 -10.449013 -2.5351985 8 1
-5.9382439 -18.363239 1.0114448 5 9
-4.3969421 -13.580776 -2.7747445 9 2
-6.0170341 -18.562613 1.7072067 11 10
-5.7707987 -17.792387 -2.9625564 8 3
-9.6188898 -29.621494 3.8240166 20 11
-5.4409528 -16.735596 -2.1607437 13 4
-4.9378905 -15.161241 -1.3950148 28 5
-5.0898709 -15.600138 -0.85998452 17 6
-2.6096432 -7.9047165 -2.2305026 7 0
-3.4406555 -10.403582 -2.5297995 8 1
-6.0619025 -18.308064 1.010712 13 9
-4.4916463 -13.549748 -2.7747445 9 2
-6.1927958 -18.67062 1.7209772 5 10
-5.8407083 -17.588566 -2.9353366 5 3
-9.4177542 -28.32732 3.6653428 23 11
-7.4520617 -22.401733 -2.8987844 20 4
-5.1404963 -15.425932 -1.4225559 28 5
-5.0948858 -15.253545 -0.84281826 17 6
-2.666002 -7.889966 -2.2315381 9 0
-3.5094523 -10.368234 -2.5271001 8 1
-6.2363539 -18.413929 1.0188764 11 9
-4.5787277 -13.503987 -2.7716916 8 2
-6.3108225 -18.591084 1.7176653 17 10
-6.0168338 -17.714872 -2.963182 12 3
-6.4443927 -18.951965 2.4578612 19 11
-6.1637697 -18.105959 -2.3484223 15 4
-5.0114136 -14.69571 -1.3584094 26 5
-5.0726962 -14.849957 -0.82240731 17 6
-5.6942477 -16.63154 -0.3068482 33 7
-2.7082903 -7.8387699 -2.2222204 7 0
-3.5735722 -10.325689 -2.5226011 8 1
-6.3706379 -18.386929 1.0198185 5 9
-4.6754651 -13.479112 -2.7732179 8 2
-6.6331997 -19.112371 1.7699587 10 10
-6.1299872 -17.64258 -2.9581761 13 3
-6.6169806 -19.022757 2.4729731 13 11
-6.5002379 -18.676643 -2.4281251 5 4
-6.3410201 -18.198704 3.0523496 3 12
-5.1020756 -14.626505 -1.3552718 26 5
-5.1551619 -14.753845 -0.81905776 26 6
-2.7668097 -7.8306003 -2.2253263 7 0
-5.882318 -16.629602 0.30789533 28 8
-3.6390688 -10.28212 -2.5181019 8 1
-6.3541007 -17.933485 0.9971047 15 9
-4.7628903 -13.427639 -2.769402 9 2
-6.5818777 -18.545494 1.7216746 12 10
-5.079782 -14.297264 -2.4031465 22 3
-6.7216797 -18.897545 2.4627359 20 11
-5.0909891 -14.305062 -1.8643574 19 4
-6.4513431 -18.107473 3.044528 7 12
-5.0902767 -14.271506 -1.3256389 25 5
-5.2661004 -14.740066 -0.82031387 17 6
-5.8421655 -16.325516 -0.30265963 32 7
-2.8200977 -7.8074598 -2.2242911 7 0
-3.7028072 -10.234473 -2.5127032 7 1
-6.4750643 -17.87742 0.99647671 13 9
-4.8565164 -13.394061 -2.769402 8 2
-6.7003145 -18.469124 1.7188854 12 10
-6.3197517 -17.401163 -2.9322081 4 3
-6.9022808 -18.984484 2.4802852 11 11
-5.0970845 -14.011733 -1.8307214 16 4
-5.1201782 -14.044691 -1.3078591 24 5
-5.2832422 -14.468432 -0.80722988 17 6
-5.5795808 -15.255177 -0.28353179 29 7
-3.5900884 -9.8050747 2.7978339 0 15
-2.8718586 -7.7803326 -2.2222204 7 0
-6.0778904 -16.448315 0.30608028 28 8
-3.7687609 -10.193751 -2.509104 8 1
-6.6059532 -17.848639 0.99741876 7 9
-4.9376259 -13.326694 -2.7625327 8 2
-6.5250678 -17.601776 1.6423628 17 10
-5.1442032 -13.861961 -2.3418241 6 3
-6.900537 -18.574833 2.4329998 11 11
-7.2986975 -19.636093 -2.5721745 16 4
-6.8771305 -18.482178 3.1233709 15 12
-5.3066278 -14.223485 -0.79561126 26 6
-2.9329202 -7.7781692 -2.2273967 9 0
-3.8343256 -10.152608 -2.5055048 8 1
-7.3491225 -19.438631 1.0891113 9 9
-5.0361028 -13.306587 -2.7655857 9 2
-6.6922407 -17.673182 1.6533444 13 10
-5.1540289 -13.596668 -2.3030286 19 3
-6.9856772 -18.409281 2.4176443 12 11
-5.163281 -13.599584 -1.7861173 28 4
-6.9919567 -18.396786 3.1171134 12 12
-5.1995816 -13.666438 -1.279272 23 5
-6.3949742 -16.799553 3.4940944 3 13
-5.474072 -14.365261 -0.80565983 8 6
-2.9788201 -7.7358704 -2.2211852 7 0
-6.1846805 -16.044653 0.30014646 27 8
-3.9065115 -10.129228 -2.5064046 9 1
-6.1179194 -15.846725 0.89023465 19 9
-5.1218004 -13.252792 -2.7617695 11 2
-6.9972529 -18.096182 1.6974453 11 10
-6.6400032 -17.154465 -2.9134357 11 3
-6.8515282 -17.682596 2.3284359 12 11
-7.2593012 -18.725294 -2.4659045 9 4
-7.2195578 -18.6035 3.1606023 18 12
-5.1851997 -13.347515 -1.2527766 22 5
-6.4651594 -16.633724 3.4689076 15 13
-5.5018044 -14.140561 -0.7951926 17 6
-3.034168 -7.7184825 -2.2222204 7 0
-6.1735268 -15.68847 0.2942825 27 8
-3.97856 -10.105336 -2.5073044 8 1
-6.9900141 -17.736109 0.99909347 5 9
-5.1752906 -13.118093 -2.7411623 21 2
-7.1285381 -18.059862 1.6986655 12 10
-5.2054453 -13.174318 -2.2435834 21 3
-6.9375691 -17.540192 2.3160052 21 11
-6.358397 -16.051289 2.7344749 16 12
-5.2098651 -13.145211 -1.2370886 33 5
-6.6665587 -16.80352 3.5139387 17 13
-5.6003885 -14.101807 -0.7951926 26 6
-3.0843825 -7.6881466 -2.2196321 6 0
-6.3740263 -15.879912 0.29868048 27 8
-4.0417461 -10.059231 -2.5028055 8 1
-7.2297688 -17.984623 1.015841 8 9
-5.2102265 -12.947784 -2.7129223 14 2
-6.5687218 -16.299097 -2.7832825 6 3
-6.7597361 -16.756186 2.2185097 10 11
-5.3644485 -13.284155 -1.7590623 19 4
-6.5422444 -16.192623 2.7660747 19 12
-5.2835808 -13.064191 -1.2329051 22 5
-6.6687765 -16.472683 3.454406 16 13
-5.6347628 -13.911564 -0.78660947 26 6
-6.7400646 -16.623745 4.1413493 3 14
-3.1344473 -7.6616101 -2.2180793 7 0
-6.4650297 -15.786913 0.29777294 27 8
-4.1056895 -10.020668 -2.5001059 8 1
-7.5006604 -18.288504 1.035938 2 9
-5.2333879 -12.747642 -2.6785769 32 2
-6.3905039 -15.558454 1.4715376 12 10
-5.2468772 -12.761477 -2.1853898 24 3
-6.8123307 -16.552555 2.1977918 11 11
-5.2748618 -12.810466 -1.7010525 23 4
-6.6521187 -16.139252 2.7648232 17 12
-5.2417374 -12.711113 -1.2029235 31 5
-6.695353 -16.220032 3.4109018 19 13
-5.8537779 -14.16723 -0.80335701 17 6
-10.607544 -25.659529 6.4102054 12 14
-3.1923218 -7.650238 -2.2211852 7 0
-4.1800551 -10.002549 -2.5028055 8 1
-8.7914057 -21.026846 1.1944113 13 9
-5.4466128 -13.014168 -2.7423069 13 2
-6.4928079 -15.498759 1.470143 13 10
-5.2626057 -12.556037 -2.1562929 17 3
-5.1469774 -12.268146 1.6335368 7 11
-5.2073693 -12.399957 -1.6513296 24 4
-5.0600791 -12.043336 2.0690024 9 12
-5.2654686 -12.519937 -1.1882814 20 5
-5.0442352 -11.982201 2.5270743 18 13
-5.4802718 -13.011618 -0.7399258 8 6
-10.799292 -25.615374 6.4178534 8 14
-3.2412972 -7.6212206 -2.2191145 9 0
-6.671114 -15.670515 0.29728428 27 8
-4.2312431 -9.9344225 -2.4929075 10 1
-6.4886756 -15.219851 0.86710221 15 9
-5.2537656 -12.311325 -2.6018715 10 2
-7.1097956 -16.652576 1.5841427 10 10
-5.2756124 -12.344612 -2.1262577 19 3
-5.2356229 -12.239216 1.6345118 13 11
-5.2924328 -12.36605 -1.6515735 42 4
-5.1588125 -12.042217 2.0749471 15 12
-5.1611543 -12.036075 -1.1457494 18 5
-6.9957561 -16.306597 3.4490635 15 13
-5.2951469 -12.33072 -0.70329064 26 6
-11.337238 -26.375452 6.6279578 13 14
-6.613163 -15.377752 -0.2921882 30 7
-3.2852018 -7.5771379 -2.2129028 7 0
-4.3113604 -9.9296646 -2.4992063 8 1
-6.2882795 -14.468957 0.82680351 6 9
-5.3090405 -12.204137 -2.5869884 21 2
-6.3361611 -14.558274 1.3890882 10 10
-5.3159065 -12.202442 -2.1081111 8 3
-5.3145924 -12.187809 1.6325619 7 11
-5.2459173 -12.013149 2.0761983 16 12
-5.3727307 -12.291847 -1.1736392 19 5
-5.1554728 -11.789196 2.5011244 32 13
-5.6221652 -12.84418 -0.73479688 17 6
-11.522662 -26.299234 6.6288581 27 14
-3.3380203 -7.554018 -2.2129028 7 0
-6.877934 -15.550241 0.29679561 27 8
-4.3726907 -9.8815031 -2.4947071 8 1
-6.4214911 -14.497752 0.83099043 8 9
-5.5047154 -12.416248 -2.6400332 6 2
-6.4925752 -14.637531 1.4009414 10 10
-5.8426275 -13.159831 -2.2805018 12 3
-5.2944107 -11.908219 -1.6001446 1 4
-5.3553576 -12.033984 2.0862103 12 12
-5.3400507 -11.98832 -1.1481898 28 5
-5.2456427 -11.770849 2.5049405 20 13
-5.5969748 -12.54743 -0.72003812 17 6
-5.1609936 -11.559189 2.922564 4 14
-3.3843298 -7.516438 -2.2087619 7 0
-6.9846821 -15.498199 0.29672581 27 8
-4.425549 -9.8152056 -2.4857092 9 1
-6.6186738 -14.665561 0.84323704 11 9
-5.3067703 -11.747727 -2.5057039 4 2
-6.7595305 -14.95678 1.4359779 9 10
-5.3302565 -11.783271 -2.0483532 10 3
-5.4261098 -11.984023 1.6152564 20 11
-5.2924104 -11.672469 2.0298939 10 12
-5.5125394 -12.146691 -1.1670153 19 5
-5.3147039 -11.705338 2.4988348 20 13
-5.6108904 -12.346223 -0.71072239 17 6
-5.3214469 -11.698488 2.9671044 9 14
-6.9337606 -15.235884 -0.2921882 30 7
-3.4431655 -7.5066752 -2.2129028 7 0
-4.4858298 -9.7663622 -2.4812102 9 1
-5.6480212 -12.285329 0.70862895 12 9
-5.3435159 -11.6123 -2.4847147 28 2
-7.0904131 -15.401494 1.4833907 9 10
-5.3677464 -11.648893 -2.0314584 24 3
-5.5196157 -11.967483 1.6181813 20 11
-5.4060969 -11.715978 -1.5843016 42 4
-5.4160123 -11.726697 2.0458503 13 12
-5.6306462 -12.18025 -1.1739877 19 5
-5.4201927 -11.719625 2.5099015 17 13
-5.6424103 -12.188939 -0.7039187 26 6
-5.3071351 -11.454176 2.9144659 11 14
-3.4971235 -7.4859562 -2.2139382 9 0
-4.5390401 -9.7030354 -2.4731119 9 1
-6.6347752 -14.170166 0.81999987 8 9
-5.3827991 -11.485827 -2.4656341 10 2
-5.8360209 -12.44726 1.2027491 6 10
-5.394392 -11.494899 -2.0111217 6 3
-5.6232848 -11.971778 1.6240309 20 11
-6.2172074 -13.230219 -1.7948918 4 4
-5.3152995 -11.30071 1.9779577 4 12
-5.6221938 -11.942356 -1.1548136 19 5
-5.4466677 -11.564277 2.4847147 26 13
-5.8534117 -12.416623 -0.71941012 26 6
-5.5740738 -11.813389 3.0156939 19 14
-3.5409994 -7.4439135 -2.2087619 9 0
-7.5312271 -15.817954 0.30580106 28 8
-4.6033168 -9.664072 -2.4713123 10 1
-5.0918417 -10.680064 0.62007648 10 9
-5.3799934 -11.274326 -2.4282355 30 2
-5.0695539 -10.618999 1.0294836 8 10
-5.3850851 -11.269812 -1.9782705 30 3
-5.7555456 -12.034306 1.6379241 15 11
-5.6312594 -11.758614 2.0649352 6 12
-5.4350114 -11.338668 -1.1000798 17 5
-5.4839721 -11.435689 2.4652524 13 13
-5.9520502 -12.400666 -0.72087556 26 6
-5.5045152 -11.458006 2.9347115 20 14
-7.6289997 -15.873151 -0.30740669 33 7
-3.5979338 -7.4294443 -2.2118676 9 0
-4.6621675 -9.6141663 -2.4668133 9 1
-5.8168602 -11.984671 0.69816172 8 9
-5.40624 -11.128773 -2.4049568 12 2
-5.1322427 -10.560053 1.0272175 9 10
-5.4126482 -11.127137 -1.9598112 15 3
-5.7759867 -11.863542 1.6201311 7 11
-5.4251318 -11.137966 -1.5211732 14 4
-5.5539355 -11.392302 2.0073674 9 12
-5.4091916 -11.085576 -1.0791624 16 5
-5.6334357 -11.54003 2.4961634 30 13
-6.0963464 -12.477249 -0.72778392 8 6
-5.7333355 -11.723907 3.0129945 9 14
-3.6531301 -7.4110761 -2.2139382 9 0
-5.440362 -11.027113 0.21462969 15 8
-4.718823 -9.5604134 -2.4614143 9 1
-5.1581917 -10.441398 0.61034197 14 9
-5.4498653 -11.022124 -2.3900738 22 2
-5.3798671 -10.875778 1.0615569 13 10
-5.4586453 -11.025348 -1.9485478 20 3
-5.8886366 -11.883402 1.6284183 7 11
-5.4683681 -11.030459 -1.5116674 28 4
-5.7711811 -11.631064 2.0564878 21 12
-5.4898362 -11.059209 -1.0802083 16 5
-5.7793789 -11.632285 2.5247848 21 13
-5.9556446 -11.976567 -0.70098788 17 6
-5.5925331 -11.241442 2.8987193 13 14
-5.5021338 -11.05006 -0.21546741 16 7
-3.6961176 -7.3681235 -2.2087619 7 0
-5.5045323 -10.968378 0.21421084 45 8
-4.7732072 -9.5028582 -2.4551158 8 1
-5.3645592 -10.675521 0.62614745 20 9
-5.538878 -11.012835 -2.3961794 18 2
-6.0648346 -12.048104 1.1800888 15 10
-5.5460048 -11.012636 -1.9529281 18 3
-5.8532324 -11.612602 1.5967323 6 11
-5.5640187 -11.029234 -1.516786 21 4
-5.9027271 -11.69556 2.0749471 15 12
-5.5740972 -11.034841 -1.0816028 16 5
-5.8976502 -11.665241 2.5408127 39 13
-5.7052917 -11.279883 -0.66246861 8 6
-5.9278836 -11.709811 3.0300906 12 14
-5.6044502 -11.061325 -0.21644475 16 7
-3.7444296 -7.3393526 -2.2077267 9 0
-5.5536876 -10.876256 0.2131637 44 8
-4.8271418 -9.4493227 -2.449717 8 1
-6.165422 -12.058675 0.70978028 2 9
-5.6317258 -11.005357 -2.4030488 15 2
-6.1920996 -12.095217 1.1888043 3 10
-5.6371651 -11.001779 -1.957934 16 3
-5.6552734 -11.022896 -1.5211732 21 4
-6.1574812 -11.991458 2.1350179 15 12
-5.6618257 -11.021454 -1.0840431 16 5
-5.9463921 -11.565465 2.5278378 41 13
-6.2536316 -12.152598 -0.71626997 8 6
-12.568814 -24.414337 6.3395705 17 14
-5.4268165 -10.532303 -0.20681101 14 7
-3.788455 -7.2993159 -2.2035854 7 0
-5.5483422 -10.685575 0.21016188 28 8
-4.878613 -9.3877268 -2.4425187 9 1
-5.4725437 -10.526115 0.62175119 20 9
-5.7119436 -10.977217 -2.4053383 16 2
-5.4168339 -10.401213 1.0259974 16 10
-5.7247 -10.987679 -1.9623141 15 3
-5.7486229 -11.014824 -1.5255606 19 4
-6.0817075 -11.648085 2.0812044 12 12
-5.7533956 -11.009911 -1.086832 16 5
-5.7343459 -10.959475 -0.64823323 17 6
-6.0055971 -11.468143 2.9886997 9 14
-5.7675657 -11.004256 -0.2168636 16 7
-3.8326435 -7.2631087 -2.2004797 7 0
-5.5817161 -10.568777 0.20862606 14 8
-4.9169097 -9.306057 -2.4299212 9 1
-5.5132184 -10.425857 0.61808771 14 9
-5.812315 -10.98219 -2.4152606 22 2
-5.5052214 -10.397557 1.0293093 20 10
-5.8197651 -10.982355 -1.9685715 17 3
-5.5118213 -10.392472 1.4443955 0 11
-5.832767 -10.992976 -1.527998 19 4
-6.3231544 -11.907166 2.1353307 7 12
-5.8674645 -11.044394 -1.0941532 16 5
-8.5606766 -16.10029 3.5444679 12 13
-5.7356558 -10.778122 -0.6398595 8 6
-12.66797 -23.79492 6.2234955 16 14
-5.7746315 -10.837677 -0.21435046 16 7
-3.8777735 -7.2259631 -2.1973739 9 0
-5.755682 -10.720819 0.2123958 14 8
-4.9633107 -9.2371702 -2.4209232 9 1
-5.608645 -10.433827 0.6208092 14 9
-6.0431995 -11.232832 -2.4793723 13 2
-5.5087223 -10.230808 1.0165845 18 10
-6.0367799 -11.206832 -2.0161276 18 3
-7.518292 -13.945489 1.9452786 6 11
-6.0620766 -11.235002 -1.5674837 19 4
-6.297092 -11.665683 2.0996637 19 12
-7.1414523 -13.218871 -1.3144829 25 5
-8.2339926 -15.228457 3.3651078 5 13
-6.4246473 -11.877187 -0.70768684 8 6
-12.897797 -23.82415 6.254539 12 14
-5.6920142 -10.505238 -0.20855626 15 7
-3.9046695 -7.1586952 -2.1849504 9 0
-5.7709808 -10.571551 0.21023169 14 8
-5.0073905 -9.1689663 -2.4119251 8 1
-5.5577788 -10.168337 0.60730648 10 9
-6.1271248 -11.200703 -2.4816618 13 2
-5.7054467 -10.42553 1.039768 6 10
-6.1376452 -11.205995 -2.0236366 18 3
-5.7042046 -10.406005 1.45707 0 11
-6.1575007 -11.22829 -1.5723584 16 4
-9.5148172 -17.336048 3.1321313 7 12
-6.1975937 -11.282711 -1.1262265 18 5
-8.7913017 -15.997935 3.5482843 13 13
-6.0184636 -10.943024 -0.65451354 17 6
-13.036549 -23.684021 6.2414923 16 14
-5.9080744 -10.729002 -0.21379198 16 7
-3.9358122 -7.0974731 -2.1745977 7 0
-5.9183908 -10.663891 0.21288446 14 8
-5.0580363 -9.1099319 -2.4056265 8 1
-5.8401165 -10.509881 0.63012499 20 9
-6.2223444 -11.18854 -2.4885311 18 2
-5.7364364 -10.310581 1.0322726 13 10
-6.2387924 -11.204294 -2.0311453 18 3
-7.9741454 -14.309074 2.011332 11 11
-6.2647381 -11.237044 -1.5796705 16 4
-10.671267 -19.125324 3.4687784 9 12
-6.3111811 -11.301791 -1.1325017 27 5
-8.7850018 -15.725357 3.5013452 2 13
-6.2877016 -11.245909 -0.67523855 17 6
-10.165966 -18.167515 4.8063045 17 14
-3.979574 -7.0597258 -2.1714919 9 0
-5.8846116 -10.430731 0.20904493 28 8
-5.106185 -9.047246 -2.3984282 8 1
-5.7935076 -10.256693 0.61735499 14 9
-6.3215585 -11.182425 -2.4969265 19 2
-5.9210691 -10.469721 1.0523185 4 10
-6.3382649 -11.198289 -2.0380285 18 3
-7.7930422 -13.757341 1.9413787 11 11
-6.3586941 -11.220667 -1.5835704 14 4
-6.6725526 -11.764932 2.1422138 21 12
-6.3958268 -11.267854 -1.1335475 27 5
-6.4496555 -11.358062 2.5389047 19 13
-6.0857987 -10.708591 -0.64551175 8 6
-10.334944 -18.170631 4.8260999 10 14
-6.1858625 -10.871409 -0.21832959 16 7
-4.011476 -7.0015984 -2.1621742 7 0
-6.0209498 -10.500419 0.21127884 14 8
-5.1537075 -8.9843311 -2.3912296 9 1
-5.9604344 -10.382279 0.6274035 16 9
-6.4249024 -11.18228 -2.5068486 19 2
-5.8361497 -10.153477 1.0246029 12 10
-6.4379592 -11.191436 -2.0449116 16 3
-8.1573038 -14.168818 2.007432 11 11
-6.4586682 -11.213847 -1.5889326 15 4
-6.5365095 -11.339839 2.0730698 13 12
-6.4892697 -11.248815 -1.1361622 45 5
-6.5768776 -11.396077 2.5576038 32 13
-6.761765 -11.707006 -0.70852429 17 6
-7.2744179 -12.584438 3.3558199 5 14
-6.2295756 -10.772565 -0.21721266 24 7
-4.0583148 -6.9700837 -2.161139 9 0
-6.1061888 -10.478863 0.21169768 43 8
-5.1947136 -8.9110947 -2.3813319 9 1
-6.0780621 -10.418046 0.63211375 16 9
-6.5226116 -11.171062 -2.5144811 19 2
-6.0536094 -10.363664 1.0500524 15 10
-6.535872 -11.180324 -2.0511689 14 3
-6.8035002 -11.628814 1.6542546 15 11
-6.5528417 -11.195895 -1.5928324 16 4
-6.6324873 -11.322906 2.0783885 16 12
-6.599936 -11.262829 -1.1420889 46 5
-6.6662054 -11.36682 2.5614202 24 13
-6.7887368 -11.5665 -0.70287192 8 6
-7.271101 -12.38339 3.3153286 6 14
-11.202517 -19.048494 5.9212623 2 15
-4.091136 -6.9149799 -2.1528571 9 0
-6.1020036 -10.309712 0.20911473 43 8
-5.2270036 -8.8243122 -2.3678348 8 1
-7.2199655 -12.18402 0.74222863 6 9
-6.6165252 -11.1568 -2.5213501 19 2
-6.8732338 -11.580454 1.1781713 15 10
-6.6279588 -11.162754 -2.056175 18 3
-6.8733683 -11.566877 1.652061 21 11
-6.6470785 -11.177174 -1.5967323 16 4
-6.6639571 -11.201105 2.0643096 15 12
-6.7069449 -11.264412 -1.1469696 46 5
-6.6428914 -11.147979 2.522495 22 13
-8.3164511 -13.950978 -0.85119206 35 6
-7.3304186 -12.287141 3.3031814 8 14
-6.3609228 -10.653632 -0.21658437 16 7
-4.1301498 -6.8737245 -2.1487157 9 0
-6.219173 -10.342264 0.21065055 29 8
-5.272882 -8.765151 -2.361536 9 1
-7.0400987 -11.693568 0.71532792 12 9
-6.7185674 -11.150696 -2.530509 21 2
-7.0557823 -11.705745 1.1957767 12 10
-6.7424579 -11.177104 -2.0674381 19 3
-6.8513565 -11.348669 1.6276871 16 11
-6.7455835 -11.169053 -1.6020945 19 4
-6.8155622 -11.276031 2.0868361 13 12
-6.7999592 -11.245777 -1.1497585 46 5
-6.7267509 -11.115941 2.525548 24 13
-8.4477873 -13.948955 -0.85464621 17 6
-7.3946991 -12.205293 3.2946332 9 14
-7.4693437 -12.3091 3.8579569 16 15
-4.1639442 -6.8216386 -2.1414688 9 0
-7.1731768 -11.74694 0.24024983 19 8
-5.3156543 -8.6981955 -2.3534379 9 1
-7.0278549 -11.495421 0.7061168 12 9
-6.816855 -11.141549 -2.5389047 19 2
-7.0239258 -11.470993 1.1767769 6 10
-6.8431458 -11.171378 -2.0749471 19 3
-7.0487957 -11.498088 1.6559607 15 11
-6.865952 -11.191062 -1.6120878 20 4
-6.8156943 -11.104792 2.0636837 10 12
-6.8897715 -11.216706 -1.1516759 18 5
-6.8134418 -11.083763 2.5289826 17 13
-8.3228292 -13.533856 -0.83266515 8 6
-10.580705 -17.191965 4.6605358 4 14
-8.3613167 -13.575194 -0.27829608 28 7
-7.3036575 -11.853374 3.7306178 10 15
-4.214354 -6.799705 -2.1435394 9 0
-8.4545174 -13.630426 0.27997148 25 8
-5.3480239 -8.6187592 -2.3417406 8 1
-7.2027655 -11.598783 0.71553725 12 9
-6.9255595 -11.14371 -2.5503531 19 2
-7.1828461 -11.553205 1.1901989 12 10
-6.9376674 -11.150167 -2.079953 17 3
-7.136241 -11.460393 1.6576669 13 11
-6.9619112 -11.176081 -1.6167189 18 4
-6.9609799 -11.1659 2.0840201 21 12
-7.0248609 -11.259614 -1.1610888 19 5
-6.9074397 -11.067106 2.5358517 16 13
-8.3631449 -13.389033 -0.82732689 17 6
-7.4507632 -11.919088 3.2451439 9 14
-8.347497 -13.34842 -0.27480558 27 7
-7.3790574 -11.790633 3.7269943 11 15
-4.2637782 -6.7733884 -2.1445746 9 0
-5.3914375 -8.5548353 -2.334542 9 1
-7.3954368 -11.725596 0.72652781 6 9
-7.0073781 -11.101732 -2.5518796 21 2
-7.2686458 -11.5112 1.1910703 4 10
-7.0491095 -11.154898 -2.0899646 15 3
-7.0802641 -11.195542 1.6264684 13 11
-7.0609908 -11.160756 -1.6215936 19 4
-7.0746913 -11.173776 2.0946577 18 12
-6.9319797 -10.935705 2.5167708 25 13
-8.3430061 -13.151549 -0.81623167 17 6
-9.4545803 -14.892292 4.0725136 5 14
-7.5492716 -11.877417 3.7709937 14 15
-4.3109617 -6.7434564 -2.1445746 9 0
-7.5167584 -11.74911 0.24346107 39 8
-5.4363227 -8.4940081 -2.3282435 9 1
-7.1280913 -11.128763 0.69261408 6 9
-7.0285592 -10.96494 -2.5316539 10 2
-7.3886228 -11.522232 1.1975199 2 10
-7.1566834 -11.151964 -2.0987251 17 3
-7.2335176 -11.267366 1.6440176 16 11
-7.1784353 -11.172985 -1.630612 20 4
-7.3052983 -11.361716 2.1393981 15 12
-11.270888 -17.522558 -1.8227752 37 5
-7.1367359 -11.086791 2.5629466 31 13
-8.5092506 -13.208837 -0.82345402 17 6
-7.6027799 -11.797207 3.2401948 8 14
-7.6299448 -11.825754 3.7709937 14 15
-4.3441443 -6.69451 -2.1383629 9 0
-7.5660629 -11.650715 0.24248375 39 8
-5.4727807 -8.4241238 -2.3192453 8 1
-7.615191 -11.712935 0.73218012 14 9
-7.1490731 -10.987605 -2.5480635 21 2
-7.3103695 -11.231217 1.1724191 12 10
-7.2647724 -11.152648 -2.1081111 16 3
-7.3382235 -11.26111 1.6503549 17 11
-7.2770944 -11.15878 -1.6357305 18 4
-7.2442718 -11.099986 2.0993509 15 12
-7.36308 -11.27772 -1.1783456 19 5
-7.1218295 -10.899901 2.5308907 28 13
-8.6011496 -13.153953 -0.82366335 17 6
-7.8535862 -12.006117 3.3121793 8 14
-7.7293139 -11.802636 3.7803111 13 15
-4.3896098 -6.6647859 -2.1383629 9 0
-7.7178245 -11.70914 0.24478745 39 8
-5.5063934 -8.3508873 -2.3093476 9 1
-7.6067395 -11.527468 0.72380638 6 9
-7.3080845 -11.066472 -2.5778296 18 2
-7.3053808 -11.058181 1.15952 8 10
-7.366663 -11.142487 -2.1156199 14 3
-7.5524864 -11.41489 1.6805785 19 11
-7.3835568 -11.155339 -1.6425551 18 4
-7.401474 -11.173933 2.1228158 16 12
-7.4636478 -11.259256 -1.1818318 20 5
-12.306273 -18.543491 -1.1663592 20 6
-11.384005 -17.1408 4.7505164 10 14
-7.7983141 -11.737404 -0.24597423 22 7
-8.2415123 -12.395089 3.9884017 18 15
-4.4360318 -6.6339784 -2.1383629 9 0
-7.6548047 -11.438927 0.24024983 19 8
-5.5277009 -8.2571831 -2.2940509 10 1
-8.1750441 -12.202517 0.76975733 12 9
-7.3272176 -10.928759 -2.5576038 10 2
-7.5011516 -11.18396 1.1781713 10 10
-7.4684906 -11.126872 -2.122503 16 3
-7.4150429 -11.038909 1.6328056 14 11
-7.4878287 -11.143064 -1.648405 15 4
-7.2985201 -10.853159 2.0715053 3 12
-7.5839171 -11.264813 2.6396518 28 13
-7.9636745 -11.819981 -0.74693882 17 6
-8.0269909 -11.904986 3.3148787 11 14
-7.9449205 -11.778831 -0.2479987 33 7
-9.8874931 -14.647784 4.7353535 9 15
-4.486578 -6.609241 -2.1404335 9 0
-5.5698767 -8.1958256 -2.2877522 9 1
-8.7373924 -12.847036 0.8142429 6 9
-7.3956037 -10.865977 -2.5549326 19 2
-8.0578547 -11.834542 1.2526023 8 10
-7.5793586 -11.123434 -2.1318891 17 3
-7.5833354 -11.116757 -1.6523046 18 4
-7.9376669 -11.627463 2.2298172 10 12
-8.081109 -11.833154 -1.2536482 22 5
-8.145359 -11.918294 2.8060372 26 13
-8.0832081 -11.818499 -0.75039297 17 6
-9.9081144 -14.481278 4.0509186 5 14
-8.1037827 -11.835277 -0.25037223 23 7
-8.0708885 -11.778416 3.8258634 4 15
-4.539187 -6.5873027 -2.1435394 9 0
-8.4927559 -12.320148 0.26119271 22 8
-5.6026139 -8.1214514 -2.2778544 9 1
-8.3924236 -12.160971 0.77436286 19 9
-7.5084438 -10.871926 -2.5682893 12 2
-7.841218 -11.3453 1.2065841 12 10
-7.6908474 -11.12358 -2.141901 14 3
-7.6388259 -11.0401 1.648405 0 11
-7.7014427 -11.122298 -1.6610793 18 4
-8.0323734 -11.5959 2.2341974 13 12
-8.2134666 -11.848496 -1.261318 23 5
-8.193676 -11.811133 2.7942071 24 13
-8.4686403 -12.202951 -0.77844507 8 6
-8.4882841 -12.22214 3.4354525 4 14
-4.5817065 -6.5530858 -2.1425042 9 0
-8.5006018 -12.149145 0.25881919 44 8
-5.6488256 -8.0703554 -2.2742553 9 1
-8.2433596 -11.768371 0.7530098 10 9
-7.5841608 -10.819242 -2.5682893 12 2
-8.1275997 -11.590185 1.2384831 6 10
-7.7842026 -11.092253 -2.146281 17 3
-8.504056 -12.109033 1.8168284 16 11
-7.8131456 -11.116983 -1.6683915 19 4
-10.775095 -15.325725 2.9672492 7 12
-8.4908876 -12.067876 -1.2909508 24 5
-8.3460073 -11.853169 2.8178673 37 13
-8.5398254 -12.123938 -0.77718902 26 6
-8.6710844 -12.301157 3.4745941 13 14
-8.6067753 -12.196361 3.9997897 15 15
-4.6284804 -6.5201335 -2.1425042 9 0
-8.5921574 -12.099286 0.25902861 22 8
-5.6883664 -8.0043116 -2.2670567 9 1
-8.6017008 -12.094824 0.77781707 17 9
-7.6356077 -10.732437 -2.5602751 13 2
-8.6436682 -12.140371 1.3038499 18 10
-7.9023485 -11.090967 -2.1569188 17 3
-8.6402349 -12.12211 1.8277966 21 11
-7.9251499 -11.11065 -1.6757036 14 4
-10.816774 -15.153368 2.9487898 15 12
-8.2391586 -11.538091 -1.2404004 22 5
-11.128112 -15.572276 3.7203941 12 13
-14.665399 -20.507093 -1.3212737 10 6
-8.8066368 -12.310059 3.4943895 16 14
-8.7073288 -12.153307 4.0060015 14 15
-4.6671109 -6.4782567 -2.1393983 9 0
-5.7213101 -7.9327941 -2.2580585 9 1
-8.5795584 -11.887106 0.76829189 19 9
-7.6259947 -10.558161 -2.5316539 12 2
-8.7958889 -12.1734 1.31396 16 10
-8.018939 -11.089953 -2.1675563 16 3
-8.8163633 -12.183804 1.8465644 8 11
-8.057229 -11.130629 -1.6871593 20 4
-8.4655075 -11.686049 2.2855077 18 12
-8.2446842 -11.377038 -1.2292446 21 5
-10.961088 -15.114363 3.6291871 5 13
-14.331924 -19.747938 -1.2787769 21 6
-8.9667807 -12.35078 3.5236332 11 14
-8.3216343 -11.445346 3.7916992 8 15
-4.7213454 -6.457993 -2.1435394 9 0
-5.7627411 -7.8737884 -2.25266 9 1
-8.5257683 -11.644721 0.75635934 10 9
-7.7510605 -10.578856 -2.5492084 12 2
-9.6146297 -13.112702 1.4225559 16 10
-8.1269541 -11.079713 -2.1763165 15 3
-10.367392 -14.123827 2.1512377 6 11
-8.1547165 -11.101305 -1.6913029 18 4
-11.070294 -15.064873 2.9609921 12 12
-8.2601671 -11.232528 -1.2198317 21 5
-10.983719 -14.925205 3.6020923 9 13
-14.962145 -20.323849 -1.3226345 21 6
-8.6054649 -11.680701 3.3495212 6 14
-4.760591 -6.4194984 -2.1414688 9 0
-5.7999406 -7.8124738 -2.246361 10 1
-12.117013 -16.309626 1.0648274 9 9
-7.8165264 -10.513457 -2.5465369 10 2
-9.6525335 -12.978209 1.4150605 19 10
-8.241848 -11.073414 -2.1863284 15 3
-10.377994 -13.933297 2.1332014 9 11
-8.2609301 -11.086927 -1.6976401 18 4
-11.088998 -14.871616 2.9381526 14 12
-8.395997 -11.255894 -1.2285473 21 5
-11.484347 -15.38501 3.7318425 21 13
-15.061829 -20.162901 -1.3189709 10 6
-8.7990904 -11.774838 3.3936114 2 14
-8.5902796 -11.487041 -0.25037223 23 7
-8.791173 -11.747128 3.9314613 13 15
-4.7959976 -6.3737588 -2.1373277 9 0
-5.8519936 -7.7686806 -2.2454615 8 1
-9.8886948 -13.122739 0.8611359 2 9
-7.8619037 -10.425524 -2.5381415 10 2
-9.7008982 -12.854843 1.4089596 10 10
-8.3622599 -11.076967 -2.1982174 18 3
-10.476183 -13.867083 2.1339324 12 11
-8.393199 -11.101826 -1.7088521 18 4
-11.231672 -14.850934 2.9491029 19 12
-8.4815865 -11.206536 -1.2295932 21 5
-11.647185 -15.378015 3.7497785 19 13
-8.6577606 -11.426873 -0.75133508 17 6
-8.7503881 -11.540756 3.3436723 8 14
-8.6340008 -11.379003 -0.24932507 22 7
-8.9316626 -11.767035 3.9583786 16 15
-4.7501979 -6.2242513 -2.0979872 5 0
-5.8940907 -7.7147312 -2.2414124 10 1
-10.040718 -13.132718 0.86636949 4 9
-7.8963184 -10.32049 -2.5259297 10 2
-9.9564962 -13.008431 1.4331889 14 10
-8.0454035 -10.503943 -2.0955963 25 3
-11.274364 -14.708983 2.2755446 10 11
-8.4903126 -11.072796 -1.7132393 11 4
-11.603242 -15.121639 3.0188725 10 12
-8.6620035 -11.284464 -1.244584 22 5
-13.105428 -17.060822 4.1817698 7 13
-8.7105446 -11.331316 -0.74903226 17 6
-8.8738823 -11.539629 3.3607688 4 14
-8.7234516 -11.335816 -0.24967413 22 7
-9.0984612 -11.814594 3.9956486 16 15
-4.6516104 -6.0076375 -2.0358706 4 0
-5.9275103 -7.6472106 -2.2337639 9 1
-10.33304 -13.326077 0.88374507 7 9
-7.9230561 -10.210663 -2.5121913 10 2
-10.154601 -13.07709 1.4485284 12 10
-8.0476408 -10.360016 -2.0777628 22 3
-10.733389 -13.807525 2.1473379 7 11
-8.6210384 -11.082192 -1.7239639 15 4
-14.226877 -18.281807 3.6690142 10 12
-8.8776779 -11.399777 -1.2641069 23 5
-13.411272 -17.208939 4.240921 8 13
-8.7469473 -11.219785 -0.74557811 17 6
-8.9841967 -11.515808 3.3720162 12 14
-8.8712902 -11.362906 -0.25162879 23 7
-9.3023367 -11.910732 4.0494828 17 15
-4.6385427 -5.9051352 -2.0120592 4 0
-5.9735236 -7.5964527 -2.2310646 8 1
-10.741855 -13.650462 0.91033173 4 9
-7.9801292 -10.133655 -2.5072303 10 2
-10.325788 -13.10761 1.4598585 6 10
-8.729372 -11.073157 -2.2332587 16 3
-8.5819321 -10.878312 1.7012962 15 11
-8.7424679 -11.077834 -1.7327385 15 4
-13.257916 -16.787428 3.3880579 19 12
-13.095188 -16.563541 4.1043015 9 13
-8.9211912 -11.275946 -0.75353318 35 6
-9.1961966 -11.619366 3.4210558 8 14
-8.9057026 -11.244266 -0.25037223 23 7
-9.2913303 -11.722745 4.0080719 10 15
-4.6483545 -5.8333254 -1.9986008 4 0
-8.9584351 -11.238123 0.2508609 41 8
-6.0142608 -7.5393295 -2.2265656 9 1
-10.104493 -12.662215 0.84899396 9 9
-8.0207443 -10.043816 -2.4984531 10 2
-8.9853992 -11.243741 1.2592262 13 10
-8.8464813 -11.065942 -2.2438962 15 3
-8.686779 -10.858398 1.7073896 22 11
-8.8568115 -11.063021 -1.7400507 18 4
-14.837605 -18.526985 3.7594335 5 12
-8.5822191 -10.700874 2.6663651 19 13
-8.9627419 -11.171341 -0.75060236 8 6
-9.7272778 -12.115606 3.5870695 5 14
-9.0390949 -11.250408 -0.25190803 23 7
-4.6636682 -5.7714987 -1.988248 4 0
-9.0769091 -11.225065 0.25197786 42 8
-6.0605364 -7.4921579 -2.224766 9 1
-10.202699 -12.603783 0.84983134 6 9
-8.0634785 -9.9540167 -2.4900575 10 2
-8.976428 -11.077055 1.247373 15 10
-8.9683094 -11.059148 -2.2551594 14 3
-8.7548676 -10.78824 1.7059273 16 11
-8.9794512 -11.061045 -1.7493128 18 4
-8.3650007 -10.285793 2.5770664 27 13
-10.313826 -12.673073 -0.85632104 8 6
-8.3767366 -10.285547 3.0624835 17 14
-8.3021564 -10.183074 3.5204568 20 15
-4.6793542 -5.7089176 -1.9778951 4 0
-9.1246166 -11.124316 0.25114012 20 8
-6.0953875 -7.4285731 -2.2184672 9 1
-8.8683605 -10.800363 0.73238945 14 9
-8.1016169 -9.8595572 -2.4805171 10 2
-8.6676636 -10.544682 1.1942079 7 10
-9.090477 -11.051187 -2.2664227 16 3
-8.7795038 -10.665554 1.6961776 21 11
-9.1195478 -11.074704 -1.7614996 19 4
-8.5624495 -10.390779 2.132515 15 12
-8.5527916 -10.367989 2.6125569 20 13
-10.190979 -12.345081 -0.83894545 8 6
-8.3540144 -10.112635 3.0282912 13 14
-9.9526062 -12.034912 4.1845865 4 15
-4.7018042 -5.6553144 -1.9706483 4 0
-9.202055 -11.060346 0.25114012 20 8
-6.134634 -7.3708601 -2.2139683 9 1
-9.2567015 -11.114187 0.75803411 21 9
-8.1589365 -9.7891855 -2.4770825 7 2
-8.9541407 -10.739469 1.223318 15 10
-9.2053699 -11.032959 -2.2758088 14 3
-8.6730871 -10.387625 1.6615667 6 11
-9.2297258 -11.050383 -1.7678368 18 4
-8.54737 -10.226169 2.1109269 12 12
-8.5758276 -10.249306 2.5976737 16 13
-10.246145 -12.236879 -0.83643329 8 6
-8.4694643 -10.107841 3.0444875 20 14
-4.7287173 -5.607583 -1.9654719 4 0
-10.568701 -12.524092 0.28604496 26 8
-6.1771431 -7.3174286 -2.2108188 10 1
-9.2270927 -10.922654 0.74934632 14 9
-8.2118673 -9.7139969 -2.4725029 9 2
-9.099658 -10.760369 1.2329051 15 10
-9.3459721 -11.043821 -2.2914524 14 3
-8.9057541 -10.51618 1.6920341 11 11
-9.3477077 -11.034147 -1.7756364 19 4
-8.7156353 -10.280762 2.1347051 10 12
-8.6179552 -10.154757 2.5888965 13 13
-8.5044909 -10.006886 3.0318904 9 14
-10.521273 -12.37558 -0.28353179 29 7
-8.8365622 -10.386595 3.6540074 17 15
-4.7627277 -5.568562 -1.9634014 4 0
-10.640272 -12.431775 0.28562608 26 8
-6.2052636 -7.2474833 -2.2027209 10 1
-9.2121544 -10.751804 0.74201924 25 9
-8.2539282 -9.6266203 -2.4648707 9 2
-9.1797428 -10.702629 1.2336023 8 10
-9.4665909 -11.029267 -2.3020899 15 3
-8.9815407 -10.456761 1.6925216 11 11
-9.4866095 -11.040889 -1.7873359 18 4
-8.9043941 -10.355968 2.1631761 6 12
-8.7834148 -10.204454 2.6171362 14 13
-10.147481 -11.780896 -0.81487089 26 6
-8.5329723 -9.9030027 3.0179434 8 14
-8.5567427 -9.9165812 3.5095863 17 15
-4.7837653 -5.5147457 -1.9561545 22 0
-10.247587 -11.809299 0.27292073 24 8
-6.2480426 -7.1951571 -2.2000213 10 1
-9.4514704 -10.880342 0.75531262 12 9
-8.2471323 -9.4872417 -2.4435 10 2
-9.1483202 -10.51652 1.2194831 11 10
-9.6036863 -11.036104 -2.3171074 13 3
-8.9104128 -10.232207 1.6659541 5 11
-9.5999727 -11.016297 -1.7941607 19 4
-8.8838148 -10.190886 2.1412752 4 12
-10.137444 -11.620774 -1.3491708 26 5
-8.8092499 -10.091124 2.6037798 9 13
-10.124965 -11.594211 -0.80670649 26 6
-8.580101 -9.8182449 3.0102952 9 14
-10.187545 -11.649441 -0.27012834 26 7
-8.4434223 -9.6516399 3.4360819 18 15
-4.8071585 -5.4660983 -1.9504604 19 0
-10.216164 -11.608373 0.26991892 47 8
-6.2646813 -7.1158943 -2.1887739 9 1
-9.536438 -10.824586 0.75604534 8 9
-8.3209553 -9.4382715 -2.4457898 9 2
-9.2328682 -10.46895 1.2212263 13 10
-9.7223263 -11.016182 -2.3271194 13 3
-8.8029146 -9.9673996 1.6328056 5 11
-9.7351961 -11.019131 -1.8053726 16 4
-9.0188541 -10.201135 2.1566057 10 12
-10.173441 -11.498981 -1.3432443 39 5
-8.8686256 -10.020637 2.6011083 14 13
-10.187124 -11.502307 -0.80524111 26 6
-8.7673512 -9.8922777 3.051686 20 14
-10.234766 -11.543915 -0.26929063 66 7
-8.5452147 -9.6314754 3.450058 8 15
-4.8516302 -5.4396148 -1.9530486 12 0
-10.291634 -11.530799 0.26977929 47 8
-6.2856517 -7.0400066 -2.1788759 9 1
-9.2351856 -10.336251 0.72642314 10 9
-8.3578548 -9.3477507 -2.4373941 9 2
-9.1237602 -10.200787 1.1973456 9 10
-9.8464241 -11.001029 -2.3383827 12 3
-9.2364979 -10.312341 1.6998338 15 11
-9.8675222 -11.012992 -1.8156096 16 4
-9.031826 -10.073212 2.1428397 12 12
-10.037914 -11.187439 -1.3150058 25 5
-10.295202 -11.462112 -0.80743921 17 6
-8.7840881 -9.7728586 3.03369 12 14
-10.379283 -11.543561 -0.27096608 27 7
-8.7970228 -9.776948 3.52408 28 15
-4.8804164 -5.3955827 -1.9494252 3 0
-10.449712 -11.544659 0.27180377 24 8
-6.3438048 -7.006063 -2.1820252 10 1
-10.461792 -11.545848 0.81654567 17 9
-8.3886213 -9.2513628 -2.4274724 10 2
-10.5494 -11.630291 1.3737488 4 10
-9.9867115 -11.00223 -2.3534005 12 3
-9.0306501 -9.9419699 1.6491361 10 11
-10.002903 -11.008481 -1.8263341 18 4
-8.9849844 -9.8812962 2.1153071 10 12
-10.049481 -11.048109 -1.3066388 24 5
-9.1834393 -10.08893 2.6518636 25 13
-8.8110304 -9.6696262 3.0201929 12 14
-8.9757471 -9.8365936 3.5680795 15 15
-4.9036007 -5.3457193 -1.9437311 3 0
-10.928245 -11.909384 0.28213561 25 8
-6.3727884 -6.940074 -2.1752765 9 1
-9.378171 -10.209409 0.72652781 2 9
-8.3849678 -9.1217804 -2.4083912 9 2
-9.5741825 -10.408201 1.237263 13 10
-9.9971657 -10.864224 -2.3383827 15 3
-9.6897736 -10.522794 1.7563812 12 11
-10.001494 -10.853707 -1.8121973 19 4
-8.9087791 -9.6644983 2.08183 7 12
-10.05612 -10.901528 -1.2975746 24 5
-9.3215609 -10.098145 2.6713262 23 13
-8.9894142 -9.7281046 3.0579846 20 14
-8.9873981 -9.7157078 3.5463388 37 15
-4.9188251 -5.2895823 -1.9354489 3 0
-6.4185534 -6.8951092 -2.1748266 10 1
-8.3922186 -9.0027065 -2.3923633 9 2
-10.045816 -10.76528 -2.3321254 16 3
-9.6993198 -10.386702 1.7449254 14 11
-10.068366 -10.778125 -1.8109785 21 4
-9.2579651 -9.9036684 2.1472197 18 12
-10.102036 -10.79905 -1.2937398 24 5
-9.4383726 -10.086068 2.6850643 23 13
-10.338534 -11.040276 -0.7926805 8 6
-9.3302784 -9.9566097 3.1502147 8 14
-10.478485 -11.170168 4.1038351 19 15
-4.9529819 -5.2523036 -1.9344137 3 0
-6.4585056 -6.8416305 -2.1721272 10 1
-8.4090109 -8.8953896 -2.3793883 9 2
-10.16689 -10.74367 -2.3427629 17 3
-9.7047138 -10.248107 1.7329822 3 11
-10.193875 -10.760896 -1.819997 19 4
-10.267681 -10.823663 -1.3052443 24 5
-9.4558506 -9.9643888 2.6701813 17 13
-9.4009018 -9.8926449 3.1506643 12 14
-9.0356255 -9.4982977 3.5126922 5 15
-4.9828534 -5.2106161 -1.9318254 2 0
-6.485899 -6.775259 -2.1653788 9 1
-8.4382992 -8.8024549 -2.3702295 9 2
-9.6696806 -10.083448 1.2222722 1 10
-10.151373 -10.578364 -2.3221135 10 3
-9.6055279 -10.002563 1.7027587 3 11
-10.348513 -10.772501 -1.8341339 19 4
-9.4788485 -9.8603086 2.1663048 6 12
-10.354925 -10.767885 -1.3069874 24 5
-9.5728321 -9.9476452 2.683538 18 13
-10.549862 -10.955274 -0.7970767 26 6
-9.2706299 -9.6235199 3.0849788 9 14
-5.0029707 -5.1590605 -1.9256139 2 0
-10.469193 -10.792062 0.26244929 22 8
-6.5398273 -6.7368054 -2.1676283 10 1
-10.534438 -10.847939 0.79247117 6 9
-8.492547 -8.7391806 -2.3687029 9 2
-10.56214 -10.86129 1.3254646 13 10
-10.144629 -10.428312 -2.3042798 9 3
-11.599481 -11.915523 2.0417993 3 11
-16.437914 -16.873987 -2.8924472 10 4
-10.206115 -10.473216 2.316169 10 12
-9.44734 -9.6810484 2.629348 9 13
-10.64372 -10.903216 -0.79854208 8 6
-9.6807518 -9.9098492 3.198354 20 14
-10.303001 -10.535783 3.9485435 7 15
-5.0433869 -5.1303988 -1.9276843 2 0
-10.563915 -10.738666 0.26293796 22 8
-6.5827975 -6.6893582 -2.1667287 10 1
-10.513216 -10.67594 0.78524876 10 9
-8.4761829 -8.6013699 -2.3473325 7 2
-10.722547 -10.877114 1.3362719 18 10
-11.533698 -11.691792 -2.6011925 9 3
-11.729799 -11.882283 2.0500863 1 11
-16.495323 -16.698097 -2.8819664 10 4
-10.419222 -10.543617 2.3477688 6 12
-9.4981222 -9.598114 2.6247687 13 13
-9.4452343 -9.5346794 3.0984759 12 14
-10.444319 -10.532186 3.9744256 8 15
-5.0717859 -5.0859699 -1.9245785 2 0
-6.6222377 -6.6338048 -2.1640291 10 1
-10.582284 -10.593371 0.78472537 14 9
-8.5304737 -8.5364304 -2.3458059 9 2
-10.877592 -10.877592 1.3458589 14 10
-11.591916 -11.583827 -2.595561 9 3
-11.920607 -11.908131 2.0688543 12 11
-16.548277 -16.519423 -2.8709981 12 4
-9.7601862 -9.7363672 2.1835127 13 12
-10.986431 -10.94051 -0.81256813 17 6
-9.71597 -9.6719818 3.1650612 2 14
-10.298836 -10.237901 3.8910856 10 15
-5.0659595 -5.0096869 -1.9090494 2 0
-6.6683874 -6.5874124 -2.1640291 11 1
-10.584911 -10.44908 0.77949184 8 9
-8.5605927 -8.4448376 -2.3374104 9 2
-10.907869 -10.756624 1.3402809 15 10
-11.668283 -11.498458 -2.5946224 7 3
-12.088964 -11.904701 2.0832345 3 11
-16.667444 -16.407669 -2.8717294 10 4
-10.312346 -10.144533 2.2911394 18 12
-10.0723 -9.8980236 2.7449784 26 13
-11.048295 -10.849546 -0.81152141 8 6
-9.6052523 -9.4291763 3.1074739 15 14
-9.7299461 -9.5382547 3.6509016 14 15
-5.0855966 -4.9593616 -1.9033554 2 0
-6.6946712 -6.5216603 -2.1577303 12 1
-11.319721 -11.023336 0.82805955 6 9
-8.5953617 -8.3644657 -2.3313043 7 2
-11.691038 -11.365071 -2.5824206 9 3
-16.758795 -16.268789 -2.8678296 8 4
-10.416599 -10.108497 2.2989612 10 12
-9.58426 -9.2877941 2.5942392 13 13
-10.930982 -10.581767 3.5123856 9 14
-9.8057556 -9.4825487 3.6550426 8 15
-5.1289816 -4.9340053 -1.9069788 2 0
-6.7318816 -6.4691887 -2.1554811 14 1
-8.6025534 -8.2553186 -2.3175662 7 2
-11.198921 -10.743133 1.3577121 2 10
-11.752984 -11.266771 -2.578666 9 3
-11.847711 -11.349646 2.0145004 12 11
-16.827564 -16.114521 -2.8607612 12 4
-9.0725784 -8.6820726 1.9889081 10 12
-9.2215166 -8.8153543 2.4797537 8 13
-9.7639408 -9.3241091 3.1169219 4 14
-9.9108639 -9.45119 3.6695366 4 15
-5.1492858 -4.8847837 -1.9018024 2 0
-6.7839522 -6.4287376 -2.1577303 16 1
-11.15454 -10.566778 0.80524111 6 9
-8.5872564 -8.1290903 -2.2984853 9 2
-11.816483 -11.174299 -2.5758502 10 3
-16.962748 -16.018456 -2.864661 14 4
-10.032114 -9.4703302 2.1850767 4 12
-11.075843 -10.430047 3.5123856 12 14
-9.951046 -9.3610077 3.6607368 9 15
-5.1457415 -4.8153009 -1.8883438 2 0
-6.8417897 -6.3957191 -2.1622295 16 1
-8.6265793 -8.0528631 -2.2939057 9 2
-11.821975 -11.024168 -2.5602069 10 3
-9.2553625 -8.6247263 1.5533468 10 11
-17.091724 -15.921566 -2.8680732 14 4
-9.2246771 -8.5871124 1.996104 3 12
-9.4888296 -8.82374 2.5186789 18 13
-9.8159008 -9.1183071 3.0930772 12 14
-11.491949 -10.660307 4.2001157 7 15
-5.176394 -4.7766395 -1.8873086 2 0
-6.8719454 -6.3345909 -2.1577303 16 1
-8.6436424 -7.9593816 -2.2839837 9 2
-9.2101727 -8.4751253 1.0950247 3 10
-11.89819 -10.944782 -2.5605195 9 3
-12.346375 -11.349095 2.0591044 4 11
-17.198072 -15.797832 -2.8673422 8 4
-9.3251104 -8.56287 2.0051773 13 12
-9.532835 -8.7413578 2.5140994 20 13
-9.7614851 -8.9416189 3.056185 17 14
-11.381817 -10.414906 4.1338582 10 15
-5.210216 -4.7425938 -1.8878261 3 0
-6.9019275 -6.2758684 -2.1536813 14 1
-8.6757441 -7.8777285 -2.277878 9 2
-9.2587986 -8.4042006 1.0939789 1 10
-11.940657 -10.830926 -2.5533235 10 3
-9.2925024 -8.4229736 1.5399412 7 11
-17.327272 -15.700397 -2.8709981 12 4
-9.381732 -8.4949102 2.0045516 3 12
-10.015808 -9.0595102 2.6251502 30 13
-11.35514 -10.256557 3.5326314 8 14
-11.72533 -10.579789 4.2316914 10 15
-5.2245078 -4.6893301 -1.8810968 2 0
-6.8962412 -6.1833019 -2.1383848 11 1
-8.6837244 -7.7750611 -2.2656662 10 2
-9.453825 -8.461606 1.1100155 1 10
-11.980643 -10.715694 -2.5458148 10 3
-17.374285 -15.523496 -2.8607612 14 4
-9.3907089 -8.3844748 1.9939139 21 12
-9.6246147 -8.5842609 2.5068486 13 13
-11.410458 -10.162779 3.5276825 5 14
-11.554987 -10.28066 4.1442108 12 15
-5.2513313 -4.6476207 -1.8790263 2 0
-6.5377498 -5.7800436 -2.0146616 6 1
-8.6818657 -7.6648722 -2.2511647 10 2
-9.4708376 -8.3584871 1.1051347 1 10
-12.035902 -10.614808 -2.5417476 9 3
-9.5030251 -8.3750963 1.5552968 10 11
-17.446489 -15.370328 -2.8549113 12 4
-9.5261145 -8.3865871 2.0101831 9 12
-9.7359066 -8.5622396 2.5202053 23 13
-12.031685 -10.566375 3.6968455 13 14
-11.892234 -10.432883 4.2389383 9 15
-5.2734613 -4.6019549 -1.8754028 3 0
-6.5265284 -5.6894441 -1.9989151 7 1
-8.699625 -7.5731401 -2.2420058 9 2
-13.089549 -11.390607 1.5180787 7 10
-12.091825 -10.514972 -2.5379932 9 3
-9.5717497 -8.3176651 1.5570029 8 11
-17.593832 -15.283304 -2.8614924 10 4
-16.650803 -14.45393 3.4922435 7 12
-11.507046 -9.9642019 3.5141854 2 14
-11.609737 -10.042493 4.1131525 8 15
-5.3010659 -4.5612483 -1.87385 2 0
-6.5158415 -5.6005545 -1.9836185 7 1
-8.7135496 -7.4789748 -2.2320838 9 2
-13.36532 -11.46761 1.5407393 12 10
-12.146942 -10.414869 -2.5342386 9 3
-17.657883 -15.123951 -2.8546679 10 4
-16.761812 -14.346322 3.4944336 2 12
-12.039092 -10.293262 3.0788944 17 13
-11.68007 -9.9722013 3.5456786 12 14
-11.989706 -10.225709 4.222374 19 15
-5.2930069 -4.4903841 -1.8598738 2 0
-6.5191026 -5.5246892 -1.9728208 7 1
-13.807252 -11.692844 0.94822294 2 9
-8.7625532 -7.4154229 -2.2313204 9 2
-12.178623 -10.29538 -2.5257909 10 3
-17.776688 -15.011833 -2.8568614 12 4
-12.068624 -10.173533 3.0682087 5 13
-36.772034 -30.975893 -2.5197673 0 6
-11.823949 -9.9531612 3.5681736 2 14
-11.773957 -9.9005518 4.1219521 16 15
-5.3331165 -4.4607606 -1.8629795 2 0
-6.5216212 -5.4490561 -1.962023 7 1
-8.7643633 -7.3125629 -2.2187271 10 2
-12.218335 -10.183546 -2.5192208 9 3
-17.893259 -14.897524 -2.8588111 12 4
-17.022738 -14.162697 3.5072613 14 12
-11.857156 -9.8405066 3.5573761 2 14
-11.914175 -9.8772984 4.1467991 6 15
-5.3551846 -4.4160461 -1.8598738 2 0
-6.5143809 -5.3662214 -1.9485261 18 1
-8.8030691 -7.2412229 -2.2156742 10 2
-12.276922 -10.087969 -2.5167181 9 3
-17.938519 -14.724387 -2.8495493 12 4
-16.982216 -13.929503 3.47879 20 12
-12.29659 -10.06106 3.6680522 13 14
-5.3648992 -4.3614902 -1.8526268 2 0
-6.5743756 -5.3390408 -1.9552746 25 1
-8.8442583 -7.1721697 -2.2133844 10 2
-12.293327 -9.9584951 -2.5057676 10 3
-18.019278 -14.581308 -2.846137 12 4
-17.106693 -13.832968 3.4844215 19 12
-12.055401 -9.7274866 3.5762718 2 14
-11.966682 -9.6421099 4.1178112 8 15
-5.3952165 -4.3239312 -1.8526268 2 0
-6.605402 -5.2881427 -1.9534749 6 1
-8.8545408 -7.0811505 -2.2038438 10 2
-12.309894 -9.8339024 -2.4954429 8 3
-18.09425 -14.434114 -2.8419933 10 4
-17.186556 -13.705121 3.4816058 23 12
-36.586021 -29.122702 -2.4506838 0 6
-12.216051 -9.7170839 3.6037159 4 14
-12.243788 -9.7286854 4.1902804 4 15
-5.4002733 -4.267941 -1.8443446 2 0
-6.5938292 -5.2056255 -1.9395281 6 1
-8.877552 -6.998497 -2.1973565 10 2
-12.272718 -9.6646156 -2.4741678 8 3
-18.142153 -14.27134 -2.8341937 10 4
-17.331512 -13.623868 3.4916177 9 12
-16.409231 -12.884993 4.0554547 6 13
-12.659305 -9.9261646 3.7139418 3 14
-12.621664 -9.8859844 4.2958789 4 15
-5.4116492 -4.2158895 -1.8381329 2 0
-6.6377006 -5.1654491 -1.9417773 5 1
-8.927743 -6.9375558 -2.1977382 10 2
-12.233778 -9.496336 -2.4528925 8 3
-18.129959 -14.057977 -2.8168881 20 4
-16.73134 -12.964131 3.3523908 4 12
-16.456867 -12.737674 4.0451508 15 13
-12.480051 -9.6456804 3.6415079 4 14
-12.448768 -9.6110954 4.2140923 4 15
-5.4332891 -4.1721239 -1.8355448 2 0
-6.6272125 -5.0834022 -1.9282805 4 1
-8.9494638 -6.854763 -2.1912506 10 2
-12.276247 -9.3926888 -2.4481997 9 3
-18.238705 -13.939496 -2.8185942 16 4
-17.427418 -13.309818 3.4731586 27 12
-12.284172 -9.3715906 3.0033338 16 13
-12.635315 -9.6290159 3.6676021 12 14
-12.666223 -9.6385994 4.2648206 1 15
-5.429934 -4.1096087 -1.8246742 2 0
-6.6454401 -5.0240841 -1.9233315 3 1
-8.9692812 -6.7735753 -2.1847632 10 2
-12.245276 -9.2375345 -2.4294276 9 3
-18.335573 -13.811831 -2.8185942 16 4
-16.79488 -12.646656 3.3298645 12 12
-12.634883 -9.5003424 3.072788 8 13
-12.61497 -9.4750338 3.6424077 9 14
-12.513652 -9.3886909 4.1918335 2 15
-5.4546862 -4.070241 -1.8236392 2 0
-6.65136 -4.9577703 -1.9152331 3 1
-8.9832773 -6.6861773 -2.1767492 10 2
-12.299955 -9.1447487 -2.4275503 9 3
-18.341511 -13.62161 -2.8051889 12 4
-16.952553 -12.580898 3.3436306 14 12
-12.922022 -9.5652866 3.7116923 9 14
-5.5063128 -4.0492296 -1.8314036 2 0
-6.6591101 -4.8916035 -1.9075849 2 1
-9.0139046 -6.61169 -2.1729329 10 2
-12.23443 -8.9640884 -2.4022079 8 3
-18.487421 -13.530746 -2.8129883 12 4
-17.017645 -12.445919 3.3392503 14 12
-5.5141106 -3.995954 -1.8246742 3 0
-6.6804686 -4.835855 -1.9039857 3 1
-9.0407495 -6.5347986 -2.1683536 10 2
-12.195812 -8.8056107 -2.3824971 7 3
-18.430088 -13.292202 -2.790077 14 4
-17.030407 -12.27368 3.3248587 17 12
-16.894039 -12.161966 4.0462956 2 13
-5.5198641 -3.9416425 -1.8174274 4 0
-6.6950293 -4.7755179 -1.898587 3 1
-9.0834227 -6.4719696 -2.1679718 10 2
-12.149249 -8.6467943 -2.3618479 7 3
-18.494926 -13.143663 -2.7859333 16 4
-16.954124 -12.044219 3.2938845 4 12
-17.121046 -12.144824 4.0802598 3 13
-5.543406 -3.9017546 -1.8163921 3 0
-6.7002783 -4.7107811 -1.8909385 3 1
-9.0994596 -6.3880949 -2.1611028 10 2
-12.117128 -8.4971218 -2.3440144 8 3
-18.604126 -13.026749 -2.7886147 14 4
-17.257889 -12.079617 3.3364346 6 12
-17.850702 -12.475991 4.2332888 11 13
-5.5521326 -3.8487799 -1.8101805 4 0
-6.7209992 -4.6538396 -1.8873394 3 1
-9.1309185 -6.3154764 -2.1580498 9 2
-12.123984 -8.3731518 -2.3336897 9 3
-20.129318 -13.896665 3.0033484 22 11
-18.586769 -12.822158 -2.7725279 14 4
-17.924509 -12.356059 3.4481289 15 12
-16.087086 -11.068755 -1.0233774 9 6
-16.029819 -11.00875 5.2105455 3 15
-5.5948191 -3.8208213 -1.8153569 3 0
-6.7259569 -4.5881371 -1.8796909 4 1
-9.0996141 -6.1980319 -2.1401138 6 2
-12.115184 -8.2427454 -2.3208621 8 3
-18.742563 -12.742219 2.7827649 2 11
-16.0292 -10.893432 -2.379621 8 4
-17.806059 -12.091906 3.4090204 13 12
-16.273083 -11.030136 -1.0302857 9 6
-16.431387 -11.133258 4.582253 4 14
-16.243887 -10.989672 5.2550621 11 15
-5.5957103 -3.7644172 -1.8070747 4 0
-6.7497363 -4.5356369 -1.8774415 3 1
-8.79601 -5.9039936 -2.0592108 4 2
-12.12835 -8.1314869 -2.3127275 8 3
-18.270758 -12.231209 -2.6996498 7 4
-17.695873 -11.841886 3.3724146 14 12
-16.487293 -11.0123 -1.0390781 9 6
-16.57679 -11.063706 4.6011486 4 14
-16.424404 -10.949574 5.2892261 14 15
-5.6373062 -3.7369151 -1.812251 4 0
-6.7674541 -4.4809804 -1.8738421 3 1
-8.7649555 -5.7947993 -2.0424197 4 2
-12.146909 -8.0215836 -2.3055315 9 3
-19.811178 -13.072989 2.9143836 23 11
-17.786362 -11.723493 3.3739789 12 12
-17.563942 -11.572493 -1.8402063 36 5
-17.688229 -11.645531 4.1165137 2 13
-16.774014 -11.035235 -1.0522668 9 6
-16.57193 -10.898151 4.5791035 13 14
-16.652239 -10.934319 5.3378839 12 15
-5.6309047 -3.6763456 -1.8018982 4 0
-6.7561326 -4.4059486 -1.8621449 3 1
-8.7647142 -5.7092886 -2.0332606 4 2
-12.168114 -7.9171696 -2.299274 9 3
-19.738268 -12.832879 2.8907411 20 11
-16.708088 -10.85451 -2.4464054 1 4
-17.718304 -11.506402 3.3461337 8 12
-17.310038 -11.232682 -1.805344 37 5
-17.747684 -11.507874 4.1115522 13 13
-16.713036 -10.824566 4.5970998 13 14
-16.729523 -10.822816 5.3389192 14 15
-5.6921825 -3.6599307 -1.8132863 3 0
-6.775249 -4.3513031 -1.8589954 4 1
-8.7127981 -5.5870748 -2.0118902 4 2
-12.172891 -7.7968655 -2.2895751 8 3
-19.659048 -12.582162 2.8658798 13 11
-17.579411 -11.246822 -2.5624251 14 4
-19.434578 -12.42415 3.6533711 5 12
-18.120024 -11.579327 -1.8813437 35 5
-17.811045 -11.373126 4.1077366 14 13
-17.16609 -10.948646 4.7005773 19 14
