# .PCD v0.7 - Point Cloud Data file format
VERSION 0.7
FIELDS x y z
SIZE 4 4 4
TYPE F F F
COUNT 1 1 1
WIDTH 1500
HEIGHT 1
VIEWPOINT 0 0 0 1 0 0 0
POINTS 1500
DATA ascii
0.016085951 4.470325 0.84804809
0.11976444 4.4837918 0.84804809
0.21878116 4.5173521 0.84804809
0.30928189 4.5696988 0.84804809
0.38774398 4.6387949 0.84804809
0.45111328 4.721951 0.84804809
0.49692318 4.8159299 0.84804809
0.52339053 4.9170737 0.84804809
0.58778524 5 0.809017
0.5784815 5.1041665 0.809017
0.55086464 5.2050357 0.809017
0.50580907 5.2994137 0.809017
0.44474107 5.3843136 0.809017
0.36959383 5.457047 0.809017
0.28274637 5.5153117 0.809017
0.18694796 5.5572629 0.809017
0.085231327 5.581573 0.809017
-0.019183474 5.587472 0.809017
-0.12299099 5.5747738 0.809017
-0.22290497 5.5438795 0.809017
-0.31576243 5.4957676 0.809017
-0.39862376 5.4319615 0.809017
-0.46886584 5.3544803 0.809017
-0.52426499 5.2657776 0.809017
-0.56306744 5.1686611 0.809017
-0.58404481 5.066205 0.809017
-0.58653307 4.9616537 0.809017
-0.57045341 4.8583159 0.809017
-0.53631479 4.7594633 0.809017
-0.48519808 4.6682253 0.809017
-0.41872141 4.5874906 0.809017
-0.3389892 4.519815 0.809017
-0.24852562 4.46734 0.809017
-0.15019444 4.4317279 0.809017
-0.047108535 4.4141054 0.809017
0.057468686 4.415031 0.809017
0.16022661 4.4344745 0.809017
0.25791225 4.4718213 0.809017
0.34743312 4.5258884 0.809017
0.42595527 4.5949645 0.809017
0.49099293 4.6768632 0.809017
0.54048717 4.768991 0.809017
0.57287121 4.868432 0.809017
0.58711982 4.9720383 0.809017
0.64278764 5 0.76604444
0.63427627 5.1042571 0.76604444
0.60896754 5.2057533 0.76604444
0.56753182 5.3018007 0.76604444
0.51106632 5.3898554 0.76604444
0.44106641 5.4675856 0.76604444
0.35938594 5.5329332 0.76604444
0.26818794 5.584167 0.76604444
0.16988762 5.6199307 0.76604444
0.067088217 5.639277 0.76604444
-0.03748785 5.6416936 0.76604444
-0.14107114 5.6271162 0.76604444
-0.2409185 5.5959315 0.76604444
-0.33438569 5.5489645 0.76604444
-0.41899747 5.4874597 0.76604444
-0.49251306 5.4130459 0.76604444
-0.55298561 5.327693 0.76604444
-0.59881365 5.2336626 0.76604444
-0.62878352 5.1334438 0.76604444
-0.64210153 5.0296907 0.76604444
-0.63841498 4.9251518 0.76604444
-0.61782151 4.8225951 0.76604444
-0.58086646 4.7247362 0.76604444
-0.52852857 4.6341677 0.76604444
-0.46219385 4.5532866 0.76604444
-0.38361898 4.4842362 0.76604444
-0.29488486 4.4288445 0.76604444
-0.19834141 4.3885784 0.76604444
-0.096545368 4.3645043 0.76604444
0.0078074578 4.3572598 0.76604444
0.11195352 4.3670368 0.76604444
0.21313477 4.3935766 0.76604444
0.30867162 4.4361758 0.76604444
0.39603403 4.4937067 0.76604444
0.47290844 4.5646458 0.76604444
0.53725898 4.6471138 0.76604444
0.58738142 4.7389274 0.76604444
0.62194848 4.8376546 0.76604444
0.64004469 4.9406815 0.76604444
0.6946584 5 0.71933979
0.68678004 5.1043234 0.71933979
0.66332382 5.2062807 0.71933979
0.62482166 5.3035593 0.71933979
0.57214701 5.3939519 0.71933979
0.50649458 5.4754086 0.71933979
0.42935354 5.5460825 0.71933979
0.34247366 5.6043692 0.71933979
0.24782561 5.6489472 0.71933979
0.14755623 5.6788058 0.71933979
0.043939911 5.6932673 0.71933979
-0.06067308 5.6920037 0.71933979
-0.16390985 5.6750436 0.71933979
-0.26342872 5.6427717 0.71933979
-0.35697237 5.5959201 0.71933979
-0.44241896 5.535552 0.71933979
-0.51783037 5.4630356 0.71933979
-0.58149606 5.3800168 0.71933979
-0.6319719 5.2883778 0.71933979
-0.66811299 5.1901979 0.71933979
-0.68909961 5.0877037 0.71933979
-0.69445568 4.9832206 0.71933979
-0.68405974 4.8791175 0.71933979
-0.65814751 4.7777567 0.71933979
-0.61730683 4.681437 0.71933979
-0.56246406 4.5923429 0.71933979
-0.49486318 4.5124955 0.71933979
-0.41603753 4.443706 0.71933979
-0.32777509 4.3875346 0.71933979
-0.23207785 4.3452559 0.71933979
-0.13111651 4.3178282 0.71933979
-0.0271811 4.3058739 0.71933979
0.077370845 4.3096638 0.71933979
0.18016782 4.3291125 0.71933979
0.27887812 4.3637791 0.71933979
0.37126276 4.4128761 0.71933979
0.45522621 4.4752913 0.71933979
0.52886397 4.5496078 0.71933979
0.59050572 4.6341405 0.71933979
0.63875329 4.7269716 0.71933979
0.67251235 4.8259959 0.71933979
0.69101703 4.928967 0.71933979
0.74314481 5 0.66913062
0.73577875 5.1043735 0.66913062
0.7138266 5.2066779 0.66913062
0.67772359 5.3048854 0.66913062
0.62818533 5.3970485 0.66913062
0.56619394 5.4813404 0.66913062
0.49297827 5.5560904 0.66913062
0.40998983 5.6198168 0.66913062
0.31887373 5.6712551 0.66913062
0.22143629 5.7093873 0.66913062
0.11960909 5.7334561 0.66913062
0.015410751 5.7429848 0.66913062
-0.089093089 5.7377849 0.66913062
-0.19183074 5.7179589 0.66913062
-0.29076555 5.6839004 0.66913062
-0.3839362 5.6362839 0.66913062
-0.46949571 5.5760536 0.66913062
-0.54574794 5.5044041 0.66913062
-0.61118126 5.4227548 0.66913062
-0.66449845 5.332725 0.66913062
-0.70464271 5.2360992 0.66913062
-0.73081803 5.1347933 0.66913062
-0.74250567 5.0308146 0.66913062
-0.73947388 4.9262257 0.66913062
-0.72178268 4.8230991 0.66913062
-0.68978292 4.7234793 0.66913062
-0.64410883 4.6293411 0.66913062
-0.585666 4.542551 0.66913062
-0.51561284 4.4648294 0.66913062
-0.43533823 4.397717 0.66913062
-0.34643343 4.3425441 0.66913062
-0.25066093 4.300405 0.66913062
-0.14991935 4.2721343 0.66913062
-0.046205744 4.2582932 0.66913062
0.058423836 4.2591553 0.66913062
0.16189523 4.274704 0.66913062
0.2621572 4.3046312 0.66913062
0.35722217 4.3483434 0.66913062
0.44520554 4.404974 0.66913062
0.52436316 4.4734001 0.66913062
0.59312582 4.5522656 0.66913062
0.65013033 4.640007 0.66913062
0.69424665 4.7348852 0.66913062
0.72460026 4.8350191 0.66913062
0.74058932 4.9384232 0.66913062
0.78801078 5 0.6156615
0.78106284 5.1044116 0.6156615
0.76034153 5.2069826 0.6156615
0.72621226 5.305903 0.6156615
0.67927694 5.3994293 0.6156615
0.62036312 5.4859118 0.6156615
0.55050975 5.5638261 0.6156615
0.47094867 5.6317978 0.6156615
0.38308278 5.6886282 0.6156615
0.2884616 5.733315 0.6156615
0.18875362 5.7650704 0.6156615
0.085717142 5.7833347 0.6156615
-0.018830871 5.7877855 0.6156615
-0.12304682 5.7783446 0.6156615
-0.22509295 5.7551785 0.6156615
-0.32316977 5.7186947 0.6156615
-0.41554776 5.669538 0.6156615
-0.50059795 5.6085744 0.6156615
-0.57682055 5.5368791 0.6156615
-0.64287138 5.4557161 0.6156615
-0.69758576 5.3665175 0.6156615
-0.73999888 5.2708554 0.6156615
-0.76936269 5.1704168 0.6156615
-0.78515953 5.0669737 0.6156615
-0.78711075 4.9623489 0.6156615
-0.77518201 4.8583884 0.6156615
-0.74958354 4.7569251 0.6156615
-0.71076691 4.6597481 0.6156615
-0.6594165 4.5685711 0.6156615
-0.59643781 4.485002 0.6156615
-0.52294153 4.4105144 0.6156615
-0.44022363 4.3464222 0.6156615
-0.34974277 4.2938547 0.6156615
-0.25309449 4.2537398 0.6156615
-0.15198313 4.2267847 0.6156615
-0.04819167 4.2134643 0.6156615
0.0564496 4.2140136 0.6156615
0.16009544 4.2284236 0.6156615
0.26091814 4.2564392 0.6156615
0.35713977 4.2975669 0.6156615
0.44706354 4.3510814 0.6156615
0.52910376 4.4160395 0.6156615
0.60181367 4.4912944 0.6156615
0.66391116 4.5755205 0.6156615
0.71430117 4.6672316 0.6156615
0.7520951 4.764811 0.6156615
0.77662653 4.8665376 0.6156615
0.78746277 4.9706178 0.6156615
0.82903755 5 0.5591929
0.82243252 5.1044416 0.5591929
0.80272263 5.2072186 0.5591929
0.77022201 5.306694 0.5591929
0.72544843 5.4012828 0.5591929
0.66911542 5.4894772 0.5591929
0.60212058 5.5698719 0.5591929
0.52553141 5.6411867 0.5591929
0.44056824 5.7022839 0.5591929
0.34858498 5.7521915 0.5591929
0.25104731 5.790113 0.5591929
0.14950936 5.8154449 0.5591929
0.045589104 5.8277831 0.5591929
-0.059057578 5.8269315 0.5591929
-0.16276322 5.8129029 0.5591929
-0.26387537 5.7859221 0.5591929
-0.36078286 5.7464175 0.5591929
-0.45194155 5.6950197 0.5591929
-0.53589886 5.6325469 0.5591929
-0.6113171 5.5599952 0.5591929
-0.67699438 5.4785204 0.5591929
-0.73188436 5.389421 0.5591929
-0.77511227 5.294116 0.5591929
-0.80598938 5.1941247 0.5591929
-0.82402366 5.0910401 0.5591929
-0.82892776 4.986505 0.5591929
-0.82062346 4.882185 0.5591929
-0.79924321 4.7797422 0.5591929
-0.76512766 4.680809 0.5591929
-0.71882033 4.5869617 0.5591929
-0.66105914 4.4996958 0.5591929
-0.5927645 4.4204025 0.5591929
-0.5150246 4.3503442 0.5591929
-0.42907822 4.2906375 0.5591929
-0.33629477 4.2422342 0.5591929
-0.23815271 4.205905 0.5591929
-0.13621588 4.1822295 0.5591929
-0.032108549 4.1715846 0.5591929
0.072510406 4.1741395 0.5591929
0.17597397 4.1898541 0.5591929
0.2766335 4.2184777 0.5591929
0.37288511 4.2595544 0.5591929
0.46319506 4.3124294 0.5591929
0.5461244 4.3762603 0.5591929
0.62035161 4.4500299 0.5591929
0.68469399 4.5325627 0.5591929
0.73812634 4.6225443 0.5591929
0.77979714 4.7185402 0.5591929
0.80904251 4.8190207 0.5591929
0.82539642 4.9223852 0.5591929
0.86602539 5 0.5
0.85970175 5.1044645 0.5
0.84082317 5.2074041 0.5
0.80966538 5.3073144 0.5
0.76668334 5.4027367 0.5
0.7125048 5.4922771 0.5
0.64792097 5.5746288 0.5
0.57387495 5.6485891 0.5
0.49144822 5.7130771 0.5
0.40184447 5.7671514 0.5
0.30637223 5.8100224 0.5
0.20642579 5.841064 0.5
0.10346474 5.8598228 0.5
-0.001007293 5.866025 0.5
-0.10546461 5.8595796 0.5
-0.20838174 5.8405814 0.5
-0.3082557 5.8093076 0.5
-0.40362796 5.7662144 0.5
-0.49310568 5.7119317 0.5
-0.57538217 5.6472521 0.5
-0.64925593 5.5731201 0.5
-0.71364802 5.4906187 0.5
-0.76761812 5.4009519 0.5
-0.81037807 5.3054299 0.5
-0.84130335 5.2054472 0.5
-0.85994244 5.1024647 0.5
-0.86602306 4.9979854 0.5
-0.85945642 4.8935356 0.5
-0.84033841 4.7906408 0.5
-0.80894828 4.6908031 0.5
-0.76574439 4.5954809 0.5
-0.71135771 4.5060668 0.5
-0.64658248 4.4238653 0.5
-0.57236463 4.3500781 0.5
-0.48978812 4.2857819 0.5
-0.40005881 4.231916 0.5
-0.30448708 4.1892672 0.5
-0.20446871 4.1584582 0.5
-0.1014643 4.1399388 0.5
0.003021874 4.1339798 0.5
0.10746392 4.1406679 0.5
0.21033658 4.1599054 0.5
0.31013751 4.191412 0.5
0.40540928 4.2347264 0.5
0.49476048 4.2892175 0.5
0.5768863 4.3540878 0.5
0.65058738 4.4283915 0.5
0.71478736 4.5110431 0.5
0.76854873 4.6008348 0.5
0.81108636 4.696456 0.5
0.84177899 4.7965102 0.5
0.86017847 4.8995361 0.5
0.89879405 5 0.43837115
0.89270043 5.1044831 0.43837115
0.87450218 5.2075491 0.43837115
0.84444606 5.3078012 0.43837115
0.80293965 5.4038796 0.43837115
0.75054568 5.4944816 0.43837115
0.68797469 5.5783782 0.43837115
0.6160751 5.6544328 0.43837115
0.53582174 5.7216134 0.43837115
0.44830289 5.7790093 0.43837115
0.35470527 5.8258419 0.43837115
0.25629801 5.8614769 0.43837115
0.15441543 5.8854303 0.43837115
0.05043906 5.8973775 0.43837115
-0.054221243 5.8971572 0.43837115
-0.15814632 5.8847713 0.43837115
-0.259927 5.8603888 0.43837115
-0.35818321 5.8243394 0.43837115
-0.45158261 5.7771125 0.43837115
-0.53885871 5.7193484 0.43837115
-0.61882818 5.6518302 0.43837115
-0.69040656 5.5754733 0.43837115
-0.75262338 5.4913135 0.43837115
-0.80463493 5.4004912 0.43837115
-0.84573603 5.3042388 0.43837115
-0.87536925 5.2038612 0.43837115
-0.89313293 5.100719 0.43837115
-0.89878607 4.9962115 0.43837115
-0.89225209 4.8917551 0.43837115
-0.87361956 4.7887664 0.43837115
-0.84314114 4.688642 0.43837115
-0.80123007 4.5927396 0.43837115
-0.74845469 4.5023594 0.43837115
-0.6855306 4.4187269 0.43837115
-0.61331105 4.3429761 0.43837115
-0.53277522 4.2761345 0.43837115
-0.44501522 4.2191081 0.43837115
-0.35122102 4.1726704 0.43837115
-0.25266442 4.1374507 0.43837115
-0.15068178 4.1139269 0.43837115
-0.046655975 4.1024179 0.43837115
0.058002464 4.1030793 0.43837115
0.16187441 4.1159029 0.43837115
0.26355141 4.1407146 0.43837115
0.36165479 4.1771774 0.43837115
0.45485428 4.2247977 0.43837115
0.54188615 4.2829294 0.43837115
0.62157029 4.3507843 0.43837115
0.69282621 4.4274421 0.43837115
0.75468767 4.5118637 0.43837115
0.80631596 4.6029038 0.43837115
0.84701091 4.6993289 0.43837115
0.87622082 4.7998304 0.43837115
0.8935495 4.9030466 0.43837115
0.92718387 5 0.37460658
0.92127639 5.1044974 0.37460658
0.90362936 5.2076631 0.37460658
0.87446755 5.3081822 0.37460658
0.83416259 5.4047747 0.37460658
0.78322816 5.4962091 0.37460658
0.72231317 5.5813208 0.37460658
0.65219396 5.6590242 0.37460658
0.57376397 5.7283301 0.37460658
0.4880226 5.7883554 0.37460658
0.39606249 5.8383341 0.37460658
0.29905546 5.8776307 0.37460658
0.19823764 5.9057436 0.37460658
0.094893724 5.9223151 0.37460658
-0.0096594039 5.9271336 0.37460658
-0.11408944 5.9201379 0.37460658
-0.21706568 5.9014168 0.37460658
-0.31727588 5.8712096 0.37460658
-0.41344312 5.8299003 0.37460658
-0.50434196 5.7780161 0.37460658
-0.58881408 5.716218 0.37460658
-0.66578305 5.6452928 0.37460658
-0.73426813 5.5661449 0.37460658
-0.79339659 5.4797831 0.37460658
-0.84241498 5.3873072 0.37460658
-0.88069868 5.289896 0.37460658
-0.90775985 5.1887908 0.37460658
-0.9232536 5.0852799 0.37460658
-0.92698258 4.9806824 0.37460658
-0.91889924 4.8763309 0.37460658
-0.89910656 4.7735553 0.37460658
-0.8678568 4.673665 0.37460658
-0.82554811 4.5779333 0.37460658
-0.77271968 4.4875803 0.37460658
-0.71004462 4.4037561 0.37460658
-0.6383217 4.3275304 0.37460658
-0.55846471 4.2598734 0.37460658
-0.4714914 4.2016482 0.37460658
-0.37850994 4.1535959 0.37460658
-0.28070524 4.1163292 0.37460658
-0.17932355 4.0903225 0.37460658
-0.075656809 4.0759082 0.37460658
0.028974017 4.0732689 0.37460658
0.13323563 4.0824389 0.37460658
0.23579946 4.1033015 0.37460658
0.33535856 4.1355901 0.37460658
0.43064424 4.1788936 0.37460658
0.52044237 4.2326608 0.37460658
0.60360855 4.2962055 0.37460658
0.67908311 4.3687186 0.37460658
0.74590433 4.449276 0.37460658
0.80322057 4.5368514 0.37460658
0.85030162 4.6303287 0.37460658
0.88654745 4.7285161 0.37460658
0.91149622 4.830163 0.37460658
0.92483002 4.9339743 0.37460658
0.95105654 5 0.309017
0.94529706 5.1045084 0.309017
0.92808843 5.2077508 0.309017
0.89963901 5.3084769 0.309017
0.86029351 5.405467 0.309017
0.81052828 5.4975462 0.309017
0.75094622 5.5835996 0.309017
0.68226886 5.6625843 0.309017
0.60532808 5.7335439 0.309017
0.52105576 5.795619 0.309017
0.43047255 5.8480577 0.309017
0.33467558 5.8902249 0.309017
0.23482509 5.9216104 0.309017
0.13213047 5.9418335 0.309017
0.027835535 5.9506493 0.309017
-0.076796539 5.9479508 0.309017
-0.18049848 5.9337711 0.309017
-0.28201428 5.9082823 0.309017
-0.38011438 5.8717923 0.309017
-0.47361067 5.8247433 0.309017
-0.56137073 5.7677054 0.309017
-0.6423316 5.7013693 0.309017
-0.71551269 5.6265383 0.309017
-0.78002775 5.5441189 0.309017
-0.83509535 5.4551091 0.309017
-0.88004845 5.3605871 0.309017
-0.9143427 5.2616982 0.309017
-0.93756264 5.1596394 0.309017
-0.94942713 5.0556474 0.309017
-0.94979244 4.9509811 0.309017
-0.93865407 4.8469086 0.309017
-0.91614705 4.7446899 0.309017
-0.88254386 4.6455641 0.309017
-0.83825159 4.5507307 0.309017
-0.78380662 4.461339 0.309017
-0.71986842 4.3784714 0.309017
-0.64721137 4.3031311 0.309017
-0.56671548 4.2362318 0.309017
-0.47935572 4.1785827 0.309017
-0.38619012 4.1308823 0.309017
-0.28834707 4.0937085 0.309017
-0.18701167 4.0675116 0.309017
-0.083411232 4.0526085 0.309017
0.021199467 4.04918 0.309017
0.1255534 4.0572672 0.309017
0.22838667 4.0767732 0.309017
0.32845378 4.1074605 0.309017
0.42454275 4.1489582 0.309017
0.51548976 4.2007637 0.309017
0.60019332 4.262249 0.309017
0.6776275 4.3326697 0.309017
0.74685448 4.4111733 0.309017
0.80703574 4.4968085 0.309017
0.85744244 4.5885382 0.309017
0.89746398 4.6852512 0.309017
0.92661572 4.7857761 0.309017
0.94454455 4.8888965 0.309017
0.95103335 4.9933619 0.309017
0.97029573 5 0.2419219
0.96465021 5.1045165 0.2419219
0.94777948 5.2078171 0.2419219
0.91987973 5.3086991 0.2419219
0.88127571 5.4059887 0.2419219
0.83241659 5.4985542 0.2419219
0.77387094 5.5853186 0.2419219
0.70631999 5.6652713 0.2419219
0.63054991 5.7374825 0.2419219
0.54744238 5.8011122 0.2419219
0.45796439 5.8554196 0.2419219
0.36315727 5.8997726 0.2419219
0.26412421 5.9336553 0.2419219
0.16201766 5.9566736 0.2419219
0.058025748 5.9685593 0.2419219
-0.046641383 5.9691739 0.2419219
-0.15076576 5.9585109 0.2419219
-0.25313574 5.9366941 0.2419219
-0.35256007 5.9039774 0.2419219
-0.44788179 5.8607416 0.2419219
-0.53799164 5.8074894 0.2419219
-0.62184113 5.7448406 0.2419219
-0.69845444 5.6735244 0.2419219
-0.76694012 5.5943708 0.2419219
-0.82650119 5.5083008 0.2419219
-0.87644458 5.4163156 0.2419219
-0.91618907 5.3194861 0.2419219
-0.94527221 5.2189388 0.2419219
-0.9633556 5.1158438 0.2419219
-0.97022873 5.0114007 0.2419219
-0.96581167 4.9068251 0.2419219
-0.95015585 4.8033338 0.2419219
-0.92344338 4.7021308 0.2419219
-0.88598514 4.604394 0.2419219
-0.83821702 4.511261 0.2419219
-0.78069484 4.4238148 0.2419219
-0.71408802 4.3430738 0.2419219
-0.63917166 4.2699771 0.2419219
-0.55681747 4.2053757 0.2419219
-0.46798378 4.1500206 0.2419219
-0.37370434 4.1045566 0.2419219
-0.27507624 4.0695124 0.2419219
-0.17324717 4.0452962 0.2419219
-0.069402106 4.0321894 0.2419219
0.035250578 4.030345 0.2419219
0.13949306 4.0397835 0.2419219
0.24211231 4.0603962 0.2419219
0.34191421 4.0919423 0.2419219
0.43773735 4.1340556 0.2419219
0.5284667 4.1862454 0.2419219
0.61304647 4.2479043 0.2419219
0.69049251 4.3183155 0.2419219
0.75990349 4.3966589 0.2419219
0.8204717 4.4820232 0.2419219
0.87149245 4.5734153 0.2419219
0.91237193 4.6697712 0.2419219
0.94263452 4.7699695 0.2419219
0.96192795 4.8728452 0.2419219
0.9700278 4.9772 0.2419219
0.98480773 5 0.17364818
0.97924531 5.1045227 0.17364818
0.96262079 5.2078643 0.17364818
0.93512195 5.3088579 0.17364818
0.8970595 5.4063625 0.17364818
0.84886342 5.4992766 0.17364818
0.79107815 5.5865507 0.17364818
0.72435635 5.6671987 0.17364818
0.64945191 5.7403097 0.17364818
0.56721091 5.805058 0.17364818
0.47856238 5.8607116 0.17364818
0.38450775 5.906642 0.17364818
0.28610954 5.9423308 0.17364818
0.18447927 5.9673748 0.17364818
0.080765016 5.9814901 0.17364818
-0.023861591 5.9845185 0.17364818
-0.12821865 5.9764252 0.17364818
-0.23112728 5.9573016 0.17364818
-0.33142498 5.9273639 0.17364818
-0.42797872 5.88695 0.17364818
-0.51969779 5.8365169 0.17364818
-0.60554606 5.7766337 0.17364818
-0.6845538 5.7079778 0.17364818
-0.75582844 5.6313238 0.17364818
-0.81856483 5.5475383 0.17364818
-0.87205428 5.4575672 0.17364818
-0.91569257 5.3624272 0.17364818
-0.94898665 5.2631931 0.17364818
-0.97156054 5.1609859 0.17364818
-0.98315912 5.0569601 0.17364818
-0.98365146 4.952291 0.17364818
-0.97303188 4.8481607 0.17364818
-0.95142049 4.7457457 0.17364818
-0.9190613 4.6462026 0.17364818
-0.87631994 4.5506563 0.17364818
-0.82367921 4.460186 0.17364818
-0.76173371 4.375814 0.17364818
-0.69118333 4.2984929 0.17364818
-0.61282492 4.2290969 0.17364818
-0.52754378 4.1684089 0.17364818
-0.43630317 4.117115 0.17364818
-0.34013385 4.0757947 0.17364818
-0.24012223 4.0449147 0.17364818
-0.13739803 4.0248241 0.17364818
-0.033121731 4.0157495 0.17364818
0.07152874 4.0177932 0.17364818
0.17537117 4.0309329 0.17364818
0.27723253 4.0550194 0.17364818
0.37596211 4.0897808 0.17364818
0.47044465 4.1348248 0.17364818
0.55961275 4.189642 0.17364818
0.64245921 4.2536135 0.17364818
0.7180481 4.3260169 0.17364818
0.78552556 4.4060335 0.17364818
0.84412926 4.4927602 0.17364818
0.89319724 4.585217 0.17364818
0.93217522 4.6823592 0.17364818
0.96062285 4.7830896 0.17364818
0.97821873 4.8862705 0.17364818
0.98476416 4.990736 0.17364818
0.99452192 5 0.10452846
0.98901367 5.1045265 0.10452846
0.97255003 5.2078948 0.10452846
0.94531327 5.3089604 0.10452846
0.90760523 5.4066038 0.10452846
0.85984349 5.499743 0.10452846
0.80255717 5.5873466 0.10452846
0.73638076 5.6684437 0.10452846
0.66204745 5.742137 0.10452846
0.5803805 5.8076091 0.10452846
0.49228463 5.8641353 0.10452846
0.39873561 5.9110894 0.10452846
0.30076981 5.9479513 0.10452846
0.19947229 5.9743123 0.10452846
0.095965222 5.989881 0.10452846
-0.0086048786 5.9944849 0.10452846
-0.11307966 5.9880724 0.10452846
-0.21630184 5.970715 0.10452846
-0.31712803 5.9426045 0.10452846
-0.41444132 5.9040532 0.10452846
-0.50716382 5.8554873 0.10452846
-0.59426838 5.7974453 0.10452846
-0.67479014 5.7305698 0.10452846
-0.74783725 5.6556015 0.10452846
-0.81260037 5.5733709 0.10452846
-0.86836225 5.4847894 0.10452846
-0.91450518 5.3908377 0.10452846
-0.95051801 5.2925568 0.10452846
-0.9760018 5.1910348 0.10452846
-0.99067432 5.0873971 0.10452846
-0.99437296 4.9827909 0.10452846
-0.98705685 4.8783755 0.10452846
-0.96880698 4.7753072 0.10452846
-0.93982553 4.6747284 0.10452846
-0.90043348 4.5777521 0.10452846
-0.85106725 4.4854531 0.10452846
-0.79227358 4.3988543 0.10452846
-0.72470385 4.3189139 0.10452846
-0.64910644 4.2465181 0.10452846
-0.56631881 4.1824689 0.10452846
-0.477258 4.1274757 0.10452846
-0.38291052 4.0821476 0.10452846
-0.28432152 4.0469866 0.10452846
-0.18258302 4.0223818 0.10452846
-0.078822039 4.0086064 0.10452846
0.025812062 4.0058131 0.10452846
0.13016024 4.0140324 0.10452846
0.23306662 4.0331736 0.10452846
0.33339128 4.063024 0.10452846
0.43002293 4.1032534 0.10452846
0.52189118 4.1534166 0.10452846
0.60797834 4.2129574 0.10452846
0.68733084 4.2812161 0.10452846
0.75906974 4.3574371 0.10452846
0.82240027 4.4407759 0.10452846
0.87662101 4.5303092 0.10452846
0.92113125 4.6250453 0.10452846
0.95543802 4.7239351 0.10452846
0.97916132 4.8258824 0.10452846
0.99203831 4.9297585 0.10452846
0.99939084 5 0.034899496
0.99390942 5.1045284 0.034899496
0.97752523 5.2079101 0.034899496
0.950418 5.3090105 0.034899496
0.91288513 5.4067221 0.034899496
0.86533833 5.4999714 0.034899496
0.80829912 5.5877366 0.034899496
0.74239326 5.669055 0.034899496
0.66834366 5.7430334 0.034899496
0.58696258 5.8088617 0.034899496
0.49914286 5.8658166 0.034899496
0.40584773 5.9132743 0.034899496
0.30810061 5.9507136 0.034899496
0.20697379 5.9777241 0.034899496
0.10357654 5.994009 0.034899496
-0.00095688697 5.9993906 0.034899496
-0.10547982 5.9938087 0.034899496
-0.20884569 5.9773254 0.034899496
-0.30992061 5.9501219 0.034899496
-0.40759584 5.9124951 0.034899496
-0.50079989 5.8648591 0.034899496
-0.58851045 5.8077359 0.034899496
-0.66976529 5.7417521 0.034899496
-0.74367309 5.6676321 0.034899496
-0.80942315 5.5861878 0.034899496
-0.86629415 5.4983134 0.034899496
-0.91366231 5.404973 0.034899496
-0.95100802 5.3071904 0.034899496
-0.97792155 5.2060375 0.034899496
-0.99410772 5.1026249 0.034899496
-0.99938899 4.9980865 0.034899496
-0.99370742 4.8935685 0.034899496
-0.97712529 4.7902188 0.034899496
-0.94982451 4.6891699 0.034899496
-0.91210461 4.5915308 0.034899496
-0.86437935 4.4983721 0.034899496
-0.80717218 4.4107165 0.034899496
-0.74111068 4.329525 0.034899496
-0.66691953 4.2556882 0.034899496
-0.58541262 4.1900158 0.034899496
-0.49748394 4.1332293 0.034899496
-0.40409812 4.0859504 0.034899496
-0.30627948 4.0486984 0.034899496
-0.20510113 4.0218816 0.034899496
-0.10167289 4.0057945 0.034899496
0.0028706561 4.0006132 0.034899496
0.10738271 4.0063949 0.034899496
0.21071683 4.0230761 0.034899496
0.31173947 4.0504737 0.034899496
0.40934247 4.0882869 0.034899496
0.50245517 4.1361012 0.034899496
0.59005612 4.1933923 0.034899496
0.67118448 4.2595315 0.034899496
0.74495018 4.3337936 0.034899496
0.81054413 4.4153633 0.034899496
0.86724681 4.503346 0.034899496
0.9144361 4.5967774 0.034899496
0.95159453 4.6946316 0.034899496
0.97831428 4.7958355 0.034899496
0.99430245 4.8992791 0.034899496
0.99939084 5 -0.034899496
0.99390942 5.1045284 -0.034899496
0.97752523 5.2079101 -0.034899496
0.950418 5.3090105 -0.034899496
0.91288513 5.4067221 -0.034899496
0.86533833 5.4999714 -0.034899496
0.80829912 5.5877366 -0.034899496
0.74239326 5.669055 -0.034899496
0.66834366 5.7430334 -0.034899496
0.58696258 5.8088617 -0.034899496
0.49914286 5.8658166 -0.034899496
0.40584773 5.9132743 -0.034899496
0.30810061 5.9507136 -0.034899496
0.20697379 5.9777241 -0.034899496
0.10357654 5.994009 -0.034899496
-0.00095688697 5.9993906 -0.034899496
-0.10547982 5.9938087 -0.034899496
-0.20884569 5.9773254 -0.034899496
-0.30992061 5.9501219 -0.034899496
-0.40759584 5.9124951 -0.034899496
-0.50079989 5.8648591 -0.034899496
-0.58851045 5.8077359 -0.034899496
-0.66976529 5.7417521 -0.034899496
-0.74367309 5.6676321 -0.034899496
-0.80942315 5.5861878 -0.034899496
-0.86629415 5.4983134 -0.034899496
-0.91366231 5.404973 -0.034899496
-0.95100802 5.3071904 -0.034899496
-0.97792155 5.2060375 -0.034899496
-0.99410772 5.1026249 -0.034899496
-0.99938899 4.9980865 -0.034899496
-0.99370742 4.8935685 -0.034899496
-0.97712529 4.7902188 -0.034899496
-0.94982451 4.6891699 -0.034899496
-0.91210461 4.5915308 -0.034899496
-0.86437935 4.4983721 -0.034899496
-0.80717218 4.4107165 -0.034899496
-0.74111068 4.329525 -0.034899496
-0.66691953 4.2556882 -0.034899496
-0.58541262 4.1900158 -0.034899496
-0.49748394 4.1332293 -0.034899496
-0.40409812 4.0859504 -0.034899496
-0.30627948 4.0486984 -0.034899496
-0.20510113 4.0218816 -0.034899496
-0.10167289 4.0057945 -0.034899496
0.0028706561 4.0006132 -0.034899496
0.10738271 4.0063949 -0.034899496
0.21071683 4.0230761 -0.034899496
0.31173947 4.0504737 -0.034899496
0.40934247 4.0882869 -0.034899496
0.50245517 4.1361012 -0.034899496
0.59005612 4.1933923 -0.034899496
0.67118448 4.2595315 -0.034899496
0.74495018 4.3337936 -0.034899496
0.81054413 4.4153633 -0.034899496
0.86724681 4.503346 -0.034899496
0.9144361 4.5967774 -0.034899496
0.95159453 4.6946316 -0.034899496
0.97831428 4.7958355 -0.034899496
0.99430245 4.8992791 -0.034899496
0.99452192 5 -0.10452846
0.98901367 5.1045265 -0.10452846
0.97255003 5.2078948 -0.10452846
0.94531327 5.3089604 -0.10452846
0.90760523 5.4066038 -0.10452846
0.85984349 5.499743 -0.10452846
0.80255717 5.5873466 -0.10452846
0.73638076 5.6684437 -0.10452846
0.66204745 5.742137 -0.10452846
0.5803805 5.8076091 -0.10452846
0.49228463 5.8641353 -0.10452846
0.39873561 5.9110894 -0.10452846
0.30076981 5.9479513 -0.10452846
0.19947229 5.9743123 -0.10452846
0.095965222 5.989881 -0.10452846
-0.0086048786 5.9944849 -0.10452846
-0.11307966 5.9880724 -0.10452846
-0.21630184 5.970715 -0.10452846
-0.31712803 5.9426045 -0.10452846
-0.41444132 5.9040532 -0.10452846
-0.50716382 5.8554873 -0.10452846
-0.59426838 5.7974453 -0.10452846
-0.67479014 5.7305698 -0.10452846
-0.74783725 5.6556015 -0.10452846
-0.81260037 5.5733709 -0.10452846
-0.86836225 5.4847894 -0.10452846
-0.91450518 5.3908377 -0.10452846
-0.95051801 5.2925568 -0.10452846
-0.9760018 5.1910348 -0.10452846
-0.99067432 5.0873971 -0.10452846
-0.99437296 4.9827909 -0.10452846
-0.98705685 4.8783755 -0.10452846
-0.96880698 4.7753072 -0.10452846
-0.93982553 4.6747284 -0.10452846
-0.90043348 4.5777521 -0.10452846
-0.85106725 4.4854531 -0.10452846
-0.79227358 4.3988543 -0.10452846
-0.72470385 4.3189139 -0.10452846
-0.64910644 4.2465181 -0.10452846
-0.56631881 4.1824689 -0.10452846
-0.477258 4.1274757 -0.10452846
-0.38291052 4.0821476 -0.10452846
-0.28432152 4.0469866 -0.10452846
-0.18258302 4.0223818 -0.10452846
-0.078822039 4.0086064 -0.10452846
0.025812062 4.0058131 -0.10452846
0.13016024 4.0140324 -0.10452846
0.23306662 4.0331736 -0.10452846
0.33339128 4.063024 -0.10452846
0.43002293 4.1032534 -0.10452846
0.52189118 4.1534166 -0.10452846
0.60797834 4.2129574 -0.10452846
0.68733084 4.2812161 -0.10452846
0.75906974 4.3574371 -0.10452846
0.82240027 4.4407759 -0.10452846
0.87662101 4.5303092 -0.10452846
0.92113125 4.6250453 -0.10452846
0.95543802 4.7239351 -0.10452846
0.97916132 4.8258824 -0.10452846
0.99203831 4.9297585 -0.10452846
0.98480773 5 -0.17364818
0.97924531 5.1045227 -0.17364818
0.96262079 5.2078643 -0.17364818
0.93512195 5.3088579 -0.17364818
0.8970595 5.4063625 -0.17364818
0.84886342 5.4992766 -0.17364818
0.79107815 5.5865507 -0.17364818
0.72435635 5.6671987 -0.17364818
0.64945191 5.7403097 -0.17364818
0.56721091 5.805058 -0.17364818
0.47856238 5.8607116 -0.17364818
0.38450775 5.906642 -0.17364818
0.28610954 5.9423308 -0.17364818
0.18447927 5.9673748 -0.17364818
0.080765016 5.9814901 -0.17364818
-0.023861591 5.9845185 -0.17364818
-0.12821865 5.9764252 -0.17364818
-0.23112728 5.9573016 -0.17364818
-0.33142498 5.9273639 -0.17364818
-0.42797872 5.88695 -0.17364818
-0.51969779 5.8365169 -0.17364818
-0.60554606 5.7766337 -0.17364818
-0.6845538 5.7079778 -0.17364818
-0.75582844 5.6313238 -0.17364818
-0.81856483 5.5475383 -0.17364818
-0.87205428 5.4575672 -0.17364818
-0.91569257 5.3624272 -0.17364818
-0.94898665 5.2631931 -0.17364818
-0.97156054 5.1609859 -0.17364818
-0.98315912 5.0569601 -0.17364818
-0.98365146 4.952291 -0.17364818
-0.97303188 4.8481607 -0.17364818
-0.95142049 4.7457457 -0.17364818
-0.9190613 4.6462026 -0.17364818
-0.87631994 4.5506563 -0.17364818
-0.82367921 4.460186 -0.17364818
-0.76173371 4.375814 -0.17364818
-0.69118333 4.2984929 -0.17364818
-0.61282492 4.2290969 -0.17364818
-0.52754378 4.1684089 -0.17364818
-0.43630317 4.117115 -0.17364818
-0.34013385 4.0757947 -0.17364818
-0.24012223 4.0449147 -0.17364818
-0.13739803 4.0248241 -0.17364818
-0.033121731 4.0157495 -0.17364818
0.07152874 4.0177932 -0.17364818
0.17537117 4.0309329 -0.17364818
0.27723253 4.0550194 -0.17364818
0.37596211 4.0897808 -0.17364818
0.47044465 4.1348248 -0.17364818
0.55961275 4.189642 -0.17364818
0.64245921 4.2536135 -0.17364818
0.7180481 4.3260169 -0.17364818
0.78552556 4.4060335 -0.17364818
0.84412926 4.4927602 -0.17364818
0.89319724 4.585217 -0.17364818
0.93217522 4.6823592 -0.17364818
0.96062285 4.7830896 -0.17364818
0.97821873 4.8862705 -0.17364818
0.98476416 4.990736 -0.17364818
0.97029573 5 -0.2419219
0.96465021 5.1045165 -0.2419219
0.94777948 5.2078171 -0.2419219
0.91987973 5.3086991 -0.2419219
0.88127571 5.4059887 -0.2419219
0.83241659 5.4985542 -0.2419219
0.77387094 5.5853186 -0.2419219
0.70631999 5.6652713 -0.2419219
0.63054991 5.7374825 -0.2419219
0.54744238 5.8011122 -0.2419219
0.45796439 5.8554196 -0.2419219
0.36315727 5.8997726 -0.2419219
0.26412421 5.9336553 -0.2419219
0.16201766 5.9566736 -0.2419219
0.058025748 5.9685593 -0.2419219
-0.046641383 5.9691739 -0.2419219
-0.15076576 5.9585109 -0.2419219
-0.25313574 5.9366941 -0.2419219
-0.35256007 5.9039774 -0.2419219
-0.44788179 5.8607416 -0.2419219
-0.53799164 5.8074894 -0.2419219
-0.62184113 5.7448406 -0.2419219
-0.69845444 5.6735244 -0.2419219
-0.76694012 5.5943708 -0.2419219
-0.82650119 5.5083008 -0.2419219
-0.87644458 5.4163156 -0.2419219
-0.91618907 5.3194861 -0.2419219
-0.94527221 5.2189388 -0.2419219
-0.9633556 5.1158438 -0.2419219
-0.97022873 5.0114007 -0.2419219
-0.96581167 4.9068251 -0.2419219
-0.95015585 4.8033338 -0.2419219
-0.92344338 4.7021308 -0.2419219
-0.88598514 4.604394 -0.2419219
-0.83821702 4.511261 -0.2419219
-0.78069484 4.4238148 -0.2419219
-0.71408802 4.3430738 -0.2419219
-0.63917166 4.2699771 -0.2419219
-0.55681747 4.2053757 -0.2419219
-0.46798378 4.1500206 -0.2419219
-0.37370434 4.1045566 -0.2419219
-0.27507624 4.0695124 -0.2419219
-0.17324717 4.0452962 -0.2419219
-0.069402106 4.0321894 -0.2419219
0.035250578 4.030345 -0.2419219
0.13949306 4.0397835 -0.2419219
0.24211231 4.0603962 -0.2419219
0.34191421 4.0919423 -0.2419219
0.43773735 4.1340556 -0.2419219
0.5284667 4.1862454 -0.2419219
0.61304647 4.2479043 -0.2419219
0.69049251 4.3183155 -0.2419219
0.75990349 4.3966589 -0.2419219
0.8204717 4.4820232 -0.2419219
0.87149245 4.5734153 -0.2419219
0.91237193 4.6697712 -0.2419219
0.94263452 4.7699695 -0.2419219
0.96192795 4.8728452 -0.2419219
0.9700278 4.9772 -0.2419219
0.95105654 5 -0.309017
0.94529706 5.1045084 -0.309017
0.92808843 5.2077508 -0.309017
0.89963901 5.3084769 -0.309017
0.86029351 5.405467 -0.309017
0.81052828 5.4975462 -0.309017
0.75094622 5.5835996 -0.309017
0.68226886 5.6625843 -0.309017
0.60532808 5.7335439 -0.309017
0.52105576 5.795619 -0.309017
0.43047255 5.8480577 -0.309017
0.33467558 5.8902249 -0.309017
0.23482509 5.9216104 -0.309017
0.13213047 5.9418335 -0.309017
0.027835535 5.9506493 -0.309017
-0.076796539 5.9479508 -0.309017
-0.18049848 5.9337711 -0.309017
-0.28201428 5.9082823 -0.309017
-0.38011438 5.8717923 -0.309017
-0.47361067 5.8247433 -0.309017
-0.56137073 5.7677054 -0.309017
-0.6423316 5.7013693 -0.309017
-0.71551269 5.6265383 -0.309017
-0.78002775 5.5441189 -0.309017
-0.83509535 5.4551091 -0.309017
-0.88004845 5.3605871 -0.309017
-0.9143427 5.2616982 -0.309017
-0.93756264 5.1596394 -0.309017
-0.94942713 5.0556474 -0.309017
-0.94979244 4.9509811 -0.309017
-0.93865407 4.8469086 -0.309017
-0.91614705 4.7446899 -0.309017
-0.88254386 4.6455641 -0.309017
-0.83825159 4.5507307 -0.309017
-0.78380662 4.461339 -0.309017
-0.71986842 4.3784714 -0.309017
-0.64721137 4.3031311 -0.309017
-0.56671548 4.2362318 -0.309017
-0.47935572 4.1785827 -0.309017
-0.38619012 4.1308823 -0.309017
-0.28834707 4.0937085 -0.309017
-0.18701167 4.0675116 -0.309017
-0.083411232 4.0526085 -0.309017
0.021199467 4.04918 -0.309017
0.1255534 4.0572672 -0.309017
0.22838667 4.0767732 -0.309017
0.32845378 4.1074605 -0.309017
0.42454275 4.1489582 -0.309017
0.51548976 4.2007637 -0.309017
0.60019332 4.262249 -0.309017
0.6776275 4.3326697 -0.309017
0.74685448 4.4111733 -0.309017
0.80703574 4.4968085 -0.309017
0.85744244 4.5885382 -0.309017
0.89746398 4.6852512 -0.309017
0.92661572 4.7857761 -0.309017
0.94454455 4.8888965 -0.309017
0.95103335 4.9933619 -0.309017
0.92718387 5 -0.37460658
0.92127639 5.1044974 -0.37460658
0.90362936 5.2076631 -0.37460658
0.87446755 5.3081822 -0.37460658
0.83416259 5.4047747 -0.37460658
0.78322816 5.4962091 -0.37460658
0.72231317 5.5813208 -0.37460658
0.65219396 5.6590242 -0.37460658
0.57376397 5.7283301 -0.37460658
0.4880226 5.7883554 -0.37460658
0.39606249 5.8383341 -0.37460658
0.29905546 5.8776307 -0.37460658
0.19823764 5.9057436 -0.37460658
0.094893724 5.9223151 -0.37460658
-0.0096594039 5.9271336 -0.37460658
-0.11408944 5.9201379 -0.37460658
-0.21706568 5.9014168 -0.37460658
-0.31727588 5.8712096 -0.37460658
-0.41344312 5.8299003 -0.37460658
-0.50434196 5.7780161 -0.37460658
-0.58881408 5.716218 -0.37460658
-0.66578305 5.6452928 -0.37460658
-0.73426813 5.5661449 -0.37460658
-0.79339659 5.4797831 -0.37460658
-0.84241498 5.3873072 -0.37460658
-0.88069868 5.289896 -0.37460658
-0.90775985 5.1887908 -0.37460658
-0.9232536 5.0852799 -0.37460658
-0.92698258 4.9806824 -0.37460658
-0.91889924 4.8763309 -0.37460658
-0.89910656 4.7735553 -0.37460658
-0.8678568 4.673665 -0.37460658
-0.82554811 4.5779333 -0.37460658
-0.77271968 4.4875803 -0.37460658
-0.71004462 4.4037561 -0.37460658
-0.6383217 4.3275304 -0.37460658
-0.55846471 4.2598734 -0.37460658
-0.4714914 4.2016482 -0.37460658
-0.37850994 4.1535959 -0.37460658
-0.28070524 4.1163292 -0.37460658
-0.17932355 4.0903225 -0.37460658
-0.075656809 4.0759082 -0.37460658
0.028974017 4.0732689 -0.37460658
0.13323563 4.0824389 -0.37460658
0.23579946 4.1033015 -0.37460658
0.33535856 4.1355901 -0.37460658
0.43064424 4.1788936 -0.37460658
0.52044237 4.2326608 -0.37460658
0.60360855 4.2962055 -0.37460658
0.67908311 4.3687186 -0.37460658
0.74590433 4.449276 -0.37460658
0.80322057 4.5368514 -0.37460658
0.85030162 4.6303287 -0.37460658
0.88654745 4.7285161 -0.37460658
0.91149622 4.830163 -0.37460658
0.92483002 4.9339743 -0.37460658
0.89879405 5 -0.43837115
0.89270043 5.1044831 -0.43837115
0.87450218 5.2075491 -0.43837115
0.84444606 5.3078012 -0.43837115
0.80293965 5.4038796 -0.43837115
0.75054568 5.4944816 -0.43837115
0.68797469 5.5783782 -0.43837115
0.6160751 5.6544328 -0.43837115
0.53582174 5.7216134 -0.43837115
0.44830289 5.7790093 -0.43837115
0.35470527 5.8258419 -0.43837115
0.25629801 5.8614769 -0.43837115
0.15441543 5.8854303 -0.43837115
0.05043906 5.8973775 -0.43837115
-0.054221243 5.8971572 -0.43837115
-0.15814632 5.8847713 -0.43837115
-0.259927 5.8603888 -0.43837115
-0.35818321 5.8243394 -0.43837115
-0.45158261 5.7771125 -0.43837115
-0.53885871 5.7193484 -0.43837115
-0.61882818 5.6518302 -0.43837115
-0.69040656 5.5754733 -0.43837115
-0.75262338 5.4913135 -0.43837115
-0.80463493 5.4004912 -0.43837115
-0.84573603 5.3042388 -0.43837115
-0.87536925 5.2038612 -0.43837115
-0.89313293 5.100719 -0.43837115
-0.89878607 4.9962115 -0.43837115
-0.89225209 4.8917551 -0.43837115
-0.87361956 4.7887664 -0.43837115
-0.84314114 4.688642 -0.43837115
-0.80123007 4.5927396 -0.43837115
-0.74845469 4.5023594 -0.43837115
-0.6855306 4.4187269 -0.43837115
-0.61331105 4.3429761 -0.43837115
-0.53277522 4.2761345 -0.43837115
-0.44501522 4.2191081 -0.43837115
-0.35122102 4.1726704 -0.43837115
-0.25266442 4.1374507 -0.43837115
-0.15068178 4.1139269 -0.43837115
-0.046655975 4.1024179 -0.43837115
0.058002464 4.1030793 -0.43837115
0.16187441 4.1159029 -0.43837115
0.26355141 4.1407146 -0.43837115
0.36165479 4.1771774 -0.43837115
0.45485428 4.2247977 -0.43837115
0.54188615 4.2829294 -0.43837115
0.62157029 4.3507843 -0.43837115
0.69282621 4.4274421 -0.43837115
0.75468767 4.5118637 -0.43837115
0.80631596 4.6029038 -0.43837115
0.84701091 4.6993289 -0.43837115
0.87622082 4.7998304 -0.43837115
0.8935495 4.9030466 -0.43837115
0.86602539 5 -0.5
0.85970175 5.1044645 -0.5
0.84082317 5.2074041 -0.5
0.80966538 5.3073144 -0.5
0.76668334 5.4027367 -0.5
0.7125048 5.4922771 -0.5
0.64792097 5.5746288 -0.5
0.57387495 5.6485891 -0.5
0.49144822 5.7130771 -0.5
0.40184447 5.7671514 -0.5
0.30637223 5.8100224 -0.5
0.20642579 5.841064 -0.5
0.10346474 5.8598228 -0.5
-0.001007293 5.866025 -0.5
-0.10546461 5.8595796 -0.5
-0.20838174 5.8405814 -0.5
-0.3082557 5.8093076 -0.5
-0.40362796 5.7662144 -0.5
-0.49310568 5.7119317 -0.5
-0.57538217 5.6472521 -0.5
-0.64925593 5.5731201 -0.5
-0.71364802 5.4906187 -0.5
-0.76761812 5.4009519 -0.5
-0.81037807 5.3054299 -0.5
-0.84130335 5.2054472 -0.5
-0.85994244 5.1024647 -0.5
-0.86602306 4.9979854 -0.5
-0.85945642 4.8935356 -0.5
-0.84033841 4.7906408 -0.5
-0.80894828 4.6908031 -0.5
-0.76574439 4.5954809 -0.5
-0.71135771 4.5060668 -0.5
-0.64658248 4.4238653 -0.5
-0.57236463 4.3500781 -0.5
-0.48978812 4.2857819 -0.5
-0.40005881 4.231916 -0.5
-0.30448708 4.1892672 -0.5
-0.20446871 4.1584582 -0.5
-0.1014643 4.1399388 -0.5
0.003021874 4.1339798 -0.5
0.10746392 4.1406679 -0.5
0.21033658 4.1599054 -0.5
0.31013751 4.191412 -0.5
0.40540928 4.2347264 -0.5
0.49476048 4.2892175 -0.5
0.5768863 4.3540878 -0.5
0.65058738 4.4283915 -0.5
0.71478736 4.5110431 -0.5
0.76854873 4.6008348 -0.5
0.81108636 4.696456 -0.5
0.84177899 4.7965102 -0.5
0.86017847 4.8995361 -0.5
0.82903755 5 -0.5591929
0.82243252 5.1044416 -0.5591929
0.80272263 5.2072186 -0.5591929
0.77022201 5.306694 -0.5591929
0.72544843 5.4012828 -0.5591929
0.66911542 5.4894772 -0.5591929
0.60212058 5.5698719 -0.5591929
0.52553141 5.6411867 -0.5591929
0.44056824 5.7022839 -0.5591929
0.34858498 5.7521915 -0.5591929
0.25104731 5.790113 -0.5591929
0.14950936 5.8154449 -0.5591929
0.045589104 5.8277831 -0.5591929
-0.059057578 5.8269315 -0.5591929
-0.16276322 5.8129029 -0.5591929
-0.26387537 5.7859221 -0.5591929
-0.36078286 5.7464175 -0.5591929
-0.45194155 5.6950197 -0.5591929
-0.53589886 5.6325469 -0.5591929
-0.6113171 5.5599952 -0.5591929
-0.67699438 5.4785204 -0.5591929
-0.73188436 5.389421 -0.5591929
-0.77511227 5.294116 -0.5591929
-0.80598938 5.1941247 -0.5591929
-0.82402366 5.0910401 -0.5591929
-0.82892776 4.986505 -0.5591929
-0.82062346 4.882185 -0.5591929
-0.79924321 4.7797422 -0.5591929
-0.76512766 4.680809 -0.5591929
-0.71882033 4.5869617 -0.5591929
-0.66105914 4.4996958 -0.5591929
-0.5927645 4.4204025 -0.5591929
-0.5150246 4.3503442 -0.5591929
-0.42907822 4.2906375 -0.5591929
-0.33629477 4.2422342 -0.5591929
-0.23815271 4.205905 -0.5591929
-0.13621588 4.1822295 -0.5591929
-0.032108549 4.1715846 -0.5591929
0.072510406 4.1741395 -0.5591929
0.17597397 4.1898541 -0.5591929
0.2766335 4.2184777 -0.5591929
0.37288511 4.2595544 -0.5591929
0.46319506 4.3124294 -0.5591929
0.5461244 4.3762603 -0.5591929
0.62035161 4.4500299 -0.5591929
0.68469399 4.5325627 -0.5591929
0.73812634 4.6225443 -0.5591929
0.77979714 4.7185402 -0.5591929
0.80904251 4.8190207 -0.5591929
0.82539642 4.9223852 -0.5591929
0.78801078 5 -0.6156615
0.78106284 5.1044116 -0.6156615
0.76034153 5.2069826 -0.6156615
0.72621226 5.305903 -0.6156615
0.67927694 5.3994293 -0.6156615
0.62036312 5.4859118 -0.6156615
0.55050975 5.5638261 -0.6156615
0.47094867 5.6317978 -0.6156615
0.38308278 5.6886282 -0.6156615
0.2884616 5.733315 -0.6156615
0.18875362 5.7650704 -0.6156615
0.085717142 5.7833347 -0.6156615
-0.018830871 5.7877855 -0.6156615
-0.12304682 5.7783446 -0.6156615
-0.22509295 5.7551785 -0.6156615
-0.32316977 5.7186947 -0.6156615
-0.41554776 5.669538 -0.6156615
-0.50059795 5.6085744 -0.6156615
-0.57682055 5.5368791 -0.6156615
-0.64287138 5.4557161 -0.6156615
-0.69758576 5.3665175 -0.6156615
-0.73999888 5.2708554 -0.6156615
-0.76936269 5.1704168 -0.6156615
-0.78515953 5.0669737 -0.6156615
-0.78711075 4.9623489 -0.6156615
-0.77518201 4.8583884 -0.6156615
-0.74958354 4.7569251 -0.6156615
-0.71076691 4.6597481 -0.6156615
-0.6594165 4.5685711 -0.6156615
-0.59643781 4.485002 -0.6156615
-0.52294153 4.4105144 -0.6156615
-0.44022363 4.3464222 -0.6156615
-0.34974277 4.2938547 -0.6156615
-0.25309449 4.2537398 -0.6156615
-0.15198313 4.2267847 -0.6156615
-0.04819167 4.2134643 -0.6156615
0.0564496 4.2140136 -0.6156615
0.16009544 4.2284236 -0.6156615
0.26091814 4.2564392 -0.6156615
0.35713977 4.2975669 -0.6156615
0.44706354 4.3510814 -0.6156615
0.52910376 4.4160395 -0.6156615
0.60181367 4.4912944 -0.6156615
0.66391116 4.5755205 -0.6156615
0.71430117 4.6672316 -0.6156615
0.7520951 4.764811 -0.6156615
0.77662653 4.8665376 -0.6156615
0.78746277 4.9706178 -0.6156615
0.74314481 5 -0.66913062
0.73577875 5.1043735 -0.66913062
0.7138266 5.2066779 -0.66913062
0.67772359 5.3048854 -0.66913062
0.62818533 5.3970485 -0.66913062
0.56619394 5.4813404 -0.66913062
0.49297827 5.5560904 -0.66913062
0.40998983 5.6198168 -0.66913062
0.31887373 5.6712551 -0.66913062
0.22143629 5.7093873 -0.66913062
0.11960909 5.7334561 -0.66913062
0.015410751 5.7429848 -0.66913062
-0.089093089 5.7377849 -0.66913062
-0.19183074 5.7179589 -0.66913062
-0.29076555 5.6839004 -0.66913062
-0.3839362 5.6362839 -0.66913062
-0.46949571 5.5760536 -0.66913062
-0.54574794 5.5044041 -0.66913062
-0.61118126 5.4227548 -0.66913062
-0.66449845 5.332725 -0.66913062
-0.70464271 5.2360992 -0.66913062
-0.73081803 5.1347933 -0.66913062
-0.74250567 5.0308146 -0.66913062
-0.73947388 4.9262257 -0.66913062
-0.72178268 4.8230991 -0.66913062
-0.68978292 4.7234793 -0.66913062
-0.64410883 4.6293411 -0.66913062
-0.585666 4.542551 -0.66913062
-0.51561284 4.4648294 -0.66913062
-0.43533823 4.397717 -0.66913062
-0.34643343 4.3425441 -0.66913062
-0.25066093 4.300405 -0.66913062
-0.14991935 4.2721343 -0.66913062
-0.046205744 4.2582932 -0.66913062
0.058423836 4.2591553 -0.66913062
0.16189523 4.274704 -0.66913062
0.2621572 4.3046312 -0.66913062
0.35722217 4.3483434 -0.66913062
0.44520554 4.404974 -0.66913062
0.52436316 4.4734001 -0.66913062
0.59312582 4.5522656 -0.66913062
0.65013033 4.640007 -0.66913062
0.69424665 4.7348852 -0.66913062
0.72460026 4.8350191 -0.66913062
0.74058932 4.9384232 -0.66913062
0.6946584 5 -0.71933979
0.68678004 5.1043234 -0.71933979
0.66332382 5.2062807 -0.71933979
0.62482166 5.3035593 -0.71933979
0.57214701 5.3939519 -0.71933979
0.50649458 5.4754086 -0.71933979
0.42935354 5.5460825 -0.71933979
0.34247366 5.6043692 -0.71933979
0.24782561 5.6489472 -0.71933979
0.14755623 5.6788058 -0.71933979
0.043939911 5.6932673 -0.71933979
-0.06067308 5.6920037 -0.71933979
-0.16390985 5.6750436 -0.71933979
-0.26342872 5.6427717 -0.71933979
-0.35697237 5.5959201 -0.71933979
-0.44241896 5.535552 -0.71933979
-0.51783037 5.4630356 -0.71933979
-0.58149606 5.3800168 -0.71933979
-0.6319719 5.2883778 -0.71933979
-0.66811299 5.1901979 -0.71933979
-0.68909961 5.0877037 -0.71933979
-0.69445568 4.9832206 -0.71933979
-0.68405974 4.8791175 -0.71933979
-0.65814751 4.7777567 -0.71933979
-0.61730683 4.681437 -0.71933979
-0.56246406 4.5923429 -0.71933979
-0.49486318 4.5124955 -0.71933979
-0.41603753 4.443706 -0.71933979
-0.32777509 4.3875346 -0.71933979
-0.23207785 4.3452559 -0.71933979
-0.13111651 4.3178282 -0.71933979
-0.0271811 4.3058739 -0.71933979
0.077370845 4.3096638 -0.71933979
0.18016782 4.3291125 -0.71933979
0.27887812 4.3637791 -0.71933979
0.37126276 4.4128761 -0.71933979
0.45522621 4.4752913 -0.71933979
0.52886397 4.5496078 -0.71933979
0.59050572 4.6341405 -0.71933979
0.63875329 4.7269716 -0.71933979
0.67251235 4.8259959 -0.71933979
0.69101703 4.928967 -0.71933979
0.64278764 5 -0.76604444
0.63427627 5.1042571 -0.76604444
0.60896754 5.2057533 -0.76604444
0.56753182 5.3018007 -0.76604444
0.51106632 5.3898554 -0.76604444
0.44106641 5.4675856 -0.76604444
0.35938594 5.5329332 -0.76604444
0.26818794 5.584167 -0.76604444
0.16988762 5.6199307 -0.76604444
0.067088217 5.639277 -0.76604444
-0.03748785 5.6416936 -0.76604444
-0.14107114 5.6271162 -0.76604444
-0.2409185 5.5959315 -0.76604444
-0.33438569 5.5489645 -0.76604444
-0.41899747 5.4874597 -0.76604444
-0.49251306 5.4130459 -0.76604444
-0.55298561 5.327693 -0.76604444
-0.59881365 5.2336626 -0.76604444
-0.62878352 5.1334438 -0.76604444
-0.64210153 5.0296907 -0.76604444
-0.63841498 4.9251518 -0.76604444
-0.61782151 4.8225951 -0.76604444
-0.58086646 4.7247362 -0.76604444
-0.52852857 4.6341677 -0.76604444
-0.46219385 4.5532866 -0.76604444
-0.38361898 4.4842362 -0.76604444
-0.29488486 4.4288445 -0.76604444
-0.19834141 4.3885784 -0.76604444
-0.096545368 4.3645043 -0.76604444
0.0078074578 4.3572598 -0.76604444
0.11195352 4.3670368 -0.76604444
0.21313477 4.3935766 -0.76604444
0.30867162 4.4361758 -0.76604444
0.39603403 4.4937067 -0.76604444
0.47290844 4.5646458 -0.76604444
0.53725898 4.6471138 -0.76604444
0.58738142 4.7389274 -0.76604444
0.62194848 4.8376546 -0.76604444
0.64004469 4.9406815 -0.76604444
0.58778524 5 -0.809017
0.5784815 5.1041665 -0.809017
0.55086464 5.2050357 -0.809017
0.50580907 5.2994137 -0.809017
0.44474107 5.3843136 -0.809017
0.36959383 5.457047 -0.809017
0.28274637 5.5153117 -0.809017
0.18694796 5.5572629 -0.809017
0.085231327 5.581573 -0.809017
-0.019183474 5.587472 -0.809017
-0.12299099 5.5747738 -0.809017
-0.22290497 5.5438795 -0.809017
-0.31576243 5.4957676 -0.809017
-0.39862376 5.4319615 -0.809017
-0.46886584 5.3544803 -0.809017
-0.52426499 5.2657776 -0.809017
-0.56306744 5.1686611 -0.809017
-0.58404481 5.066205 -0.809017
-0.58653307 4.9616537 -0.809017
-0.57045341 4.8583159 -0.809017
-0.53631479 4.7594633 -0.809017
-0.48519808 4.6682253 -0.809017
-0.41872141 4.5874906 -0.809017
-0.3389892 4.519815 -0.809017
-0.24852562 4.46734 -0.809017
-0.15019444 4.4317279 -0.809017
-0.047108535 4.4141054 -0.809017
0.057468686 4.415031 -0.809017
0.16022661 4.4344745 -0.809017
0.25791225 4.4718213 -0.809017
0.34743312 4.5258884 -0.809017
0.42595527 4.5949645 -0.809017
0.49099293 4.6768632 -0.809017
0.54048717 4.768991 -0.809017
0.57287121 4.868432 -0.809017
0.58711982 4.9720383 -0.809017
0.52991927 5 -0.84804809
0.51960582 5.1040397 -0.84804809
0.48906693 5.2040291 -0.84804809
0.4394913 5.2960773 -0.84804809
0.37280867 5.3766007 -0.84804809
0.29161462 5.4424648 -0.84804809
0.19906957 5.4911065 -0.84804809
0.098775834 5.5206323 -0.84804809
-0.005362716 5.529892 -0.84804809
-0.10929252 5.5185261 -0.84804809
-0.20896816 5.4869771 -0.84804809
-0.30050981 5.4364724 -0.84804809
-0.38035423 5.3689785 -0.84804809
-0.44539353 5.2871218 -0.84804809
-0.49309605 5.1940894 -0.84804809
-0.52160501 5.093502 -0.84804809
-0.52981073 4.989275 -0.84804809
-0.51739377 4.8854656 -0.84804809
-0.48483747 4.7861142 -0.84804809
-0.43340907 4.6950884 -0.84804809
-0.3651104 4.615931 -0.84804809
-0.28259996 4.5517235 -0.84804809
-0.18908943 4.5049648 -0.84804809
-0.088218682 4.4774756 -0.84804809
0.016085951 4.470325 -0.84804809
0.11976444 4.4837918 -0.84804809
0.21878116 4.5173521 -0.84804809
0.30928189 4.5696988 -0.84804809
0.38774398 4.6387949 -0.84804809
0.45111328 4.721951 -0.84804809
0.49692318 4.8159299 -0.84804809
0.52339053 4.9170737 -0.84804809
0.46947157 5 -0.88294756
0.45784059 5.1038537 -0.88294756
0.42352393 5.2025614 -0.88294756
0.36822197 5.2912321 -0.88294756
0.2946749 5.3654728 -0.88294756
0.20652691 5.4216042 -0.88294756
0.10814565 5.4568458 -0.88294756
0.0044058561 5.469451 -0.88294756
-0.099552244 5.4587951 -0.88294756
-0.1985776 5.4254065 -0.88294756
-0.2877636 5.3709388 -0.88294756
-0.3626911 5.2980919 -0.88294756
-0.41964754 5.2104745 -0.88294756
-0.45581076 5.1124282 -0.88294756
-0.46938887 5.0088115 -0.88294756
-0.45970911 4.904758 -0.88294756
-0.42725113 4.8054233 -0.88294756
-0.37362313 4.7157302 -0.88294756
-0.30148241 4.6401224 -0.88294756
-0.21440345 4.582346 -0.88294756
-0.11670095 4.5452642 -0.88294756
-0.013216015 4.5307145 -0.88294756
