# .PCD v0.7 - Point Cloud Data file format
VERSION 0.7
FIELDS x y z intensity ring
SIZE 4 4 4 4 2
TYPE F F F F U
COUNT 1 1 1 1 1
WIDTH 1335
HEIGHT 1
VIEWPOINT 0 0 0 1 0 0 0
POINTS 1335
DATA ascii
16.946342 -1.6048851 -2.0900595 2 4
6.7724981 -0.67359763 -1.8236392 4 0
7.9560084 -0.79551768 -1.8459483 6 1
9.7416601 -0.97921598 -1.9031291 4 2
12.421129 -1.2551218 -1.9773319 3 3
16.909052 -1.7205405 -2.0868907 2 4
6.7293358 -0.71559495 -1.8132863 3 0
7.9271564 -0.84716862 -1.8405495 6 1
9.7423935 -1.0480411 -1.9046555 4 2
79.732147 -8.5912895 7.0160375 48 10
12.404209 -1.3409572 -1.9760804 3 3
16.881161 -1.8338808 -2.0849409 1 4
6.7126584 -0.76125067 -1.8101805 4 0
7.8958783 -0.89962167 -1.8347007 5 1
9.6763258 -1.1093217 -1.8932071 4 2
12.323897 -1.4193847 -1.964817 12 3
16.852171 -1.9498627 -2.0829911 1 4
6.70718 -0.80809492 -1.8101805 4 0
7.8816671 -0.95378649 -1.8329012 5 1
9.6605492 -1.1758987 -1.8916805 4 2
12.29212 -1.5027498 -1.9613756 8 3
16.786921 -2.0611746 -2.0766537 1 4
6.7167058 -0.85685551 -1.8143215 4 0
7.876749 -1.0090348 -1.8333511 6 1
9.6425848 -1.2403756 -1.8897724 3 2
12.307075 -1.5896738 -1.9654428 2 3
16.783932 -2.1798518 -2.0781162 1 4
6.6800838 -0.8984344 -1.8060393 4 0
7.8774233 -1.0636693 -1.8351506 6 1
9.6375818 -1.3081911 -1.8905357 3 2
12.21347 -1.6643516 -1.9523023 2 3
16.725437 -2.288126 -2.0727541 1 4
73.405182 -10.172752 -1.2935375 103 7
6.665998 -0.94396448 -1.8039688 4 0
7.8659472 -1.1180894 -1.8342509 6 1
9.5737953 -1.3676676 -1.8798503 3 2
12.225019 -1.7529409 -1.9560568 2 3
16.66976 -2.399179 -2.0678792 2 4
73.395691 -10.694192 -1.2946545 136 7
6.6630673 -0.99104702 -1.8050041 4 0
7.8290386 -1.1686608 -1.8275024 4 1
9.5601311 -1.4338889 -1.8790871 3 2
12.185136 -1.834128 -1.9516766 2 3
16.609423 -2.5089741 -2.0625172 2 4
6.6750741 -1.0405147 -1.8101805 4 0
7.8168392 -1.2226865 -1.8266027 5 1
9.5479488 -1.500291 -1.8787055 10 2
12.152521 -1.9160744 -1.9485478 2 3
16.571894 -2.6217656 -2.0600796 2 4
6.6523938 -1.084603 -1.8060393 3 0
7.8042655 -1.2765989 -1.8257027 5 1
9.5120573 -1.5627737 -1.8737445 12 2
12.142747 -2.0015101 -1.9491737 2 3
16.486597 -2.726382 -2.0517924 2 4
6.6446595 -1.1310186 -1.8060393 3 0
7.7913218 -1.3303955 -1.824803 4 1
9.5360308 -1.6334497 -1.8806137 3 2
12.10548 -2.080102 -1.9454193 1 3
16.465206 -2.8410757 -2.0515487 2 4
6.6330032 -1.1755466 -1.8050041 3 0
7.7974348 -1.3861266 -1.8284022 5 1
9.5050669 -1.6965338 -1.8767973 3 2
12.078997 -2.1624737 -1.943542 1 3
16.408363 -2.9464178 -2.0469177 2 4
6.6208348 -1.2211238 -1.8039688 3 0
7.7454109 -1.4327307 -1.8185043 5 1
9.5048809 -1.7633417 -1.8790871 3 2
12.060113 -2.2439198 -1.9429164 2 3
16.391296 -3.061626 -2.0474052 1 4
6.6009855 -1.2639819 -1.8008629 3 0
7.7259097 -1.4835809 -1.8162549 3 1
9.4692059 -1.8251957 -1.8745077 3 2
12.063548 -2.3318083 -1.9460449 3 3
16.327202 -3.1648154 -2.042043 1 4
6.5995798 -1.3115406 -1.8029336 3 0
7.7210975 -1.5386237 -1.8176044 5 1
9.4408321 -1.888178 -1.8714547 3 2
12.01986 -2.410533 -1.9416648 2 3
16.32028 -3.2818542 -2.0439928 1 4
6.5675569 -1.3529046 -1.7967219 3 0
7.6910839 -1.5885476 -1.8131055 10 1
9.435111 -1.9556348 -1.8729813 3 2
11.964057 -2.4863491 -1.9354074 2 3
16.234783 -3.3827524 -2.0361931 1 4
6.588182 -1.4051692 -1.8050041 3 0
7.6779008 -1.6417948 -1.8126557 9 1
9.4365835 -2.0247509 -1.8760341 3 2
11.954132 -2.5714743 -1.9366589 2 3
16.187485 -3.4909873 -2.0332682 1 4
6.5819845 -1.451961 -1.8060393 3 0
7.6681547 -1.6957771 -1.8131055 4 1
9.4490519 -2.0965345 -1.8813769 3 2
11.889612 -2.6445735 -1.9291501 2 3
16.100719 -3.5900869 -2.0254686 1 4
6.5509682 -1.4931538 -1.8003453 2 0
7.6694274 -1.7523074 -1.8162549 3 1
9.4188757 -2.1589408 -1.8783239 3 2
11.863158 -2.7257438 -1.9278985 2 3
16.079132 -3.7032933 -2.0259562 2 4
6.5422649 -1.5392939 -1.8008629 3 0
7.6399374 -1.8017813 -1.8122058 4 1
9.3921108 -2.2219317 -1.8760341 3 2
11.84384 -2.8084972 -1.9278985 2 3
16.049026 -3.8145382 -2.0254686 2 4
6.4938121 -1.5758181 -1.7905102 4 0
7.6347461 -1.856916 -1.8140053 3 1
9.4412184 -2.3032668 -1.8890091 3 2
11.804756 -2.8864217 -1.9247699 2 3
16.010435 -3.9236524 -2.0240064 1 4
6.4845266 -1.6215835 -1.7910279 11 0
7.5989127 -1.9044856 -1.8086064 4 1
9.4020615 -2.363379 -1.8844297 3 2
11.761332 -2.9629726 -1.9210155 3 3
15.948009 -4.0265827 -2.019619 2 4
6.4936271 -1.6721133 -1.7967219 9 0
7.5816584 -1.9565154 -1.8077066 3 1
9.2903004 -2.4043648 -1.8653487 3 2
11.725063 -3.0410421 -1.9185126 2 3
15.902217 -4.133327 -2.0174253 2 4
6.4892654 -1.7193853 -1.7987925 3 0
7.5696979 -2.0098972 -1.8081565 3 1
9.3491755 -2.4893706 -1.8806137 3 2
11.718816 -3.1268976 -1.9210155 3 3
15.855717 -4.2396293 -2.0152316 3 4
6.4547362 -1.758553 -1.7925807 3 0
7.5667615 -2.0657737 -1.810856 3 1
9.320652 -2.5498416 -1.8783239 3 2
11.70107 -3.2076364 -1.9216411 2 3
15.779792 -4.3375907 -2.009382 3 4
6.4463382 -1.8034887 -1.7936161 3 0
7.5375137 -2.1130228 -1.8072568 3 1
9.2383623 -2.5967865 -1.8653487 3 2
11.651772 -3.281749 -1.917261 2 3
15.719334 -4.4362726 -2.0054822 3 4
6.4243069 -1.845781 -1.7910279 2 0
7.5113425 -2.162358 -1.8045573 3 1
9.1973743 -2.654686 -1.8607695 3 2
11.617191 -3.3597205 -1.9153838 1 3
15.676539 -4.5425901 -2.0040195 3 4
6.4112639 -1.8905859 -1.7910279 2 0
7.4867191 -2.211983 -1.8023077 3 1
9.1861467 -2.7210608 -1.8622959 3 2
11.559366 -3.4306245 -1.9097521 1 3
15.62542 -4.6462646 -2.0015824 3 4
6.4182491 -1.9414511 -1.7967219 3 0
7.463635 -2.261935 -1.8005083 3 1
9.1298409 -2.7721171 -1.8546635 3 2
11.554646 -3.514976 -1.9128809 1 3
15.567917 -4.7477074 -1.9984137 2 4
6.3753619 -1.9759431 -1.7884396 2 0
7.4592323 -2.316153 -1.8032078 2 1
9.0877714 -2.8287854 -1.8500841 3 2
11.51851 -3.5920279 -1.9110037 1 3
15.52766 -4.8511972 -1.9974388 2 4
6.3356347 -2.0122159 -1.7811928 2 0
32.022854 -10.182858 0.58654046 194 8
7.4503083 -2.3705347 -1.8050072 2 1
9.0678005 -2.8921609 -1.8500841 3 2
11.493153 -3.6723537 -1.9110037 1 3
15.442368 -4.943141 -1.9908577 3 4
6.345315 -2.0641668 -1.787922 2 0
7.4298716 -2.4212821 -1.8041074 1 1
8.998867 -2.9395449 -1.8401619 3 2
11.444706 -3.7451284 -1.9072492 1 3
15.415028 -5.0533013 -1.9918326 3 4
6.3252511 -2.1065836 -1.7863692 2 0
32.091923 -10.700452 0.59048474 196 8
7.4386668 -2.4817269 -1.8104061 1 1
8.9781265 -3.0022967 -1.8401619 3 2
11.440759 -3.8324652 -1.9110037 1 3
15.356791 -5.1532168 -1.9889079 3 4
6.3341618 -2.158792 -1.7930984 2 0
7.3916531 -2.523524 -1.8032078 1 1
8.9680929 -3.0687158 -1.8424517 3 2
11.376351 -3.8994327 -1.9047463 2 3
15.301666 -5.2538543 -1.9864705 3 4
6.3061671 -2.198508 -1.789475 2 0
7.3848944 -2.5789206 -1.8059071 2 1
8.9655294 -3.1361706 -1.8462679 3 2
11.33836 -3.9728589 -1.9028691 2 3
15.302073 -5.3737059 -1.9913452 3 4
6.2546606 -2.2284143 -1.7791222 2 0
7.3249555 -2.6140628 -1.7955593 1 1
8.8953533 -3.181495 -1.8363459 3 2
11.299189 -4.0479202 -1.9009918 2 3
15.267011 -5.4784088 -1.991589 2 4
6.2425809 -2.2733476 -1.7801574 2 0
7.3376503 -2.6764891 -1.8032078 1 1
8.8729258 -3.2435184 -1.8363459 3 2
11.244686 -4.1171956 -1.8966117 2 3
15.267529 -5.5992117 -1.9967074 3 4
6.2265577 -2.3168733 -1.7801574 2 0
7.2932215 -2.718122 -1.796909 1 1
8.8831711 -3.3177476 -1.8432151 3 2
11.200867 -4.1900611 -1.8941088 3 3
15.24108 -5.710537 -1.9984137 2 4
44.742588 -16.781994 7.5686135 0 12
6.1813378 -2.3493047 -1.7718753 2 0
7.2740679 -2.7689717 -1.796909 1 1
8.8304434 -3.3684869 -1.8371091 3 2
11.186105 -4.2737947 -1.8966117 3 3
15.169324 -5.804739 -1.9942701 2 4
6.2098112 -2.409874 -1.7848163 2 0
7.2509265 -2.8182743 -1.7960092 2 1
8.7701225 -3.4158018 -1.8294767 3 2
11.111828 -4.3345547 -1.8891028 3 3
15.145071 -5.9170003 -1.9964637 2 4
6.1892438 -2.4517443 -1.7837809 2 0
7.2202067 -2.8645144 -1.7933098 2 1
8.7758627 -3.4870179 -1.8355827 3 2
43.735645 -17.395683 4.1179342 0 10
11.078396 -4.4086289 -1.8884771 4 3
15.057296 -6.0042062 -1.9903703 3 4
6.156292 -2.4873033 -1.7791222 2 0
7.1987348 -2.912863 -1.7928599 3 1
8.7513046 -3.5481997 -1.8355827 3 2
11.036366 -4.4814038 -1.8865999 3 3
15.014239 -6.1058097 -1.9901265 2 4
6.1477075 -2.5339022 -1.7817104 2 0
7.1800256 -2.9637921 -1.7933098 2 1
8.7124348 -3.6016848 -1.8325297 3 2
11.005607 -4.5564213 -1.8865999 3 3
14.987752 -6.2173257 -1.9923203 3 4
6.1160693 -2.5697026 -1.7775693 2 0
7.1309462 -3.0005033 -1.7861114 2 1
8.6617517 -3.6517427 -1.8271869 3 2
10.96625 -4.6300697 -1.8853484 3 3
14.904859 -6.3021908 -1.9869579 2 4
6.1050839 -2.6153808 -1.7796398 2 0
7.1277342 -3.0578964 -1.7906104 2 1
8.657691 -3.7214279 -1.8317665 3 2
10.919143 -4.7002668 -1.8828454 4 3
14.8368 -6.3958759 -1.9837892 2 4
6.0831351 -2.6563921 -1.7786045 2 0
7.1097832 -3.1091437 -1.7915101 2 1
8.5811491 -3.7597187 -1.8210812 3 2
10.857121 -4.7636828 -1.8778396 3 3
14.800874 -6.5032921 -1.985008 3 4
6.0238476 -2.6807301 -1.7666988 2 0
7.0843444 -3.1571167 -1.7906104 2 1
8.5941315 -3.8371425 -1.8294767 3 2
10.809175 -4.8329134 -1.8753366 2 3
14.760549 -6.6088967 -1.9857392 2 4
36.44677 -16.372183 -2.0939617 1 6
6.0542507 -2.7450559 -1.7811928 3 0
7.0514846 -3.2016635 -1.7879109 1 1
8.5564108 -3.8921692 -1.8271869 3 2
10.764385 -4.9033442 -1.8734595 2 3
14.730304 -6.7191968 -1.9879328 2 4
36.380619 -16.648668 -2.0967879 1 6
6.0384464 -2.7888749 -1.782228 3 0
7.0395737 -3.255722 -1.7906104 1 1
8.518343 -3.946857 -1.8248973 3 2
10.733474 -4.9800358 -1.8740851 2 3
14.728045 -6.8427806 -1.9940264 2 4
36.370312 -16.952026 -2.1029637 1 6
6.0083413 -2.82603 -1.7791222 3 0
7.0166731 -3.3047876 -1.7906104 2 1
8.4124584 -3.969368 -1.8081062 3 2
10.719878 -5.0649743 -1.8778396 4 3
14.663764 -6.9377928 -1.9918326 2 4
5.9745264 -2.8612313 -1.774981 3 0
7.0110021 -3.3621187 -1.7951094 2 1
8.4163952 -4.043303 -1.8149751 3 2
10.659336 -5.1277003 -1.8734595 2 3
14.665049 -7.064117 -1.9986575 2 4
5.9509325 -2.9011781 -1.7739457 3 0
6.9523349 -3.3938847 -1.7861114 1 1
8.4302912 -4.1226616 -1.8241341 3 2
10.548765 -5.1655045 -1.8603188 9 3
14.629633 -7.1733165 -2.0006073 2 4
43.845722 -21.517769 7.7356849 0 12
5.927073 -2.9409354 -1.7729106 3 0
6.9180007 -3.4371357 -1.783412 2 1
8.39779 -4.1796656 -1.8233709 3 2
10.482392 -5.2240434 -1.8550001 4 3
14.609394 -7.2903433 -2.004751 2 4
36.548985 -18.29439 -2.1420062 1 6
5.9029474 -2.9805002 -1.7718753 3 0
6.9147058 -3.495899 -1.7888107 2 1
8.3158617 -4.2115803 -1.8119223 3 2
10.496758 -5.3230052 -1.8640733 4 3
14.517433 -7.3714871 -1.9991449 2 4
32.083176 -16.340141 -1.8869207 9 6
5.8819962 -3.0216374 -1.7718753 3 0
6.8554726 -3.5262599 -1.7798127 3 1
8.3149281 -4.2824693 -1.8180283 3 2
10.442725 -5.3852768 -1.8609446 2 3
14.599656 -7.5418997 -2.0176692 1 4
32.132603 -16.641729 -1.8964459 9 6
5.8510184 -3.0562384 -1.7687694 3 0
6.8485794 -3.5818727 -1.7843118 3 1
8.2813492 -4.3385911 -1.8172649 3 2
10.404875 -5.4580493 -1.8609446 3 3
14.567314 -7.6512537 -2.0203502 2 4
32.162304 -16.942913 -1.9051336 8 6
5.812479 -3.0879478 -1.763593 3 0
6.7821155 -3.6076331 -1.7735142 3 1
8.2100391 -4.3727102 -1.8081062 3 2
10.369226 -5.529676 -1.8612576 4 3
14.5258 -7.7593122 -2.0220563 2 4
5.8111758 -3.1394701 -1.7698047 3 0
6.7773328 -3.666019 -1.7789129 3 1
8.2165136 -4.4519234 -1.8165017 3 2
10.327654 -5.6027918 -1.8609446 4 3
14.436387 -7.8415813 -2.0171814 2 4
5.8060493 -3.1892638 -1.774981 3 0
6.7242537 -3.6982183 -1.7717146 4 1
8.1474037 -4.4883361 -1.8081062 3 2
10.305585 -5.6842957 -1.8640733 3 3
14.426472 -7.9671254 -2.0235186 2 4
5.7634025 -3.2184169 -1.7687694 3 0
6.7135801 -3.7536311 -1.7757636 3 1
8.1158705 -4.5451059 -1.8081062 3 2
10.275989 -5.7618999 -1.8659505 3 3
14.396466 -8.0822229 -2.0271747 2 4
5.7391133 -3.2576206 -1.7682518 2 0
6.6651864 -3.7878914 -1.769915 3 1
8.0839424 -4.6016541 -1.8081062 3 2
10.276702 -5.8569741 -1.8734595 1 3
14.374175 -8.2022095 -2.0320497 2 4
5.7095375 -3.293746 -1.7661812 2 0
6.6487045 -3.840179 -1.7726144 3 1
8.0312271 -4.6461806 -1.8035268 3 2
10.21505 -5.9166946 -1.869705 2 3
14.373231 -8.3352222 -2.0400932 3 4
5.6697383 -3.3237557 -1.7610049 2 0
6.6082878 -3.8786099 -1.7690151 3 1
8.0197277 -4.7126756 -1.8081062 3 2
10.154109 -5.9740686 -1.8659505 1 3
14.31469 -8.4353628 -2.0400932 3 4
5.6818404 -3.3830256 -1.7718753 3 0
6.5767126 -3.9205074 -1.7676654 3 1
7.9630327 -4.7544584 -1.8027636 3 2
10.098592 -6.0367031 -1.8634475 2 3
14.292709 -8.5540113 -2.0452116 5 4
5.6283312 -3.4046121 -1.7625577 3 0
6.5441813 -3.9632971 -1.7663157 4 1
7.9162178 -4.8017888 -1.7997105 3 2
10.056202 -6.1070566 -1.8634475 2 3
14.271657 -8.6773033 -2.0508175 3 4
5.6044259 -3.4438217 -1.7625577 3 0
6.5296321 -4.0170565 -1.769915 5 1
7.8607726 -4.8435478 -1.7947495 4 2
10.050308 -6.1999292 -1.8703307 2 3
14.2918 -8.8267956 -2.0625172 3 4
5.5900798 -3.489001 -1.7656636 3 0
6.4981232 -4.0604782 -1.7690151 4 1
7.8384171 -4.9055991 -1.7974207 4 2
9.956562 -6.2384772 -1.8609446 2 3
14.28364 -8.9601097 -2.0703166 3 4
33.039867 -20.782164 -2.0456035 1 6
5.5623226 -3.5258729 -1.7646283 3 0
6.461391 -4.100523 -1.7667656 3 1
7.8271756 -4.9749446 -1.8027636 4 2
9.9394321 -6.3248019 -1.8659505 2 3
14.269292 -9.0905418 -2.0773852 5 4
5.5326986 -3.5614827 -1.7630754 2 0
6.4276929 -4.142365 -1.7654159 4 1
7.7683854 -5.0121412 -1.7970392 4 2
9.8861942 -6.3858795 -1.8640733 3 3
14.280483 -9.2384577 -2.0883534 8 4
5.4889212 -3.5863793 -1.7568637 2 0
6.394455 -4.1828203 -1.7640662 3 1
7.6954341 -5.0415077 -1.788262 3 2
9.8545866 -6.4634089 -1.8665762 3 3
14.240526 -9.3542767 -2.0920093 10 4
25.801659 -16.987226 -1.6189606 22 6
5.4872622 -3.6415887 -1.7646283 3 0
6.3692298 -4.2317057 -1.7654159 4 1
7.6682234 -5.1005449 -1.79017 4 2
9.8080835 -6.533761 -1.8665762 3 3
14.239284 -9.4964218 -2.1015153 11 4
25.802299 -17.253576 -1.6267064 32 6
5.4536948 -3.6744099 -1.76204 2 0
6.3346848 -4.2727985 -1.7640662 3 1
7.6640663 -5.1772666 -1.7978026 4 2
9.7098684 -6.5666633 -1.8565645 2 3
14.226884 -9.6323242 -2.1095586 6 4
25.786978 -17.505081 -1.6334053 31 6
5.4247208 -3.7102137 -1.7610049 2 0
6.303093 -4.3158174 -1.7636162 4 1
7.5849266 -5.1993427 -1.7874987 4 2
9.7105513 -6.6638994 -1.8653249 2 3
14.263994 -9.8033714 -2.1251578 5 4
25.772495 -17.75271 -1.6401043 31 6
5.3945794 -3.7437475 -1.759452 3 0
6.2751703 -4.3597336 -1.7640662 6 1
7.5323286 -5.2409554 -1.7836826 4 2
9.6378565 -6.7134647 -1.8603188 2 3
14.245781 -9.9342985 -2.1324699 5 4
25.729776 -17.989426 -1.6453379 31 6
5.3683119 -3.7813175 -1.759452 3 0
6.2509513 -4.407927 -1.7658658 7 1
7.514123 -5.3045597 -1.7878804 4 2
9.6209745 -6.7994318 -1.8659505 2 3
14.270059 -10.100025 -2.1466067 5 4
27.913435 -19.800407 -1.7935534 13 6
5.3204446 -3.8020458 -1.752205 3 0
6.2049541 -4.4390354 -1.7613667 6 1
7.4146662 -5.3122954 -1.7729974 3 2
9.5668516 -6.8618283 -1.8646991 4 3
14.323526 -10.284918 -2.1651309 5 4
5.2859521 -3.8334258 -1.7496167 2 0
6.164351 -4.4753761 -1.7586673 6 1
7.4440904 -5.4124188 -1.7890252 3 2
9.5235043 -6.9319367 -1.8656377 4 3
14.331594 -10.443117 -2.1773179 5 4
29.105078 -21.262716 -1.8890142 4 6
5.2901802 -3.8931353 -1.7599696 2 0
6.1392322 -4.5229259 -1.7604669 6 1
7.377687 -5.4432759 -1.7821561 3 2
9.4875908 -7.0076437 -1.8681406 4 3
14.328568 -10.594844 -2.1880424 5 4
5.2272701 -3.9033878 -1.7480639 2 0
6.1075072 -4.5656748 -1.7604669 6 1
7.3844776 -5.5263047 -1.7928416 3 2
9.4428329 -7.074429 -1.8687663 4 3
14.317768 -10.742272 -2.1977918 6 4
5.2159796 -3.9505417 -1.7532402 2 0
6.0762887 -4.607141 -1.7604669 7 1
7.361352 -5.5895958 -1.7966576 3 2
9.4309578 -7.168869 -1.8762752 3 3
14.33594 -10.909203 -2.2119288 5 4
24.579435 -18.751644 -1.6202167 10 6
5.1836772 -3.9833283 -1.7516873 2 0
6.0316205 -4.6399436 -1.7568678 7 1
7.3138013 -5.6323853 -1.7943679 3 2
9.3991518 -7.2461638 -1.8797168 3 3
14.353707 -11.081805 -2.226553 5 4
24.51757 -18.969847 -1.6246129 32 6
5.1267953 -3.9968524 -1.7418523 2 0
5.9990802 -4.6819386 -1.7568678 6 1
7.3042474 -5.7087564 -1.8020002 3 2
9.353281 -7.3181062 -1.8809682 3 3
14.36351 -11.250291 -2.2402024 5 4
24.478594 -19.221279 -1.6311026 31 6
5.1336169 -4.0601091 -1.753758 2 0
5.9509697 -4.7116094 -1.7523687 7 1
7.2703691 -5.7644897 -1.8035268 3 2
9.3205309 -7.3979611 -1.8847226 2 3
14.503761 -11.524418 -2.2745697 4 4
28.839825 -22.973125 -1.9323484 7 6
5.0991201 -4.0910134 -1.7516873 2 0
5.917932 -4.7530398 -1.7523687 6 1
7.2115908 -5.8003402 -1.7989473 3 2
9.2532701 -7.4504623 -1.8815941 2 3
14.715058 -11.860839 -2.3206363 5 4
28.576214 -23.091055 -1.92544 3 6
5.0614457 -4.1191959 -1.7485816 2 0
5.8876271 -4.7967 -1.7532685 7 1
7.1709208 -5.8505449 -1.7989473 3 2
9.2346907 -7.5423708 -1.8884771 1 3
14.625748 -11.958255 -2.3196611 5 4
27.737741 -22.735435 -1.8795937 5 6
5.0131974 -4.138443 -1.7418523 2 0
5.8479881 -4.8327208 -1.7514689 7 1
28.484802 -23.556307 1.9371632 7 9
7.1178021 -5.890451 -1.7958944 3 2
9.2091904 -7.6293406 -1.8941088 2 3
14.499125 -12.024587 -2.3128366 5 4
26.905668 -22.369263 -1.8337474 6 6
4.9752965 -4.1658988 -1.7387464 2 0
5.8081331 -4.868422 -1.7496693 7 1
7.1050768 -5.9639807 -1.8031452 4 2
9.1829262 -7.716321 -1.8997405 2 3
14.40723 -12.119126 -2.3116179 4 4
26.748846 -22.556555 -1.8337474 6 6
4.9343119 -4.1905265 -1.7346053 2 0
5.7740035 -4.9088516 -1.7496693 7 1
7.0258951 -5.9816208 -1.7936047 3 2
9.1438675 -7.7930551 -1.9028691 2 3
14.338884 -12.233584 -2.3142991 5 4
26.976248 -23.072483 -1.860334 5 6
4.9151831 -4.2336979 -1.7382288 2 0
5.7336898 -4.9439516 -1.7478697 7 1
6.9869366 -6.0330901 -1.7943679 3 2
9.1161394 -7.8799529 -1.9085008 3 3
14.265137 -12.34378 -2.3162489 5 4
26.645538 -23.11367 -1.8486109 5 6
4.8898706 -4.2717214 -1.7397816 3 0
5.7078371 -4.9915562 -1.7505691 7 1
6.9476018 -6.0843072 -1.7951311 3 2
9.0609045 -7.9434028 -1.9085008 4 3
14.184583 -12.448308 -2.317224 5 4
26.216608 -23.064301 -1.8299793 6 6
4.8743892 -4.3185663 -1.744958 3 0
5.6670184 -5.0261106 -1.7487694 7 1
6.9177718 -6.1418853 -1.7981842 3 2
9.0184383 -8.0153913 -1.9110037 4 3
14.063228 -12.516674 -2.3116179 4 4
18.083193 -16.111538 -2.1189303 29 5
25.009672 -22.306307 -1.7562902 7 6
4.8247604 -4.3335719 -1.7377111 3 0
5.6355739 -5.067174 -1.7496693 7 1
6.8659711 -6.1821485 -1.7958944 3 2
8.9960089 -8.1085758 -1.9181997 5 3
13.952648 -12.589501 -2.3074741 5 4
25.46656 -23.035032 -1.7996243 6 6
4.8143835 -4.3853617 -1.744958 3 0
5.6000614 -5.1063938 -1.7496693 7 1
6.7976313 -6.204915 -1.7890252 3 2
8.9493561 -8.1776161 -1.9200768 5 3
13.838056 -12.662481 -2.303087 5 4
25.0972 -23.01347 -1.7845517 7 6
4.7673907 -4.4023032 -1.7387464 4 0
5.5551567 -5.1351342 -1.74652 5 1
6.7642326 -6.2615561 -1.7916965 4 2
8.8906002 -8.2385521 -1.9197639 4 3
13.748636 -12.753679 -2.3025997 5 4
24.745787 -23.011303 -1.7709442 7 6
4.7421808 -4.4407601 -1.740817 4 0
5.523437 -5.1777887 -1.7478697 7 1
6.7160606 -6.3045945 -1.7905518 3 2
8.8587799 -8.3247681 -1.9253956 2 3
13.636129 -12.82759 -2.2986999 5 4
17.484156 -16.470476 -2.1014993 30 5
24.413073 -23.021809 -1.758593 15 6
4.6858482 -4.4498138 -1.7314996 4 0
5.4702058 -5.2001114 -1.7424709 6 1
6.6661944 -6.3459134 -1.7890252 3 2
8.8261871 -8.4109411 -1.9310273 3 3
13.514645 -12.892329 -2.2933376 5 4
24.06988 -23.017754 -1.7454044 8 6
4.6713667 -4.4984984 -1.7377111 4 0
5.4309635 -5.2354689 -1.7415711 7 1
6.6415052 -6.411386 -1.7943679 3 2
8.7842989 -8.4888258 -1.9347818 3 3
13.412894 -12.975322 -2.2913876 5 4
23.748014 -23.029507 -1.7336812 8 6
4.6315546 -4.5229025 -1.7346053 4 0
5.3817396 -5.2609963 -1.737522 14 1
35.745789 -34.968216 2.6206708 0 9
6.5685248 -6.4301295 -1.7867355 3 2
35.73859 -34.99781 4.3762641 1 10
8.7417526 -8.566535 -1.938536 4 3
35.805862 -35.112694 6.1575708 1 11
13.279472 -13.026941 -2.2840755 5 4
23.375898 -22.987476 -1.7181896 8 6
4.6053581 -4.5605636 -1.7366759 5 0
23.398254 -23.186855 0.57498699 45 8
5.3324242 -5.2860913 -1.7334728 13 1
6.5123281 -6.4647641 -1.7836826 3 2
35.320915 -35.07518 4.3549981 0 10
8.7097578 -8.6552038 -1.9447935 9 3
13.168502 -13.099731 -2.280663 5 4
23.073423 -23.009079 -1.7077224 8 6
4.5761333 -4.5953417 -1.7377111 4 0
5.3160062 -5.3439136 -1.7402214 7 1
22.975626 -23.112371 1.7079319 6 9
6.4808731 -6.5239987 -1.7874987 3 2
8.6199007 -8.6863518 -1.9382232 17 3
13.043187 -13.15751 -2.2748132 5 4
22.757748 -23.013384 -1.6962085 9 6
4.5331116 -4.6161499 -1.7335701 5 0
5.277204 -5.3795042 -1.7397714 7 1
22.635979 -23.08284 1.6943244 20 9
6.433568 -6.5651569 -1.7867355 3 2
8.5978851 -8.782937 -1.9466707 7 3
12.926038 -13.222696 -2.270426 5 4
22.402533 -22.964745 -1.6813452 19 6
4.5096507 -4.6552243 -1.7366759 4 0
5.2404652 -5.4153004 -1.7397714 7 1
22.329887 -23.09099 1.6834384 21 9
6.3957629 -6.6183815 -1.7890252 3 2
8.5665436 -8.8740149 -1.9535539 10 3
12.819198 -13.293226 -2.2675011 5 4
22.083813 -22.956495 -1.6694125 19 6
4.4717035 -4.6810055 -1.7346053 4 0
5.2106042 -5.4602122 -1.7424709 6 1
21.975166 -23.043964 1.6687845 21 9
6.3494029 -6.6628709 -1.7890252 3 2
8.5288992 -8.9593563 -1.9591854 9 3
12.695986 -13.350749 -2.2621388 5 4
21.741566 -22.91884 -1.6555958 20 6
4.4375906 -4.7107038 -1.7340877 6 0
5.1736937 -5.4978747 -1.7429208 5 1
21.68788 -23.062958 1.6591547 22 9
6.3027325 -6.7070351 -1.7890252 3 2
45.649517 -48.594795 5.8331594 16 10
8.5067024 -9.0618868 -1.9685715 4 3
12.564451 -13.398514 -2.2553141 5 4
21.420034 -22.897957 -1.6432445 20 6
4.4032812 -4.7401538 -1.7335701 5 0
5.1298833 -5.5281458 -1.7411212 4 1
21.379673 -23.055637 1.6478502 22 9
6.2664309 -6.7623935 -1.7920781 3 2
8.4915409 -9.1732397 -1.9798348 3 3
12.481389 -13.497563 -2.2572641 5 4
21.132359 -22.908939 -1.6334053 21 6
4.3630834 -4.7614698 -1.7304642 5 0
5.0973988 -5.5686855 -1.7429208 4 1
21.082048 -23.047363 1.6369642 23 9
6.1990628 -6.7817059 -1.7859724 3 2
8.4741926 -9.2804241 -1.9904724 4 3
12.354444 -13.544076 -2.250927 5 4
20.838829 -22.901575 -1.6227288 21 6
4.3141942 -4.7746129 -1.7242525 4 0
5.0531754 -5.5983496 -1.7411212 3 1
20.781511 -23.03974 1.6260784 24 9
6.1410522 -6.8131514 -1.7829194 3 2
8.4607458 -9.3966112 -2.0026743 5 3
12.262241 -13.632947 -2.2514145 5 4
20.553057 -22.906755 -1.6128896 11 6
4.2974625 -4.8233662 -1.7309818 6 0
5.0191507 -5.6393137 -1.7429208 2 1
20.48477 -23.032034 1.6154017 24 9
6.1715908 -6.9439034 -1.8058165 3 2
8.4159241 -9.4790831 -2.0076802 5 3
12.14701 -13.695944 -2.2477584 4 4
20.281473 -22.924034 -1.6040972 11 6
4.2611351 -4.8503485 -1.7299466 6 0
4.9873719 -5.6830039 -1.7456201 2 1
20.339281 -23.192505 1.6166579 24 9
6.0815573 -6.9395714 -1.7936047 3 2
8.359952 -9.5494976 -2.0101831 5 3
12.034111 -13.760986 -2.2445898 5 4
20.228601 -23.188478 -1.6126803 22 6
4.2208447 -4.8726768 -1.7273583 5 0
4.9501262 -5.7206311 -1.74652 2 1
20.3258 -23.506161 1.6285905 24 9
6.0470815 -6.9982004 -1.7978026 4 2
8.3188953 -9.6375341 -2.0164404 4 3
11.914415 -13.817603 -2.2402024 5 4
20.245956 -23.538094 -1.627125 21 6
4.181706 -4.8961487 -1.7252878 7 0
4.9075384 -5.7520847 -1.7456201 2 1
20.323446 -23.829361 1.6413604 23 9
6.0145884 -7.0571289 -1.8023818 4 2
8.2787142 -9.7240171 -2.0226979 5 3
11.807375 -13.888344 -2.2382526 5 4
20.227398 -23.84289 -1.638639 10 6
4.1383257 -4.9126787 -1.7211467 5 0
20.377897 -24.208103 0.55233377 53 8
4.8682718 -5.785356 -1.7456201 2 1
20.321125 -24.16633 1.6547585 22 9
5.95507 -7.0869217 -1.7993289 4 2
8.2512674 -9.8299923 -2.0327096 5 3
11.684506 -13.934928 -2.2328904 5 4
20.19628 -24.145914 -1.6497341 20 6
4.1175051 -4.9577975 -1.7268407 6 0
4.816566 -5.8057032 -1.7415711 3 1
20.118774 -24.267635 1.652037 22 9
5.9129639 -7.1373944 -1.8016186 4 2
8.237854 -9.954318 -2.0464759 5 3
11.566701 -13.991681 -2.2289906 5 4
19.895067 -24.126066 -1.6388483 21 6
4.0717783 -4.9729695 -1.722182 4 0
19.911283 -24.335499 0.54884326 54 8
4.7709823 -5.8331532 -1.7397714 3 1
19.835112 -24.268316 1.6426165 23 9
5.8704438 -7.1876235 -1.8039083 4 2
8.1769018 -10.0223 -2.048666 9 3
11.456198 -14.056701 -2.226553 5 4
19.602684 -24.112497 -1.6285905 10 6
4.035748 -4.9997716 -1.7216644 6 0
4.7460446 -5.8860407 -1.7456201 2 1
19.552423 -24.26623 1.633196 23 9
5.8139648 -7.2207851 -1.8020002 3 2
8.1389227 -10.119161 -2.0568006 7 3
11.3553 -14.133244 -2.2260656 5 4
19.343939 -24.136547 -1.6210541 10 6
4.0079622 -5.0368948 -1.7247702 6 0
4.7145376 -5.9312348 -1.7492194 2 1
19.26577 -24.255129 1.6233568 24 9
5.775619 -7.276576 -1.8058165 3 2
8.093853 -10.20824 -2.0633709 8 3
11.236636 -14.187276 -2.2221658 5 4
19.073437 -24.142494 -1.612471 11 6
3.9619703 -5.0510721 -1.7201115 5 0
4.667006 -5.9563332 -1.7469698 3 1
18.997467 -24.263231 1.6149831 24 9
5.7246785 -7.3167195 -1.8058165 3 2
8.0528011 -10.303407 -2.0711925 9 3
11.134873 -14.262248 -2.2216785 5 4
18.71299 -24.02924 -1.5961422 11 6
3.9313371 -5.0847216 -1.722182 4 0
4.6098242 -5.9687204 -1.7411212 4 1
18.71291 -24.246639 1.6051439 25 9
5.6758566 -7.3596163 -1.8065797 3 2
8.0011673 -10.385978 -2.0765114 8 3
11.018085 -14.317609 -2.218266 5 4
18.537485 -24.149788 -1.5955142 23 6
3.9027698 -5.121263 -1.7252878 4 0
18.504675 -24.299656 0.53313613 60 8
4.5656824 -5.9976559 -1.7402214 4 1
18.431934 -24.230444 1.5955142 34 9
5.6481009 -7.4303198 -1.814212 3 2
7.9929738 -10.526537 -2.0934062 5 3
10.896267 -14.365712 -2.2138786 5 4
18.269621 -24.148008 -1.586931 23 6
3.8669214 -5.1483841 -1.7252878 4 0
4.5283775 -6.0356197 -1.742021 3 1
18.161686 -24.224298 1.5867217 34 9
5.5843186 -7.4538589 -1.810396 3 2
8.0163422 -10.711767 -2.1190615 4 3
10.783826 -14.425531 -2.2114413 5 4
18.001503 -24.142069 -1.5782433 23 6
3.8216901 -5.1628323 -1.7211467 4 0
17.925758 -24.234114 0.52615511 62 8
4.4884481 -6.07022 -1.7429208 4 1
17.901924 -24.228418 1.5787667 26 9
5.543807 -7.5084558 -1.814212 3 2
8.0187511 -10.872395 -2.1397109 4 3
10.67108 -14.484484 -2.2090039 5 4
17.752098 -24.157713 -1.5711256 24 6
3.7764461 -5.1769013 -1.7170056 5 0
4.4494038 -6.1061311 -1.7442704 3 1
17.628885 -24.21072 1.5695555 26 9
5.4889426 -7.5438008 -1.8134488 3 2
7.9995599 -11.006409 -2.1550415 4 3
10.558038 -14.542563 -2.2065666 5 4
17.476414 -24.133848 -1.5616004 36 6
3.7402124 -5.2031393 -1.7170056 4 0
17.473232 -24.316576 0.52266467 63 8
4.4055305 -6.1354623 -1.7438205 4 1
17.382158 -24.216578 1.5622284 26 9
5.4489093 -7.5969405 -1.8172649 3 2
8.0268497 -11.203518 -2.1828868 5 3
10.444704 -14.599771 -2.204129 5 4
17.23399 -24.143332 -1.5545874 24 6
3.7069433 -5.2316308 -1.7180409 4 0
17.187492 -24.274763 0.51917416 62 8
4.3749237 -6.1812139 -1.7483196 2 1
17.113489 -24.197102 1.5532267 35 9
5.4252 -7.6764812 -1.8271869 3 2
7.9997044 -11.331903 -2.1969659 7 3
10.326783 -14.644573 -2.2002294 5 4
16.984591 -24.148703 -1.5472604 47 6
3.6835997 -5.2763901 -1.7242525 4 0
4.3294353 -6.2084093 -1.7474198 2 1
16.97155 -24.355312 1.5557388 26 9
5.3714771 -7.7141681 -1.8271869 3 2
7.8955832 -11.351798 -2.1900828 6 3
10.215231 -14.703267 -2.1982794 5 4
16.904318 -24.394735 -1.5554248 24 6
3.6214941 -5.2653685 -1.7123468 6 0
4.279367 -6.2288456 -1.7447205 2 1
16.972927 -24.723482 1.5716488 26 9
5.3174911 -7.7514806 -1.8271869 3 2
7.8105578 -11.398495 -2.1885185 5 3
10.10673 -14.766035 -2.1970608 4 4
16.944178 -24.82062 -1.5749985 24 6
3.5857313 -5.2921224 -1.7128645 7 0
4.2379613 -6.2617965 -1.7456201 2 1
16.907209 -24.990629 1.5812787 8 9
5.264606 -7.7874951 -1.8271869 3 2
7.6996269 -11.402283 -2.1791322 5 3
9.9867506 -14.811543 -2.1934047 5 4
16.91419 -25.142525 -1.5880824 23 6
3.560353 -5.3324733 -1.7180409 9 0
4.1909161 -6.2840133 -1.7438205 2 1
16.967142 -25.460403 1.6034693 16 9
5.2275219 -7.8502054 -1.833293 3 2
7.6143665 -11.447535 -2.177568 7 3
9.8703232 -14.85603 -2.1899924 5 4
16.890501 -25.48975 -1.6025271 22 6
3.5230391 -5.3571987 -1.7180409 9 0
4.1469436 -6.3131175 -1.7438205 2 1
16.968845 -25.842426 1.6202167 24 9
5.1825829 -7.8987379 -1.8363459 3 2
7.5341043 -11.495794 -2.1769423 7 3
9.7468014 -14.894674 -2.1856048 5 4
3.4780886 -5.3680844 -1.7138997 5 0
4.1038761 -6.3411989 -1.7438205 2 1
16.944197 -26.201767 1.6352894 15 9
5.1017404 -7.8951507 -1.8271869 3 2
7.446167 -11.536493 -2.1747522 8 3
9.6322861 -14.940654 -2.1826801 5 4
17.157469 -26.684507 -1.6626089 29 6
3.4301364 -5.3759494 -1.7087234 4 0
4.0532222 -6.3598337 -1.7411212 2 1
16.939301 -26.58938 1.6522464 15 9
5.0647507 -7.9561934 -1.833293 3 2
7.3642888 -11.581909 -2.1738136 7 3
9.5043392 -14.970664 -2.1773179 5 4
16.920933 -26.714624 -1.6572706 20 6
3.4058003 -5.4188008 -1.7149351 4 0
4.0088019 -6.3856254 -1.7406713 6 1
16.927322 -26.984461 1.6694125 14 9
5.0132542 -7.9980111 -1.8348193 3 2
7.2759166 -11.621319 -2.1716235 5 3
9.3848619 -15.013087 -2.1739056 5 4
16.878815 -27.064276 -1.6716107 9 6
3.3771005 -5.4594622 -1.7201115 4 0
3.9589088 -6.4075165 -1.7388717 6 1
16.920553 -27.407404 1.6880441 6 9
4.9531713 -8.0261326 -1.833293 3 2
7.1853156 -11.661314 -2.1694334 6 3
9.261095 -15.047808 -2.1695182 5 4
16.427708 -26.765619 -1.6458614 10 6
3.328856 -5.4664059 -1.7149351 4 0
3.9150922 -6.4366641 -1.7393216 5 1
4.8996878 -8.0680828 -1.8348193 3 2
7.102705 -11.709504 -2.1691206 4 3
9.1609592 -15.120584 -2.1707368 3 4
3.3025315 -5.5093951 -1.7211467 3 0
3.8580475 -6.4437761 -1.7339227 5 1
4.8547325 -8.1180964 -1.8386356 3 2
7.0248642 -11.76097 -2.1697464 5 3
9.0297585 -15.141549 -2.1646435 5 4
3.259063 -5.5217652 -1.7180409 5 0
3.8140979 -6.4698868 -1.7339227 4 1
4.7859893 -8.1314878 -1.8340561 3 2
6.9375801 -11.801212 -2.1681819 4 3
8.9063807 -15.168424 -2.1597686 5 4
16.871422 -28.814219 -1.7499051 7 6
3.2301376 -5.5610886 -1.7232174 3 0
3.7805719 -6.5165839 -1.7393216 5 1
30.911112 -53.303024 3.2292335 4 9
4.7482471 -8.1944523 -1.8409253 3 2
6.8412609 -11.820807 -2.1631761 4 3
8.7982826 -15.226796 -2.1592813 5 4
11.732347 -20.312828 3.7153192 34 12
16.886351 -29.295227 -1.7720956 7 6
3.1691957 -5.5426965 -1.710794 4 0
3.7351608 -6.5404739 -1.7388717 3 1
4.7064834 -8.2546902 -1.8470311 3 2
6.7527041 -11.857979 -2.161299 4 3
11.55196 -20.302107 2.8680732 45 11
8.6708794 -15.244916 -2.1534314 5 4
11.545353 -20.315239 3.700927 28 12
16.846958 -29.704269 -1.7896806 7 6
3.132318 -5.5680537 -1.7118292 5 0
3.6865458 -6.5612941 -1.737522 5 1
4.6429768 -8.277072 -1.8447415 3 2
6.6745839 -11.913448 -2.162863 4 3
11.373096 -20.316439 2.8588111 47 11
8.5564842 -15.291222 -2.1514816 5 4
11.349263 -20.298792 3.6834064 28 12
16.859108 -30.215334 -1.8133365 6 6
3.0933695 -5.5897861 -1.7118292 4 0
3.6406496 -6.5868711 -1.737522 5 1
4.5755949 -8.2920952 -1.8409253 3 2
6.5807619 -11.940726 -2.1594217 6 3
11.185022 -20.311876 2.8471119 40 11
8.4227228 -15.30189 -2.1446569 5 4
11.167293 -20.304832 3.6702659 28 12
16.834185 -30.671967 -1.8336428 6 6
3.0487289 -5.6010642 -1.7087234 4 0
3.5880613 -6.6001415 -1.7343726 3 1
4.5438151 -8.3721495 -1.8516105 3 2
6.4944167 -11.981165 -2.158483 5 3
11.008914 -20.326626 2.8383372 25 11
8.3024588 -15.335879 -2.1412446 6 4
10.970755 -20.281527 3.6521194 30 12
16.832155 -31.182432 -1.8570893 5 6
3.0131989 -5.629025 -1.710794 5 0
3.5409772 -6.6233115 -1.7339227 5 1
4.4871044 -8.4071312 -1.8523737 3 2
6.3948178 -11.996579 -2.1531644 6 3
10.835944 -20.345169 2.8302939 10 11
8.2035894 -15.409237 -2.1434383 3 4
10.791791 -20.287863 3.6396046 27 12
16.84816 -31.740211 -1.8832572 4 6
2.9774272 -5.6567616 -1.7128645 5 0
3.4946516 -6.647871 -1.7339227 4 1
4.4243002 -8.4270506 -1.8500841 3 2
6.3111777 -12.036329 -2.1525385 6 3
10.68892 -20.402632 2.8281002 4 11
8.0820036 -15.439752 -2.1397822 5 4
10.60949 -20.276836 3.6245871 27 12
16.840635 -32.254284 -1.906913 4 6
2.9353013 -5.6700344 -1.710794 5 0
3.4582708 -6.6888142 -1.7384217 5 1
16.920656 -32.755108 1.932139 8 9
4.394176 -8.5135584 -1.8622959 3 2
6.2179441 -12.062538 -2.1494098 6 3
10.558947 -20.501463 2.8315127 2 11
7.9858088 -15.512056 -2.1422195 5 4
10.435144 -20.28717 3.6133237 42 12
16.833933 -32.797512 -1.9320343 3 6
2.9026554 -5.7041621 -1.7149351 4 0
3.4026616 -6.6954217 -1.7339227 4 1
16.757008 -32.987049 1.9390475 2 9
4.3299041 -8.5310163 -1.8596245 4 2
6.1339078 -12.101059 -2.1487842 7 3
10.456825 -20.647238 2.8417497 2 11
7.8826966 -15.578056 -2.1436818 5 4
10.252235 -20.269594 3.5976803 37 12
16.781279 -33.250118 -1.9519219 3 6
2.8551168 -5.706511 -1.7097588 4 0
3.3622348 -6.7288871 -1.7366221 4 1
4.2570972 -8.5346842 -1.8539003 3 2
6.0369458 -12.118832 -2.1444039 6 3
10.754677 -21.608311 2.963619 2 11
7.7737513 -15.632707 -2.1436818 5 4
10.075308 -20.269917 3.5851655 47 12
16.768824 -33.810207 -1.9778807 2 6
2.826138 -5.7510691 -1.7170056 3 0
3.3139985 -6.7527742 -1.7366221 4 1
4.2302432 -8.6311874 -1.8684019 4 2
5.9396553 -12.140429 -2.1406496 7 3
10.573914 -21.622232 2.9553318 2 11
7.6661682 -15.690166 -2.1441696 5 4
9.8970718 -20.27404 3.5732765 40 12
16.729364 -34.345905 -2.0021644 2 6
2.7917988 -5.7828369 -1.7206291 2 0
3.2650814 -6.7722354 -1.7357224 3 1
4.1802921 -8.6860037 -1.8737445 6 2
5.8513312 -12.174478 -2.1393981 6 3
10.396575 -21.650818 2.9489946 2 11
7.5495734 -15.728985 -2.1422195 5 4
9.7194195 -20.267832 3.5601361 49 12
2.7389433 -5.7760034 -1.7128645 2 0
3.2310688 -6.8230438 -1.7429208 3 1
4.1051254 -8.6805353 -1.8664937 7 2
5.759891 -12.196163 -2.1362693 6 3
10.242188 -21.70672 2.9470446 2 11
7.4294233 -15.759761 -2.1392946 5 4
9.5526085 -20.272762 3.5494983 52 12
2.7134328 -5.8242822 -1.7216644 2 0
3.1779745 -6.8307443 -1.7393216 3 1
4.0353274 -8.6893959 -1.8622959 12 2
5.6679592 -12.221739 -2.1337664 6 3
10.090396 -21.777695 2.9470446 2 11
7.3328233 -15.833381 -2.1424632 3 4
9.3776646 -20.267248 3.5369835 38 12
16.688854 -36.151127 -2.0867395 0 6
2.6678846 -5.8325424 -1.7185585 2 0
3.1318297 -6.8563094 -1.7402214 3 1
3.9744577 -8.7130899 -1.8615327 10 2
5.583817 -12.25824 -2.1334534 5 3
9.9485073 -21.860327 2.9489946 2 11
7.2237525 -15.887802 -2.1429508 3 4
9.2035341 -20.25148 3.5232174 45 12
16.632093 -36.682259 -2.1108139 0 6
2.6273303 -5.848805 -1.7180409 3 0
3.082695 -6.8721337 -1.7388717 3 1
3.9159396 -8.7459984 -1.8626775 7 2
5.4892359 -12.277085 -2.1300118 6 3
9.7972698 -21.932873 2.9494822 2 11
7.1073484 -15.918476 -2.1405134 3 4
9.0345669 -20.253901 3.5125799 49 12
16.658188 -37.432487 -2.1472399 0 6
2.5864348 -5.8670044 -1.7180409 3 0
3.0260065 -6.8738685 -1.7339227 3 1
3.859477 -8.7796402 -1.8642039 10 2
5.3944249 -12.288841 -2.1256318 7 3
9.6118727 -21.917244 2.938514 40 11
6.9825006 -15.936797 -2.1363697 5 4
8.8727207 -20.260645 3.5031939 38 12
19.563032 -44.778008 -2.5609033 0 6
2.5415773 -5.8760524 -1.7154527 2 0
2.9841263 -6.9091382 -1.737522 2 1
3.7949982 -8.8034277 -1.8634408 7 2
5.3016639 -12.316242 -2.1237545 6 3
6.8624477 -15.965095 -2.1336887 3 4
8.691658 -20.240126 3.488802 45 12
19.176046 -44.762642 -2.5521109 0 6
2.5057747 -5.9061017 -1.7190762 3 0
2.9358187 -6.9298029 -1.737522 3 1
3.7311523 -8.8242826 -1.8622959 12 2
5.220161 -12.363873 -2.1256318 6 3
6.7446537 -15.997982 -2.1317387 3 4
8.5256119 -20.242052 3.47879 47 12
18.784168 -44.707603 -2.5414343 0 6
2.4511242 -5.8913455 -1.7097588 4 0
2.8933499 -6.9645262 -1.7411212 3 1
3.6626911 -8.8337927 -1.8588613 9 2
5.1238961 -12.376288 -2.1215644 5 3
9.1613226 -22.150185 2.943145 2 11
6.6312876 -16.041008 -2.1312513 3 4
8.3599586 -20.242653 3.4687784 49 12
18.387907 -44.634518 -2.5299206 0 6
2.4186912 -5.9297786 -1.7159703 3 0
2.8446589 -6.9845557 -1.7411212 2 1
3.6180074 -8.8967104 -1.8668753 10 2
5.0313601 -12.390747 -2.1181231 7 3
9.0148182 -22.223066 2.9446073 2 11
6.502738 -16.046436 -2.1258888 3 4
8.2041788 -20.255148 3.4612694 38 12
2.3811424 -5.9532804 -1.7180409 3 0
2.7854862 -6.9748006 -1.7339227 2 1
3.5623512 -8.9381647 -1.8703098 9 2
11.424862 -28.680265 2.7009563 12 10
4.9410844 -12.416392 -2.1165586 8 3
8.849185 -22.259632 2.941195 7 11
6.3962932 -16.097708 -2.126864 3 4
8.0392523 -20.253176 3.4512575 36 12
2.333884 -5.955369 -1.7138997 4 0
2.7438262 -7.0122247 -1.7384217 3 1
3.5055773 -8.9774485 -1.8733629 7 2
11.417048 -29.253031 2.7473233 13 10
4.8478231 -12.434021 -2.1137428 7 3
8.6661911 -22.25058 2.9319329 4 11
6.2751164 -16.119772 -2.1239393 3 4
7.8618665 -20.216755 3.4356143 38 12
2.2922509 -5.9715171 -1.7138997 4 0
17.328032 -45.188202 0.84476632 0 8
2.6906211 -7.0202913 -1.7357224 4 1
3.4547398 -9.0328751 -1.8798503 6 2
11.391819 -29.801008 2.7912498 10 10
4.7594895 -12.463871 -2.113117 7 3
8.5078144 -22.303118 2.930958 4 11
6.1581836 -16.152058 -2.1224766 3 4
7.6994419 -20.215767 3.426228 36 12
8.0342388 -21.116962 -1.9766922 33 5
7.9952693 -21.047695 -1.1799666 30 6
2.2464278 -5.9765248 -1.710794 4 0
2.6429141 -7.0425529 -1.7366221 4 1
3.3943484 -9.0641289 -1.8813769 6 2
11.231685 -30.008562 2.8032773 2 10
4.6612906 -12.467191 -2.1081111 7 3
8.3407917 -22.332216 2.9270582 2 11
6.034163 -16.1649 -2.1185768 3 4
7.5401821 -20.220901 3.4180934 38 12
2.205317 -5.993875 -1.7113116 6 0
2.5983868 -7.073637 -1.7397714 6 1
3.3296373 -9.0839176 -1.8806137 6 2
10.953376 -29.899164 2.785846 2 10
4.5646377 -12.473457 -2.1037309 7 3
8.2364779 -22.531599 2.9455824 2 11
5.912991 -16.184258 -2.1156518 3 4
7.3812208 -20.2248 3.4099588 38 12
2.1634188 -6.0091248 -1.7113116 6 0
2.5502603 -7.0952721 -1.7406713 7 1
3.2754173 -9.1328135 -1.8859563 6 2
10.741688 -29.967402 2.7851489 5 10
4.4747829 -12.497581 -2.1024795 7 3
8.0615969 -22.539955 2.9392452 2 11
5.7951818 -16.212057 -2.1139457 5 4
7.2185888 -20.216309 3.3999472 36 12
2.125906 -6.0368366 -1.7149351 7 0
2.5006638 -7.1129031 -1.7406713 7 1
3.2063792 -9.1406364 -1.8829032 4 2
10.505848 -29.966454 2.7781763 5 10
4.3769784 -12.498687 -2.0974736 7 3
7.5356789 -21.542629 2.802264 2 11
5.6648283 -16.2034 -2.1076086 5 4
7.0616465 -20.221453 3.3924382 36 12
2.0761619 -6.0296116 -1.7087234 4 0
2.4471445 -7.1191301 -1.7379718 6 1
22.802593 -66.374023 3.6780665 25 9
3.1459992 -9.16782 -1.8840481 7 2
10.275714 -29.978758 2.7725985 5 10
4.2898812 -12.522582 -2.096535 5 3
7.4087944 -21.651649 2.8098199 8 11
5.5361605 -16.197472 -2.1017587 5 4
6.9123483 -20.235403 3.3868067 38 12
2.0356886 -6.045435 -1.709241 6 0
2.399251 -7.1374693 -1.7384217 3 1
3.0769255 -9.1746702 -1.8809953 10 2
10.049891 -29.983776 2.7666719 2 10
4.201726 -12.550353 -2.0962222 7 3
7.39218 -22.105724 2.86198 15 11
5.409421 -16.185827 -2.0954216 5 4
6.7421374 -20.196976 3.3724146 36 12
7.0155611 -21.040495 -1.9404355 34 5
6.9857082 -20.987583 -1.1592416 60 6
1.9946413 -6.06317 -1.7102764 6 0
2.3487556 -7.1521935 -1.7379718 7 1
3.0146327 -9.2015238 -1.88214 6 2
9.5452127 -29.151913 2.6836996 3 10
4.1054091 -12.553097 -2.0918419 7 3
7.3782153 -22.587019 2.9175522 16 11
5.288898 -16.200552 -2.0924966 5 4
6.5875039 -20.202234 3.3655317 31 12
1.9504919 -6.0714293 -1.7087234 4 0
2.2957914 -7.1591392 -1.7357224 5 1
2.9598927 -9.2522631 -1.8882459 4 2
9.3475294 -29.236818 2.6854427 3 10
4.012866 -12.566397 -2.089339 7 3
7.3247027 -22.96516 2.9597192 7 11
5.1660242 -16.20682 -2.0885971 5 4
6.4355183 -20.21385 3.3598998 34 12
7.1276541 -22.455612 -1.23471 21 6
1.9080585 -6.084898 -1.7087234 4 0
2.2445927 -7.1712723 -1.7348225 4 1
7.5278044 -24.080151 1.3222158 60 9
2.9121976 -9.3270483 -1.8993129 4 2
7.5182381 -24.093836 2.2081778 42 10
3.9197497 -12.577132 -2.0865231 8 3
7.0886793 -22.773129 2.9285204 2 11
5.0557017 -16.251968 -2.0898156 3 4
6.2848644 -20.228102 3.3548939 38 12
7.4357791 -24.00629 -1.3170868 65 6
7.4665227 -24.150278 -0.44123176 32 7
1.8689225 -6.1091547 -1.7118292 4 0
7.3618541 -24.094585 0.43976575 49 8
2.1973188 -7.1960864 -1.7370721 7 1
7.3496056 -24.09964 1.3204364 48 9
2.8344271 -9.3058348 -1.8909173 4 2
7.3376646 -24.105711 2.2045174 35 10
3.8243799 -12.57962 -2.0824559 7 3
6.9237528 -22.803066 2.9260831 4 11
4.932898 -16.256474 -2.0859158 3 4
6.1251597 -20.210993 3.3448822 38 12
7.3234587 -24.241161 -1.3271353 10 6
1.8262268 -6.1220531 -1.7118292 4 0
2.1459148 -7.2075157 -1.7361722 7 1
2.7883947 -9.3893852 -1.9038923 4 2
3.7375875 -12.609802 -2.0830817 7 3
6.7632637 -22.847038 2.9255955 4 11
4.8142185 -16.273386 -2.0837224 2 4
5.9693604 -20.204004 3.3367476 38 12
1.7791281 -6.1198134 -1.7076882 5 0
2.0939155 -7.2167072 -1.7348225 5 1
2.7304173 -9.4350243 -1.9092349 4 2
8.7910223 -30.397461 2.768415 2 10
3.6417909 -12.609018 -2.0787015 7 3
6.5958977 -22.866997 2.9221833 4 11
4.6911454 -16.27417 -2.0795786 3 4
5.8150516 -20.199627 3.3292387 38 12
1.7358353 -6.1302252 -1.7071705 6 0
2.0461328 -7.2405257 -1.7370721 7 1
2.6660793 -9.4595251 -1.9103796 4 2
8.5721149 -30.43508 2.7663233 2 10
3.5472562 -12.611317 -2.0749471 7 3
6.4296536 -22.889553 2.9192584 4 11
4.5709786 -16.283588 -2.0766537 3 4
5.6664248 -20.213104 3.3248587 38 12
1.6965895 -6.1552315 -1.710794 4 0
1.9955355 -7.2546339 -1.7370721 6 1
2.6020532 -9.4854803 -1.9119062 4 2
8.3531094 -30.471125 2.7642314 2 10
3.4539118 -12.61672 -2.0718184 7 3
6.2707472 -22.937712 2.9197462 2 11
4.45614 -16.311275 -2.0761664 3 4
5.5137343 -20.210243 3.3179753 38 12
1.6515751 -6.1594615 -1.7087234 4 0
1.9468548 -7.2759185 -1.7388717 7 1
2.5364153 -9.4991789 -1.9111431 4 2
8.1524963 -30.5749 2.768415 2 10
3.3694782 -12.645664 -2.072757 8 3
6.1124272 -22.972189 2.918771 2 11
4.3380804 -16.326637 -2.0742164 3 4
5.3506951 -20.151844 3.3023319 34 12
1.607661 -6.1630836 -1.7066529 5 0
1.8992485 -7.2965446 -1.7406713 7 1
2.4828603 -9.5660629 -1.9210651 4 2
3.2726948 -12.636371 -2.0674381 7 3
5.9568725 -23.033522 2.9212084 2 11
4.2298307 -16.367319 -2.0756788 3 4
5.2049417 -20.169579 3.2992032 34 12
7.0492706 -27.415375 -1.4835151 11 6
1.5664935 -6.1816473 -1.7087234 5 0
1.8444411 -7.2945123 -1.7370721 7 1
2.4157686 -9.5751257 -1.9195386 4 2
7.577333 -30.077744 2.7136812 5 10
3.1846781 -12.650691 -2.0661867 7 3
5.8018889 -23.081236 2.9221833 2 11
4.1062799 -16.359869 -2.0710478 5 4
5.0636897 -20.189215 3.2967005 38 12
7.5258479 -30.117342 -1.6269157 32 6
1.5229954 -6.1865396 -1.7071705 6 0
7.4249206 -30.206091 0.54294437 56 8
1.7975358 -7.3182521 -1.7397714 7 1
7.4038801 -30.188688 1.6290091 63 9
2.3516648 -9.603199 -1.9218283 6 2
7.2497749 -29.627382 2.6685345 6 10
3.092531 -12.657265 -2.0636837 7 3
5.6424918 -23.128893 2.9231584 2 11
3.9891868 -16.364296 -2.0681231 5 4
4.9179473 -20.20488 3.2935717 36 12
7.2965827 -30.091507 -1.6227288 21 6
1.4815627 -6.2045369 -1.709241 6 0
7.2231369 -30.296095 0.54364246 56 8
1.7445946 -7.3230405 -1.7379718 6 1
7.2021899 -30.2785 1.6311026 23 9
2.2832034 -9.6136532 -1.9206835 7 2
7.1499496 -30.128954 2.7091491 33 10
2.9995372 -12.659326 -2.060555 7 3
5.4754057 -23.144539 2.9202335 2 11
3.8757584 -16.395611 -2.0686104 6 4
4.7649727 -20.188734 3.2854371 38 12
1.4395176 -6.220376 -1.710794 9 0
1.6921126 -7.3293452 -1.7366221 3 1
2.2164733 -9.6312723 -1.9210651 6 2
2.9084349 -12.668406 -2.0586779 7 3
5.3039355 -23.139631 2.9148712 2 11
3.7576559 -16.406788 -2.0666604 6 4
4.6089463 -20.156034 3.2747996 34 12
1.3914112 -6.2095375 -1.7050999 6 0
1.6451539 -7.3599982 -1.7411212 2 1
2.1508639 -9.6461363 -1.9210651 4 2
2.8212783 -12.684052 -2.0580521 7 3
5.1463084 -23.175198 2.9148712 2 11
3.6421657 -16.428745 -2.0661731 6 4
4.4630971 -20.148365 3.2685421 34 12
1.3511597 -6.2283044 -1.7076882 7 0
1.5892487 -7.3443604 -1.7348225 3 1
2.0809865 -9.6494017 -1.9187754 4 2
6.6444011 -30.835775 2.7596993 2 10
2.7301657 -12.691853 -2.056175 7 3
4.9710531 -23.148455 2.9070716 2 11
3.532753 -16.464802 -2.0676355 5 4
4.3198466 -20.167446 3.266665 34 12
1.307645 -6.2375855 -1.7076882 5 0
1.5355444 -7.3438311 -1.7321231 3 1
2.0175762 -9.6829128 -1.9225914 4 2
6.4184108 -30.830694 2.7551672 2 10
2.6406925 -12.706734 -2.0555491 7 3
4.8060989 -23.167046 2.9051216 2 11
3.4112763 -16.457962 -2.0637355 5 4
4.1757436 -20.181635 3.2641621 38 12
6.8581538 -33.292305 -1.7814115 14 6
1.2648336 -6.250349 -1.7087234 5 0
1.4846237 -7.3562822 -1.7325729 3 1
1.9507018 -9.700613 -1.9233549 6 2
6.1967363 -30.843498 2.7523782 2 10
2.549588 -12.713239 -2.0536718 7 3
4.6403489 -23.180569 2.9026842 2 11
3.2924044 -16.461914 -2.0612984 6 4
4.0285602 -20.179302 3.2591562 38 12
9.2794523 -46.693535 -2.4949598 1 6
1.2174677 -6.2400661 -1.703547 5 0
1.4343475 -7.3722062 -1.7339227 3 1
1.8836783 -9.7178497 -1.924118 4 2
5.9751968 -30.854712 2.7495894 2 10
2.4570217 -12.711334 -2.0505433 7 3
4.4716392 -23.177315 2.8982971 2 11
3.1819069 -16.507887 -2.0642233 6 4
3.8793733 -20.164259 3.2522728 38 12
8.9273319 -46.62183 -2.4877374 1 6
1.175301 -6.2560081 -1.7056175 9 0
1.3885857 -7.4126873 -1.7411212 2 1
1.8136293 -9.719183 -1.9218283 4 2
5.7501545 -30.844751 2.7450573 2 10
2.3674989 -12.724293 -2.0499175 7 3
4.3162479 -23.243097 2.9026842 2 11
3.0676682 -16.535553 -2.0649543 7 4
3.7334754 -20.163658 3.2478929 36 12
8.592948 -46.63588 -2.4852254 1 6
1.1315986 -6.2640605 -1.7056175 5 0
1.3361108 -7.4183655 -1.7402214 2 1
1.7481248 -9.7351675 -1.9225914 4 2
5.5332751 -30.876293 2.74436 2 10
2.2766547 -12.71678 -2.0461631 7 3
4.1656213 -23.31493 2.9080465 2 11
2.9497166 -16.542887 -2.0632482 6 4
3.5912869 -20.161377 3.2435126 36 12
8.2662506 -46.642155 -2.4825039 1 6
1.0889335 -6.2716184 -1.7056175 5 0
1.2769439 -7.3773627 -1.728524 3 1
1.6857884 -9.7800245 -1.9290791 7 2
5.3067498 -30.818996 2.7359931 2 10
2.1858122 -12.720683 -2.0442858 6 3
4.0007377 -23.331703 2.906584 2 11
2.8343632 -16.54693 -2.0612984 5 4
3.4431288 -20.143118 3.2366295 34 12
7.9230161 -46.59634 -2.477061 1 6
1.046075 -6.2847843 -1.7071705 6 0
1.226047 -7.3899426 -1.7294236 4 1
1.6182176 -9.7854614 -1.9279342 4 2
5.0895166 -30.843498 2.7349472 2 10
2.096606 -12.719674 -2.0417829 7 3
3.8366764 -23.327055 2.9026842 2 11
2.7171693 -16.556519 -2.0600796 7 4
3.3065779 -20.169987 3.2372551 36 12
7.6005182 -46.617653 -2.4753864 1 6
1.0023597 -6.286036 -1.7056175 9 0
1.1803055 -7.4269853 -1.7361722 6 1
1.5458771 -9.7713108 -1.922973 9 2
4.8875427 -30.928595 2.7394793 2 10
2.0083702 -12.737904 -2.0424087 7 3
3.6761997 -23.368959 2.9046342 2 11
2.6028688 -16.564825 -2.0588608 6 4
7.2638116 -46.598534 -2.4716182 1 6
0.95786881 -6.2890611 -1.7045823 4 0
1.1278425 -7.4311905 -1.7352724 7 1
1.4817282 -9.8090439 -1.9283159 15 2
4.6613951 -30.894979 2.7335527 2 10
1.9170448 -12.735987 -2.0399058 6 3
3.3632128 -22.396809 2.7808149 2 11
2.4856908 -16.572777 -2.0576422 7 4
3.20997 -21.452791 3.4356143 4 12
6.9277382 -46.576988 -2.46785 1 6
0.91338515 -6.2917705 -1.703547 5 0
1.073426 -7.421526 -1.7312233 4 1
1.411534 -9.8074894 -1.9260262 7 2
4.4501333 -30.958323 2.7363417 2 10
1.8264018 -12.737328 -2.0380285 6 3
3.2011504 -22.38044 2.7759402 4 11
2.3702133 -16.591692 -2.0578859 6 4
3.1816254 -22.327328 3.5720251 5 12
6.595685 -46.576756 -2.4653378 1 6
0.87207991 -6.317131 -1.7087234 3 0
1.0210569 -7.4249778 -1.7303236 2 1
1.3442118 -9.8129787 -1.9252628 7 2
4.2295799 -30.95705 2.7335527 2 10
1.7383252 -12.739677 -2.0364642 8 3
3.1590285 -23.212099 2.8763604 4 11
2.2527215 -16.596031 -2.0564234 6 4
6.2747612 -46.592861 -2.4638724 1 6
0.8290602 -6.3229208 -1.7087234 2 0
0.97251147 -7.4472146 -1.7339227 2 1
1.2718788 -9.7929211 -1.9195386 6 2
4.0156922 -30.961414 2.731461 2 10
1.6480762 -12.741708 -2.0348997 6 3
3.1365747 -24.316418 3.0104167 2 11
2.1323507 -16.553885 -2.049355 7 4
5.9372034 -46.540436 -2.4588482 1 6
0.78489846 -6.3285546 -1.7087234 1 0
0.92336345 -7.4770312 -1.7393216 2 1
1.2041981 -9.8074074 -1.9206835 9 2
3.8023562 -31.012424 2.7335527 2 10
1.559082 -12.752903 -2.0348997 7 3
3.1060581 -25.480616 3.1517851 2 11
2.0181701 -16.580193 -2.0508175 7 4
5.6068892 -46.537128 -2.4565454 1 6
0.73980021 -6.3262053 -1.7066529 2 0
0.86888814 -7.4639382 -1.7348225 3 1
1.1357001 -9.8155756 -1.9206835 7 2
3.5743232 -30.939253 2.7248371 2 10
1.4686559 -12.751702 -2.0330224 7 3
3.0752833 -26.783566 3.3102152 3 11
1.9034998 -16.603739 -2.0520363 6 4
5.2771416 -46.533463 -2.4543474 1 6
0.69603968 -6.3350563 -1.7076882 3 0
0.8127352 -7.4330149 -1.7262744 3 1
1.0654528 -9.8076506 -1.9176304 7 2
1.376201 -12.730222 -2.0280166 7 3
3.0404932 -28.217529 3.4847324 3 11
1.7849895 -16.592937 -2.0491114 6 4
4.9470792 -46.521503 -2.4518352 1 6
0.65100616 -6.3320742 -1.7056175 3 0
0.76260865 -7.455956 -1.7303236 2 1
1.0003294 -9.8480549 -1.924118 10 2
3.0298388 -29.880058 2.6275711 3 10
1.2868981 -12.735588 -2.027391 7 3
1.6669255 -16.583269 -2.0464303 7 4
4.6119161 -46.451557 -2.4463923 1 6
0.60770482 -6.3460798 -1.7082058 2 0
0.7094292 -7.4494586 -1.7276241 2 1
0.9291507 -9.8293886 -1.919157 10 2
1.1979556 -12.744262 -2.027391 7 3
1.5511119 -16.594501 -2.0464303 7 4
4.2400093 -45.967518 -2.4192822 0 6
0.56048375 -6.3174553 -1.6994059 2 0
0.6574049 -7.4542298 -1.7276241 2 1
0.86324495 -9.8669281 -1.9252628 13 2
1.1075855 -12.73657 -2.0248878 7 3
1.4338552 -16.589104 -2.0444803 7 4
3.914923 -45.948235 -2.41677 0 6
