# .PCD v0.7 - Point Cloud Data file format
VERSION 0.7
FIELDS x y z intensity ring
SIZE 4 4 4 4 2
TYPE F F F F U
COUNT 1 1 1 1 1
WIDTH 1306
HEIGHT 1
VIEWPOINT 0 0 0 1 0 0 0
POINTS 1306
DATA ascii
-4.4542704 3.7322786 -1.1295893 4 2
-4.5617971 3.8250895 0.52084273 1 10
-3.9985306 3.3539746 -0.82659984 17 3
-4.5537367 3.8223929 0.7299974 1 11
-4.4536023 3.7409906 -0.71415442 1 4
-4.5324821 3.808599 0.93766832 5 12
-4.5305643 3.8123879 1.1509598 2 13
-3.9880042 3.3570209 -0.27319372 27 6
-4.6366777 3.905829 1.3996454 5 14
-4.5531149 3.8395147 1.5958784 3 15
-4.0228739 3.4104376 -1.413152 11 0
-4.5227904 3.8369615 0.10352767 2 8
-3.9344053 3.3389795 -1.1913408 32 1
-4.5350633 3.8514585 0.31181765 2 9
-4.3981848 3.7378578 -1.1219569 4 2
-4.4961891 3.8224978 0.51631063 1 10
-3.9419169 3.3536484 -0.81971669 16 3
-4.5118265 3.8412213 0.72756004 1 11
-4.3766513 3.7274575 -0.70586729 1 4
-4.5178103 3.8503993 0.94017124 5 12
-4.4932103 3.8321419 -0.51665926 5 5
-4.4746389 3.8176522 1.1433275 3 13
-3.9280159 3.3536563 -0.27068159 27 6
-4.4611363 3.8115163 1.3546553 5 14
-4.4850926 3.8360484 1.5813844 3 15
-3.988713 3.4296231 -1.4095285 12 0
-4.4352612 3.8162725 0.10213149 2 8
-3.8755519 3.3358543 -1.1805431 28 1
-4.4838524 3.8621697 0.3101429 2 9
-4.3630614 3.7607803 -1.1196673 4 2
-4.4271441 3.8173637 0.51142991 1 10
-3.8870022 3.3539855 -0.81314647 19 3
-4.4578538 3.8492749 0.72317278 1 11
-4.3415098 3.7501347 -0.70440483 1 4
-4.4280519 3.8275902 0.92703074 5 12
-4.4241247 3.8282442 1.1372217 3 13
-3.8833687 3.3626933 -0.26921618 26 6
-4.4874377 3.8885093 1.3708518 5 14
-4.4231782 3.8368866 1.5689611 3 15
-3.9603045 3.4535768 -1.4079756 10 0
-4.3934436 3.8339956 0.10178243 2 8
-3.8169358 3.3320718 -1.1697454 23 1
-4.4056392 3.8487029 0.30658406 2 9
-4.3012266 3.7601361 -1.1105084 4 2
-4.3643909 3.8167 0.50724638 1 10
-3.8278143 3.3498192 -0.8056376 21 3
-4.3771119 3.8332202 0.71439815 1 11
-9.9235182 8.6935053 -1.6198875 1 4
-4.3774571 3.8375742 0.92202479 5 12
-4.3766327 3.8409059 1.131879 2 13
-3.8117764 3.3475475 -0.2658667 31 6
-4.4074841 3.8734324 1.3546553 5 14
-4.3643751 3.8395989 1.5575731 3 15
-3.9071565 3.4555433 -1.3976228 18 0
-4.3336272 3.8354163 0.10101452 2 8
-3.7643998 3.3328013 -1.1607474 22 1
-4.3667035 3.8687706 0.3057467 2 9
-4.2454896 3.764025 -1.1028761 4 2
-4.3257141 3.8364999 0.50585192 1 10
-3.7674007 3.3436787 -0.79781592 18 3
-4.3146224 3.8320475 0.70854843 1 11
-9.9427214 8.8337679 -1.6330494 1 4
-4.2915087 3.8155398 0.90951008 5 12
-4.3375449 3.8591819 -0.50794363 5 5
-4.3115821 3.8374305 1.1219569 2 13
-3.7614663 3.3501673 -0.26398259 36 6
-4.3803358 3.9041071 1.3546553 5 14
-4.3057518 3.8416786 1.5461851 3 15
-3.9045084 3.5020857 -1.4053875 12 0
-4.2412663 3.8068056 0.099478714 2 8
-3.7149394 3.3355663 -1.1526492 27 1
-4.2771907 3.8430974 0.30135047 2 9
-4.1723924 3.7515662 -1.0906643 4 2
-4.2514219 3.8239689 0.50027394 1 10
-3.7263477 3.3540394 -0.79406142 18 3
-4.2641649 3.8408189 0.70464855 1 11
-4.1322432 3.723299 -0.68295586 1 4
-4.3234491 3.89832 0.92202479 5 12
-4.2372031 3.8218932 -0.49922809 5 5
-4.2526245 3.8384979 1.1135614 2 13
-3.7053792 3.3468919 -0.2616798 35 6
-4.3016067 3.8867993 1.3384588 5 14
-4.2458787 3.8418338 1.5342795 2 15
-3.8685317 3.5188584 -1.4012463 11 0
-4.1945505 3.8167446 0.098990053 2 8
-3.7333488 3.3994682 -1.1656964 15 1
-4.2095895 3.8344636 0.29841965 2 9
-4.0858207 3.7243328 -1.0746363 4 2
-4.2069592 3.8374429 0.49818221 1 10
-3.6873801 3.3646798 -0.79061991 19 3
-4.2027421 3.8376291 0.69879889 1 11
-9.6542835 8.8217545 -1.6057506 1 4
-4.2239137 3.8610189 0.90638137 5 12
-4.1574931 3.8029711 -0.49295285 5 5
-4.1880713 3.8336275 1.1036394 2 13
-3.655998 3.3477578 -0.25979573 34 6
-4.1740746 3.8288567 1.517715 2 15
-3.8104053 3.5136788 -1.388823 12 0
-4.1442876 3.8242383 0.098431572 2 8
-4.1592445 3.8420739 0.29674488 2 9
-4.0597205 3.7527666 -1.0746363 4 2
-4.1076002 3.7983556 0.48946664 1 10
-3.6290033 3.3581407 -0.78311098 21 3
-4.1467175 3.8399014 0.69392407 1 11
-9.5619755 8.857585 -1.6003884 1 4
-4.1968546 3.8904142 0.90638137 5 12
-4.038012 3.7444785 -0.48179695 5 5
-4.1244626 3.8273251 1.0937172 2 13
-3.6032672 3.3460178 -0.25770226 33 6
-4.1562304 3.8608563 1.3096651 5 14
-4.1161237 3.8289561 1.5063269 2 15
-3.6799552 3.4412327 -1.3500001 14 0
-4.1181607 3.8523591 0.098431572 2 8
-3.9037907 3.654381 -1.2345314 2 1
-4.0892601 3.8293402 0.29360473 2 9
-4.0197563 3.7668886 -1.0708202 4 2
-4.0606365 3.807858 0.48702627 1 10
-3.5801287 3.3584385 -0.77747941 17 3
-4.1118002 3.8598864 0.69246167 1 11
-3.9758971 3.7349212 -0.66979396 1 4
-4.0983005 3.8512542 0.89073795 4 12
-4.0661888 3.8264253 1.0853217 2 13
-3.5673194 3.358146 -0.25676021 37 6
-4.1291766 3.8897772 1.3096651 5 14
-4.0646682 3.8330271 1.4970094 2 15
-3.5400791 3.3558896 -1.3070362 33 0
-4.0418401 3.8342214 0.097244807 2 8
-3.9042697 3.705014 -1.2426296 1 1
-4.0421519 3.8385403 0.29213932 2 9
-3.9449739 3.7488768 -1.0578451 3 2
-3.9970782 3.7997189 0.48249418 1 10
-3.5336964 3.3615656 -0.77247345 19 3
-4.0416193 3.8474369 0.68514949 1 11
-9.4172497 8.9710598 -1.596976 1 4
-4.0713143 3.879771 0.89073795 4 12
-3.9853368 3.8004932 -0.48179695 5 5
-4.0308542 3.8465872 1.0830319 2 13
-3.5235629 3.3636611 -0.25529483 36 6
-3.9847524 3.810575 1.4773391 2 15
-3.4881263 3.3543541 -1.2966834 27 0
-3.9515648 3.8013468 0.095708996 1 8
-3.860811 3.716639 -1.2372309 2 1
-3.9800589 3.8341112 0.28962722 2 9
-3.8508489 3.7109368 -1.0395275 3 2
-3.9812593 3.8392882 0.48388866 1 10
-3.4711721 3.3497298 -0.76402605 16 3
-3.9889538 3.8507414 0.68076223 1 11
-9.3601007 9.0421019 -1.5979509 1 4
-3.9587073 3.8282237 -0.48179695 5 5
-3.9418259 3.8145623 1.0662408 2 13
-3.4678373 3.3582213 -0.25299203 35 6
-3.9504507 3.8322654 1.474751 1 15
-3.4397278 3.3543465 -1.287366 19 0
-3.9156754 3.8211453 0.095499568 1 8
-3.8068805 3.7162759 -1.2282327 2 1
-3.918906 3.8283076 0.28711507 2 9
-5.5397496 5.4154601 -1.5058646 3 2
-3.9002278 3.8140557 0.47726485 1 10
-3.4378192 3.3642101 -0.76183593 17 3
-3.9244208 3.8430755 0.67442501 1 11
-9.3166018 9.1266737 -1.6013633 1 4
-3.8749983 3.7986538 0.85945106 4 12
-3.8465328 3.7720678 -0.47133827 5 5
-3.8884764 3.815861 1.05899 2 13
-3.430058 3.3683558 -0.25194532 35 6
-3.9029424 3.8394294 1.4669864 2 15
-3.3915017 3.353827 -1.2780485 21 0
-3.8611417 3.8195846 0.094801471 1 8
-3.7337568 3.6961484 -1.212936 4 1
-3.8643734 3.826787 0.28502163 2 9
-3.7791388 3.744993 -1.0341848 3 2
-3.8423824 3.8103263 0.47342998 1 10
-3.3938046 3.3666642 -0.7571429 26 3
-3.8981709 3.8696992 0.67442501 1 11
-9.255475 9.1942921 -1.6018509 1 4
-3.849052 3.8249424 0.85945106 4 12
-3.7918506 3.7707307 -0.467852 5 5
-3.828342 3.8096793 1.0498312 2 13
-3.3744957 3.3592162 -0.24953786 23 6
-3.8808956 3.8660228 1.2646748 5 14
-3.8165288 3.805886 1.4442104 2 15
-3.3494935 3.3576868 -1.2708015 22 0
-3.8456771 3.8577762 0.095080711 1 8
-3.690629 3.7035327 -1.2070874 3 1
-3.8234708 3.8395188 0.28397492 2 9
-3.7473614 3.7657194 -1.0326583 3 2
-3.8051164 3.8250926 0.4720355 1 10
-3.3242598 3.3440449 -0.74681824 23 3
-3.8011098 3.8264036 0.66223812 1 11
-9.1339293 9.1979189 -1.5916138 2 4
-3.8222549 3.8517206 0.85945106 4 12
-3.7738507 3.8055992 -0.46889788 5 5
-3.8299656 3.8635342 1.0574635 2 13
-3.3397171 3.3713415 -0.2487005 13 6
-3.7722075 3.8145795 1.437481 1 15
-3.3070037 3.3617082 -1.2635547 23 0
-3.7317362 3.7961159 0.092916615 1 8
-3.6414635 3.705579 -1.199439 2 1
-3.7769811 3.8461673 0.28250951 2 9
-5.4755902 5.5797863 -1.5196029 3 2
-3.7420442 3.8145835 0.4675034 1 10
-3.2870057 3.3530643 -0.74368954 22 3
-3.7548559 3.8329942 0.6588257 1 11
-9.016717 9.2075644 -1.5823517 1 4
-3.7952716 3.8783109 0.85945106 4 12
-3.6580386 3.7406864 -0.45774195 4 5
-3.7287908 3.8143687 1.0368562 2 13
-3.3119121 3.3902888 -0.24838647 9 6
-3.7266018 3.8214593 1.4302342 1 15
-3.264622 3.3653009 -1.2563076 21 0
-3.7107105 3.8278186 0.093056232 1 8
-3.5761762 3.6903272 -1.1863918 1 1
-3.6889036 3.8093123 0.27790397 2 9
-3.6288855 3.7499552 -1.0143408 3 2
-3.7070105 3.8320229 0.46645752 1 10
-3.2388027 3.3503664 -0.73805791 20 3
-3.7059383 3.8362701 0.65492588 1 11
-9.0321941 9.3531122 -1.5964885 1 4
-3.685056 3.8199883 -0.46436578 4 5
-3.6857207 3.8233452 1.0322767 2 13
-3.2701499 3.3946278 -0.24702574 4 6
-3.6851029 3.8320646 1.42454 2 15
-3.2170119 3.3628824 -1.2469902 19 0
-3.6431077 3.8096309 0.09200909 1 8
-3.5489805 3.7137942 -1.1859419 1 1
-3.6573703 3.8285568 0.27748525 2 9
-3.5598965 3.729126 -1.002129 3 2
-3.6499119 3.8260934 0.46262267 1 10
-3.21047 3.3666158 -0.73680639 20 3
-3.6523507 3.8326657 0.65005112 1 11
-8.9201345 9.3670616 -1.5882014 1 4
-3.6270299 3.8100867 0.83317006 4 12
-3.5704122 3.7532339 -0.45320985 4 5
-3.6372962 3.8262167 1.0261708 2 13
-3.6137288 3.809407 1.4069405 2 15
-3.168855 3.3580062 -1.2371551 17 0
-3.5944722 3.8116934 0.091450609 1 8
-3.4915371 3.7038341 -1.1751443 3 1
-3.5949471 3.8161976 0.27476382 1 9
-3.5472329 3.768183 -1.0059451 3 2
-3.5718994 3.7957115 0.45599884 1 10
-3.1571171 3.3572881 -0.72992331 21 3
-3.6255045 3.8580704 0.65005112 1 11
-8.9322805 9.508585 -1.6018509 1 4
-3.495049 3.7257576 -0.44693464 4 5
-3.5816233 3.8193805 1.0177752 2 13
-3.5791287 3.8260772 1.4038346 2 15
-3.1282258 3.3616619 -1.2304258 21 0
-3.5704968 3.8396246 0.091520421 1 8
-3.4549804 3.7167001 -1.171545 2 1
-3.5410297 3.8119366 0.27267036 1 9
-3.4941266 3.7640774 -0.99831271 3 2
-3.5263393 3.8001103 0.4535585 1 10
-3.1147983 3.3589678 -0.72554308 21 3
-3.5984828 3.8832862 0.65005112 1 11
-8.9115467 9.6202269 -1.6101379 1 4
-3.3607185 3.6330595 -0.43298975 4 5
-3.5495408 3.8385251 1.0162487 2 13
-3.4673307 3.7522504 -0.26775077 6 6
-3.536612 3.833931 1.3976228 2 15
-3.0942318 3.3720322 -1.2262847 21 0
-3.5057635 3.8231885 0.090543084 1 8
-3.4289489 3.7407298 -1.171545 1 1
-3.4873507 3.8071084 0.27057692 1 9
-3.4465537 3.7652087 -0.99220681 3 2
-3.4647541 3.7864184 0.44902641 1 10
-3.0699441 3.357307 -0.72053725 22 3
-3.4855835 3.8145268 0.63445187 1 11
-8.7665186 9.5971947 -1.596001 2 4
-3.5251331 3.8618674 0.82816416 4 12
-3.0861206 3.3821034 -0.40056777 4 5
-3.4803255 3.8167906 1.0040369 2 13
-3.4655628 3.8099389 1.3800232 2 15
-3.0628383 3.3849571 -1.2231789 19 0
-3.4313669 3.7935743 0.089286514 1 8
-3.3870692 3.7472286 -1.1661462 1 1
-3.4426091 3.8100111 0.26911151 1 9
-3.3813736 3.7448671 -0.98075831 3 2
-3.4382358 3.8105147 0.44902641 1 10
-3.0284975 3.3575897 -0.71615702 18 3
-3.5445991 3.9325323 0.65005112 1 11
-8.7444744 9.708312 -1.6042881 1 4
-3.4987645 3.8857725 0.82816416 4 12
-3.0397797 3.3783867 -0.3976045 12 5
-3.443094 3.8293149 1.0009841 2 13
-3.44084 3.8348773 1.3805408 1 15
-3.011426 3.3740184 -1.2117908 26 0
-3.3701932 3.7786355 0.088378988 1 8
-3.3537033 3.7614698 -1.1634469 2 1
-3.4398432 3.8607938 0.27099562 1 9
-3.3525369 3.7654488 -0.97999501 3 2
-3.3777785 3.7951343 0.44449428 1 10
-2.9944818 3.3668418 -0.7136541 16 3
-3.3331008 3.7515211 -0.61617148 1 4
-3.4715524 3.9101028 0.82816416 4 12
-2.9902632 3.3691962 -0.39411828 30 5
-3.4169488 3.8526623 1.0009841 2 13
-3.3542135 3.7845876 -0.26502931 6 6
-3.3781407 3.818294 1.366047 1 15
-2.9597199 3.3630543 -1.2004027 21 0
-3.3443949 3.8014882 0.088378988 1 8
-3.2887619 3.7408836 -1.1499498 2 1
-3.3475597 3.8091071 0.265762 1 9
-3.30351 3.7616289 -0.97312593 3 2
-3.351202 3.8186224 0.44449428 1 10
-2.9558625 3.3693273 -0.70989966 16 3
-3.3932054 3.8705702 0.63201445 1 11
-3.2832828 3.7478232 -0.61178416 1 4
-2.9443624 3.3645027 -0.39115497 36 5
-3.3563666 3.8379991 0.99106199 2 13
-3.3419111 3.8295541 1.3619058 1 15
-2.9267175 3.3739324 -1.1967793 17 0
-3.3138192 3.8228798 0.088309184 1 8
-3.2695653 3.7731581 -1.1526492 1 1
-3.2986298 3.8093851 0.26408726 1 9
-3.2552927 3.7619901 -0.96702003 3 2
-3.2951138 3.8093548 0.44065943 1 10
-2.9310846 3.3909042 -0.70989966 10 3
-3.3310032 3.856281 0.62567729 1 11
-8.6845436 10.057593 -1.6315869 1 4
-3.28688 3.8092315 0.79687726 3 12
-2.9006908 3.3628554 -0.3885403 38 5
-3.2903631 3.8173065 0.97961342 2 13
-3.2734456 3.8070745 1.3453414 1 15
-2.8905361 3.3796008 -1.1916029 17 0
-3.2591312 3.8119106 0.087541275 1 8
-3.207701 3.754406 -1.140052 2 1
-3.2337096 3.7861888 0.26094711 1 9
-3.002748 3.5182505 -0.89909208 4 2
-3.242583 3.8019459 0.43717319 1 10
-2.8951204 3.3957441 -0.70677096 10 3
-3.3046782 3.8788645 0.62567729 1 11
-8.5343332 10.024264 -1.6164751 1 4
-3.2608771 3.8315151 0.79687726 3 12
-2.8681076 3.3723998 -0.38732013 33 5
-3.2407479 3.8132565 0.97274429 2 13
-3.2324615 3.8115876 1.3391298 1 15
-2.8550081 3.3844314 -1.1864265 17 0
-3.2375965 3.8406844 0.087680891 1 8
-3.1494217 3.7374082 -1.1283545 2 1
-3.202054 3.8025596 0.26052842 1 9
-2.8327465 3.3663774 -0.85520601 21 2
-3.1832829 3.7842875 0.43264109 1 10
-2.9132884 3.4657731 -0.71709567 2 3
-3.2775161 3.9018424 0.62567729 1 11
-8.4122925 10.01827 -1.606238 1 4
-3.2010338 3.8148446 0.78874266 3 12
-2.8163321 3.358752 -0.38348526 33 5
-3.2121944 3.8322184 0.97198111 2 13
-3.1189873 3.7236559 -0.25456211 5 6
-3.1735539 3.7955284 1.3256712 1 15
-2.8127818 3.3820014 -1.1786621 20 0
-3.1621354 3.804754 0.086354509 1 8
-3.1332152 3.7712953 -1.1319537 1 1
-3.1983933 3.8524821 0.26241252 1 9
-2.7966404 3.3709619 -0.85138983 36 2
-3.1440673 3.7910829 0.43089798 1 10
-3.062968 3.6959188 -0.76027155 1 3
-3.1868908 3.8481832 0.61349034 1 11
-8.2991076 10.024765 -1.5979509 1 4
-3.2070625 3.8766706 0.79687726 3 12
-2.7712326 3.3522277 -0.38052195 37 5
-3.1778603 3.8454685 0.9696914 2 13
-3.1285226 3.7884617 -0.25749293 5 6
-3.1432924 3.8131194 1.3241183 1 15
-2.7842026 3.3955805 -1.1765914 18 0
-3.0873353 3.7679594 0.085028127 3 8
-3.0821137 3.7629259 -1.1229557 2 1
-3.130939 3.8252592 0.25906301 1 9
-2.7581229 3.3721676 -0.84681034 30 2
-3.1049123 3.7975154 0.42915487 1 10
-3.052089 3.735569 -0.76402605 2 3
-3.1775241 3.8918655 0.61690265 1 11
-8.2540226 10.113218 -1.6028258 1 4
-3.1075075 3.8101788 0.77873087 3 12
-2.7357624 3.3555701 -0.37877885 35 5
-3.0914125 3.7945027 0.9513737 2 13
-3.0946665 3.8079841 1.3148009 1 15
-2.7652869 3.4209447 -1.1786621 8 0
-3.0842392 3.816884 0.085656419 1 8
-3.0165923 3.7358344 -1.1085589 3 1
-3.0471227 3.774992 0.25424811 1 9
-2.7203143 3.3725262 -0.84223092 28 2
-3.0758243 3.8159969 0.42880625 1 10
-6.3010597 7.8201523 -1.5906258 2 3
-3.0712826 3.8144479 0.60130334 1 11
-8.1881952 10.176783 -1.6038008 1 4
-3.0641675 3.8096931 0.7743507 3 12
-2.6985393 3.3575048 -0.37686142 33 5
-3.059931 3.8098686 0.94984722 2 13
-3.0493443 3.8048408 1.3065187 1 15
-2.8033507 3.5167298 -1.2050616 6 0
-3.0251229 3.7976558 0.084748887 1 8
-2.9813817 3.7440853 -1.1049596 2 1
-3.0132327 3.7867959 0.25362006 1 9
-2.6820409 3.3729959 -0.83765155 28 2
-3.0472989 3.8337259 0.42845765 1 10
-6.1873379 7.7897058 -1.5756081 2 3
-8.1261368 10.241611 -1.6052631 1 4
-3.022769 3.8124175 0.77059627 3 12
-2.6626611 3.3606462 -0.37511832 33 5
-3.0241759 3.8182964 0.94679433 2 13
-2.9698427 3.7523861 -0.25079393 4 6
-3.0354373 3.838017 1.1297042 5 14
-3.0047417 3.8033001 1.298754 1 15
-2.9088349 3.7017853 -1.261484 3 0
-2.9935963 3.8123915 0.084609263 1 8
-2.9262927 3.7280185 -1.094162 2 1
-2.9743955 3.7920249 0.25257334 1 9
-2.6366286 3.3638232 -0.83078241 25 2
-2.9860528 3.8109937 0.42357689 1 10
-6.1376758 7.8389325 -1.5768597 2 3
-3.0177248 3.8569582 0.60130334 1 11
-8.1253719 10.388784 -1.6194 1 4
-2.9766166 3.8085248 0.76559031 3 12
-2.6293235 3.3665912 -0.3737238 33 5
-2.9781148 3.8145564 0.94068843 2 13
-2.9662485 3.8089411 1.2935777 1 15
-2.8805566 3.7189469 -1.2604488 3 0
-2.949774 3.8110576 0.084120601 1 8
-4.0235457 5.2002263 -1.5179697 2 1
-2.9527383 3.8190165 0.25299203 1 9
-2.6058769 3.372828 -0.82849264 23 2
-2.9350176 3.8002105 0.42009068 1 10
-2.8989854 3.7562661 -0.75151128 2 3
-8.1011276 10.508142 -1.6291496 1 4
-2.9499557 3.8292129 0.76559031 3 12
-2.5863099 3.3596048 -0.37093481 33 5
-2.9394383 3.8196959 0.93687224 2 13
-2.917161 3.7934861 -0.25079393 4 6
-2.9301741 3.8172972 1.2894366 1 15
-2.8463171 3.7282178 -1.2568253 2 0
-2.908541 3.8124795 0.083701737 1 8
-2.8503213 3.7375216 -1.085164 1 1
-2.8848445 3.7855268 0.24943319 3 9
-2.572753 3.3784418 -0.82543975 23 2
-2.879452 3.7825606 0.4159072 1 10
-2.8511653 3.748112 -0.74587959 2 3
-2.9635787 3.8987167 0.60130334 1 11
-8.0443888 10.586567 -1.6325619 1 4
-2.9231508 3.8497143 0.76559031 3 12
-2.5531583 3.3648813 -0.36954033 33 5
-2.9008358 3.8244817 0.93305606 2 13
-2.8616524 3.7755582 -0.24828181 4 6
-2.8778105 3.8037672 1.2780485 1 15
-2.7865353 3.7032318 -1.2418139 2 0
-2.8626258 3.8071194 0.083143272 1 8
-3.952888 5.2590132 -1.5188695 1 1
-2.8439524 3.7864106 0.24817713 3 9
-2.5349603 3.3774793 -0.82086033 24 2
-2.8338451 3.7770703 0.41311821 1 10
-2.8154476 3.7552831 -0.74337667 2 3
-2.8767791 3.8398757 0.58911645 1 11
-2.7987602 3.7371001 -0.57327342 3 4
-2.8962052 3.8700264 0.76559031 3 12
-2.5152874 3.3634753 -0.3674486 29 5
-2.8811183 3.854075 0.93534577 2 13
-2.7874141 3.7314386 -0.24409491 4 6
-2.8315535 3.7974372 1.2692486 1 15
-2.7583125 3.7194917 -1.2407786 2 0
-2.8097844 3.7916658 0.082375363 1 8
-2.7642214 3.7315416 -1.0721167 1 1
-2.8126962 3.7997518 0.24775843 1 9
-2.4973111 3.376153 -0.81628096 30 2
-2.8074071 3.7967625 0.41311821 1 10
-2.7868166 3.7716687 -0.74275094 2 3
-7.808558 10.579662 -1.6145252 2 4
-2.8691168 3.8901513 0.76559031 3 12
-2.4775591 3.3617086 -0.36535689 31 5
-2.7959192 3.7950625 0.91626483 2 13
-2.7612941 3.750809 -0.24409491 4 6
-2.7969677 3.8062143 1.2656252 1 15
-2.4473097 3.3487267 -1.111369 3 0
-2.7761691 3.8014994 0.082165927 1 8
-2.746146 3.7617667 -1.075266 1 1
-2.7861001 3.8192956 0.24775843 1 9
-2.4551766 3.3681211 -0.81017506 39 2
-2.7714453 3.8033872 0.41172373 1 10
-2.7255342 3.7431254 -0.73336488 2 3
-2.7019403 3.7148077 -0.56401139 1 4
-2.7257509 3.7502959 0.73430347 3 12
-2.4423225 3.3628011 -0.36361378 31 5
-2.8039591 3.8621509 0.92771345 2 13
-2.7045496 3.7279611 -0.24137343 4 6
-2.7892065 3.848891 -0.082968742 3 7
-2.7499301 3.7974849 1.2563076 1 15
-2.3629079 3.2810783 -1.0834166 20 0
-2.74489 3.814296 0.08202631 1 8
-2.7104063 3.77054 0.24336222 1 9
-2.3651721 3.292697 -0.78804117 38 2
-2.7355287 3.8096955 0.41032922 1 10
-2.3492515 3.2741497 -0.63825274 27 3
-2.7378964 3.8186169 0.57692951 1 11
-2.3492143 3.2825568 -0.35315505 43 5
-2.751797 3.8465037 0.91931778 2 13
-2.3602021 3.3015611 -0.21269335 30 6
-2.7222316 3.815017 1.2557901 1 15
-2.3377078 3.294343 -1.0823812 33 0
-2.7020009 3.810529 0.081537649 1 8
-2.3271041 3.283041 -0.92904782 42 1
-2.6840167 3.7893703 0.24336222 1 9
-2.3375902 3.3027189 -0.7865147 39 2
-2.6835487 3.7929177 0.40649435 1 10
-2.321775 3.2840185 -0.63700122 35 3
-2.7111707 3.8376381 0.57692951 1 11
-2.3268852 3.2949054 -0.49527705 34 4
-2.7050133 3.833179 0.74306375 3 12
-2.3216479 3.2923644 -0.35245782 42 5
-2.6864183 3.8110631 0.90634274 2 13
-2.6788647 3.8102231 1.2480254 1 15
-2.3146522 3.3105829 -1.0823812 26 0
-2.6615894 3.8096287 0.081118785 1 8
-2.2952011 3.2864258 -0.92544866 66 1
-2.6574967 3.8080158 0.24336222 1 9
-2.3088608 3.3109057 -0.78460658 34 2
-2.6296589 3.7723331 0.40231091 1 10
-2.2965336 3.296906 -0.63637549 36 3
-2.6843128 3.8564718 0.57692951 1 11
-2.2992909 3.3045521 -0.49430209 31 4
-2.6466124 3.8065579 0.73430347 3 12
-2.2917852 3.2986748 -0.35141194 63 5
-2.6418283 3.8039246 0.9002369 2 13
-2.2831292 3.2898903 -0.20986721 39 6
-2.6367984 3.8065994 1.2407786 1 15
-2.3134027 3.3584795 -1.092734 35 0
-2.6122539 3.7951715 0.080420688 2 8
-2.2909803 3.3296618 -0.933097 40 1
-2.6195333 3.8100169 0.2423155 1 9
-2.2968071 3.3431253 -0.78842276 36 2
-2.5807023 3.757751 0.39882466 1 10
-2.2902262 3.3372891 -0.64106852 29 3
-2.289633 3.3401721 -0.49722698 27 4
-2.6088099 3.8086445 0.73117477 3 12
-2.286706 3.3409002 -0.35420093 61 5
-2.6107728 3.8157942 0.89871037 2 13
-2.2781417 3.3321295 -0.21154197 26 6
-2.6503873 3.8795009 1.0847139 5 14
-2.5872917 3.7914052 1.2299082 1 15
-2.576715 3.8000765 0.080141447 1 8
-2.5682282 3.7918329 0.24001274 1 9
-2.2866182 3.3785887 -0.79300219 36 2
-2.5588694 3.7822785 0.39952192 2 10
-2.5902026 3.834357 0.56815493 1 11
-2.5932062 3.8431394 0.73430347 3 12
-2.2744648 3.3733029 -0.35594404 56 5
-2.566514 3.8078804 0.89260459 2 13
-2.5553708 3.8013592 1.22732 1 15
-2.4809971 3.7116704 -1.1962616 2 0
-2.5256896 3.7813883 0.079373546 2 8
-3.6834574 5.5168486 -1.5314667 1 1
-2.5306108 3.7930543 0.23896599 3 9
-2.2499056 3.3748682 -0.78842276 37 2
-2.5235643 3.7867856 0.39812744 2 10
-2.5247908 3.791497 -0.72147578 2 3
-2.5611713 3.8490415 0.56766742 1 11
-2.5022314 3.7618876 -0.55474925 3 4
-2.537883 3.8183758 0.72616887 2 12
-2.2415273 3.3737705 -0.35437521 43 5
-2.5572412 3.8518744 0.89871037 2 13
-2.4996948 3.768044 -0.23697723 3 6
-2.5181048 3.8029988 1.2221435 1 15
-2.4635227 3.7418087 -1.2004027 1 0
-2.4888988 3.7817888 0.079024501 1 8
-3.6427114 5.5391731 -1.5305669 2 1
-2.4915681 3.7901647 0.23770994 1 9
-2.2247276 3.3868227 -0.78765959 36 2
-2.4817586 3.7809937 0.39568707 1 10
-2.4772532 3.7755616 -0.71521842 2 3
-2.5370891 3.8697057 0.56815493 1 11
-2.4759095 3.7792633 -0.55474925 3 4
-2.4663801 3.7661552 0.71302837 2 12
-2.2091935 3.3759992 -0.35298076 49 5
-2.4894612 3.8071923 0.88420898 2 13
-2.4783576 3.7916598 -0.23739593 3 6
-2.4699953 3.7860723 1.2112732 1 15
-2.4443038 3.7682154 -1.2035086 2 0
-2.4537349 3.7856479 0.078745253 1 8
-3.6070423 5.5671105 -1.5314667 2 1
-2.4563637 3.7940543 0.23687255 1 9
-2.1988959 3.3989744 -0.78689629 30 2
-2.4386554 3.7710288 0.39289808 1 10
-2.4422574 3.7794914 -0.71271551 2 3
-2.4712491 3.8272867 0.55938035 1 11
-7.1652226 11.101215 -1.6223248 2 4
-2.4485943 3.7965617 0.71553135 2 12
-2.1780159 3.379617 -0.35176057 35 5
-2.4486036 3.8009436 0.87886631 2 13
-2.4129105 3.7484102 -0.23362774 3 6
-2.44559 3.8064754 1.2123084 1 15
-2.405458 3.7656517 -1.197297 2 0
-2.4186392 3.7892013 0.078466021 1 8
-3.5534139 5.5691576 -1.5251682 1 1
-2.3868678 3.7437465 0.23268569 2 9
-2.1603453 3.3910618 -0.78155369 33 2
-2.4122694 3.787962 0.39289808 2 10
-2.4030862 3.7764504 -0.70896107 2 3
-2.4359484 3.8310452 0.55743045 1 11
-2.3894918 3.7594311 -0.54694968 1 4
-2.4177935 3.8068933 0.71427983 2 12
-2.1436927 3.3779175 -0.35001746 33 5
-2.3988698 3.7814746 0.8704707 2 13
-2.3877518 3.7668509 -0.2337324 3 6
-2.4389958 3.8506634 1.0523211 5 14
-2.4013994 3.7957013 1.2035086 1 15
-2.3749955 3.7758117 -1.1952263 2 0
-2.3665879 3.7653608 0.077628307 1 8
-3.5248141 5.6103306 -1.5296671 2 1
-2.3797879 3.7907665 0.23456979 1 9
-2.1178398 3.3761253 -0.77468461 35 2
-2.3709469 3.7810783 0.39045769 1 10
-5.3385763 8.5203257 -1.5925031 2 3
-2.3880749 3.814307 0.55255568 1 11
-6.9547634 11.112676 -1.6096504 2 4
-2.3534522 3.763386 0.70301658 2 12
-2.1084442 3.3742151 -0.34810004 30 5
-2.3890545 3.8247705 0.8765766 2 13
-2.3360162 3.7427652 -0.23122028 3 6
-2.3717756 3.807456 1.2019557 2 15
-2.3160291 3.7397439 -1.1786621 2 0
-2.3360338 3.7749889 0.077488683 1 8
-3.4917119 5.6447453 -1.5323665 2 1
-2.3364637 3.7801056 0.23289503 1 9
-2.0880282 3.3808062 -0.7723949 34 2
-2.3109996 3.7432883 0.38487977 2 10
-5.2499242 8.510314 -1.5837427 2 3
-2.361388 3.8308861 0.55255568 1 11
-6.9145021 11.221799 -1.618425 2 4
-2.3416204 3.8032737 0.70739675 2 12
-2.0660446 3.3583071 -0.34496242 30 5
-2.3561239 3.8313222 0.87428689 2 13
-2.2910082 3.7283528 -0.2293362 2 6
-2.3269594 3.7942774 1.1926383 2 15
-2.2958996 3.7657168 -1.1817677 3 0
-2.2992189 3.7741282 0.077139638 1 8
-3.442086 5.652339 -1.5278676 2 1
-2.3141696 3.8031499 0.23331371 1 9
-2.0541756 3.3785257 -0.76857871 34 2
-2.2848103 3.759331 0.38487977 2 10
-2.2845068 3.7617893 -0.69707209 2 3
-2.3345857 3.8472784 0.55255568 1 11
-2.2752318 3.7509418 -0.53866255 1 4
-2.2883904 3.7756064 0.69926214 2 12
-2.036943 3.3620682 -0.34391654 30 5
-2.3028839 3.8040109 0.8643648 2 13
-2.2690587 3.7510917 -0.22975488 3 6
-2.2764509 3.7707384 1.180215 2 15
-2.2675641 3.778342 -1.1807325 3 0
-2.2631905 3.772542 0.076790586 1 8
-3.40855 5.6862617 -1.5305669 2 1
-2.2676992 3.7845478 0.23122028 2 9
-2.0230627 3.3789539 -0.7655257 37 2
-2.2544177 3.7683511 0.38418248 1 10
-2.2527652 3.7670805 -0.69519484 2 3
-2.2716875 3.8017344 0.5437811 1 11
-6.7144108 11.24566 -1.608188 2 4
-2.2747862 3.8114507 0.70301658 2 12
-2.0103619 3.3710723 -0.34339362 29 5
-2.2923505 3.8469801 0.8704707 2 13
-2.2066782 3.7046766 -0.22598669 2 6
-2.241847 3.7712007 1.1755562 1 15
-2.2162421 3.7504458 -1.167274 3 0
-2.222564 3.7641435 0.076301925 1 8
-2.2465124 3.8062198 -1.020378 2 1
-2.2310753 3.7830849 0.23017356 2 9
-1.9894583 3.3760803 -0.76170951 36 2
-2.2347825 3.7939091 0.38522837 2 10
-2.2284167 3.7861195 -0.69582063 2 3
-2.2310042 3.7935441 0.54036868 1 11
-2.1991556 3.7408836 -0.53281283 1 4
-2.2241096 3.7863603 0.69550771 2 12
-1.9827427 3.3781528 -0.34269637 29 5
-2.2303467 3.8015344 0.85673243 2 13
-2.1827807 3.7234373 -0.22619602 2 6
-2.2086356 3.7750881 1.1719327 2 15
-2.1783507 3.7457869 -1.1610622 3 0
-2.1962311 3.7795682 0.076301925 1 8
-3.3415732 5.7529373 -1.5359658 2 1
-2.1925809 3.7778385 0.22891749 2 9
-1.9540218 3.3695068 -0.75713015 37 2
-2.190258 3.7783909 0.38209078 2 10
-5.0612674 8.7381763 -1.5993862 2 3
-2.2044659 3.809027 0.54036868 1 11
-6.5666666 11.350917 -1.6101379 2 4
-2.2213478 3.8428404 0.70301658 2 12
-1.9551262 3.3850107 -0.34199914 27 5
-2.2214217 3.8476162 0.86360151 2 13
-2.1547391 3.7351246 -0.22598669 2 6
-2.1822269 3.790415 1.1719327 2 15
-2.1435118 3.7458129 -1.1564035 2 0
-2.155895 3.7705054 0.075813256 1 8
-2.171876 3.7999935 -1.0104802 3 1
-2.1780391 3.8138659 0.23017356 1 9
-1.9265585 3.376246 -0.75560367 36 2
-2.1658006 3.7970507 0.38243937 1 10
-2.1635993 3.7962694 -0.69206619 2 3
-2.1483502 3.7725742 0.53305656 1 11
-6.4951234 11.410282 -1.6120878 2 4
-2.1632154 3.8033073 0.69300479 2 12
-1.9133298 3.3653316 -0.33868721 34 5
-2.1828716 3.842546 0.85902214 2 13
-2.1226931 3.7396557 -0.22535865 2 6
-2.1442854 3.7853868 1.1657211 2 15
-2.0993013 3.7287021 -1.1465684 2 0
-2.1184108 3.7641802 0.075394399 1 8
-3.29913 5.8669767 -1.5539619 2 1
-2.1324556 3.7937818 0.22808012 1 9
-1.8977642 3.3790109 -0.75331396 36 2
-2.1177886 3.7738535 0.37860456 1 10
-4.975101 8.8691492 -1.6106495 2 3
-2.1653266 3.8633032 0.5437811 1 11
-6.3978472 11.424172 -1.6077005 2 4
-2.0851717 3.7248652 0.67610979 2 12
-1.8936794 3.3855627 -0.33938447 32 5
-2.1157649 3.7857134 0.84299421 2 13
-2.1049831 3.7679656 -0.22619602 2 6
-2.1090624 3.7830212 1.1605446 2 15
-2.0738723 3.7429049 -1.1465684 1 0
-2.0940175 3.7823768 0.075464211 1 8
-2.1155019 3.8227575 -1.0086806 2 1
-2.0904546 3.780611 0.22640537 1 9
-1.874128 3.3921773 -0.75331396 36 2
-2.0843458 3.7742281 0.37721002 1 10
-2.0862379 3.7807722 -0.68393159 2 3
-2.1037984 3.8157442 0.53500646 1 11
-6.3180208 11.46398 -1.607213 2 4
-2.1029477 3.8189285 0.69050181 2 12
-1.8527094 3.3672798 -0.33624685 35 5
-2.0804861 3.7828245 0.83917803 2 13
-2.0382276 3.7090535 -0.22179982 2 6
-2.0807445 3.7942641 1.1595093 1 15
-2.0384483 3.7403281 -1.1413921 2 0
-2.0579975 3.7793415 0.075115159 1 8
-3.184387 5.8502874 -1.5377654 3 1
-2.0411084 3.7530031 0.22389325 1 9
-1.8457136 3.3965535 -0.75140589 38 2
-2.0389264 3.7536726 0.3737238 1 10
-2.048485 3.7744102 -0.68017709 2 3
-2.050612 3.7814772 0.52818179 1 11
-6.2435093 11.51828 -1.6086755 2 4
-2.0386055 3.7640378 0.67798704 2 12
-1.8272597 3.3766272 -0.33589822 34 5
-2.0801804 3.8456078 0.84986329 2 13
-2.0255787 3.7477913 -0.22326522 2 6
-2.0395319 3.7814932 1.1512272 1 15
-1.988557 3.7101989 -1.1279335 2 0
-2.0353386 3.8006685 0.075254776 1 8
-3.1581788 5.8998666 -1.5449638 2 1
-2.0054381 3.7495499 0.22284654 2 9
-1.8108523 3.3885779 -0.74682647 39 2
-2.023936 3.788904 0.37581557 1 10
-4.7938476 8.9818516 -1.6125267 2 3
-2.0241623 3.795701 0.52818179 1 11
-6.2049642 11.640416 -1.6196437 2 4
-2.0178494 3.7886393 0.67986429 2 12
-1.8023607 3.3854694 -0.33554959 34 5
-2.0459063 3.8461699 0.84681034 2 13
-1.9712443 3.7089319 -0.22012506 2 6
-2.0130825 3.7956395 1.1512272 1 15
-1.9788203 3.7547524 -1.1372509 1 0
-1.9814607 3.761358 0.074207634 1 8
-2.0349813 3.8662224 -1.0086806 2 1
-1.9761492 3.7560432 0.22242783 1 9
-1.7804385 3.3869226 -0.74377352 39 2
-1.9900234 3.78883 0.37442106 1 10
-4.7509685 9.0492525 -1.6187841 2 3
-1.992746 3.7988439 0.52671933 1 11
-6.1733098 11.778396 -1.6328056 2 4
-1.9681797 3.7567921 0.67172968 2 12
-1.765746 3.3732574 -0.33310926 35 5
-1.9844298 3.7942512 0.83230883 2 13
-1.9459527 3.7222641 -0.22012506 2 6
-1.9948546 3.8190508 0.99473363 4 14
-1.9746902 3.785275 1.1439801 1 15
-2.5639858 4.9464278 -1.4928683 10 0
-1.962512 3.789304 0.074486867 2 8
-3.003967 5.8026705 -1.5085218 15 1
-1.9608918 3.7910347 0.22368389 2 9
-1.7567483 3.3992705 -0.74377352 39 2
-1.9422431 3.7598035 0.37023759 2 10
-4.6695523 9.0470943 -1.6125267 2 3
-1.9497995 3.780906 0.52233207 4 11
-6.0993609 11.832495 -1.6345118 1 4
-1.9301462 3.747611 0.66766238 6 12
-1.7336243 3.3674841 -0.33136615 35 5
-1.9325151 3.7570419 0.82124197 10 13
-1.9144433 3.7250993 -0.21949703 2 6
-1.9225087 3.742404 0.97133869 9 14
-1.9276075 3.7555542 -0.073684059 2 7
-1.9261773 3.7559943 1.1310393 15 15
-1.9023056 3.7334833 -1.1227571 8 0
-1.9040024 3.7384262 0.073230296 5 8
-1.8604002 3.6559701 -0.9470439 15 1
-1.8897669 3.7152841 0.21845031 19 9
-1.7264553 3.3971472 -0.74072057 39 2
-1.8979048 3.7377422 0.36675134 18 10
-1.863173 3.6709242 -0.6520189 12 3
-1.8925947 3.7321241 0.51380116 13 11
-1.8724527 3.6955976 -0.50868267 12 4
-1.8840648 3.7201307 0.66046637 14 12
-1.712773 3.3848374 -0.33188906 37 5
-1.8911802 3.7406564 0.81475443 9 13
-1.8611169 3.6827846 -0.21625218 22 6
-1.8840382 3.7313807 0.96504009 9 14
-1.877924 3.7224998 -0.072776534 20 7
-1.902306 3.7724679 1.1320745 8 15
-1.8491585 3.6910739 -1.1061926 13 0
-1.8814369 3.75878 0.073369913 5 8
-1.8380877 3.6737776 -0.94839364 17 1
-1.8816441 3.764116 0.22054374 10 9
-1.6939244 3.3915536 -0.73690438 41 2
-1.8670808 3.7398779 0.36570549 5 10
-1.8366181 3.6820743 -0.6517061 14 3
-1.8815477 3.7754488 0.51794475 4 11
-1.8339773 3.6816046 -0.50502658 10 4
-1.8782932 3.7738667 0.66766238 4 12
-1.6722435 3.3628175 -0.32857716 35 5
-1.891018 3.8044252 0.82582134 2 13
-1.8433545 3.7117879 -0.21719423 14 6
-1.9151099 3.8596561 0.99473363 4 14
-1.8596504 3.7495284 -0.073055774 7 7
-1.8896471 3.8133526 1.1403568 2 15
-1.8591805 3.7766891 -1.1279335 1 0
-1.8533851 3.768235 0.073300108 2 8
-2.8974249 5.8935356 -1.5161701 25 1
-1.8535587 3.7735755 0.2203344 1 9
-1.6555016 3.3733351 -0.73041683 35 2
-1.8374163 3.7456665 0.36500823 2 10
-4.607584 9.4010916 -1.6582055 2 3
-1.8533983 3.7849267 0.51745731 1 11
-1.8239388 3.7264123 -0.5094139 3 4
-1.8371482 3.7567201 0.66234362 2 12
-1.6452289 3.3672485 -0.32787988 35 5
-1.8678567 3.8245924 0.82734787 2 13
-1.8173981 3.7245657 -0.21719423 1 6
-1.8477588 3.7951863 1.1310393 1 15
-2.4492993 5.064363 -1.5073622 9 0
-1.8183324 3.763077 0.072951064 2 8
-1.8052601 3.7376885 -0.95829147 5 1
-1.8219609 3.7756314 0.21970637 2 9
-1.6344688 3.3901157 -0.73156172 39 2
-1.8094919 3.7548132 0.36465961 2 10
-1.816736 3.7732122 -0.66328222 3 3
-1.8217661 3.7870405 0.51599485 1 11
-1.7944382 3.731899 -0.50843894 3 4
-1.7937686 3.7338431 0.65608621 2 12
-1.6113353 3.3570979 -0.32578817 31 5
-1.8275248 3.8092167 0.82124197 2 13
-1.8034377 3.7623775 -0.21865964 1 6
-1.8070489 3.7783663 1.1222395 1 15
-1.7996364 3.7883191 -1.1237923 2 0
-1.7817277 3.7540009 0.072532199 1 8
-1.7423702 3.6727316 -0.93849587 4 1
-1.7921358 3.7810397 0.21928766 3 9
-1.6040394 3.387249 -0.72850877 38 2
-1.7730054 3.7457442 0.3625679 2 10
-1.7751485 3.7536592 -0.65765053 3 3
-1.8020674 3.8140252 0.51794475 1 11
-5.5864649 11.828939 -1.606238 2 4
-1.7794591 3.7712858 0.66046637 2 12
-1.5844607 3.3610566 -0.32509091 31 5
-1.8008869 3.8218827 0.82124197 2 13
-1.7584119 3.7351217 -0.21635687 1 6
-1.7923889 3.810745 0.97223842 4 14
-1.7707709 3.769907 1.1160278 1 15
-1.7821311 3.8200481 -1.1294864 2 0
-1.7673035 3.791723 0.073020868 1 8
-1.601475 3.4375031 -0.8755095 11 1
-1.7606387 3.7825947 0.21865964 1 9
-1.5786972 3.3948045 -0.72774553 41 2
-1.7518508 3.7688713 0.36361378 2 10
-1.7439078 3.7552116 -0.6557734 3 3
-1.7620291 3.7977018 0.51404494 1 11
-5.569725 12.00992 -1.6254934 2 4
-1.7414609 3.7585244 0.65608621 2 12
-1.5634685 3.3774607 -0.32561383 36 5
-1.7576728 3.7987263 0.81360966 2 13
-1.7339691 3.7509325 -0.21656621 1 6
-1.7657413 3.8231654 0.97223842 4 14
-1.7408229 3.770941 -0.072497301 2 7
-1.736318 3.7646348 1.1108514 2 15
-1.7208234 3.7568736 -1.1072279 2 0
-1.7308056 3.7821479 0.072602011 1 8
-1.5563604 3.4025242 -0.86381203 15 1
-1.7308695 3.7875271 0.21824095 1 9
-1.548437 3.3914549 -0.72469258 38 2
-1.7139159 3.7556336 0.36117339 2 10
-1.7127321 3.7565107 -0.65389615 3 3
-1.7305356 3.7990713 0.51258254 1 11
-5.4503736 11.970826 -1.6150126 2 4
-1.7119071 3.7633979 0.65483475 2 12
-1.5299593 3.3665271 -0.32352212 34 5
-1.7311097 3.8109047 0.81360966 2 13
-1.6928833 3.7302094 -0.21468212 1 6
-1.7144543 3.7830024 -0.072497301 2 7
-1.7091967 3.7749052 1.1103338 3 15
-1.7024776 3.7864141 -1.1124043 2 0
-1.6863321 3.7540085 0.071834102 1 8
-1.696209 3.781296 0.21719423 2 9
-1.5174947 3.3860593 -0.72125804 33 2
-1.6892838 3.7711442 0.36152202 1 10
-1.6735542 3.7395272 -0.64889026 3 3
-1.7153164 3.8364303 0.51599485 1 11
-5.2953935 11.849098 -1.5935637 2 4
-1.663044 3.7247515 0.64607441 1 12
-1.5086324 3.380502 -0.32387072 34 5
-1.6804782 3.769104 0.80216104 2 13
-1.6602988 3.7273412 -0.21384473 1 6
-1.7107581 3.8460379 -0.073474631 2 7
-1.6812322 3.7832146 1.1092985 1 15
-1.6510452 3.7416499 -1.0958399 2 0
-1.6655823 3.7763784 0.072043538 1 8
-1.4953433 3.3936071 -0.85616374 36 1
-1.6559428 3.7598529 0.21531016 1 9
-1.4912486 3.389122 -0.71973157 34 2
-1.6581063 3.7719014 0.36047614 2 10
-1.659186 3.7761509 -0.65327036 3 3
-1.6620343 3.7862165 0.50770777 1 11
-5.2460337 11.962131 -1.6038008 2 4
-1.6630279 3.7938807 0.65608621 2 12
-1.4746068 3.3672254 -0.32160467 31 5
-1.6604196 3.7951336 0.80521399 2 13
-1.6412928 3.753195 -0.21468212 1 6
-1.6687969 3.8197258 0.96234065 4 14
-1.6614678 3.8065715 -0.072497301 2 7
-1.6484891 3.7786345 1.1046398 1 15
-2.2536395 5.202868 -1.5192679 2 0
-1.6471193 3.8062663 0.072392583 1 8
-1.4629271 3.3822429 -0.85076487 50 1
-1.628069 3.7676547 0.2151008 1 9
-1.4706658 3.4066596 -0.72125804 32 2
-1.6292359 3.7757831 0.35977891 2 10
-1.6171452 3.7513614 -0.64701301 3 3
-1.6575463 3.8487766 0.51453239 1 11
-5.1762614 12.024913 -1.6074568 2 4
-1.6130909 3.7509568 0.64670014 2 12
-1.4485054 3.3698628 -0.32090744 33 5
-1.6314516 3.7991312 0.80368757 2 13
-1.6071745 3.7462082 -0.2136354 1 6
-1.6596559 3.8703978 0.97223842 4 14
-1.6083874 3.7580829 1.0953223 1 15
-1.6091201 3.7871726 -1.1025692 2 0
-1.5961593 3.758491 0.071275629 1 8
-1.4324288 3.3762283 -0.84671575 39 1
-1.6023855 3.7786493 0.2151008 2 9
-1.4466774 3.4147837 -0.7208764 25 2
-1.5935173 3.7650471 0.35768715 2 10
-1.591573 3.7622821 -0.64701301 2 3
-1.6081271 3.805115 0.50722027 1 11
-1.5751417 3.7306964 -0.49722698 3 4
-1.5998099 3.7909689 0.6517061 2 12
-1.4249439 3.3798933 -0.32090744 31 5
-1.5911719 3.7778604 0.79681838 2 13
-1.5583895 3.7018371 -0.21049525 1 6
-1.594821 3.792073 0.94974333 4 14
-1.5895014 3.7849739 1.099981 1 15
-1.5781009 3.7855558 -1.0989457 2 0
-1.5775691 3.7880023 0.071624674 1 8
-1.4064189 3.3787041 -0.84491616 34 1
-1.5575612 3.7454844 0.21258868 2 9
-1.4167769 3.4102957 -0.71782345 17 2
-1.5617402 3.7610865 0.35629267 1 10
-1.5471029 3.729511 -0.63950419 3 3
-1.5952029 3.8492587 0.51160759 1 11
-1.5466722 3.7339957 -0.496252 3 4
-1.5702837 3.7947443 0.65045458 2 12
-1.4026662 3.3913558 -0.32108176 34 5
-1.5744165 3.8103771 0.80139786 2 13
-1.5279373 3.7015491 -0.20986721 2 6
-1.5578916 3.7834733 1.0963575 1 15
-1.5523652 3.798269 -1.0994633 2 0
-1.5441864 3.7801411 0.071275629 1 8
-1.3813242 3.3848317 -0.84401631 40 1
-1.5320303 3.7559996 0.21258868 2 9
-1.3994577 3.4344056 -0.7208764 16 2
-1.5324399 3.7645166 0.35559544 2 10
-1.521681 3.7399554 -0.63950419 2 3
-1.5570052 3.8306041 0.50770777 1 11
-5.0068159 12.330297 -1.6340244 2 4
-1.5473887 3.8126664 0.6517061 2 12
-1.3707211 3.3807549 -0.31916434 33 5
-1.53451 3.7885218 0.79452866 2 13
-1.5131987 3.7377815 -0.2113326 1 6
-1.5423851 3.8137016 0.94974333 4 14
-1.5147413 3.7509987 1.0839342 1 15
-1.5294025 3.8179808 -1.1020516 4 0
-1.5066974 3.7651019 0.07078696 2 8
-1.3547652 3.3871553 -0.84221673 37 1
-1.5051138 3.7668662 0.21258868 3 9
-1.3748459 3.4443316 -0.7208764 7 2
-1.4839723 3.7196062 0.35036606 2 10
-3.7489007 9.4062328 -1.6037663 3 3
-1.5236796 3.8268931 0.50575781 1 11
-1.4826427 3.7257159 -0.49235216 3 4
-1.4879574 3.7428737 0.63793981 1 12
-1.3457586 3.3886251 -0.31898999 34 5
-1.5239588 3.8392873 0.80292428 2 13
-1.486413 3.7485139 -0.2113326 1 6
-1.5150553 3.8246412 0.94974333 4 14
-1.5289571 3.8617032 -0.072497301 2 7
-1.4779135 3.7365921 1.0766873 1 15
-1.4921247 3.8015895 -1.0942869 2 0
-1.4818333 3.7792528 0.070856772 1 8
-1.3296648 3.3929012 -0.84131694 37 1
-1.4787794 3.7772822 0.21258868 3 9
-1.3607773 3.4794438 -0.72621906 6 2
-1.4695741 3.7595663 0.35315505 2 10
-1.4629098 3.7463729 -0.63700122 3 3
-1.4868277 3.8115451 0.5023455 1 11
-1.4450588 3.7063844 -0.4884524 3 4
-1.4675261 3.7678957 0.64044279 1 12
-1.3191788 3.3905108 -0.31829277 37 5
-1.4771949 3.7985997 0.79223901 2 13
-1.4471892 3.7252896 -0.20944853 1 6
-1.4883174 3.835125 0.94974333 4 14
-1.4773734 3.8088946 -0.071310528 2 7
-1.4524891 3.7486198 1.0772049 1 15
-1.4724791 3.8299465 -1.0994633 2 0
-1.4353402 3.737236 0.069879435 2 8
-1.300357 3.3875477 -0.83771771 36 1
-1.453805 3.7912428 0.21279801 3 9
-1.3568209 3.5420251 -0.73728597 4 2
-1.4440058 3.7715943 0.35332939 2 10
-1.4338987 3.7491138 -0.63574976 2 3
-1.4474274 3.7884543 0.49795815 1 11
-4.7496142 12.438012 -1.6347555 2 4
-1.4411855 3.7780492 0.64044279 1 12
-1.2946502 3.3956883 -0.31794414 34 5
-1.454832 3.8198273 0.79452866 2 13
-1.419726 3.7315681 -0.20923917 1 6
-1.462178 3.8451669 0.94974333 4 14
-1.4408047 3.7929449 -0.070821866 2 7
-1.4297104 3.7677 1.0797932 1 15
-1.4273293 3.7913172 -1.0854871 2 0
-1.4253614 3.7880945 0.070647344 2 8
-1.2725635 3.3855977 -0.83501828 40 1
-1.4181316 3.7748754 0.2113326 2 9
-1.3885529 3.7000635 -0.768197 3 2
-1.4029512 3.7424061 0.34966883 2 10
-1.4083459 3.7587872 -0.63574976 3 3
-1.4104732 3.7684731 0.49405837 1 11
-1.3903875 3.7187614 -0.48747739 3 4
-1.3960747 3.7359602 0.63168246 1 12
-1.2653382 3.3897109 -0.31654966 34 5
-1.4281309 3.8298905 0.79452866 2 13
-1.3956882 3.7448888 -0.20944853 2 6
-1.4176203 3.8077977 0.93804586 4 14
-1.4240483 3.8291512 -0.071310528 2 7
-1.4060502 3.7827761 1.0813459 1 15
-1.3894596 3.7683187 -1.0761696 3 0
-1.3947339 3.7866943 0.070437916 2 8
-1.2494888 3.3941815 -0.83501828 39 1
-1.3917434 3.7846839 0.2113326 3 9
-1.3681017 3.724411 -0.77125001 3 2
-1.3829402 3.7668314 0.35106334 2 10
-1.379348 3.7611103 -0.6344983 3 3
-1.3923259 3.8005946 0.4969832 1 11
-1.3650423 3.7281396 -0.48747739 1 4
-1.3509614 3.6936696 0.62292212 1 12
-1.2416441 3.3984616 -0.31654966 36 5
-1.3878872 3.800796 0.7865147 2 13
-1.358561 3.724519 -0.20777377 2 6
-1.366985 3.7516863 0.92184937 4 14
-1.397953 3.8387547 -0.071310528 2 7
-1.3763053 3.7834232 1.0787579 1 15
-1.3650849 3.7833786 -1.0777225 2 0
-1.3669076 3.7925766 0.070368104 2 8
-1.2244418 3.3991549 -0.83411849 40 1
-1.3598778 3.7792737 0.21049525 3 9
-1.3387485 3.7246327 -0.76934189 2 2
-1.3364012 3.7201421 0.34583399 2 10
-3.460041 9.6422968 -1.6225384 3 3
-1.3443247 3.7504251 0.4891836 1 11
-1.3349667 3.7263653 -0.48601499 2 4
-1.3304664 3.7178903 0.62542504 1 12
-1.209839 3.3845344 -0.31445792 36 5
-1.3745291 3.847369 0.79414707 2 13
-1.3318528 3.7320323 -0.20766909 2 6
-1.3813313 3.8749447 0.94974333 4 14
-1.3939359 3.912468 -0.072497301 2 7
-1.3440307 3.7765582 1.0740991 1 15
-1.3379958 3.7909951 -1.0772049 3 0
-1.3257699 3.7605367 0.069600195 2 8
-1.1980909 3.4002686 -0.8323189 48 1
-1.3281556 3.7736032 0.20965785 3 9
-1.3101084 3.7264798 -0.76781541 2 2
-1.319644 3.7556975 0.34827435 2 10
-3.3834817 9.6401234 -1.6181583 3 3
-1.3286169 3.7896912 0.49308339 1 11
-4.5444574 12.969669 -1.6874031 2 4
-1.3096988 3.7420042 0.62792808 1 12
-1.1841432 3.3851676 -0.31376067 36 5
-1.3424551 3.8420441 0.79109418 2 13
-1.3123491 3.7600961 -0.20871581 1 6
-1.3305336 3.8143373 0.93264711 4 14
-1.3081059 3.7584827 1.0663346 1 15
-1.3039342 3.7783291 -1.0709932 3 0
-1.304054 3.7808161 0.069809623 3 8
-1.1679755 3.390125 -0.82781988 54 1
-1.3050398 3.7901103 0.21007656 3 9
-1.2847127 3.7353113 -0.76781541 2 2
-1.2920974 3.76105 0.34792572 2 10
-1.2945263 3.7702618 -0.63136959 2 3
-1.2950628 3.7761147 0.49015856 1 11
-1.2789479 3.7333734 -0.48455253 2 4
-1.2867569 3.7583079 0.62917954 1 12
-1.1572579 3.3839262 -0.3128891 33 5
-1.3041764 3.8178811 0.78422499 2 13
-1.2828526 3.757601 -0.20808777 1 6
-1.3082262 3.8406892 -0.070821866 2 7
-1.2837392 3.7709563 1.0673697 1 15
-1.2812765 3.7962689 -1.0735815 2 0
-1.2661287 3.7557199 0.069181338 2 8
-1.1448742 3.3979962 -0.82781988 42 1
-1.278548 3.799129 0.21007656 2 9
-1.2586039 3.7441893 -0.76781541 2 2
-1.2601216 3.7508714 0.34618258 2 10
-1.2568614 3.7454975 -0.62573791 2 3
-1.2648838 3.7737708 0.48869613 1 11
-4.3469172 12.976508 -1.6803347 2 4
-1.2579805 3.7597063 0.62792808 1 12
-1.1373566 3.4011726 -0.31376067 34 5
-1.2669631 3.7931516 0.77735591 2 13
-1.2502676 3.7475195 -0.20704105 1 6
-1.256858 3.7694643 0.91735035 4 14
-1.3123826 3.9405727 -0.072497301 2 7
-1.2640895 3.7999909 1.0730639 1 15
-1.8101175 5.4893565 -1.5487732 2 0
-1.2555565 3.8098323 0.070019051 2 8
-1.1199036 3.4022045 -0.82692009 51 1
-1.2364306 3.7584155 0.20735508 2 9
-1.2312503 3.7470739 -0.76667058 3 2
-1.2326623 3.7557914 0.34583399 2 10
-1.2374942 3.7727358 -0.62886661 2 3
-1.235459 3.7709746 0.48723367 1 11
-4.2679477 13.042384 -1.6849656 2 4
-1.217623 3.7231214 0.62041914 3 12
-1.1043044 3.3806214 -0.31114599 33 5
-1.2404511 3.8019042 0.77735591 2 13
-1.2160616 3.7293589 -0.20557566 1 6
-1.2341323 3.7892647 0.92004979 4 14
-1.2464869 3.8317392 -0.070333198 2 7
-1.231624 3.7882977 1.0673697 2 15
-1.2098513 3.7547345 -1.057017 2 0
-1.2154522 3.7766263 0.06925115 2 8
-1.0943328 3.4023283 -0.82512045 42 1
-1.2150507 3.7821674 0.20819245 3 9
-1.2146599 3.7854881 -0.77277648 3 2
-1.2101109 3.7735808 0.34670553 2 10
-1.2063069 3.7662327 -0.62636369 3 3
-1.215151 3.7984147 0.48967105 1 11
-4.180892 13.076804 -1.685697 3 4
-1.1879956 3.7202406 0.61854196 3 12
-1.0770438 3.3768597 -0.31010011 31 5
-1.2288533 3.8551524 0.7865147 2 13
-1.1948434 3.7529829 -0.20641303 2 6
-1.2466238 3.9203572 0.94974333 4 14
-1.2203761 3.8401351 -0.070333198 2 7
-1.1934577 3.7599776 1.057017 1 15
-1.187668 3.7759886 -1.0606405 3 0
-1.1854608 3.7735729 0.069041722 3 8
-1.0682201 3.4024477 -0.82332087 48 1
-1.1850309 3.7791233 0.20756441 2 9
-1.1729448 3.7451644 -0.7628544 3 2
-1.1825484 3.7781339 0.34635693 2 10
-1.1740885 3.7557094 -0.62323499 3 3
-1.1838721 3.7916462 0.48772117 1 11
-4.0924473 13.11515 -1.6869156 2 4
-1.1619961 3.7284431 0.61854196 1 12
-1.048707 3.369077 -0.30870563 30 5
-1.1715846 3.766156 0.76667058 2 13
-1.172169 3.7726769 -0.20704105 2 6
-1.1915014 3.8396282 0.92814809 4 14
-1.1677505 3.7700629 1.0575346 1 15
-1.6770233 5.4648185 -1.5316912 3 0
-1.1555715 3.7702858 0.068832293 3 8
-1.0421575 3.402369 -0.82152128 54 1
-1.1597874 3.7911243 0.20777377 1 9
-1.1473455 3.7551389 -0.76323599 3 2
-1.1509066 3.7691476 0.3447881 2 10
-1.1478419 3.763814 -0.62323499 2 3
-1.1504318 3.7770312 0.48479629 1 11
-1.1422578 3.7525442 -0.48162767 2 4
-1.1416824 3.7553651 0.62167066 1 12
-1.0274748 3.3839426 -0.30940288 33 5
-1.150964 3.79303 0.77048677 2 13
-1.1376923 3.7540085 -0.20557566 1 6
-1.1578938 3.8254702 0.92274922 4 14
-1.1481081 3.8003147 1.0637463 1 15
-1.6404922 5.481945 -1.5332441 2 0
-1.1280766 3.7744293 0.068762481 3 8
-1.0172639 3.4058273 -0.82062149 45 1
-1.1287247 3.7838173 0.20693639 2 9
-1.1211017 3.7630575 -0.76323599 3 2
-1.1222907 3.7694523 0.34409088 2 10
-1.1237895 3.7793093 -0.62448645 2 3
-1.1251653 3.7887764 0.48528376 1 11
-3.8908572 13.110115 -1.679116 2 4
-1.1087025 3.7405162 0.61791623 1 12
-1.0015647 3.3833909 -0.30870563 30 5
-1.1266851 3.8085027 0.77201319 2 13
-1.1250404 3.8078287 -0.20808777 1 6
-1.1193262 3.7958009 -0.069076627 2 7
-1.1122692 3.7767344 1.0549464 1 15
-1.1040013 3.785197 -1.0564994 3 0
-1.0961062 3.7630138 0.068413429 3 8
-0.99346191 3.4128463 -0.82062149 51 1
-1.0911301 3.753248 0.20484295 3 9
-1.0904242 3.7557096 -0.7601831 3 2
-1.1003892 3.7925036 0.34548536 1 10
-1.0907801 3.7642949 -0.62073201 2 3
-1.0942726 3.7812846 0.48333386 3 11
-3.7942793 13.119794 -1.6769222 3 4
-1.0770806 3.7291873 0.61478752 3 12
-0.97851145 3.3901298 -0.30870563 28 5
-1.0924563 3.7898653 0.76667058 2 13
-1.0929041 3.796397 -0.20704105 1 6
-1.0931858 3.79987 0.91285133 4 14
-1.0912055 3.8029761 1.0601228 2 15
-1.5791025 5.5582075 -1.5482556 3 0
-1.0770206 3.7934718 0.068832293 2 8
-0.96535885 3.4047 -0.81702226 51 1
-1.0720911 3.7836473 0.20609902 2 9
-1.0637655 3.7592666 -0.75941986 4 2
-1.064133 3.7655816 0.34234774 2 10
-1.0619109 3.760226 -0.61885482 2 3
-1.0620428 3.7657187 0.480409 3 11
-3.6842959 13.080997 -1.6686351 3 4
-1.0484605 3.725023 0.61291033 3 12
-0.94942862 3.3776982 -0.30696252 30 5
-1.0680939 3.8049603 0.768197 2 13
-1.0486962 3.7383654 -0.20348223 1 6
-1.0687338 3.8149152 0.91465092 4 14
-1.0662191 3.8110592 -0.069076627 2 7
-1.0543706 3.771245 1.0492525 1 15
-1.0455233 3.7777164 -1.0502877 3 0
-1.0355968 3.7469296 0.067854956 2 8
-0.94112372 3.4074354 -0.81612247 54 1
-1.0392774 3.7679355 0.20484295 2 9
-1.0291531 3.7363172 -0.75331396 3 2
-1.0321317 3.7496865 0.34025604 2 10
-1.0324923 3.75612 -0.61697763 2 3
-1.0399312 3.7883554 0.4823589 1 11
-3.5972714 13.113431 -1.6696101 2 4
-1.0339115 3.7741659 0.61979342 1 12
-0.92792767 3.3919313 -0.30765978 28 5
-1.0452759 3.8235054 0.77048677 2 13
-1.0173118 3.7263281 -0.20243551 2 6
-1.031823 3.7846811 0.90565288 4 14
-1.0402533 3.8182285 -0.069076627 2 7
-1.0310596 3.7896984 1.0523583 1 15
-1.5013151 5.5757198 -1.5472202 3 0
-1.0146037 3.7733796 0.068204008 2 8
-0.91225713 3.3951023 -0.81162345 57 1
-1.0077709 3.7558091 0.20379624 1 9
-1.0040599 3.7472038 -0.7540772 3 2
-1.0090207 3.7683482 0.34130189 2 10
-1.0011418 3.7441535 -0.61384892 2 3
-1.0103855 3.7840157 0.48089647 1 11
-3.4923284 13.088357 -1.663273 3 4
-1.0034688 3.7660217 0.61729044 1 12
-0.90320033 3.3944759 -0.30731115 28 5
-1.0054407 3.7813792 0.76056474 2 13
-0.99127233 3.7333395 -0.20243551 2 6
-1.0183613 3.8407671 0.91735035 4 14
-1.0135717 3.8253975 -0.069076627 2 7
-1.0045774 3.796804 1.0523583 1 15
-1.4672422 5.604754 -1.5523967 3 0
-0.9902606 3.7881093 0.068343624 1 8
-0.88656092 3.3938468 -0.80982381 54 1
-0.98455238 3.774348 0.20442426 2 9
-0.97787505 3.754122 -0.7540772 3 2
-0.98168623 3.7714441 0.34095326 2 10
-0.97895366 3.766346 -0.6163519 2 3
-0.98194861 3.7832918 0.47992152 1 11
-3.3948891 13.089361 -1.6603481 3 4
-0.97814316 3.7767603 0.61791623 1 12
-0.88007396 3.4005454 -0.30731115 28 5
-0.98098212 3.7959094 0.76209116 2 13
-0.96917701 3.7556403 -0.20327288 2 6
-0.9892748 3.836288 0.91465092 4 14
-0.98684067 3.8323805 -0.069076627 2 7
-0.97612196 3.796241 1.0502877 1 15
-1.4290332 5.6186051 -1.553432 3 0
-0.96051216 3.7792571 0.068064384 1 8
-0.86284739 3.3999531 -0.80982381 51 1
-0.9549107 3.7654746 0.20358689 2 9
-0.94940907 3.7492719 -0.75178748 3 2
-0.95484233 3.7762742 0.34077895 2 10
-0.94942486 3.7576005 -0.61384892 2 3
-0.95326018 3.7783396 0.47845906 1 11
-3.2951815 13.080018 -1.6562046 2 4
-0.94373262 3.7488499 0.6122846 1 12
-0.85436934 3.3988771 -0.30661389 28 5
-0.94298881 3.7569644 0.75293231 2 13
-0.93678826 3.7350285 -0.20180747 2 6
-0.95300174 3.8052933 0.90565288 4 14
-0.93580532 3.7421787 -0.067331389 2 7
-0.94838572 3.7953007 1.0482172 1 15
-1.3851942 5.6056967 -1.5472202 3 0
-0.93506265 3.7897537 0.068134196 1 8
-0.83968461 3.4057474 -0.80982381 42 1
-0.93241888 3.787564 0.20442426 3 9
-0.92133474 3.748183 -0.75026101 3 2
-0.92341465 3.7594674 0.33868721 2 10
-0.92222577 3.7603002 -0.61322314 2 3
-0.92497236 3.7771895 0.47748414 1 11
