# .PCD v0.7 - Point Cloud Data file format
VERSION 0.7
FIELDS x y z intensity ring
SIZE 4 4 4 4 2
TYPE F F F F U
COUNT 1 1 1 1 1
WIDTH 1288
HEIGHT 1
VIEWPOINT 0 0 0 1 0 0 0
POINTS 1288
DATA ascii
-1.1294121 3.8177202 0.91914994 4 14
-1.1136997 3.7742989 1.0544289 1 15
-1.1059829 3.7846184 -1.0564994 3 0
-1.1037781 3.7795234 0.068727575 1 8
-0.98870081 3.3898761 -0.81522262 45 1
-1.0926321 3.7486506 0.20463361 3 9
-1.094692 3.7606025 -0.76132792 3 2
-1.0962566 3.7708817 0.34356794 2 10
-1.0945098 3.7673264 -0.62135774 1 3
-1.0980185 3.7843328 0.48382133 1 11
-1.0784652 3.721796 -0.47577798 2 4
-1.084079 3.7436132 0.61729044 1 12
-0.9802863 3.3896172 -0.30870563 39 5
-1.0993435 3.8062685 0.77010518 2 13
-1.0805995 3.7438221 -0.20421492 1 6
-1.0865389 3.7693369 0.90565288 4 14
-1.0869166 3.7780783 1.0533936 1 15
-1.5681632 5.5050807 -1.5337617 3 0
-1.0740821 3.7755966 0.068518147 2 8
-0.96560371 3.3965273 -0.81522262 45 1
-1.0751629 3.7869284 0.20630836 3 9
-1.053416 3.7152669 -0.75064266 3 2
-1.0597004 3.7399178 0.34008169 2 10
-2.7280066 9.6405687 -1.5868714 3 3
-1.0640144 3.765162 0.480409 1 11
-3.7101512 13.137644 -1.6761911 2 4
-1.0547001 3.7396834 0.61541325 3 12
-0.94957668 3.3714476 -0.30643961 45 5
-1.0595796 3.7645278 0.7601831 2 13
-1.0490319 3.7320476 -0.2031682 1 6
-1.070731 3.8143549 0.91465092 4 14
-1.0558238 3.768832 1.0487348 2 15
-1.0526637 3.7957842 -1.055464 3 0
-1.0348898 3.7367513 0.067680433 2 8
-0.93874925 3.391917 -0.81252325 54 1
-1.0444442 3.7789409 0.20547098 3 9
-1.0410339 3.7717354 -0.76056474 3 2
-1.0372733 3.7606695 0.34130189 2 10
-1.029213 3.7365346 -0.61384892 2 3
-1.0366496 3.7686706 0.47992152 1 11
-3.5994012 13.094318 -1.6674166 2 4
-1.0390248 3.7850537 0.62167066 1 12
-0.92970353 3.3914449 -0.30765978 37 5
-1.0311975 3.7642591 0.75865656 2 13
-1.0261139 3.7508392 -0.20379624 1 6
-1.0409944 3.8104584 0.9119516 4 14
-1.0422523 3.8176832 -0.069076627 2 7
-1.0310111 3.781703 1.0502877 1 15
-1.494169 5.5376301 -1.5368675 3 0
-1.0108564 3.7516086 0.06782005 2 8
-0.90998125 3.3795707 -0.80802423 51 1
-1.0087 3.7514231 0.20358689 3 9
-1.0106038 3.7637424 -0.75751179 3 2
-1.0109936 3.7678194 0.34130189 2 10
-1.0041245 3.7474449 -0.61447465 2 3
-1.0072355 3.7643101 0.47845906 1 11
-3.4981551 13.082691 -1.6627855 3 4
-1.0054404 3.7654958 0.61729044 1 12
-0.9035151 3.3861444 -0.30661389 37 5
-1.0048929 3.7713664 0.75865656 2 13
-0.98141485 3.6884277 -0.20002805 2 6
-1.0080227 3.7910895 0.90565288 4 14
-1.0026042 3.7813392 1.0482172 1 15
-1.4525312 5.5367141 -1.5337617 3 0
-0.99036926 3.7777452 0.068169102 2 8
-0.88636357 3.3858416 -0.80802423 40 1
-0.98516518 3.7659309 0.20400558 2 9
-0.9750374 3.7325439 -0.74987942 3 2
-0.98064327 3.759362 0.33990738 1 10
-0.98058617 3.7618387 -0.61572611 2 3
-0.98459136 3.7826049 0.47992152 1 11
-3.4052372 13.101029 -1.6620542 2 4
-0.98177439 3.7798998 0.61854196 1 12
-0.88035363 3.3942983 -0.30678821 43 5
-0.98050833 3.7858925 0.7601831 2 13
-0.96028912 3.7104909 -0.20086543 2 6
-0.98153132 3.7980344 0.90565288 4 14
-0.9696064 3.7600162 1.0404526 1 15
-0.9669224 3.7906203 -1.0482172 3 0
-0.96298438 3.7806916 0.06809929 2 8
-0.86329794 3.3917959 -0.80802423 36 1
-0.95294625 3.7494881 0.20274951 2 9
-0.94557673 3.725939 -0.74720806 3 2
-0.95503134 3.76595 0.33990738 1 10
-0.95333165 3.7647622 -0.61510038 2 3
-0.94939876 3.7547457 0.47553423 1 11
-3.3033452 13.073864 -1.655717 2 4
-0.94569528 3.7483554 0.6122846 1 12
-0.85479528 3.390552 -0.30591667 37 5
-0.95375717 3.7886713 0.75941986 2 13
-0.93241394 3.7093565 -0.20044672 2 6
-0.94616133 3.7668273 0.8966549 4 14
-0.93841749 3.7415245 -0.067331389 2 7
-0.94662005 3.7798116 1.0440761 1 15
-1.3876644 5.6030951 -1.5467027 2 0
-0.93722588 3.7871594 0.06809929 2 8
-0.83679277 3.386389 -0.80532479 36 1
-0.92931557 3.7636445 0.2031682 2 9
-0.91972321 3.7303829 -0.74682647 3 2
-0.9172864 3.7260947 0.33572391 2 10
-0.92673993 3.767328 -0.61447465 2 3
-0.92287374 3.7572651 0.47504675 1 11
-3.21104 13.092752 -1.6552296 2 4
-0.92392236 3.7700541 0.61478752 3 12
-0.83015513 3.3925664 -0.30556804 40 5
-0.92449003 3.7837939 0.75713015 2 13
-0.90145904 3.6923342 -0.19919068 2 6
-0.92261183 3.7846999 0.89935428 4 14
-0.93592012 3.8451331 -0.069076627 2 7
-0.92132616 3.7880442 1.0445937 2 15
-0.91164577 3.794359 -1.0456289 2 0
-0.9045074 3.7704339 0.067680433 1 8
-0.81131393 3.3845685 -0.80352521 45 1
-0.89585119 3.7430046 0.20170279 1 9
-0.90076298 3.76933 -0.75331396 3 2
-0.89495122 3.7479115 0.33711842 2 10
-0.8924278 3.7431185 -0.60946876 2 3
-0.89228618 3.7483237 0.47309685 1 11
-3.1053231 13.054982 -1.6476736 3 4
-0.88779181 3.7381303 0.6085301 1 12
-0.8017199 3.3809726 -0.30399922 26 5
-0.89171457 3.763411 0.75178748 2 13
-0.87777305 3.7103517 -0.1998187 1 6
-0.90177721 3.8177567 0.90565288 4 14
-0.89067924 3.7737246 -0.067680433 2 7
-0.88489068 3.7550526 1.0337234 1 15
-1.3009744 5.586175 -1.5368675 3 0
-0.8727262 3.753284 0.067261577 2 8
-0.78590286 3.3825567 -0.80172557 45 1
-0.87511599 3.7725143 0.20295887 1 9
-0.86556673 3.7372744 -0.74568158 3 2
-0.86786741 3.7501853 0.33676979 2 10
-0.8644954 3.7415595 -0.6082173 2 3
-0.86074162 3.73125 0.47017199 3 11
-3.014998 13.080212 -1.6481611 3 4
-0.86344337 3.7519379 0.60978162 1 12
-0.77809834 3.386487 -0.30399922 31 5
-0.87332481 3.8039873 0.75865656 2 13
-0.86077487 3.7553246 -0.20191215 1 6
-0.86814666 3.7935655 0.89845449 4 14
-0.86966282 3.8032429 -0.06809929 2 7
-0.85564405 3.7479553 1.0300999 1 15
-0.85730392 3.801065 -1.0440761 3 0
-0.85001642 3.7748921 0.06754081 2 8
-0.7605564 3.3803566 -0.79992598 48 1
-0.83912748 3.7356603 0.20065607 1 9
-0.84117293 3.7508883 -0.74720806 3 2
-0.84035808 3.7503204 0.33624685 2 10
-0.83662826 3.7397926 -0.60696578 2 3
-0.83380622 3.7332938 0.46968448 1 11
-2.89291 12.963384 -1.6308557 2 4
-0.83894897 3.7655864 0.61103308 1 12
-0.75227433 3.382112 -0.30312768 28 5
-0.84504485 3.8023255 0.75713015 2 13
-0.82415378 3.7144461 -0.19940001 1 6
-0.84838462 3.8299756 0.90565288 4 14
-0.83963293 3.793602 -0.06782005 2 7
-0.83654159 3.7859061 1.0388998 1 15
-1.2310865 5.6415443 -1.5472202 3 0
-0.82789844 3.8002729 0.067889862 3 8
-0.73776752 3.3893919 -0.80082577 42 1
-0.82066125 3.7765582 0.20254017 1 9
-0.80914098 3.7298086 -0.7418654 3 2
-0.81204516 3.7463601 0.33537531 3 10
-0.80799252 3.7339578 -0.60508859 2 3
-0.81778246 3.7855916 0.47553423 1 11
-0.7991125 3.702297 -0.46505347 2 4
-0.80931097 3.7559032 0.6085301 3 12
-0.73115844 3.3989687 -0.30417353 27 5
-0.81435359 3.788938 0.75331396 2 13
-0.79903996 3.724015 -0.19960935 1 6
-0.81346256 3.7976949 0.8966549 4 14
-0.82819384 3.8697662 -0.069076627 2 7
-0.80484515 3.7670934 1.0321704 1 15
-0.79657376 3.7767491 -1.034241 2 0
-0.79393309 3.7707376 0.067261577 2 8
-0.71248239 3.3868322 -0.79902619 48 1
-0.79099387 3.7665582 0.20170279 2 9
-0.78211975 3.7275443 -0.74033892 3 2
-0.77852041 3.7168362 0.33223769 2 10
-0.78352207 3.747242 -0.60634005 2 3
-0.78387868 3.752207 0.47065943 1 11
-2.7079823 12.985022 -1.628662 2 4
-0.77728122 3.7303834 0.60352427 3 12
-0.70557094 3.3921628 -0.30312768 28 5
-0.7914741 3.8118312 0.7567485 2 13
-0.77286142 3.7254565 -0.19940001 2 6
-0.78759354 3.803144 0.8966549 4 14
-0.77488625 3.7516732 1.0264764 1 15
-1.1493297 5.6390519 -1.5420439 3 0
-0.76651305 3.7641635 0.067052148 2 8
-0.68941402 3.391603 -0.79902619 51 1
-0.76758569 3.7795508 0.20212148 2 9
-0.75867933 3.7424023 -0.74224705 3 2
-0.75912845 3.7513418 0.33485237 2 10
-0.7547375 3.7329941 -0.60321134 2 3
-0.75517654 3.7418897 0.46870953 1 11
-2.6112084 12.950157 -1.622081 2 4
-0.75108993 3.7317147 0.60289848 3 12
-0.68246645 3.3968866 -0.30312768 26 5
-0.76617557 3.8169966 0.7567485 2 13
-0.74474025 3.7169223 -0.19866732 2 6
-0.77000296 3.8465002 0.90565288 4 14
-0.77543873 3.8806815 -0.069076627 2 7
-0.75386596 3.7795956 1.032688 1 15
-0.74985445 3.8079622 -1.039935 3 0
-0.74472827 3.7889156 0.067401193 2 8
-0.66314971 3.3769784 -0.79452711 40 1
-0.73722935 3.7611687 0.20086543 2 9
-0.73168194 3.7397726 -0.74072057 3 2
-0.72975928 3.7368672 0.33310926 2 10
-0.7285555 3.7341671 -0.60258561 2 3
-0.72817278 3.7391491 0.46773461 1 11
-0.72913837 3.7510951 -0.46919701 2 4
-0.7301923 3.7600105 0.60665292 3 12
-0.6585688 3.3975418 -0.30277905 28 5
-0.73727357 3.8106871 0.75445884 2 13
-0.7142269 3.6984987 -0.19741124 2 6
-0.74313241 3.8517818 0.90565288 4 14
-0.72381461 3.7657952 1.0275117 1 15
-1.0685929 5.6391783 -1.5379028 3 0
-0.72056931 3.8098669 0.067680433 3 8
-0.63896763 3.3816376 -0.79452711 39 1
-0.71177673 3.7741985 0.20128411 2 9
-0.70235986 3.7314072 -0.73804927 3 2
-0.69895363 3.720454 0.33119181 2 10
-0.701087 3.7354021 -0.60195988 2 3
-0.70651436 3.7715797 0.47114691 1 11
-0.699359 3.7406063 -0.4672471 2 4
-0.70399296 3.7690227 0.60727865 3 12
-0.6320489 3.3904154 -0.30173317 28 5
-0.7085495 3.8081446 0.75293231 2 13
-0.68956774 3.7133331 -0.1979346 2 6
-0.7063086 3.807184 0.89395547 4 14
-0.69649756 3.7689786 1.026994 1 15
-1.0289047 5.6504812 -1.538938 4 0
-0.68685395 3.7795107 0.067052148 2 8
-0.61614531 3.3937929 -0.79632676 39 1
-0.68261623 3.7674034 0.20065607 2 9
-0.67284572 3.7208822 -0.73499632 3 2
-0.67650485 3.7448497 0.33293492 2 10
-0.67223614 3.7286592 -0.6000827 2 3
-0.68513197 3.8077986 0.47504675 1 11
-0.67182457 3.737582 -0.46627215 2 4
-0.67281896 3.750632 0.60352427 1 12
-0.61047429 3.406512 -0.30277905 28 5
-0.67779875 3.7898078 0.74835294 2 13
-0.65871215 3.6905305 -0.1964692 2 6
-0.67902809 3.8081853 0.89305568 4 14
-0.67579848 3.7977533 -0.067331389 2 7
-0.67118335 3.7794552 1.0285469 1 15
-0.66261649 3.7888112 -1.0306175 3 0
-0.66386491 3.7998574 0.067331389 3 8
-0.59176773 3.3941722 -0.79542696 39 1
-0.65764195 3.775898 0.20086543 2 9
-0.64851147 3.7311788 -0.73614115 3 2
-0.64898247 3.7416289 0.33223769 2 10
-0.64481688 3.7214699 -0.59820545 2 3
-0.64702117 3.7419555 0.46627215 1 11
-2.2335055 12.944074 -1.612819 2 4
-0.64257592 3.7278714 0.59914404 3 12
-0.58329993 3.3910553 -0.30103594 28 5
-0.64866728 3.7789676 0.74529999 2 13
-0.6376285 3.7185507 -0.19772527 1 6
-0.65242356 3.8128333 0.89305568 4 14
-0.63715351 3.7314162 -0.066074811 2 7
-0.63926822 3.7477539 1.0187118 1 15
-0.95761609 5.7041402 -1.5498085 2 0
-0.63335603 3.7807326 0.066912524 2 8
-0.56736404 3.3904335 -0.79362732 40 1
-0.63060719 3.7764571 0.20065607 2 9
-0.62438315 3.7472346 -0.73843086 3 2
-0.62415308 3.7498906 0.33258632 2 10
-0.61882043 3.7258809 -0.59820545 2 3
-0.62023246 3.7424645 0.46578467 1 11
-2.1476157 12.972686 -1.6145252 3 4
-0.61717868 3.7361643 0.59976977 3 12
-0.56058383 3.4009428 -0.30155888 31 5
-0.62292957 3.7832954 0.74529999 2 13
-0.60711944 3.6953199 -0.19625986 1 6
-0.62578911 3.8172951 0.89305568 4 14
-0.60721552 3.708039 -0.065586142 2 7
-0.61495763 3.7635651 1.0218177 2 15
-0.91930294 5.7202229 -1.5523967 3 0
-0.61264694 3.8206024 0.06754081 2 8
-0.54244769 3.386615 -0.79182774 40 1
-0.60296822 3.7728784 0.20023739 1 9
-0.59666157 3.7418084 -0.73652273 3 2
-0.59858727 3.7580912 0.33293492 2 10
-0.59093356 3.718405 -0.59632826 1 3
-0.59657705 3.7623885 0.46773461 1 11
-0.59250456 3.7409251 -0.46505347 4 4
-0.59169692 3.7442846 0.60039556 1 12
-0.5340327 3.3870609 -0.29999006 30 5
-0.59344774 3.7681584 0.74148381 2 13
-0.58688521 3.7349837 -0.19814396 2 6
-0.59791863 3.8138695 0.89125609 4 14
-0.5967806 3.8109694 -0.067331389 2 7
-0.58956438 3.7734923 1.0233705 1 15
-0.58027047 3.7788417 -1.0244058 3 0
-0.58414048 3.8129272 0.067331389 2 8
-0.51938254 3.394172 -0.79272753 45 1
-0.57661206 3.7769964 0.20023739 2 9
-0.57111543 3.7497642 -0.73728597 3 2
-0.57113594 3.7543001 0.33223769 2 10
-1.5769076 10.390021 -1.6644629 2 3
-0.56851482 3.7546849 0.46627215 1 11
-0.5684514 3.7587097 -0.46675962 2 4
-0.56377602 3.7366042 0.59851831 3 12
-0.51245141 3.4004679 -0.30086163 24 5
-0.5717985 3.8032725 0.74758971 2 13
-0.55842763 3.7231882 -0.19730657 2 6
-0.56155252 3.7484705 0.8750596 4 14
-0.58494097 3.913929 -0.069076627 2 7
-0.56035727 3.758409 1.0181942 1 15
-0.55303532 3.7770662 -1.0228529 2 0
-0.55180895 3.7732842 0.06656348 2 8
-0.49567407 3.3977151 -0.79272753 45 1
-0.54973936 3.7729278 0.1998187 2 9
-0.54445058 3.7457936 -0.7357595 3 2
-0.54920042 3.7877724 0.33485237 2 10
-1.4585906 10.072077 -1.6119009 2 3
-0.54180717 3.7506092 0.46529719 1 11
-0.54021668 3.7488332 -0.46505347 4 4
-0.53720123 3.7325342 0.59726685 3 12
-0.48756826 3.3960736 -0.30016437 24 5
-0.54690081 3.8188326 0.74987942 2 13
-0.53024548 3.7071314 -0.19625986 2 6
-0.54472643 3.8178928 0.89035624 4 14
-0.53956974 3.7912135 -0.06684272 2 7
-0.53612089 3.7716992 1.0207824 2 15
-0.79870814 5.7266011 -1.5492908 3 0
-0.52655524 3.7849674 0.066703096 2 8
-0.47307143 3.4048707 -0.79362732 42 1
-0.52119261 3.7608471 0.19898133 1 9
-0.51532793 3.728111 -0.73156172 3 2
-0.51441556 3.7262914 0.32910007 2 10
-1.4221853 10.328585 -1.6513225 2 3
-0.51669198 3.7621665 0.46627215 1 11
-0.5105294 3.7269456 -0.46188486 2 4
-0.50845444 3.7166221 0.59413815 3 12
-0.46250054 3.3895245 -0.29929283 30 5
-0.51440257 3.7797604 0.74148381 2 13
-0.50327593 3.7028265 -0.19584116 2 6
-0.51858276 3.8254647 0.89125609 4 14
-0.50874233 3.7676921 1.0187118 2 15
-0.49948546 3.7786741 -1.0213 3 0
-0.49750128 3.7687261 0.066354051 1 8
-0.44716847 3.3965764 -0.79092795 45 1
-0.49582732 3.7763617 0.19960935 3 9
-0.48980054 3.7355108 -0.73232496 3 2
-0.4877376 3.7298772 0.32910007 2 10
-0.48585656 3.72562 -0.5950768 1 3
-0.48887634 3.753871 0.46480972 3 11
-0.4865416 3.7461677 -0.46383476 2 4
-0.4823516 3.7240837 0.59476393 3 12
-0.4406133 3.4065022 -0.300513 31 5
-0.48900697 3.791048 0.74301028 2 13
-0.47727591 3.710295 -0.19605052 2 6
-0.48391813 3.7671404 0.87685925 4 14
-0.48397157 3.7884829 1.0233705 1 15
-0.4716545 3.7705677 -1.0181942 3 0
-0.47052017 3.7721896 0.066354051 1 8
-0.42248151 3.3918803 -0.7891283 54 1
-0.47437471 3.8193717 0.20170279 3 9
-0.46402249 3.7467136 -0.73385143 3 2
-0.4626644 3.7411003 0.32979733 1 10
-0.45790085 3.7132368 -0.59257382 1 3
-0.46297082 3.7651546 0.46578467 3 11
-0.45602196 3.7140079 -0.45944747 2 4
-0.45490232 3.7155955 0.59288669 3 12
-0.41464472 3.3916962 -0.29894418 28 5
-0.46015474 3.7748809 0.7391941 2 13
-0.45280564 3.7254326 -0.19667853 1 6
-0.46277392 3.8129866 0.88675708 4 14
-0.4634169 3.8294749 -0.067331389 2 7
-0.45658553 3.7840974 1.0213 1 15
-0.66990352 5.67696 -1.5316912 4 0
-0.45138472 3.8309119 0.067331389 2 8
-0.39970088 3.4024887 -0.79092795 42 1
-0.44231647 3.7709372 0.19898133 2 9
-0.43782452 3.7439353 -0.73270655 3 2
-0.43745649 3.7521558 0.33049458 2 10
-0.43581462 3.7437375 -0.59695399 1 3
-0.43595654 3.7563877 0.46432224 1 11
-0.43190923 3.7328761 -0.46139738 2 4
-0.43299919 3.7480412 0.59757972 3 12
-0.3918696 3.4024255 -0.29964143 28 5
-0.43826887 3.8170102 0.74682647 2 13
-0.42652875 3.7204914 -0.19625986 1 6
-0.43835577 3.8354859 0.89125609 4 14
-0.42798048 3.7621641 1.0145707 2 15
-0.6333794 5.7005887 -1.5368675 4 0
-0.42022628 3.7942185 0.066633284 2 8
-0.37653157 3.4051306 -0.79092795 45 1
-0.41422904 3.7580514 0.19814396 2 9
-0.41060594 3.7371428 -0.73079848 5 2
-0.41234249 3.7590072 0.33084321 2 10
-0.40709305 3.7231245 -0.59319955 1 3
-0.4105835 3.7672329 0.46529719 1 11
-0.4024086 3.6982343 -0.45676634 2 4
-0.40192524 3.7058036 0.59038377 3 12
-0.36827031 3.4010527 -0.29929283 30 5
-0.40932778 3.7925782 0.74148381 2 13
-0.40268067 3.7432363 -0.19730657 1 6
-0.40474677 3.7686272 0.8750596 4 14
-0.40006384 3.7496932 1.0104296 2 15
-0.39444473 3.7910786 -1.0213 3 0
-0.39521649 3.8049471 0.066772908 1 8
-0.35234877 3.4037995 -0.7900281 45 1
-0.38781792 3.7528369 0.19772527 3 9
-0.38576007 3.7457101 -0.73194337 4 2
-0.38670164 3.76774 0.33136615 2 10
-0.38173926 3.7258096 -0.59319955 1 3
-0.38291657 3.7501919 0.46285981 3 11
-0.37999815 3.7345262 -0.46090987 2 4
-0.38168189 3.757585 0.59820545 3 12
-0.34331521 3.3916469 -0.29824695 30 5
-0.38165838 3.7836235 0.7391941 2 13
-0.37479067 3.7220445 -0.19605052 2 6
-0.37842694 3.7713611 0.8750596 4 14
-0.37383822 3.7387846 -0.065586142 2 7
-0.37664354 3.7734745 1.0161237 1 15
-0.36676392 3.7744474 -1.0161237 3 0
-0.36633086 3.7837288 0.066354051 2 8
-0.32879835 3.4022393 -0.7891283 48 1
-0.36582017 3.7991905 0.20002805 3 9
-0.35810256 3.7326777 -0.72889042 4 2
-0.35819578 3.7405353 0.32875144 2 10
-0.35534543 3.7244503 -0.59257382 2 3
-0.35785127 3.7646313 0.46432224 1 11
-0.35194418 3.7093596 -0.45749757 2 4
-0.354882 3.7542584 0.59726685 1 12
-0.31850785 3.3820593 -0.29720107 30 5
-0.35736507 3.8017707 0.74224705 2 13
-0.34842432 3.7205927 -0.19584116 2 6
-0.36077774 3.8670464 0.8966549 4 14
-0.3483822 3.7412424 -0.065586142 2 7
-0.35029054 3.7760119 1.0161237 1 15
-0.34126961 3.7865365 -1.0187118 2 0
-0.33812025 3.7662768 0.066004999 2 8
-0.3050366 3.4044521 -0.7891283 42 1
-0.33680403 3.7738008 0.19856264 2 9
-0.33168715 3.7311757 -0.72812718 3 2
-0.33383396 3.7627909 0.33049458 2 10
-0.91045356 10.302923 -1.6381818 2 3
-0.33156046 3.7670379 0.46432224 1 11
-0.3243041 3.6919513 -0.45506018 2 4
-0.32453173 3.7094162 0.58975804 3 12
-0.29488882 3.3842006 -0.29720107 28 5
-0.33319619 3.8315551 0.74758971 2 13
-0.32313052 3.7308939 -0.19625986 2 6
-0.32874769 3.8112249 0.88315785 4 14
-0.32225493 3.7435834 -0.065586142 2 7
-0.32210535 3.7571929 1.0104296 1 15
-0.31578794 3.8003778 -1.0218177 2 0
-0.31181845 3.7685456 0.066004999 2 8
-0.28094092 3.4026146 -0.78822851 51 1
-0.30979514 3.7680979 0.19814396 3 9
-0.30434731 3.7177467 -0.72507423 3 2
-0.30496296 3.7332573 0.32770559 2 10
-0.83945942 10.320842 -1.6400591 2 3
-0.30365112 3.7494745 0.46188486 1 11
-0.29580158 3.6604886 -0.45091662 3 4
-0.29862723 3.7115912 0.58975804 3 12
-0.27268896 3.4040511 -0.29876989 31 5
-0.30237168 3.7829056 0.73766762 2 13
-0.29676101 3.7290769 -0.19605052 2 6
-0.300901 3.7978857 0.87955862 4 14
-0.30178699 3.8175068 -0.06684272 2 7
-0.29692832 3.772831 1.0140531 1 15
-0.28734374 3.7774482 -1.0150883 3 0
-0.28761515 3.7985468 0.066493668 2 8
-0.25718096 3.4044929 -0.78822851 36 1
-0.28288227 3.7622023 0.19772527 3 9
-0.27897123 3.727612 -0.72660065 4 2
-0.27978253 3.7472162 0.32875144 2 10
-0.27638775 3.7192562 -0.59069663 1 3
-0.27776209 3.7554622 0.46237233 1 11
-0.27286869 3.6980994 -0.45530388 3 4
-0.27386731 3.7293463 0.59226096 1 12
-0.24935162 3.4118333 -0.29929283 28 5
-0.27824065 3.8162532 0.74377352 2 13
-0.27158532 3.7430098 -0.19667853 2 6
-0.27550223 3.8154433 0.88315785 4 14
-0.27282786 3.7876084 -0.066284239 2 7
-0.26961493 3.7613239 1.0104296 1 15
-0.26162297 3.7793167 -1.0150883 3 0
-0.26202738 3.8044066 0.06656348 3 8
-0.23453391 3.4139411 -0.7900281 39 1
-0.25862911 3.7839668 0.19877198 3 9
-0.25292745 3.7196305 -0.72469258 3 2
-0.25507843 3.7609608 0.32979733 2 10
-0.25159881 3.7289345 -0.59194809 1 3
-0.25325474 3.7731113 0.46432224 1 11
-0.24464218 3.6543157 -0.44969791 2 4
-0.2487368 3.7350659 0.59288669 3 12
-0.22480683 3.3935711 -0.29754972 28 5
-0.25199702 3.8141408 0.74301028 2 13
-0.24636488 3.7487576 -0.19688788 2 6
-0.24723864 3.7822275 0.8750596 4 14
-0.24444008 3.7494683 -0.065586142 2 7
-0.24488112 3.7765665 1.0140531 1 15
-0.23499385 3.7771945 -1.0140531 4 0
-0.23397955 3.7821925 0.066144623 3 8
-0.21021609 3.4077151 -0.78822851 42 1
-0.23245031 3.7896674 0.19898133 3 9
-0.228029 3.7389424 -0.72812718 3 2
-0.22857389 3.7586725 0.3294487 1 10
-0.22460428 3.7148259 -0.58944511 1 3
-0.22643264 3.7668612 0.46334729 1 11
-0.21876626 3.6499901 -0.44896671 3 4
-0.22336183 3.7485425 0.59476393 3 12
-0.20110977 3.3950577 -0.29754972 30 5
-0.22744851 3.8510842 0.74987942 2 13
-0.21761231 3.7065222 -0.1945851 2 6
-0.22286952 3.8188791 0.88315785 4 14
-0.21825789 3.7510836 -0.065586142 2 7
-0.21873282 3.7820415 1.0150883 1 15
-0.31894431 5.7770982 -1.5503261 3 0
-0.20756917 3.7837338 0.066144623 2 8
-0.18642063 3.4090996 -0.78822851 45 1
-0.20490418 3.7712545 0.1979346 3 9
-0.20149739 3.7326016 -0.72660065 3 2
-0.20254193 3.7641556 0.32979733 2 10
-0.55107731 10.3086 -1.6350533 2 3
-0.19991891 3.7643852 0.46285981 1 11
-0.68886507 13.013913 -1.6001446 2 4
-0.19697917 3.7460651 0.59413815 3 12
-0.17729896 3.3943894 -0.29737538 24 5
-0.19729125 3.789839 0.73766762 2 13
-0.19317274 3.7358756 -0.19605052 1 6
-0.19440597 3.785311 0.8750596 4 14
-0.19717409 3.8523703 -0.067331389 2 7
-0.19173722 3.7718999 1.0119824 1 15
-0.18316288 3.7994037 -1.0192294 3 0
-0.18210641 3.8050647 0.066493668 3 8
-0.16243047 3.406425 -0.78732872 42 1
-0.17857087 3.772593 0.1979346 3 9
-0.17442046 3.7123456 -0.72240293 3 2
-0.17551297 3.7495563 0.32840282 2 10
-0.47854623 10.300357 -1.633176 2 3
-0.17271934 3.7458599 0.4604224 1 11
-0.16395874 3.5694025 -0.43872967 3 4
-0.17010227 3.7315624 0.59163523 3 12
-0.1540475 3.4054961 -0.29824695 26 5
-0.17294937 3.8381944 0.74682647 2 13
-0.16583957 3.7091992 -0.1945851 2 6
-0.16693844 3.7632139 0.86966079 4 14
-0.16539973 3.7731466 1.0119824 1 15
-0.15488528 3.7581251 -1.0078415 4 0
-0.15586238 3.8142354 0.066633284 2 8
-0.1389637 3.4152644 -0.7891283 48 1
-0.15271187 3.7857215 0.19856264 3 9
-0.1490483 3.7272043 -0.72507423 3 2
-0.14972816 3.7606442 0.32927439 2 10
-0.40709192 10.315289 -1.6350533 2 3
-0.1478073 3.7787113 0.46432224 1 11
-0.14027148 3.6021976 -0.44262949 3 4
-0.14328517 3.71292 0.58850652 3 12
-0.13011664 3.4025068 -0.29789832 26 5
-0.14525335 3.8157663 0.74224705 2 13
-0.14129542 3.7461915 -0.1964692 2 6
-0.14284524 3.8227091 0.88315785 4 14
-0.13884078 3.7684178 1.0104296 1 15
-0.12903948 3.770699 -1.0109472 4 0
-0.12841786 3.7912483 0.066214427 1 8
-0.11511564 3.4161515 -0.7891283 42 1
-0.12574629 3.7707262 0.19772527 2 9
-0.12296089 3.7261918 -0.72469258 3 2
-0.122882 3.7436762 0.32770559 2 10
-0.33532906 10.325777 -1.6363046 2 3
-0.12116657 3.7717149 0.46334729 1 11
-0.11474135 3.5911846 -0.44116706 3 4
-0.11873323 3.7572665 0.59538966 3 12
-0.10635948 3.4033322 -0.29789832 30 5
-0.11934253 3.840235 0.74682647 2 13
-0.11489326 3.7391016 -0.19605052 1 6
-0.11438087 3.765178 0.86966079 4 14
-0.11229649 3.7615712 1.0083591 1 15
-0.10239635 3.7599213 -1.0078415 3 0
-0.10173368 3.7840564 0.066074811 2 8
-0.0912636 3.4168718 -0.7891283 42 1
-0.10015722 3.7994642 0.19919068 2 9
-0.097199418 3.7367725 -0.72660065 4 2
-0.096539162 3.7364757 0.32700834 2 10
-0.26202053 10.280473 -1.6287959 2 3
-0.094931856 3.776438 0.46383476 3 11
-0.088575795 3.5482399 -0.43580481 3 4
-0.092694111 3.765903 0.59664112 3 12
-0.082405448 3.3960245 -0.29720107 26 5
-0.090733029 3.7663927 0.73232496 2 13
-0.088693574 3.7358191 -0.19584116 1 6
-0.090460129 3.8671916 0.89305568 4 14
-0.088885702 3.8283854 -0.06684272 2 7
-0.086255655 3.7719202 1.0109472 1 15
-0.076772206 3.7914479 -1.0161237 3 0
-0.075631782 3.8006687 0.066354051 1 8
-0.067178153 3.4057353 -0.78642887 45 1
-0.07301046 3.7681208 0.19751592 2 9
-0.071107686 3.73736 -0.72660065 3 2
-0.070601515 3.7450271 0.32770559 2 10
-0.18936588 10.234651 -1.621287 2 3
-0.068494774 3.7730389 0.46334729 1 11
-0.062160809 3.4574721 -0.42459282 6 4
-0.066124119 3.7506576 0.59413815 3 12
-0.05897012 3.4124537 -0.29859558 26 5
-0.064908348 3.7944157 0.73766762 2 13
-0.062341001 3.7203712 -0.19500379 1 6
-0.0624368 3.8053775 0.87865883 4 14
-0.059859227 3.7685673 1.009912 1 15
-0.050096042 3.7764378 -1.0119824 3 0
-0.049096268 3.8011041 0.066354051 1 8
-0.043449663 3.4100187 -0.78732872 42 1
-0.04694793 3.7885096 0.19856264 2 9
-0.044921465 3.7299128 -0.72507423 3 2
-0.044358205 3.7374594 0.32700834 2 10
-0.043370444 3.7648184 -0.59632826 1 3
-0.042241026 3.7813649 0.46432224 1 11
-0.038306989 3.4836266 -0.42776144 5 4
-0.04023242 3.7786818 0.59851831 1 12
-0.03561569 3.4008226 -0.29754972 30 5
-0.038178261 3.7712185 0.7330882 2 13
-0.036405433 3.7247105 -0.19521314 1 6
-0.036347669 3.7862277 0.87415981 4 14
-0.033653188 3.780484 1.0130178 1 15
-0.023706039 3.7728319 -1.0109472 4 0
-0.023197351 3.7973509 0.066284239 1 8
-0.019642184 3.410239 -0.78732872 40 1
-0.021094099 3.776758 0.1979346 3 9
-0.019264385 3.6790881 -0.71515214 3 2
-0.018451527 3.7755332 0.33032027 2 10
-0.017687228 3.7531743 -0.59445107 2 3
-0.016345143 3.7458336 0.45993495 1 11
-0.013842314 3.4480779 -0.42337415 5 4
-0.014359058 3.7393608 0.59226096 1 12
-0.011893467 3.4069653 -0.29807264 24 5
-0.011921469 3.7949519 0.73766762 2 13
-0.011171546 3.7648168 -0.19730657 1 6
-0.0099529354 3.8019793 0.87775904 4 14
-0.007937842 3.7902849 1.015606 1 15
0.0019794607 3.7806334 -1.0130178 4 0
0.0033346605 3.8214169 0.066703096 1 8
0.0035792401 3.4180884 -0.7891283 40 1
0.0052731568 3.7768133 0.1979346 1 9
0.0064963419 3.7223248 -0.72354776 3 2
0.0072290683 3.7656093 0.3294487 2 10
0.0085153012 3.7532065 -0.59445107 2 3
0.0098580709 3.7657073 0.46237233 1 11
0.0096228318 3.4461069 -0.42313039 7 4
0.011784184 3.7512219 0.59413815 1 12
0.011277513 3.4009905 -0.29754972 27 5
0.01390847 3.7949452 0.73766762 2 13
0.01514417 3.7727921 -0.19772527 1 6
0.015908461 3.7980614 0.87685925 4 14
0.017503314 3.857373 -0.067331389 2 7
0.018410234 3.767066 1.0093943 1 15
0.028315214 3.7728002 -1.0109472 3 0
0.029161917 3.7973096 0.066284239 1 8
0.027504491 3.4257751 -0.79092795 33 1
0.031210406 3.8046508 0.19940001 2 9
0.031698987 3.7064888 -0.72049481 3 2
0.033445071 3.7574975 0.32875144 2 10
0.034169987 3.7649133 -0.59632826 2 3
0.03578959 3.7973132 0.46627215 1 11
0.033622757 3.4400008 -0.42239916 9 4
0.037122991 3.7313023 0.5910095 1 12
0.035020627 3.4008288 -0.29754972 28 5
0.040401842 3.7947557 0.73766762 2 13
0.040824451 3.7726016 -0.19772527 1 6
0.042423539 3.7978578 0.87685925 4 14
0.044094849 3.7707169 1.0104296 1 15
0.053663477 3.7493401 -1.0047356 4 0
0.055085104 3.757024 0.065586142 1 8
0.050648957 3.4138172 -0.78822851 34 1
0.057346549 3.7763815 0.1979346 2 9
0.057633601 3.710103 -0.72125804 4 2
0.058897439 3.7492146 0.32805422 2 10
0.060705137 3.7803836 -0.59883118 2 3
0.061908167 3.7731528 0.46334729 1 11
0.057068639 3.4416771 -0.42264292 11 4
0.063504107 3.7507031 0.59413815 1 12
0.059106279 3.4204223 -0.29929283 27 5
0.066368096 3.8022447 0.7391941 2 13
0.067161188 3.7722247 -0.19772527 1 6
0.069787264 3.8442309 0.88765687 4 14
0.070564441 3.778043 1.0125002 1 15
0.080166563 3.7643256 -1.0088767 4 0
0.082089864 3.7925341 0.066214427 2 8
0.07448066 3.4133804 -0.78822851 40 1
0.083530404 3.7679021 0.19751592 2 9
0.084242545 3.7410145 -0.72736394 3 2
0.08552067 3.7686307 0.32979733 2 10
0.087006502 3.775918 -0.59820545 2 3
0.089083835 3.8083508 0.46773461 1 11
0.080909252 3.4332566 -0.42166796 11 4
0.08949849 3.742269 0.59288669 3 12
0.082692273 3.4079752 -0.29824695 30 5
0.093678616 3.8330915 0.74529999 2 13
0.093492836 3.7716639 -0.19772527 1 6
0.094760597 3.7696216 0.87056059 4 14
0.095079795 3.7562249 -0.065586142 2 7
0.097580895 3.8025644 1.0192294 1 15
0.10687967 3.7791228 -1.0130178 4 0
0.10959488 3.8278484 0.06684272 2 8
0.098531552 3.4205689 -0.7900281 40 1
0.10983328 3.7672272 0.19751592 2 9
0.109026 3.6952 -0.71858674 3 2
0.11123753 3.7480268 0.32805422 2 10
0.11372101 3.7870657 -0.6000827 2 3
0.1143411 3.7639837 0.46237233 1 11
0.10475468 3.4286397 -0.42118049 13 4
0.11525441 3.7297063 0.5910095 3 12
0.10648403 3.407315 -0.29824695 28 5
0.12006635 3.82057 0.74301028 2 13
0.11893548 3.7429717 -0.19625986 1 6
0.12232663 3.8078225 0.87955862 4 14
0.12130087 3.7554693 -0.065586142 2 7
0.12324286 3.7747588 1.0119824 1 15
0.13366888 3.7898684 -1.0161237 3 0
0.13460903 3.7790275 0.066004999 2 8
0.12240922 3.4197979 -0.7900281 45 1
0.13685404 3.7863281 0.19856264 3 9
0.13510533 3.7021968 -0.72011316 3 2
0.13798684 3.763087 0.3294487 1 10
0.14030129 3.7901275 -0.60070843 2 3
0.14031936 3.7551591 0.46139738 1 11
0.12846349 3.4218738 -0.42044926 16 4
0.14203782 3.7485504 0.59413815 1 12
0.13095421 3.424407 -0.29981574 49 5
0.14733712 3.8353333 0.74606317 2 13
0.14506346 3.7420502 -0.19625986 1 6
0.1495166 3.822454 0.88315785 4 14
0.14974567 3.777667 1.0130178 1 15
0.15930817 3.7695415 -1.0109472 3 0
0.1611568 3.7819917 0.066074811 2 8
0.14644754 3.4227538 -0.79092795 40 1
0.16328244 3.7852805 0.19856264 2 9
0.16128941 3.7090087 -0.72163963 3 2
0.16321011 3.7381463 0.32735696 1 10
0.16641054 3.781162 -0.59945697 2 3
0.16688558 3.7620203 0.46237233 1 11
0.1520846 3.4149444 -0.41971806 19 4
0.16820596 3.7474673 0.59413815 1 12
0.15354131 3.4075134 -0.29842126 53 5
0.17322044 3.814599 0.74224705 2 13
0.17209734 3.7608979 -0.19730657 2 6
0.17338574 3.7746272 0.87236023 4 14
0.17372401 3.7534096 -0.065586142 2 7
0.17638327 3.7823186 1.0145707 1 15
0.18581076 3.7721965 -1.0119824 3 0
0.18610649 3.7648289 0.065795571 2 8
0.17014551 3.4177554 -0.7900281 42 1
0.19004084 3.804029 0.19960935 2 9
0.187619 3.7293935 -0.72583747 2 2
0.19051293 3.7607939 0.3294487 1 10
0.19214608 3.7799416 -0.59945697 2 3
0.19187841 3.7489023 0.46090987 1 11
0.17633034 3.4217291 -0.42069301 18 4
0.19554463 3.7817452 0.59976977 1 12
0.1773265 3.4063585 -0.29842126 52 5
0.20087464 3.8329022 0.74606317 2 13
0.19580348 3.7237384 -0.19542249 1 6
0.20274524 3.7926052 1.0176765 1 15
0.21278113 3.7939904 -1.0181942 3 0
0.21508768 3.8113544 0.066633284 2 8
0.19362581 3.4204094 -0.79092795 37 1
0.21636437 3.7986217 0.19940001 3 9
0.2135364 3.7260327 -0.72545588 3 2
0.21450844 3.7315621 0.32700834 2 10
0.21852857 3.7785082 -0.59945697 2 3
0.21781541 3.7435081 0.4604224 1 11
0.19973293 3.4224312 -0.42093676 20 4
0.22170988 3.7763441 0.59914404 1 12
0.2020444 3.4209485 -0.29981574 50 5
0.22510049 3.8000891 0.73995733 2 13
0.22250986 3.7342429 -0.19605052 2 6
0.22886765 3.8185244 0.88315785 4 14
0.2254587 3.7506576 -0.065586142 2 7
0.22863293 3.7814558 1.0150883 1 15
0.22077227 3.4993534 -0.93951315 5 0
0.24042647 3.789803 0.066284239 2 8
0.2173747 3.4170294 -0.79047799 15 1
0.24313527 3.8010049 0.19960935 2 9
0.22139846 3.4423256 -0.67050284 5 2
0.24183491 3.7498565 0.32875144 2 10
0.22036086 3.3984129 -0.53938609 11 3
0.24394293 3.7418964 0.4604224 1 11
0.21908912 3.3516231 -0.41240588 18 4
0.24444121 3.7195125 0.59038377 3 12
0.22473843 3.4015625 -0.29824695 15 5
0.2526646 3.8140967 0.74301028 2 13
0.22017187 3.3061297 -0.17365071 40 6
0.25552037 3.8168337 0.88315785 4 14
0.25645709 3.8208199 -0.06684272 2 7
0.25450668 3.7720575 1.0130178 1 15
0.26772162 3.8000007 0.066493668 2 8
0.23463626 3.3221214 -0.76888269 36 1
0.26627156 3.7514009 0.19709724 2 9
0.236763 3.3192828 -0.64684254 40 2
0.26829219 3.7520516 0.32910007 2 10
0.270634 3.7480216 0.46139738 1 11
0.23846982 3.2945743 -0.40558121 31 4
0.27097553 3.725596 0.59163523 3 12
0.24194695 3.3184822 -0.29110017 50 5
0.28071848 3.83182 0.74682647 2 13
0.24412738 3.3164632 -0.17427875 38 6
0.28149489 3.815006 0.88315785 4 14
0.28726488 3.8747745 -0.06782005 2 7
0.28198245 3.7856011 1.0171589 1 15
0.25980735 3.3688052 -0.90534908 45 0
0.29357946 3.7980905 0.066493668 2 8
0.25812504 3.3242881 -0.76978248 50 1
0.29520789 3.7933087 0.19940001 2 9
0.26210698 3.3528252 -0.65371162 45 2
0.29603964 3.7699499 0.33084321 2 10
0.26270187 3.3379421 -0.5303129 55 3
0.29864275 3.7777553 0.46529719 1 11
0.26319292 3.3145967 -0.40826234 50 4
0.29695547 3.7315419 0.59288669 3 12
0.26383844 3.3008237 -0.28970569 53 5
0.30683434 3.821939 0.74529999 2 13
0.26861835 3.3386147 -0.17553481 47 6
0.30498251 3.7740996 0.87415981 4 14
0.3120442 3.8447707 -0.067331389 2 7
0.30696064 3.7739661 1.0145707 1 15
0.2817606 3.3554082 -0.9022432 53 0
0.32042584 3.7999337 0.06656348 2 8
0.28090933 3.3243961 -0.77023244 54 1
0.3220225 3.7951355 0.19960935 2 9
0.28384101 3.331352 -0.64989549 42 2
0.32033813 3.751966 0.3294487 2 10
0.28380522 3.3104405 -0.52624559 45 3
0.32330489 3.7558007 0.46285981 1 11
0.28643098 3.3206396 -0.4092373 49 4
0.32879275 3.7962904 0.60352427 1 12
0.28767848 3.3148308 -0.29110017 53 5
0.33215889 3.8119388 0.74377352 2 13
0.29157159 3.3326788 -0.17532547 68 6
0.33406681 3.8107622 0.88315785 4 14
0.33466083 3.7871263 1.0187118 1 15
0.30570415 3.3591311 -0.90379614 56 0
0.34519249 3.7857158 0.066354051 2 8
0.30517694 3.3339977 -0.77293181 60 1
0.34565711 3.7689888 0.19835329 1 9
0.30722865 3.3371632 -0.65142196 49 2
0.34615731 3.7456703 0.32910007 2 10
0.30687851 3.314333 -0.52718419 37 3
0.3492316 3.7574661 0.46334729 1 11
0.31550559 3.3818073 -0.41703692 21 4
0.34617087 3.7034912 0.58913231 1 12
0.31713969 3.380187 -0.29702678 49 5
0.36060572 3.8290727 0.74758971 2 13
0.3639718 3.8432579 0.89125609 4 14
0.3650254 3.8401029 -0.067331389 2 7
0.35933244 3.773222 1.015606 1 15
0.37161335 3.7832136 0.066354051 1 8
0.33626071 3.4171755 -0.79272753 40 1
0.37431657 3.7903349 0.19960935 2 9
0.3732183 3.7590888 0.33049458 1 10
0.37466335 3.7470357 0.46237233 1 11
0.3430697 3.4250109 -0.42264292 18 4
0.37162074 3.6970532 0.58850652 1 12
0.34472927 3.417537 -0.300513 50 5
0.38547501 3.81481 0.74529999 2 13
0.3804113 3.7515879 -0.1976206 2 6
0.38566488 3.7902162 0.87955862 4 14
0.38101691 3.7380598 -0.065586142 2 7
0.38861424 3.7994485 1.0233705 1 15
0.39614004 3.7753627 -1.0171589 3 0
0.39759555 3.7765498 0.066284239 2 8
0.36051762 3.4186208 -0.79362732 45 1
0.39740828 3.7558506 0.1979346 4 9
0.39296532 3.7015297 -0.72354776 2 2
0.39819026 3.744504 0.3294487 1 10
0.40656266 3.8106039 -0.60696578 1 3
0.40250376 3.7601192 0.46432224 1 11
0.36697081 3.4225328 -0.42264292 16 4
0.4046056 3.7611465 0.59914404 3 12
0.36943659 3.4229705 -0.30121022 49 5
0.41420808 3.8315444 0.74911612 2 13
0.40616235 3.7448692 -0.19741124 2 6
0.42012477 3.8610497 0.8966549 4 14
0.41187075 3.779043 -0.066354051 2 7
0.41365826 3.7832003 1.0197471 1 15
0.42119554 3.7609859 -1.0140531 3 0
0.42752498 3.8054771 0.06684272 2 8
0.3843753 3.4160204 -0.79362732 48 1
0.42764992 3.7887084 0.1998187 4 9
0.42056435 3.7143023 -0.72660065 2 2
0.42476934 3.7455924 0.32979733 1 10
0.4282437 3.764493 -0.6000827 2 3
0.42784429 3.7493284 0.46334729 1 11
0.39175728 3.4277763 -0.42361787 16 4
0.42770544 3.7307546 0.59476393 3 12
0.39136225 3.4085004 -0.30016437 46 5
0.43690571 3.7934527 0.74224705 2 13
0.43321165 3.7498789 -0.19782993 2 6
0.4508779 3.8968165 0.90565288 4 14
0.43593624 3.7562118 -0.066004999 2 7
0.43894297 3.7706258 1.0171589 1 15
0.4510982 3.7886465 -1.0223353 3 0
0.45152402 3.7865939 0.06656348 3 8
0.40775144 3.409384 -0.79272753 45 1
0.45129129 3.7678621 0.19887665 4 9
0.4453688 3.7074552 -0.72583747 2 2
0.45090815 3.7425356 0.32979733 2 10
0.45764402 3.7928691 -0.60508859 2 3
0.45526314 3.762095 0.46529719 1 11
0.41711316 3.4367816 -0.4250803 16 4
0.45833176 3.7708979 0.60164702 1 12
0.41659504 3.4175515 -0.30121022 44 5
0.46337655 3.7903104 0.74224705 2 13
0.46042526 3.7607203 -0.19856264 2 6
0.4661954 3.7968633 0.88315785 4 14
0.46696308 3.7867241 1.0223353 1 15
0.73378581 5.8248596 -1.5731021 3 0
0.47995162 3.7992213 0.06684272 2 8
0.43192732 3.4142628 -0.79452711 37 1
0.47682902 3.7586756 0.19856264 4 9
0.47124085 3.7042553 -0.72583747 2 2
0.4773778 3.7472858 0.33049458 2 10
0.48511332 3.7974193 -0.60634005 2 3
0.48252538 3.766701 0.46627215 1 11
0.43797117 3.4141731 -0.42264292 14 4
0.48061404 3.7362585 0.59664112 1 12
0.4409537 3.4185121 -0.30155888 27 5
0.49042314 3.7968037 0.74415511 2 13
0.48256403 3.725723 -0.19688788 2 6
0.49520102 3.8128412 0.88765687 4 14
0.49113965 3.7661307 1.0176765 1 15
0.76933378 5.7812958 -1.5627494 3 0
0.50699425 3.7997417 0.066912524 2 8
0.45678347 3.418891 -0.79632676 39 1
0.50173378 3.7453573 0.19803928 5 9
0.49656725 3.6969836 -0.72507423 2 2
0.50671583 3.7675567 0.33258632 2 10
0.51214045 3.7978556 -0.60696578 1 3
0.51040423 3.7750442 0.46773461 1 11
0.46339387 3.4228356 -0.42410538 15 4
0.50668454 3.7328124 0.59664112 3 12
0.46588331 3.4232469 -0.30225611 24 5
0.52009714 3.8166311 0.74873453 2 13
0.50802201 3.7183053 -0.19667853 2 6
0.52498132 3.8324599 0.89305568 4 14
0.51059079 3.7225745 -0.065586142 2 7
0.51978886 3.7798347 1.0223353 1 15
0.5296821 3.7784612 -1.0223353 3 0
0.53573549 3.8119516 0.067191765 2 8
0.48064074 3.4156184 -0.79632676 37 1
0.53540212 3.7951605 0.20086543 2 9
0.52786177 3.7323055 -0.73270655 2 2
0.53244722 3.7599821 0.33223769 2 10
0.53697437 3.7824533 -0.60508859 1 3
0.53562951 3.7635274 0.46675962 1 11
0.48895708 3.4313085 -0.42556778 16 4
0.53161645 3.7213619 0.59538966 1 12
0.48920584 3.4159665 -0.30190748 23 5
0.54505938 3.8012464 0.74644482 2 13
0.53510499 3.7225761 -0.19709724 2 6
0.55950481 3.8827083 0.90565288 4 14
0.54342026 3.7664201 -0.066423863 2 7
0.54422688 3.7627306 1.0187118 1 15
0.55323416 3.7555587 -1.0171589 3 0
0.56058037 3.7962492 0.066982336 2 8
0.50504619 3.4160349 -0.79722655 40 1
0.56129682 3.787379 0.20065607 2 9
0.55448228 3.7324133 -0.73346978 2 2
0.55223352 3.7128179 0.32840282 2 10
0.56511551 3.7903349 -0.60696578 2 3
0.56071717 3.751843 0.46578467 1 11
0.51348776 3.4317377 -0.42605525 16 4
0.56695962 3.7800725 0.60540146 1 12
0.51363266 3.4164085 -0.30225611 23 5
0.5733372 3.8089972 0.74873453 2 13
0.56525022 3.7463984 -0.19856264 2 6
0.57202911 3.7823658 0.88315785 4 14
0.57454252 3.785579 1.0259588 1 15
0.88729149 5.7448239 -1.5575731 4 0
0.58676362 3.7902672 0.06694743 3 8
0.52888066 3.412426 -0.79722655 37 1
0.59262943 3.8149455 0.20233083 3 9
0.58233994 3.7400901 -0.7357595 2 2
0.57936788 3.7167466 0.32910007 2 10
0.59278482 3.7941041 -0.6082173 2 3
0.58382344 3.7282255 0.46334729 1 11
0.53743488 3.4280689 -0.42605525 16 4
0.59762669 3.8033428 0.60978162 1 12
0.53966373 3.4305468 -0.3038249 26 5
0.60358238 3.8281734 0.75331396 2 13
0.58889723 3.7265787 -0.19772527 2 6
0.60445923 3.8207304 0.89305568 4 14
0.60126001 3.7833831 1.0264764 1 15
0.93477321 5.7842607 -1.5699965 3 0
0.61734009 3.8157959 0.067471005 3 8
0.55269098 3.4086506 -0.79722655 37 1
0.61346304 3.7792797 0.20065607 3 9
0.60526085 3.7205377 -0.73270655 2 2
0.60658395 3.7204766 0.32979733 2 10
0.61795855 3.786082 -0.60759157 1 3
0.61495715 3.759428 0.46773461 1 11
0.56071031 3.420316 -0.42556778 16 4
0.61198652 3.7290115 0.59851831 3 12
0.56262869 3.4207978 -0.30330199 24 5
0.63029331 3.8238661 0.75331396 2 13
0.61229867 3.7106605 -0.19709724 2 6
0.64002061 3.8702509 0.90565288 4 14
0.63068032 3.805506 -0.067331389 2 7
0.62636471 3.7753918 1.0254411 1 15
0.97540849 5.7853837 -1.572067 3 0
0.64163238 3.7975907 0.067226671 3 8
0.57913005 3.4240243 -0.80172557 31 1
0.63983244 3.774905 0.20065607 4 9
0.6338504 3.7317057 -0.7357595 2 2
0.63824016 3.7535815 0.33310926 2 10
0.64437532 3.7816758 -0.60759157 1 3
0.63784486 3.7354755 0.46529719 3 11
0.58397871 3.41642 -0.42556778 15 4
0.63867027 3.7285426 0.59914404 1 12
0.58683366 3.4187503 -0.30347627 26 5
0.65697199 3.8233573 0.7540772 2 13
0.64225608 3.7299147 -0.19835329 2 6
0.65642279 3.8042367 0.89125609 4 14
0.65929812 3.8089976 1.0357939 1 15
1.0084161 5.7365742 -1.5606788 4 0
0.6726386 3.8186207 0.067680433 3 8
0.6050505 3.4314125 -0.804425 33 1
0.67034078 3.7939479 0.20191215 4 9
0.66125619 3.7349224 -0.73728597 2 2
0.66408181 3.7470725 0.33293492 2 10
1.7857016 10.05537 -1.6175325 3 3
0.66599452 3.7426579 0.46675962 3 11
0.60990429 3.423986 -0.42703021 17 4
0.66815579 3.7434392 0.60227275 1 12
0.61173904 3.420454 -0.30399922 24 5
0.68641585 3.8341377 0.75713015 2 13
0.67251199 3.7489305 -0.19960935 2 6
0.69399762 3.8609374 0.90565288 4 14
0.68804562 3.824002 -0.06782005 2 7
0.68176067 3.7814875 1.0295821 1 15
1.0526133 5.7521977 -1.5668906 3 0
0.69567305 3.794163 0.067331389 3 8
0.62828803 3.4232714 -0.80352521 34 1
0.69464201 3.7773898 0.20128411 3 9
0.69016075 3.745661 -0.74033892 2 2
0.68950063 3.7384267 0.33258632 2 10
1.8730884 10.135899 -1.6325504 3 3
0.69644392 3.7613401 0.46968448 1 11
0.63741094 3.439163 -0.42946759 15 4
0.70076549 3.7736425 0.60790437 1 12
0.63646364 3.424046 -0.30469647 24 5
0.71316648 3.8292522 0.75713015 2 13
0.70599729 3.783411 -0.20170279 2 6
0.72026026 3.8561242 0.90565288 4 14
0.70671791 3.7690411 1.0275117 1 15
1.0970746 5.7674832 -1.5731021 3 0
0.71924067 3.7775526 0.067121953 2 8
0.65582156 3.4379444 -0.80802423 27 1
0.7203396 3.7725737 0.20128411 2 9
0.7134257 3.7293072 -0.73804927 2 2
0.72233552 3.7687435 0.33572391 2 10
1.9517099 10.173355 -1.640685 3 3
0.72128111 3.7526138 0.46919701 1 11
0.66102988 3.4326797 -0.42922387 11 4
0.72568798 3.7649059 0.60727865 1 12
0.65808588 3.4077818 -0.30365062 23 5
0.7301845 3.774065 0.74720806 2 13
0.72717535 3.7549882 -0.20044672 2 6
0.74716175 3.8510022 0.90565288 4 14
0.73602861 3.7865415 -0.067331389 2 7
0.73235667 3.7641432 1.0275117 1 15
1.1355623 5.7560911 -1.572067 3 0
0.74791998 3.7842104 0.067331389 2 8
0.67467123 3.41046 -0.80262536 32 1
0.74976408 3.7831266 0.20212148 2 9
0.74479651 3.7511947 -0.74339187 2 2
0.74486321 3.7481065 0.33432943 2 10
0.75291425 3.7817137 -0.61072022 1 3
0.7428022 3.7241256 0.46627215 1 11
0.68399155 3.4261544 -0.42898014 11 4
0.75272906 3.7636218 0.60790437 1 12
0.68752402 3.4344816 -0.30643961 27 5
0.76126313 3.7959561 0.75255072 2 13
0.75258553 3.745904 -0.20023739 2 6
0.7733593 3.8458269 0.90565288 4 14
0.76731449 3.808888 -0.06782005 2 7
0.7647323 3.7892375 1.0357939 1 15
0.77426207 3.7853298 -1.0352762 2 0
0.77446496 3.7829494 0.067401193 3 8
0.70198631 3.422848 -0.80667448 36 1
0.77710587 3.7857606 0.20254017 1 9
0.76873112 3.7383463 -0.7418654 2 2
0.77543366 3.7642803 0.33624685 2 10
0.77863812 3.7765012 -0.61072022 1 3
0.77536017 3.7539768 0.47065943 1 11
0.71151382 3.4387908 -0.43117377 10 4
0.78073156 3.7700174 0.60978162 1 12
0.71148449 3.4295981 -0.30643961 25 5
0.78934324 3.7982376 0.7540772 2 13
0.78701365 3.7837133 -0.20254017 2 6
0.7938292 3.8098102 0.89845449 4 14
0.79388684 3.8034382 -0.06782005 2 7
0.78576642 3.7612519 1.0295821 1 15
1.2212155 5.7701273 -1.5803492 3 0
0.80334264 3.7891879 0.067610621 2 8
0.72607768 3.421803 -0.80757427 39 1
0.80517572 3.788058 0.20295887 2 9
0.79644638 3.7405691 -0.74339187 2 2
0.79813153 3.7452745 0.33502665 2 10
0.80910808 3.790292 -0.61384892 1 3
0.80487156 3.7640016 0.47260937 1 11
0.73490286 3.4338682 -0.43117377 10 4
0.79378361 3.7026668 0.59976977 1 12
0.73541021 3.4245474 -0.30643961 27 5
0.81847906 3.8081322 0.75713015 2 13
0.81088763 3.7664118 -0.20191215 2 6
0.82697856 3.8346546 0.90565288 4 14
0.81282043 3.7594514 1.0306175 1 15
1.2602293 5.7557998 -1.5787963 2 0
0.82977659 3.7834871 0.067610621 2 8
0.75245547 3.4280713 -0.81027371 39 1
0.82559741 3.7550352 0.20149344 4 9
0.82254106 3.7349179 -0.74339187 2 2
0.81997043 3.7201543 0.33328354 2 10
0.82618046 3.7421143 -0.60696578 1 3
0.82855779 3.7466609 0.47114691 1 11
0.76100272 3.4383447 -0.43239245 8 4
0.83842593 3.7818913 0.61353606 1 12
0.75929856 3.4193304 -0.30643961 27 5
0.85185975 3.8329892 0.76323599 2 13
0.84497231 3.7957511 -0.20379624 2 6
0.84949011 3.809767 0.90115386 4 14
0.84363735 3.7804208 -0.067610621 2 7
0.83989125 3.7574558 1.0316528 1 15
1.3025132 5.7562819 -1.5813844 3 0
0.85882217 3.7893038 0.06782005 3 8
0.77550745 3.4189339 -0.80937392 36 1
0.86064214 3.7881324 0.20358689 3 9
0.84946871 3.7329125 -0.74415511 2 2
0.84857666 3.7259951 0.33432943 2 10
0.85228699 3.7362549 -0.60696578 1 3
0.85911399 3.760138 0.47358429 1 11
0.78675997 3.4406886 -0.43336743 8 4
0.8595143 3.75284 0.60978162 3 12
0.78671527 3.4294815 -0.30783406 27 5
0.87420356 3.8078146 0.75941986 2 13
0.86608005 3.7664018 -0.20254017 2 6
0.88044035 3.8227336 0.90565288 4 14
0.88258541 3.8290002 -0.068587959 2 7
0.87044841 3.7703235 1.0368291 1 15
0.87679958 3.7529829 -1.032688 3 0
0.88889867 3.7987931 0.06809929 2 8
0.80202317 3.4248207 -0.81207329 39 1
0.88478518 3.7723098 0.20306353 4 9
0.88179255 3.753649 -0.74949777 2 2
0.88323009 3.7568312 0.33764133 2 10
0.88649809 3.7648244 -0.61259741 1 3
0.89172304 3.7810979 0.47699666 1 11
0.81075972 3.4351127 -0.43336743 7 4
0.88569307 3.746748 0.60978162 1 12
0.81064004 3.4239051 -0.30783406 27 5
0.90257639 3.8092601 0.76094633 2 13
0.8905105 3.7524903 -0.20212148 2 6
0.90079612 3.7899516 0.89935428 4 14
0.9157756 3.8499804 -0.069076627 2 7
0.8989858 3.7735517 1.0394174 1 15
0.91067171 3.7786977 -1.0414879 2 0
0.9135226 3.784719 0.067959674 3 8
0.83048743 3.438081 -0.81657231 36 1
0.91157067 3.7679818 0.2031682 3 9
0.90242881 3.7245049 -0.74491841 2 2
0.91178554 3.7602546 0.3385129 2 10
0.90809816 3.7393479 -0.60946876 1 3
0.91246867 3.7516339 0.47407177 1 11
0.83988571 3.4505851 -0.43604854 5 4
0.9118287 3.7404735 0.60978162 1 12
0.83392549 3.4183083 -0.30783406 27 5
0.93846744 3.8410091 0.76857871 2 13
0.92238098 3.7694623 -0.20337754 2 6
0.9426294 3.8434937 -0.069076627 2 7
0.93406367 3.8028295 1.0492525 1 15
0.93656415 3.7703733 -1.0409703 3 0
0.93926144 3.7784135 0.067959674 2 8
0.85541105 3.4359813 -0.8174721 39 1
0.94588685 3.7965744 0.2050523 3 9
0.94344246 3.7811365 -0.75751179 3 2
0.9467091 3.7885904 0.34165049 2 10
0.9421562 3.7675745 -0.61510038 1 3
0.93991321 3.7530389 0.47504675 1 11
0.86685246 3.4561903 -0.43751097 5 4
0.94400072 3.7610033 0.61416179 3 12
0.85679799 3.4085386 -0.30748546 27 5
0.96525991 3.8343637 0.76857871 2 13
0.94655383 3.7572863 -0.20306353 2 6
0.96631384 3.8300786 0.9119516 4 14
0.96943909 3.8368192 -0.069076627 2 7
0.95235002 3.766417 1.0409703 1 15
1.4631664 5.7235398 -1.5829374 2 0
0.96660876 3.7756383 0.068029478 2 8
0.87974828 3.4338546 -0.81837195 36 1
0.96442711 3.7589245 0.20337754 4 9
0.95858145 3.7307234 -0.74873453 2 2
0.95858109 3.7280297 0.33676979 2 10
0.97139144 3.7723835 -0.61697763 1 3
0.96609145 3.7463856 0.47504675 1 11
0.89432615 3.4655869 -0.4394609 5 4
0.97122318 3.7581465 0.61478752 1 12
0.88197482 3.4103434 -0.30818272 27 5
0.98444617 3.8010967 0.76323599 2 13
0.98078436 3.7815194 -0.20473827 2 6
0.98550785 3.7970045 0.90565288 4 14
0.99553305 3.8301315 -0.069076627 2 7
0.98008126 3.765285 1.0425231 1 15
1.4740884 5.6029572 -1.5523967 3 0
0.99228817 3.768971 0.068029478 2 8
0.90270436 3.4238605 -0.8174721 39 1
0.99508798 3.771584 0.20442426 4 9
1.0010028 3.7886481 -0.76170951 2 2
0.99274004 3.752064 0.33955875 3 10
0.99603373 3.7618651 -0.6163519 1 3
0.99156994 3.7397225 0.47504675 1 11
0.92614007 3.4880378 -0.44311696 3 4
0.99881059 3.7590852 0.61603898 3 12
0.90832353 3.4137299 -0.30905426 30 5
1.0271323 3.8548379 0.77544779 2 13
1.0090744 3.7844048 -0.20526163 2 6
1.0250611 3.8389845 0.91735035 4 14
1.0222481 3.8230882 -0.069076627 2 7
1.0151738 3.7939847 1.0523583 1 15
1.0207202 3.7724869 -1.0471818 3 0
1.0265542 3.7887952 0.068518147 2 8
0.93066502 3.4325216 -0.82107133 36 1
1.019958 3.7566571 0.20400558 3 9
1.0296334 3.7870717 -0.7628544 3 2
1.0236176 3.7623448 0.34112757 2 10
1.0208505 3.7470176 -0.61510038 1 3
1.0235285 3.7516828 0.47748414 1 11
0.96667409 3.540853 -0.45067286 2 4
1.0319355 3.7747068 0.61979342 1 12
0.93588483 3.4186728 -0.31010011 28 5
1.0374222 3.7869809 0.76323599 2 13
1.031374 3.7597525 -0.2043196 2 6
1.0390851 3.7826936 0.90565288 4 14
1.0340729 3.7618694 -0.06809929 2 7
1.0443478 3.7940738 1.0544289 1 15
1.5770206 5.6711679 -1.5772433 3 0
1.0561967 3.7930954 0.068727575 2 8
0.95669985 3.4334493 -0.82287097 36 1
1.052599 3.7725306 0.20526163 2 9
1.0534056 3.7703373 -0.76094633 2 2
1.0450289 3.737838 0.33955875 2 10
1.0523102 3.758822 -0.61822909 1 3
1.0604136 3.7826734 0.4823589 1 11
0.99137038 3.534018 -0.45067286 2 4
1.0625362 3.7826247 0.62229639 1 12
0.96080619 3.4158921 -0.31044877 31 5
1.0808563 3.8401206 0.77544779 2 13
1.0608459 3.7639952 -0.20494762 2 6
1.1103077 3.9316061 -0.071310528 2 7
1.0676576 3.7755361 1.0513231 1 15
1.6091442 5.6340151 -1.5699965 3 0
1.084851 3.7933195 0.068867192 2 8
0.98386186 3.4379282 -0.82557034 36 1
1.0822117 3.7766101 0.20588967 2 9
1.0802433 3.7647784 -0.76132792 3 2
1.0749472 3.7438562 0.34077895 2 10
1.0807112 3.7589772 -0.61948055 2 3
1.0867939 3.7751787 0.4823589 1 11
1.0132725 3.5174727 -0.44945419 2 4
1.0801567 3.7447469 0.61729044 1 12
0.98182666 3.4016154 -0.30975151 30 5
1.1076373 3.8324819 0.77544779 2 13
1.0993123 3.7987053 -0.20725042 2 6
1.1019822 3.8054442 0.91465092 4 14
1.0945286 3.7698455 1.0518407 1 15
1.1038501 3.7651138 -1.0513231 3 0
1.1151496 3.801198 0.069146432 3 8
1.0100361 3.4384549 -0.82736999 36 1
1.1123991 3.7844858 0.20672706 3 9
1.1063987 3.7592211 -0.76170951 2 2
1.1095061 3.7649276 0.34339362 2 10
2.9198847 9.9017773 -1.6350533 2 3
1.1158385 3.7791169 0.48382133 1 11
3.7240458 12.596391 -1.612819 2 4
1.1179497 3.778981 0.62417358 1 12
1.0123394 3.4176025 -0.31184325 33 5
1.1343662 3.8246558 0.77544779 2 13
1.1171882 3.7643285 -0.20578501 2 6
